ply
format ascii 1.0
element vertex 1577
property float32 x
property float32 y
property float32 z
property float32 I
end_header
-0.3659 -0.5995 -0.1450 0.9971
-0.3850 -0.6521 -0.1564 0.9969
-6.4594 -11.7091 -2.7612 0.9468
-5.7644 -12.0664 -2.7612 0.9468
-4.1324 -12.7182 -2.7612 0.9468
-3.9461 -12.7772 -2.7612 0.9468
-3.7590 -12.8334 -2.7612 0.9468
-3.5711 -12.8870 -2.7612 0.9468
-2.8122 -13.0736 -2.7612 0.9468
-2.6208 -13.1133 -2.7612 0.9468
-2.4289 -13.1502 -2.7612 0.9468
-2.2366 -13.1843 -2.7612 0.9468
-2.0437 -13.2156 -2.7612 0.9468
-1.8503 -13.2440 -2.7612 0.9468
-1.6567 -13.2696 -2.7612 0.9468
-1.4626 -13.2924 -2.7612 0.9468
-1.2682 -13.3124 -2.7612 0.9468
-1.0736 -13.3295 -2.7612 0.9468
-0.8787 -13.3438 -2.7612 0.9468
-0.4884 -13.3637 -2.7612 0.9468
0.0977 -13.3723 -2.7612 0.9468
1.4626 -13.2925 -2.7612 0.9468
1.6567 -13.2696 -2.7612 0.9468
1.8503 -13.2440 -2.7612 0.9468
2.0437 -13.2156 -2.7612 0.9468
2.2366 -13.1843 -2.7612 0.9468
2.6208 -13.1133 -2.7612 0.9468
2.8122 -13.0737 -2.7612 0.9468
3.3824 -12.9379 -2.7612 0.9468
4.3178 -12.6564 -2.7612 0.9468
5.0497 -12.3826 -2.7612 0.9468
5.2301 -12.3075 -2.7612 0.9468
5.7644 -12.0664 -2.7612 0.9468
5.1916 -9.4109 -2.2193 0.9571
5.2634 -9.2199 -2.1921 0.9576
5.6624 -8.9804 -2.1921 0.9576
5.8184 -8.9357 -2.2017 0.9574
6.0983 -9.0729 -2.2573 0.9563
6.4790 -9.0560 -2.2992 0.9555
7.0821 -9.0343 -2.3703 0.9542
7.2939 -9.0296 -2.3968 0.9537
7.5105 -9.0248 -2.4244 0.9532
7.9593 -9.0148 -2.4831 0.9521
8.1472 -8.9602 -2.5006 0.9517
9.6213 -9.4127 -2.7792 0.9465
10.0245 -8.9820 -2.7792 0.9465
10.2827 -8.6852 -2.7792 0.9465
10.5321 -8.3811 -2.7792 0.9465
10.7725 -8.0697 -2.7792 0.9465
11.0037 -7.7516 -2.7792 0.9465
6.1933 -4.0974 -1.5333 0.9701
6.3788 -3.9571 -1.5500 0.9698
6.5689 -3.8139 -1.5684 0.9695
6.5751 -3.6901 -1.5569 0.9697
6.7640 -3.6671 -1.5887 0.9691
6.8298 -3.4486 -1.5798 0.9692
6.8747 -2.9809 -1.5472 0.9699
12.5001 -4.9914 -2.7792 0.9465
10.6710 -3.7277 -2.3340 0.9549
10.6971 -3.2183 -2.3066 0.9554
11.4282 -2.7216 -2.4257 0.9532
13.0658 -2.9105 -2.7640 0.9468
13.1068 -2.7193 -2.7640 0.9468
13.2535 -2.3480 -2.7792 0.9465
13.3680 -1.5698 -2.7792 0.9465
13.3895 -1.3743 -2.7792 0.9465
13.4081 -1.1785 -2.7792 0.9465
13.4239 -0.9825 -2.7792 0.9465
13.4369 -0.7862 -2.7792 0.9465
13.4469 -0.5898 -2.7792 0.9465
13.4541 -0.3932 -2.7792 0.9465
13.4584 -0.1967 -2.7792 0.9465
13.4584 0.1967 -2.7792 0.9465
13.4541 0.3933 -2.7792 0.9465
13.4469 0.5898 -2.7792 0.9465
13.4368 0.7862 -2.7792 0.9465
13.4081 1.1786 -2.7792 0.9465
13.3895 1.3743 -2.7792 0.9465
13.3436 1.7650 -2.7792 0.9465
13.3164 1.9598 -2.7792 0.9465
13.2863 2.1541 -2.7792 0.9465
13.2177 2.5414 -2.7792 0.9465
13.1792 2.7343 -2.7792 0.9465
13.1378 2.9266 -2.7792 0.9465
13.0937 3.1182 -2.7792 0.9465
12.2464 3.1063 -2.6087 0.9497
10.3705 2.9555 -2.2266 0.9569
10.0317 3.0182 -2.1631 0.9581
9.7469 3.0885 -2.1112 0.9591
9.5205 3.1706 -2.0719 0.9598
9.4274 3.2933 -2.0619 0.9600
9.4637 3.6196 -2.0921 0.9595
7.9748 3.1845 -1.7731 0.9655
7.7476 3.2258 -1.7329 0.9663
7.0442 3.4286 -1.6177 0.9685
6.8964 3.4822 -1.5952 0.9689
6.9014 3.7418 -1.6210 0.9684
6.9219 3.8848 -1.6390 0.9681
6.9515 4.1731 -1.6742 0.9674
6.9685 4.3230 -1.6933 0.9671
7.0351 4.9559 -1.7769 0.9655
7.0614 5.2898 -1.8218 0.9646
7.1103 5.6582 -1.8763 0.9636
7.1982 6.2624 -1.9701 0.9618
9.9596 8.9237 -2.7612 0.9468
9.8281 9.0683 -2.7612 0.9468
9.6946 9.2109 -2.7612 0.9468
9.5589 9.3516 -2.7612 0.9468
9.4213 9.4902 -2.7612 0.9468
9.1491 9.7714 -2.7640 0.9468
8.7121 10.1630 -2.7640 0.9468
8.5627 10.2892 -2.7640 0.9468
8.2584 10.5350 -2.7640 0.9468
8.1035 10.6545 -2.7640 0.9468
7.7888 10.8868 -2.7640 0.9468
7.6289 10.9994 -2.7640 0.9468
7.4673 11.1097 -2.7640 0.9468
6.0734 9.3274 -2.2983 0.9556
5.9423 9.4243 -2.3005 0.9555
6.9733 11.4262 -2.7640 0.9468
6.4659 11.7209 -2.7640 0.9468
6.2940 11.8140 -2.7640 0.9468
6.1207 11.9048 -2.7640 0.9468
5.7702 12.0786 -2.7640 0.9468
5.4148 12.2420 -2.7640 0.9468
5.0548 12.3950 -2.7640 0.9468
4.3221 12.6691 -2.7640 0.9468
4.1365 12.7309 -2.7640 0.9468
3.7627 12.8463 -2.7640 0.9468
3.5747 12.9000 -2.7640 0.9468
3.3857 12.9506 -2.7639 0.9468
2.2388 13.1974 -2.7640 0.9468
2.0457 13.2287 -2.7640 0.9468
1.4640 13.3057 -2.7640 0.9468
0.8796 13.3571 -2.7640 0.9468
0.6843 13.3685 -2.7640 0.9468
0.2934 13.3828 -2.7640 0.9468
0.0978 13.3857 -2.7640 0.9468
-0.0978 13.3857 -2.7640 0.9468
-0.2934 13.3827 -2.7640 0.9468
-0.4889 13.3771 -2.7640 0.9468
-0.6843 13.3685 -2.7640 0.9468
-1.2695 13.3257 -2.7640 0.9468
-1.6583 13.2829 -2.7640 0.9468
-2.0457 13.2287 -2.7640 0.9468
-2.2388 13.1974 -2.7640 0.9468
-2.4314 13.1633 -2.7640 0.9468
-2.6235 13.1263 -2.7640 0.9468
-2.8150 13.0866 -2.7640 0.9468
-3.0059 13.0440 -2.7640 0.9468
-3.1962 12.9987 -2.7640 0.9468
-3.3857 12.9506 -2.7640 0.9468
-3.5747 12.9000 -2.7640 0.9468
-3.7628 12.8463 -2.7640 0.9468
-3.9501 12.7900 -2.7640 0.9468
-4.6904 12.5374 -2.7640 0.9468
-4.8731 12.4675 -2.7640 0.9468
-5.0548 12.3950 -2.7640 0.9468
-5.7702 12.0786 -2.7640 0.9468
-5.9460 11.9929 -2.7640 0.9468
-6.4659 11.7208 -2.7640 0.9468
-0.4156 0.7279 -0.1731 0.9966
-0.3659 0.5995 -0.1450 0.9971
-0.3546 0.5623 -0.1373 0.9973
-0.3568 0.5479 -0.1350 0.9973
-0.3645 0.4941 -0.1268 0.9975
-0.3678 0.4692 -0.1231 0.9976
-0.3707 0.4455 -0.1197 0.9976
-0.3720 0.4340 -0.1180 0.9977
-0.3733 0.4228 -0.1165 0.9977
-0.3759 0.4014 -0.1136 0.9978
-0.3778 0.3918 -0.1124 0.9978
-0.3796 0.3823 -0.1112 0.9978
-0.3814 0.3732 -0.1102 0.9978
-0.3842 0.3545 -0.1079 0.9979
-0.3862 0.3360 -0.1057 0.9979
-0.3880 0.3181 -0.1036 0.9980
-0.3888 0.3094 -0.1026 0.9980
-0.3903 0.2924 -0.1007 0.9980
-0.3910 0.2841 -0.0998 0.9980
-0.3916 0.2759 -0.0989 0.9980
-0.3921 0.2678 -0.0981 0.9981
-0.3944 0.2290 -0.0942 0.9981
-0.3948 0.2216 -0.0935 0.9982
-0.3951 0.2142 -0.0928 0.9982
-0.3967 0.1789 -0.0899 0.9982
-0.3983 0.1524 -0.0880 0.9983
-0.3985 0.1458 -0.0876 0.9983
-0.3988 0.1393 -0.0872 0.9983
-0.3991 0.1329 -0.0868 0.9983
-0.3993 0.1265 -0.0865 0.9983
-0.3998 0.1139 -0.0858 0.9983
-0.4004 0.0954 -0.0850 0.9983
-0.4005 0.0892 -0.0847 0.9983
-0.4005 0.0831 -0.0845 0.9983
-0.4005 0.0771 -0.0842 0.9983
-0.4003 0.0589 -0.0836 0.9983
-0.4000 0.0470 -0.0832 0.9984
-0.3998 0.0411 -0.0830 0.9984
-0.3992 0.0293 -0.0826 0.9984
-0.3989 0.0233 -0.0825 0.9984
-0.3900 0.0000 -0.0850 0.9984
-0.3903 -0.0057 -0.0851 0.9984
-0.3916 -0.0286 -0.0856 0.9984
-0.3918 -0.0345 -0.0858 0.9984
-0.3923 -0.0519 -0.0863 0.9984
-0.3925 -0.0695 -0.0869 0.9984
-0.3926 -0.0755 -0.0872 0.9984
-0.3926 -0.0814 -0.0874 0.9984
-0.3926 -0.0874 -0.0877 0.9984
-0.3924 -0.0995 -0.0883 0.9983
-0.3922 -0.1118 -0.0889 0.9983
-0.3910 -0.1430 -0.0908 0.9983
-0.3899 -0.1623 -0.0921 0.9983
-0.3895 -0.1689 -0.0926 0.9983
-0.3890 -0.1754 -0.0931 0.9983
-0.3878 -0.1887 -0.0941 0.9982
-0.3874 -0.1956 -0.0946 0.9982
-0.3871 -0.2025 -0.0953 0.9982
-0.3868 -0.2097 -0.0959 0.9982
-0.3861 -0.2242 -0.0973 0.9982
-0.3856 -0.2314 -0.0981 0.9982
-0.3852 -0.2389 -0.0988 0.9981
-0.3841 -0.2541 -0.1004 0.9981
-0.3822 -0.2777 -0.1030 0.9981
-0.3815 -0.2857 -0.1039 0.9981
-0.3790 -0.3107 -0.1069 0.9980
-0.3780 -0.3193 -0.1079 0.9980
-0.3770 -0.3280 -0.1090 0.9980
-0.3738 -0.3551 -0.1124 0.9979
-0.3722 -0.3641 -0.1136 0.9979
-0.3704 -0.3730 -0.1146 0.9979
-0.3665 -0.3914 -0.1169 0.9978
-0.3645 -0.4009 -0.1181 0.9978
-0.3624 -0.4105 -0.1194 0.9978
-0.3608 -0.4209 -0.1209 0.9977
-0.3579 -0.4430 -0.1242 0.9977
-0.3528 -0.4782 -0.1296 0.9976
-0.3509 -0.4904 -0.1315 0.9975
-0.3582 -0.6275 -0.1576 0.9970
-0.3769 -0.6832 -0.1702 0.9968
-0.4094 -0.7684 -0.1899 0.9964
-5.4583 -11.4256 -2.7612 0.9495
-5.2908 -11.5041 -2.7612 0.9495
-5.1221 -11.5803 -2.7612 0.9495
-4.6097 -11.7936 -2.7612 0.9495
-4.2631 -11.9232 -2.7612 0.9495
-3.7365 -12.0986 -2.7612 0.9495
-3.5594 -12.1520 -2.7612 0.9495
-3.2027 -12.2507 -2.7612 0.9495
-3.0234 -12.2962 -2.7612 0.9495
-2.8434 -12.3391 -2.7612 0.9495
-2.6628 -12.3793 -2.7612 0.9495
-2.3000 -12.4518 -2.7612 0.9495
-2.1178 -12.4841 -2.7612 0.9495
-1.9351 -12.5137 -2.7612 0.9495
-1.7521 -12.5407 -2.7612 0.9495
-1.2008 -12.6054 -2.7612 0.9495
-1.0165 -12.6216 -2.7612 0.9495
-0.8320 -12.6352 -2.7612 0.9495
-0.6473 -12.6459 -2.7612 0.9495
-0.2775 -12.6594 -2.7612 0.9495
0.2775 -12.6595 -2.7612 0.9495
0.4625 -12.6540 -2.7612 0.9495
0.6473 -12.6459 -2.7612 0.9495
0.8320 -12.6351 -2.7612 0.9495
1.0166 -12.6216 -2.7612 0.9495
1.5687 -12.5649 -2.7612 0.9495
1.7521 -12.5407 -2.7612 0.9495
2.1178 -12.4842 -2.7612 0.9495
2.3000 -12.4518 -2.7612 0.9495
2.4816 -12.4169 -2.7612 0.9495
2.6629 -12.3793 -2.7612 0.9495
2.8434 -12.3391 -2.7612 0.9495
3.0234 -12.2962 -2.7612 0.9495
3.5594 -12.1519 -2.7612 0.9495
3.7365 -12.0986 -2.7612 0.9495
3.9129 -12.0428 -2.7612 0.9495
5.2908 -11.5042 -2.7612 0.9495
5.1990 -10.4861 -2.5523 0.9532
5.1114 -9.9418 -2.4377 0.9553
5.2443 -9.1864 -2.3067 0.9576
5.3635 -9.0843 -2.3005 0.9577
5.5055 -9.0211 -2.3046 0.9577
5.6156 -8.9062 -2.2960 0.9578
5.7646 -8.8530 -2.3037 0.9577
6.2781 -9.0518 -2.4022 0.9559
6.6716 -9.0430 -2.4506 0.9550
6.8745 -9.0385 -2.4763 0.9546
8.1857 -9.0026 -2.6533 0.9514
8.9791 -9.0449 -2.7792 0.9492
9.1103 -8.9128 -2.7792 0.9492
9.3669 -8.6428 -2.7792 0.9492
9.6154 -8.3654 -2.7792 0.9492
9.8557 -8.0809 -2.7792 0.9492
9.9727 -7.9360 -2.7792 0.9492
10.0876 -7.7894 -2.7792 0.9492
10.3109 -7.4914 -2.7792 0.9492
6.2103 -4.1087 -1.6238 0.9700
6.3029 -4.0388 -1.6324 0.9698
6.4914 -3.8968 -1.6510 0.9695
6.6244 -3.7178 -1.6565 0.9694
6.8427 -3.5815 -1.6842 0.9689
6.8663 -3.4670 -1.6773 0.9690
6.8965 -2.9903 -1.6392 0.9697
7.2446 -3.0163 -1.7113 0.9684
10.7443 -4.2903 -2.5228 0.9537
10.6545 -4.0750 -2.4875 0.9544
10.7592 -3.5830 -2.4729 0.9546
11.0653 -3.3290 -2.5198 0.9538
11.1171 -2.9933 -2.5106 0.9540
12.3719 -2.7560 -2.7640 0.9494
12.4793 -2.5891 -2.7792 0.9492
12.5158 -2.4064 -2.7792 0.9492
12.5496 -2.2233 -2.7792 0.9492
12.6092 -1.8557 -2.7792 0.9492
12.6784 -1.3013 -2.7792 0.9492
12.6960 -1.1159 -2.7792 0.9492
12.7328 -0.5585 -2.7792 0.9492
12.7436 -0.1862 -2.7792 0.9492
12.7437 0.1862 -2.7792 0.9492
12.7328 0.5585 -2.7792 0.9492
12.6784 1.3014 -2.7792 0.9492
12.6580 1.4864 -2.7792 0.9492
12.6350 1.6712 -2.7792 0.9492
12.6092 1.8557 -2.7792 0.9492
12.5496 2.2233 -2.7792 0.9492
12.4401 2.7711 -2.7792 0.9492
12.3538 3.1335 -2.7792 0.9492
10.3440 2.9480 -2.3454 0.9569
9.6910 3.0708 -2.2168 0.9592
9.3962 3.2825 -2.1704 0.9601
9.4139 3.4438 -2.1859 0.9598
8.1647 3.1228 -1.9062 0.9648
7.7059 3.2084 -1.8202 0.9664
7.4920 3.2486 -1.7807 0.9671
7.1078 3.3320 -1.7118 0.9684
6.9592 3.3872 -1.6878 0.9688
6.8205 3.4439 -1.6662 0.9692
6.8863 3.9982 -1.7364 0.9679
6.9015 4.1430 -1.7553 0.9676
6.9417 4.5927 -1.8150 0.9665
6.9687 4.9091 -1.8588 0.9657
7.0878 5.8114 -1.9987 0.9632
9.4307 8.4497 -2.7612 0.9495
9.3062 8.5867 -2.7612 0.9495
9.1797 8.7217 -2.7612 0.9495
9.0513 8.8549 -2.7612 0.9495
8.7887 9.1157 -2.7612 0.9495
8.3808 9.4920 -2.7612 0.9495
8.2494 9.6232 -2.7640 0.9494
8.1079 9.7427 -2.7640 0.9494
7.9647 9.8602 -2.7640 0.9494
7.5250 10.1997 -2.7640 0.9494
7.3751 10.3086 -2.7640 0.9494
7.2237 10.4153 -2.7640 0.9494
7.0708 10.5197 -2.7640 0.9494
6.0367 9.2709 -2.4125 0.9557
5.0224 8.5066 -2.1542 0.9604
6.1225 11.0984 -2.7640 0.9494
5.7956 11.2725 -2.7640 0.9494
5.2960 11.5157 -2.7640 0.9494
5.1272 11.5918 -2.7640 0.9494
4.7863 11.7367 -2.7640 0.9494
4.6143 11.8054 -2.7640 0.9494
4.4413 11.8716 -2.7640 0.9494
4.2674 11.9352 -2.7640 0.9494
4.0925 11.9963 -2.7640 0.9494
3.9168 12.0548 -2.7640 0.9494
3.7403 12.1107 -2.7640 0.9494
3.5629 12.1641 -2.7640 0.9494
2.4841 12.4293 -2.7640 0.9494
1.7538 12.5532 -2.7640 0.9494
1.2021 12.6180 -2.7640 0.9494
1.0176 12.6343 -2.7640 0.9494
0.8328 12.6477 -2.7640 0.9494
0.6479 12.6586 -2.7640 0.9494
0.4629 12.6667 -2.7640 0.9494
0.2778 12.6721 -2.7640 0.9494
0.0926 12.6748 -2.7640 0.9494
-0.0926 12.6748 -2.7640 0.9494
-1.0176 12.6343 -2.7640 0.9494
-1.2020 12.6180 -2.7640 0.9494
-1.3863 12.5991 -2.7640 0.9494
-1.5702 12.5775 -2.7640 0.9494
-2.3023 12.4643 -2.7640 0.9494
-2.4841 12.4293 -2.7640 0.9494
-2.6655 12.3917 -2.7640 0.9494
-3.2060 12.2630 -2.7640 0.9494
-3.5629 12.1641 -2.7640 0.9494
-4.0926 11.9963 -2.7640 0.9494
-4.2674 11.9352 -2.7640 0.9494
-4.4413 11.8716 -2.7640 0.9494
-4.6143 11.8054 -2.7640 0.9494
-4.7863 11.7367 -2.7640 0.9494
-4.9573 11.6655 -2.7640 0.9494
-5.1272 11.5918 -2.7640 0.9494
-5.4637 11.4371 -2.7640 0.9494
-5.6303 11.3561 -2.7640 0.9494
-5.7956 11.2726 -2.7640 0.9494
-0.4093 0.7683 -0.1898 0.9964
-0.3582 0.6275 -0.1576 0.9970
-0.3420 0.5792 -0.1467 0.9973
-0.3468 0.5159 -0.1355 0.9975
-0.3489 0.5030 -0.1335 0.9975
-0.3546 0.4661 -0.1277 0.9976
-0.3594 0.4318 -0.1225 0.9977
-0.3608 0.4209 -0.1209 0.9977
-0.3624 0.4105 -0.1194 0.9978
-0.3645 0.4009 -0.1181 0.9978
-0.3665 0.3914 -0.1169 0.9978
-0.3684 0.3821 -0.1157 0.9978
-0.3737 0.3551 -0.1124 0.9979
-0.3760 0.3369 -0.1101 0.9979
-0.3771 0.3280 -0.1090 0.9980
-0.3780 0.3193 -0.1079 0.9980
-0.3815 0.2857 -0.1039 0.9981
-0.3835 0.2619 -0.1013 0.9981
-0.3841 0.2541 -0.1004 0.9981
-0.3847 0.2465 -0.0996 0.9981
-0.3852 0.2389 -0.0988 0.9981
-0.3856 0.2315 -0.0981 0.9982
-0.3861 0.2242 -0.0973 0.9982
-0.3864 0.2169 -0.0966 0.9982
-0.3871 0.2026 -0.0953 0.9982
-0.3874 0.1956 -0.0946 0.9982
-0.3878 0.1888 -0.0941 0.9982
-0.3890 0.1755 -0.0931 0.9983
-0.3903 0.1559 -0.0916 0.9983
-0.3907 0.1495 -0.0912 0.9983
-0.3910 0.1430 -0.0908 0.9983
-0.3918 0.1242 -0.0896 0.9983
-0.3922 0.1118 -0.0889 0.9983
-0.3925 0.0996 -0.0883 0.9983
-0.3925 0.0935 -0.0880 0.9983
-0.3926 0.0875 -0.0877 0.9984
-0.3926 0.0755 -0.0872 0.9984
-0.3926 0.0696 -0.0869 0.9984
-0.3915 0.0287 -0.0856 0.9984
-0.3907 0.0114 -0.0852 0.9984
-0.3838 -0.0112 -0.0882 0.9984
-0.3849 -0.0338 -0.0887 0.9984
-0.3850 -0.0395 -0.0889 0.9984
-0.3852 -0.0452 -0.0891 0.9984
-0.3853 -0.0509 -0.0893 0.9984
-0.3854 -0.0567 -0.0895 0.9984
-0.3855 -0.0625 -0.0897 0.9984
-0.3855 -0.0683 -0.0899 0.9984
-0.3855 -0.0800 -0.0904 0.9984
-0.3853 -0.0977 -0.0913 0.9984
-0.3852 -0.1037 -0.0916 0.9984
-0.3848 -0.1158 -0.0923 0.9984
-0.3843 -0.1280 -0.0930 0.9983
-0.3840 -0.1341 -0.0934 0.9983
-0.3837 -0.1403 -0.0938 0.9983
-0.3830 -0.1529 -0.0947 0.9983
-0.3815 -0.1721 -0.0961 0.9983
-0.3810 -0.1786 -0.0967 0.9983
-0.3803 -0.1851 -0.0972 0.9983
-0.3795 -0.1917 -0.0977 0.9983
-0.3792 -0.1985 -0.0983 0.9982
-0.3788 -0.2054 -0.0990 0.9982
-0.3770 -0.2339 -0.1019 0.9982
-0.3752 -0.2562 -0.1044 0.9981
-0.3730 -0.2794 -0.1070 0.9981
-0.3721 -0.2873 -0.1080 0.9981
-0.3713 -0.2954 -0.1090 0.9981
-0.3703 -0.3036 -0.1100 0.9980
-0.3693 -0.3119 -0.1110 0.9980
-0.3635 -0.3555 -0.1168 0.9979
-0.3595 -0.3729 -0.1190 0.9979
-0.3575 -0.3818 -0.1201 0.9979
-0.3555 -0.3909 -0.1214 0.9978
-0.3533 -0.4002 -0.1226 0.9978
-0.3376 -0.4867 -0.1361 0.9976
-0.3353 -0.4989 -0.1381 0.9975
-0.3330 -0.5114 -0.1402 0.9975
-0.3306 -0.5243 -0.1424 0.9975
-0.3253 -0.5510 -0.1470 0.9974
-0.3335 -0.6045 -0.1586 0.9972
-5.3745 -10.8401 -2.7792 0.9516
-5.2155 -10.9175 -2.7792 0.9516
-5.0227 -10.9214 -2.7612 0.9519
-4.7014 -11.0634 -2.7612 0.9519
-4.0471 -11.3192 -2.7612 0.9519
-3.8813 -11.3771 -2.7612 0.9519
-3.7147 -11.4326 -2.7612 0.9519
-3.5472 -11.4857 -2.7612 0.9519
-3.3790 -11.5363 -2.7612 0.9519
-2.8702 -11.6733 -2.7612 0.9519
-2.6994 -11.7140 -2.7612 0.9519
-2.3559 -11.7879 -2.7612 0.9519
-2.0105 -11.8516 -2.7612 0.9519
-1.4892 -11.9284 -2.7612 0.9519
-1.3147 -11.9489 -2.7612 0.9519
-1.1400 -11.9668 -2.7612 0.9519
-0.7899 -11.9950 -2.7612 0.9519
-0.6145 -12.0053 -2.7612 0.9519
-0.4390 -12.0130 -2.7612 0.9519
-0.0878 -12.0206 -2.7612 0.9519
0.0878 -12.0207 -2.7612 0.9519
0.2635 -12.0181 -2.7612 0.9519
0.6145 -12.0053 -2.7612 0.9519
0.9650 -11.9822 -2.7612 0.9519
1.1400 -11.9668 -2.7612 0.9519
1.4892 -11.9284 -2.7612 0.9519
1.8371 -11.8798 -2.7612 0.9519
2.0105 -11.8516 -2.7612 0.9519
2.1834 -11.8210 -2.7612 0.9519
2.3559 -11.7879 -2.7612 0.9519
2.5279 -11.7521 -2.7612 0.9519
2.8702 -11.6733 -2.7612 0.9519
3.0405 -11.6301 -2.7612 0.9519
3.3790 -11.5363 -2.7612 0.9519
4.0471 -11.3192 -2.7612 0.9519
4.2121 -11.2589 -2.7612 0.9519
4.3762 -11.1961 -2.7612 0.9519
4.5393 -11.1310 -2.7612 0.9519
4.7015 -11.0635 -2.7612 0.9519
5.1818 -10.8468 -2.7612 0.9519
5.3745 -10.8401 -2.7792 0.9516
5.1369 -9.6422 -2.5095 0.9562
5.3562 -9.0719 -2.4199 0.9577
5.5945 -8.8727 -2.4094 0.9579
5.9528 -8.8564 -2.4512 0.9571
6.2778 -9.0513 -2.5302 0.9558
7.4646 -9.5223 -2.7792 0.9516
8.0081 -9.0700 -2.7792 0.9516
8.1397 -8.9520 -2.7792 0.9516
8.3978 -8.7104 -2.7792 0.9516
8.5242 -8.5867 -2.7792 0.9516
8.7715 -8.3339 -2.7792 0.9516
8.8923 -8.2049 -2.7792 0.9516
9.0112 -8.0741 -2.7792 0.9516
9.1283 -7.9416 -2.7792 0.9516
9.3564 -7.6715 -2.7792 0.9516
9.4675 -7.5339 -2.7792 0.9516
9.6836 -7.2540 -2.7792 0.9516
10.0908 -6.6760 -2.7792 0.9516
6.3205 -4.0501 -1.7243 0.9697
6.4145 -3.9793 -1.7339 0.9695
6.7037 -3.7623 -1.7658 0.9689
6.6722 -3.6174 -1.7434 0.9693
6.8235 -3.3212 -1.7432 0.9693
6.9502 -3.2580 -1.7632 0.9690
6.9185 -2.9999 -1.7322 0.9695
7.2220 -3.0069 -1.7970 0.9684
10.4342 -4.1665 -2.5808 0.9549
10.5146 -4.0215 -2.5858 0.9548
10.5233 -3.8495 -2.5739 0.9551
10.6695 -3.7271 -2.5960 0.9547
11.1012 -3.3398 -2.6629 0.9535
11.5722 -3.2979 -2.7640 0.9518
11.6636 -2.9584 -2.7640 0.9518
11.7056 -2.7876 -2.7640 0.9518
11.8817 -2.2846 -2.7792 0.9516
11.9949 -1.5865 -2.7792 0.9516
12.0168 -1.4111 -2.7792 0.9516
12.0361 -1.2354 -2.7792 0.9516
12.0528 -1.0594 -2.7792 0.9516
12.0671 -0.8832 -2.7792 0.9516
12.0787 -0.7068 -2.7792 0.9516
12.0877 -0.5302 -2.7792 0.9516
12.0980 0.1768 -2.7792 0.9516
12.0877 0.5302 -2.7792 0.9516
12.0670 0.8832 -2.7792 0.9516
12.0528 1.0594 -2.7792 0.9516
12.0361 1.2354 -2.7792 0.9516
11.9948 1.5866 -2.7792 0.9516
11.9704 1.7617 -2.7792 0.9516
11.9434 1.9364 -2.7792 0.9516
11.8817 2.2845 -2.7792 0.9516
11.8098 2.6307 -2.7792 0.9516
11.7702 2.8031 -2.7792 0.9516
11.7279 2.9747 -2.7792 0.9516
11.6832 3.1458 -2.7792 0.9516
10.8685 3.0974 -2.5959 0.9547
10.0414 3.0211 -2.4086 0.9579
9.6486 3.0573 -2.3249 0.9593
9.4198 3.1371 -2.2805 0.9601
7.4419 3.2268 -1.8632 0.9673
6.7796 3.4232 -1.7445 0.9693
6.7914 3.5547 -1.7608 0.9690
6.8170 3.8259 -1.7956 0.9684
6.8637 4.2580 -1.8553 0.9674
6.8755 4.4057 -1.8757 0.9670
6.9601 5.0568 -1.9762 0.9653
6.9848 5.2324 -2.0047 0.9648
7.0619 5.7902 -2.0977 0.9632
7.0889 5.9876 -2.1314 0.9626
8.8347 8.1516 -2.7612 0.9519
8.7146 8.2798 -2.7612 0.9519
8.2161 8.7748 -2.7612 0.9519
7.9562 9.0111 -2.7612 0.9519
7.6895 9.2398 -2.7612 0.9519
7.4162 9.4605 -2.7612 0.9519
7.1437 9.6830 -2.7640 0.9518
6.8577 9.8876 -2.7640 0.9518
6.0103 9.2304 -2.5301 0.9558
6.4179 10.1786 -2.7640 0.9518
6.2685 10.2712 -2.7640 0.9518
5.0195 8.5018 -2.2678 0.9603
5.8123 10.5361 -2.7640 0.9518
5.6578 10.6202 -2.7640 0.9518
5.0277 10.9323 -2.7640 0.9518
4.8675 11.0046 -2.7640 0.9518
4.5438 11.1421 -2.7640 0.9518
4.2163 11.2702 -2.7640 0.9518
3.5508 11.4971 -2.7640 0.9518
3.3824 11.5479 -2.7640 0.9518
3.0435 11.6417 -2.7640 0.9518
2.8731 11.6850 -2.7640 0.9518
2.7021 11.7257 -2.7640 0.9518
2.5305 11.7639 -2.7640 0.9518
2.1856 11.8329 -2.7640 0.9518
2.0125 11.8635 -2.7640 0.9518
1.6650 11.9173 -2.7640 0.9518
1.3160 11.9608 -2.7640 0.9518
1.1411 11.9787 -2.7640 0.9518
0.7906 12.0070 -2.7640 0.9518
0.4395 12.0250 -2.7640 0.9518
0.0879 12.0327 -2.7640 0.9518
-0.2637 12.0301 -2.7640 0.9518
-0.6151 12.0173 -2.7640 0.9518
-1.3161 11.9608 -2.7640 0.9518
-1.6650 11.9173 -2.7640 0.9518
-1.8389 11.8916 -2.7640 0.9518
-2.0125 11.8635 -2.7640 0.9518
-2.1856 11.8329 -2.7640 0.9518
-2.3583 11.7996 -2.7640 0.9518
-2.8731 11.6850 -2.7640 0.9518
-3.0436 11.6417 -2.7640 0.9518
-4.0512 11.3305 -2.7640 0.9518
-4.3806 11.2073 -2.7640 0.9518
-4.7062 11.0745 -2.7640 0.9518
-5.0277 10.9323 -2.7640 0.9518
-0.3673 0.7145 -0.1845 0.9967
-0.3492 0.6555 -0.1706 0.9970
-0.3335 0.6045 -0.1586 0.9972
-0.3280 0.5375 -0.1446 0.9974
-0.3306 0.5243 -0.1424 0.9975
-0.3330 0.5115 -0.1402 0.9975
-0.3397 0.4748 -0.1341 0.9976
-0.3417 0.4631 -0.1322 0.9976
-0.3436 0.4518 -0.1304 0.9977
-0.3454 0.4406 -0.1286 0.9977
-0.3512 0.4096 -0.1239 0.9978
-0.3533 0.4002 -0.1226 0.9978
-0.3555 0.3909 -0.1214 0.9978
-0.3595 0.3729 -0.1190 0.9979
-0.3616 0.3642 -0.1179 0.9979
-0.3635 0.3556 -0.1168 0.9979
-0.3660 0.3377 -0.1144 0.9980
-0.3683 0.3204 -0.1121 0.9980
-0.3693 0.3119 -0.1110 0.9980
-0.3703 0.3036 -0.1100 0.9980
-0.3712 0.2954 -0.1090 0.9981
-0.3721 0.2874 -0.1080 0.9981
-0.3738 0.2716 -0.1061 0.9981
-0.3745 0.2638 -0.1052 0.9981
-0.3752 0.2562 -0.1044 0.9981
-0.3758 0.2487 -0.1035 0.9982
-0.3764 0.2412 -0.1027 0.9982
-0.3770 0.2339 -0.1019 0.9982
-0.3775 0.2266 -0.1011 0.9982
-0.3780 0.2195 -0.1004 0.9982
-0.3785 0.2124 -0.0997 0.9982
-0.3803 0.1851 -0.0972 0.9983
-0.3816 0.1721 -0.0961 0.9983
-0.3825 0.1593 -0.0952 0.9983
-0.3833 0.1466 -0.0943 0.9983
-0.3840 0.1341 -0.0934 0.9983
-0.3853 0.0977 -0.0913 0.9984
-0.3854 0.0918 -0.0910 0.9984
-0.3855 0.0800 -0.0904 0.9984
-0.3856 0.0741 -0.0902 0.9984
-0.3855 0.0625 -0.0897 0.9984
-0.3854 0.0567 -0.0895 0.9984
-0.3853 0.0510 -0.0893 0.9984
-0.3852 0.0453 -0.0891 0.9984
-0.3848 0.0338 -0.0887 0.9984
-0.3839 0.0112 -0.0882 0.9984
-0.3765 0.0000 -0.0909 0.9985
-0.3769 -0.0055 -0.0910 0.9985
-0.3775 -0.0165 -0.0912 0.9984
-0.3781 -0.0332 -0.0916 0.9984
-0.3783 -0.0388 -0.0918 0.9984
-0.3786 -0.0500 -0.0922 0.9984
-0.3787 -0.0786 -0.0934 0.9984
-0.3785 -0.0901 -0.0939 0.9984
-0.3773 -0.1257 -0.0960 0.9984
-0.3766 -0.1377 -0.0968 0.9984
-0.3762 -0.1439 -0.0972 0.9983
-0.3754 -0.1563 -0.0982 0.9983
-0.3738 -0.1752 -0.0997 0.9983
-0.3730 -0.1815 -0.1002 0.9983
-0.3716 -0.1945 -0.1012 0.9983
-0.3712 -0.2012 -0.1019 0.9983
-0.3702 -0.2150 -0.1033 0.9982
-0.3697 -0.2219 -0.1041 0.9982
-0.3691 -0.2290 -0.1049 0.9982
-0.3685 -0.2361 -0.1057 0.9982
-0.3679 -0.2434 -0.1065 0.9982
-0.3664 -0.2581 -0.1082 0.9982
-0.3639 -0.2810 -0.1110 0.9981
-0.3630 -0.2888 -0.1120 0.9981
-0.3609 -0.3048 -0.1140 0.9981
-0.3598 -0.3130 -0.1151 0.9980
-0.3587 -0.3213 -0.1163 0.9980
-0.3574 -0.3298 -0.1174 0.9980
-0.3562 -0.3384 -0.1186 0.9980
-0.3548 -0.3471 -0.1198 0.9980
-0.3446 -0.3904 -0.1257 0.9979
-0.3401 -0.4087 -0.1284 0.9978
-0.3332 -0.4380 -0.1329 0.9977
-0.3222 -0.4949 -0.1426 0.9976
-0.3197 -0.5070 -0.1447 0.9975
-0.3171 -0.5195 -0.1469 0.9975
-0.3114 -0.5454 -0.1516 0.9974
-0.3083 -0.5588 -0.1541 0.9974
-0.3237 -0.6296 -0.1709 0.9971
-4.8105 -10.4599 -2.7792 0.9537
-4.6572 -10.5290 -2.7792 0.9537
-4.1913 -10.7231 -2.7792 0.9537
-4.0342 -10.7832 -2.7792 0.9537
-3.7174 -10.8964 -2.7792 0.9537
-3.5346 -10.8787 -2.7612 0.9540
-3.3754 -10.9292 -2.7612 0.9540
-3.2153 -10.9773 -2.7612 0.9540
-3.0545 -11.0231 -2.7612 0.9540
-2.2418 -11.2167 -2.7612 0.9540
-2.0777 -11.2482 -2.7612 0.9540
-1.9131 -11.2775 -2.7612 0.9540
-1.7481 -11.3041 -2.7612 0.9540
-1.5827 -11.3286 -2.7612 0.9540
-1.4170 -11.3504 -2.7612 0.9540
-0.7516 -11.4138 -2.7612 0.9540
-0.5847 -11.4236 -2.7612 0.9540
-0.4177 -11.4309 -2.7612 0.9540
0.2507 -11.4358 -2.7612 0.9540
0.5847 -11.4236 -2.7612 0.9540
0.7516 -11.4138 -2.7612 0.9540
0.9183 -11.4016 -2.7612 0.9540
1.7481 -11.3042 -2.7612 0.9540
2.2418 -11.2167 -2.7612 0.9540
2.5685 -11.1464 -2.7612 0.9540
2.7312 -11.1077 -2.7612 0.9540
2.8932 -11.0666 -2.7612 0.9540
3.2153 -10.9773 -2.7612 0.9540
3.3754 -10.9292 -2.7612 0.9540
3.5347 -10.8787 -2.7612 0.9540
3.6933 -10.8259 -2.7612 0.9540
3.8762 -10.8409 -2.7792 0.9537
4.0341 -10.7832 -2.7792 0.9537
4.3475 -10.6607 -2.7792 0.9537
4.5028 -10.5960 -2.7792 0.9537
4.8105 -10.4599 -2.7792 0.9537
5.1141 -10.3149 -2.7792 0.9537
5.5612 -10.0809 -2.7792 0.9537
5.3559 -9.0714 -2.5430 0.9576
5.4866 -8.9901 -2.5424 0.9576
5.5952 -8.8739 -2.5324 0.9578
6.5614 -9.4604 -2.7792 0.9537
6.6990 -9.3634 -2.7792 0.9537
6.9697 -9.1637 -2.7792 0.9537
7.2345 -8.9561 -2.7792 0.9537
7.3646 -8.8495 -2.7792 0.9537
7.4931 -8.7409 -2.7792 0.9537
7.6201 -8.6305 -2.7792 0.9537
7.7453 -8.5182 -2.7792 0.9537
8.1112 -8.1707 -2.7792 0.9537
8.2297 -8.0513 -2.7792 0.9537
8.3465 -7.9302 -2.7792 0.9537
8.4614 -7.8074 -2.7792 0.9537
8.5746 -7.6829 -2.7792 0.9537
8.6860 -7.5568 -2.7792 0.9537
8.7955 -7.4291 -2.7792 0.9537
8.9031 -7.2997 -2.7792 0.9537
9.1126 -7.0365 -2.7792 0.9537
9.4122 -6.6304 -2.7792 0.9537
6.3383 -4.0614 -1.8172 0.9695
6.4326 -3.9905 -1.8274 0.9693
6.5282 -3.9189 -1.8380 0.9692
6.6250 -3.8464 -1.8493 0.9690
6.7231 -3.7731 -1.8610 0.9688
6.9409 -3.5047 -1.8770 0.9685
6.7654 -3.2929 -1.8163 0.9695
6.9408 -3.0095 -1.8262 0.9693
10.5703 -4.4010 -2.7640 0.9540
10.6335 -4.2461 -2.7640 0.9540
10.6944 -4.0903 -2.7640 0.9540
10.7531 -3.9336 -2.7640 0.9540
10.8094 -3.7760 -2.7640 0.9540
10.8634 -3.6177 -2.7640 0.9540
10.9151 -3.4586 -2.7640 0.9540
10.9645 -3.2987 -2.7640 0.9540
11.0115 -3.1382 -2.7640 0.9540
11.0562 -2.9769 -2.7640 0.9540
11.3060 -2.1739 -2.7792 0.9537
11.3647 -1.8425 -2.7792 0.9537
11.3904 -1.6763 -2.7792 0.9537
11.4345 -1.3427 -2.7792 0.9537
11.4529 -1.1755 -2.7792 0.9537
11.4824 -0.8404 -2.7792 0.9537
11.5020 -0.5045 -2.7792 0.9537
11.5118 -0.1682 -2.7792 0.9537
11.5131 0.0000 -2.7792 0.9537
11.5119 0.1682 -2.7792 0.9537
11.5082 0.3364 -2.7792 0.9537
11.4824 0.8404 -2.7792 0.9537
11.4689 1.0081 -2.7792 0.9537
11.4345 1.3428 -2.7792 0.9537
11.3904 1.6763 -2.7792 0.9537
11.3647 1.8426 -2.7792 0.9537
11.3060 2.1739 -2.7792 0.9537
11.2730 2.3388 -2.7792 0.9537
11.2376 2.5033 -2.7792 0.9537
11.1597 2.8306 -2.7792 0.9537
11.0722 3.1555 -2.7792 0.9537
10.7551 3.2357 -2.7112 0.9548
9.4355 3.1423 -2.4007 0.9599
9.3503 3.2664 -2.3909 0.9601
7.3900 3.2044 -1.9444 0.9674
7.2142 3.2542 -1.9105 0.9680
7.0367 3.2986 -1.8760 0.9685
6.7520 3.4093 -1.8259 0.9694
6.7724 3.6718 -1.8597 0.9688
6.7869 3.8090 -1.8787 0.9685
6.8024 3.9495 -1.8988 0.9682
6.8214 4.0950 -1.9206 0.9678
6.8411 4.2440 -1.9434 0.9674
6.8813 4.5527 -1.9918 0.9666
6.9035 4.7138 -2.0179 0.9662
6.9510 5.0502 -2.0741 0.9653
7.1394 6.3969 -2.3140 0.9613
8.2924 7.8787 -2.7612 0.9540
8.1764 7.9990 -2.7612 0.9540
7.9392 8.2345 -2.7612 0.9540
7.8180 8.3496 -2.7612 0.9540
7.5707 8.5745 -2.7612 0.9540
7.3169 8.7920 -2.7612 0.9540
7.1877 8.8980 -2.7612 0.9540
6.7908 9.2044 -2.7612 0.9540
6.5189 9.3989 -2.7612 0.9540
6.3809 9.4932 -2.7612 0.9540
5.9879 9.1960 -2.6490 0.9558
5.9647 9.7736 -2.7640 0.9540
5.0166 8.4968 -2.3819 0.9602
4.8786 8.5459 -2.3754 0.9603
5.3836 10.1054 -2.7640 0.9540
4.7841 10.4026 -2.7640 0.9540
4.6316 10.4714 -2.7640 0.9540
4.3237 10.6023 -2.7640 0.9540
4.1683 10.6643 -2.7640 0.9540
4.0120 10.7240 -2.7640 0.9540
3.8549 10.7816 -2.7640 0.9540
3.2185 10.9883 -2.7640 0.9540
3.0576 11.0342 -2.7640 0.9540
2.4079 11.1939 -2.7640 0.9540
2.0797 11.2595 -2.7640 0.9540
1.7498 11.3155 -2.7640 0.9540
1.5843 11.3398 -2.7640 0.9540
1.2523 11.3812 -2.7640 0.9540
0.0837 11.4496 -2.7640 0.9540
-0.7523 11.4252 -2.7640 0.9540
-1.0859 11.3984 -2.7640 0.9540
-1.2523 11.3812 -2.7640 0.9540
-1.4185 11.3618 -2.7640 0.9540
-2.0797 11.2595 -2.7640 0.9540
-2.2440 11.2279 -2.7640 0.9540
-2.5712 11.1576 -2.7640 0.9540
-2.7339 11.1188 -2.7640 0.9540
-3.0576 11.0342 -2.7640 0.9540
-3.2185 10.9882 -2.7640 0.9540
-3.5382 10.8896 -2.7640 0.9540
-3.6970 10.8367 -2.7640 0.9540
-4.0120 10.7240 -2.7640 0.9540
-4.1683 10.6643 -2.7640 0.9540
-4.3237 10.6022 -2.7640 0.9540
-4.4781 10.5379 -2.7640 0.9540
-0.3237 0.6296 -0.1709 0.9971
-0.3170 0.5195 -0.1469 0.9975
-0.3222 0.4949 -0.1426 0.9976
-0.3269 0.4714 -0.1385 0.9976
-0.3291 0.4600 -0.1365 0.9977
-0.3312 0.4489 -0.1347 0.9977
-0.3332 0.4380 -0.1329 0.9977
-0.3352 0.4276 -0.1312 0.9978
-0.3468 0.3814 -0.1244 0.9979
-0.3511 0.3642 -0.1221 0.9979
-0.3548 0.3471 -0.1198 0.9980
-0.3562 0.3384 -0.1186 0.9980
-0.3587 0.3214 -0.1163 0.9980
-0.3609 0.3049 -0.1140 0.9981
-0.3620 0.2968 -0.1130 0.9981
-0.3639 0.2810 -0.1110 0.9981
-0.3648 0.2733 -0.1100 0.9981
-0.3664 0.2582 -0.1082 0.9982
-0.3672 0.2507 -0.1073 0.9982
-0.3679 0.2434 -0.1065 0.9982
-0.3691 0.2290 -0.1049 0.9982
-0.3697 0.2219 -0.1041 0.9982
-0.3723 0.1879 -0.1007 0.9983
-0.3730 0.1816 -0.1002 0.9983
-0.3738 0.1753 -0.0997 0.9983
-0.3744 0.1689 -0.0991 0.9983
-0.3749 0.1625 -0.0986 0.9983
-0.3758 0.1501 -0.0977 0.9983
-0.3776 0.1196 -0.0956 0.9984
-0.3778 0.1137 -0.0952 0.9984
-0.3782 0.1018 -0.0946 0.9984
-0.3784 0.0960 -0.0942 0.9984
-0.3785 0.0902 -0.0939 0.9984
-0.3787 0.0728 -0.0931 0.9984
-0.3787 0.0671 -0.0928 0.9984
-0.3782 0.0332 -0.0916 0.9984
-0.3779 0.0277 -0.0915 0.9984
-0.3775 0.0166 -0.0912 0.9984
-0.3772 0.0111 -0.0911 0.9984
-0.3769 0.0055 -0.0910 0.9985
-0.3704 -0.0054 -0.0938 0.9985
-0.3707 -0.0109 -0.0939 0.9985
-0.3714 -0.0271 -0.0943 0.9985
-0.3718 -0.0382 -0.0946 0.9985
-0.3719 -0.0436 -0.0948 0.9985
-0.3720 -0.0492 -0.0950 0.9985
-0.3721 -0.0603 -0.0954 0.9984
-0.3721 -0.0659 -0.0957 0.9984
-0.3721 -0.0715 -0.0959 0.9984
-0.3717 -0.0943 -0.0971 0.9984
-0.3708 -0.1175 -0.0985 0.9984
-0.3705 -0.1234 -0.0989 0.9984
-0.3694 -0.1413 -0.1001 0.9984
-0.3689 -0.1473 -0.1006 0.9984
-0.3679 -0.1595 -0.1015 0.9983
-0.3668 -0.1719 -0.1025 0.9983
-0.3652 -0.1844 -0.1036 0.9983
-0.3638 -0.1972 -0.1047 0.9983
-0.3616 -0.2243 -0.1077 0.9982
-0.3609 -0.2313 -0.1085 0.9982
-0.3602 -0.2383 -0.1093 0.9982
-0.3587 -0.2527 -0.1111 0.9982
-0.3570 -0.2674 -0.1129 0.9982
-0.3550 -0.2825 -0.1149 0.9981
-0.3540 -0.2902 -0.1159 0.9981
-0.3529 -0.2980 -0.1169 0.9981
-0.3517 -0.3060 -0.1180 0.9981
-0.3465 -0.3389 -0.1227 0.9980
-0.3430 -0.3557 -0.1251 0.9980
-0.3409 -0.3640 -0.1262 0.9979
-0.3387 -0.3724 -0.1274 0.9979
-0.3364 -0.3809 -0.1287 0.9979
-0.3341 -0.3897 -0.1299 0.9979
-0.3317 -0.3986 -0.1313 0.9979
-0.3242 -0.4262 -0.1356 0.9978
-0.3215 -0.4357 -0.1371 0.9978
-0.2945 -0.5529 -0.1586 0.9974
-0.2911 -0.5662 -0.1612 0.9974
-0.3001 -0.6053 -0.1710 0.9972
-0.3267 -0.7103 -0.1979 0.9968
-4.2937 -10.1038 -2.7792 0.9557
-3.9966 -10.2250 -2.7792 0.9557
-3.5447 -10.3903 -2.7792 0.9557
-2.6213 -10.6607 -2.7792 0.9557
-2.3087 -10.7328 -2.7792 0.9557
-2.1516 -10.7654 -2.7792 0.9557
-1.6778 -10.8493 -2.7792 0.9557
-1.5191 -10.8727 -2.7792 0.9557
-1.3600 -10.8937 -2.7792 0.9557
-1.2007 -10.9124 -2.7792 0.9557
-1.0344 -10.8580 -2.7612 0.9560
-0.8757 -10.8720 -2.7612 0.9560
-0.7167 -10.8836 -2.7612 0.9560
-0.5575 -10.8929 -2.7612 0.9560
-0.2390 -10.9046 -2.7612 0.9560
0.0797 -10.9069 -2.7612 0.9560
0.2390 -10.9046 -2.7612 0.9560
0.8756 -10.8720 -2.7612 0.9560
1.0344 -10.8581 -2.7612 0.9560
1.1929 -10.8418 -2.7612 0.9560
1.8361 -10.8237 -2.7792 0.9557
1.9941 -10.7957 -2.7792 0.9557
2.1516 -10.7654 -2.7792 0.9557
2.4652 -10.6979 -2.7792 0.9557
2.6213 -10.6608 -2.7792 0.9557
2.9317 -10.5796 -2.7792 0.9557
3.2395 -10.4894 -2.7792 0.9557
3.6961 -10.3374 -2.7792 0.9557
3.8468 -10.2823 -2.7792 0.9557
3.9966 -10.2250 -2.7792 0.9557
4.1456 -10.1655 -2.7792 0.9557
4.2937 -10.1038 -2.7792 0.9557
4.4408 -10.0400 -2.7792 0.9557
4.5871 -9.9740 -2.7792 0.9557
4.7323 -9.9060 -2.7792 0.9557
5.3029 -9.6126 -2.7792 0.9557
5.5815 -9.4536 -2.7792 0.9557
5.6266 -8.9236 -2.6706 0.9574
5.7873 -8.8880 -2.6850 0.9572
6.3878 -8.9285 -2.7792 0.9557
6.5176 -8.8343 -2.7792 0.9557
6.7729 -8.6400 -2.7792 0.9557
6.8985 -8.5401 -2.7792 0.9557
7.1451 -8.3349 -2.7792 0.9557
7.2661 -8.2296 -2.7792 0.9557
7.9588 -7.5618 -2.7792 0.9557
8.1763 -7.3260 -2.7792 0.9557
8.2825 -7.2057 -2.7792 0.9557
8.4895 -6.9607 -2.7792 0.9557
8.5903 -6.8359 -2.7792 0.9557
8.7864 -6.5819 -2.7792 0.9557
9.0664 -6.1906 -2.7792 0.9557
9.1559 -6.0574 -2.7792 0.9557
6.4509 -4.0019 -1.9218 0.9692
6.5469 -3.9302 -1.9331 0.9690
6.6441 -3.8575 -1.9449 0.9688
6.5818 -3.4449 -1.8806 0.9698
6.9792 -3.5239 -1.9793 0.9683
6.7738 -3.2970 -1.9072 0.9694
7.4824 -3.1153 -2.0519 0.9671
10.1977 -3.9003 -2.7640 0.9559
10.3073 -3.6006 -2.7640 0.9559
10.3588 -3.4496 -2.7640 0.9559
10.4081 -3.2979 -2.7640 0.9559
10.5426 -2.8386 -2.7640 0.9559
10.6796 -2.5433 -2.7792 0.9557
10.7156 -2.3870 -2.7792 0.9557
10.7494 -2.2302 -2.7792 0.9557
10.7808 -2.0729 -2.7792 0.9557
10.8368 -1.7570 -2.7792 0.9557
10.8613 -1.5985 -2.7792 0.9557
10.9490 -0.8014 -2.7792 0.9557
10.9596 -0.6413 -2.7792 0.9557
10.9736 -0.3208 -2.7792 0.9557
10.9771 -0.1604 -2.7792 0.9557
10.9783 0.0000 -2.7792 0.9557
10.9771 0.1604 -2.7792 0.9557
10.9596 0.6413 -2.7792 0.9557
10.9490 0.8014 -2.7792 0.9557
10.9361 0.9613 -2.7792 0.9557
10.9034 1.2804 -2.7792 0.9557
10.8835 1.4396 -2.7792 0.9557
10.8368 1.7570 -2.7792 0.9557
10.7808 2.0729 -2.7792 0.9557
10.6796 2.5433 -2.7792 0.9557
10.6413 2.6991 -2.7792 0.9557
10.6007 2.8543 -2.7792 0.9557
10.5579 3.0089 -2.7792 0.9557
10.5128 3.1629 -2.7792 0.9557
10.4655 3.3162 -2.7792 0.9557
9.3711 3.2736 -2.5129 0.9599
9.2626 3.3883 -2.4969 0.9601
8.0175 3.0664 -2.1731 0.9652
7.7382 3.0900 -2.1094 0.9662
7.3334 3.1798 -2.0235 0.9676
6.7294 3.3979 -1.9084 0.9694
6.7892 3.9418 -1.9874 0.9681
6.8310 4.2377 -2.0351 0.9674
6.8509 4.3900 -2.0599 0.9670
6.8717 4.5463 -2.0859 0.9666
6.8946 4.7078 -2.1135 0.9661
6.9910 5.3982 -2.2360 0.9642
7.0158 5.5830 -2.2698 0.9637
7.0398 5.7721 -2.3046 0.9631
7.1132 6.1885 -2.3869 0.9618
7.1404 6.3978 -2.4271 0.9612
7.3377 8.0698 -2.7612 0.9560
7.0988 8.2808 -2.7612 0.9560
6.9770 8.3836 -2.7612 0.9560
6.3464 8.8706 -2.7612 0.9560
6.2162 8.9624 -2.7612 0.9560
6.0845 9.0522 -2.7612 0.9560
5.8174 9.2261 -2.7612 0.9560
5.6820 9.3102 -2.7612 0.9560
4.8740 8.5377 -2.4888 0.9602
5.2685 9.5502 -2.7612 0.9560
5.1335 9.6360 -2.7640 0.9559
4.9922 9.7100 -2.7640 0.9559
4.5619 9.9194 -2.7640 0.9559
4.4165 9.9850 -2.7640 0.9559
4.2701 10.0484 -2.7640 0.9559
4.1228 10.1098 -2.7640 0.9559
3.9747 10.1689 -2.7640 0.9559
3.8256 10.2259 -2.7640 0.9559
3.6758 10.2807 -2.7640 0.9559
3.5252 10.3333 -2.7640 0.9559
2.9156 10.5216 -2.7640 0.9559
2.7616 10.5631 -2.7640 0.9559
2.6069 10.6023 -2.7640 0.9559
2.2960 10.6740 -2.7640 0.9559
2.1398 10.7064 -2.7640 0.9559
1.8260 10.7643 -2.7640 0.9559
1.1941 10.8526 -2.7640 0.9559
0.8765 10.8829 -2.7640 0.9559
0.2393 10.9155 -2.7640 0.9559
0.0798 10.9179 -2.7640 0.9559
-0.2393 10.9155 -2.7640 0.9559
-0.8765 10.8829 -2.7640 0.9559
-1.0354 10.8689 -2.7640 0.9559
-1.1941 10.8527 -2.7640 0.9559
-1.8260 10.7643 -2.7640 0.9559
-1.9831 10.7364 -2.7640 0.9559
-2.1398 10.7064 -2.7640 0.9559
-2.2960 10.6740 -2.7640 0.9559
-2.4517 10.6393 -2.7640 0.9559
-2.7616 10.5631 -2.7640 0.9559
-2.9156 10.5216 -2.7640 0.9559
-3.2218 10.4320 -2.7640 0.9559
-3.3739 10.3837 -2.7640 0.9559
-3.5252 10.3334 -2.7640 0.9559
-3.6759 10.2807 -2.7640 0.9559
-3.9747 10.1689 -2.7640 0.9559
-4.1229 10.1098 -2.7640 0.9559
-0.3430 0.7754 -0.2146 0.9965
-0.3125 0.6542 -0.1835 0.9970
-0.3001 0.6054 -0.1710 0.9972
-0.2911 0.5662 -0.1612 0.9974
-0.2978 0.5398 -0.1561 0.9975
-0.3009 0.5271 -0.1537 0.9975
-0.3039 0.5148 -0.1513 0.9975
-0.3067 0.5026 -0.1491 0.9976
-0.3095 0.4908 -0.1469 0.9976
-0.3341 0.3897 -0.1299 0.9979
-0.3364 0.3809 -0.1287 0.9979
-0.3387 0.3724 -0.1274 0.9979
-0.3408 0.3640 -0.1262 0.9979
-0.3429 0.3557 -0.1251 0.9980
-0.3450 0.3475 -0.1240 0.9980
-0.3465 0.3390 -0.1227 0.9980
-0.3493 0.3223 -0.1203 0.9980
-0.3517 0.3060 -0.1180 0.9981
-0.3540 0.2902 -0.1159 0.9981
-0.3569 0.2674 -0.1129 0.9982
-0.3602 0.2383 -0.1093 0.9982
-0.3609 0.2313 -0.1085 0.9982
-0.3616 0.2243 -0.1077 0.9982
-0.3622 0.2174 -0.1069 0.9983
-0.3633 0.2039 -0.1055 0.9983
-0.3637 0.1972 -0.1047 0.9983
-0.3668 0.1720 -0.1025 0.9983
-0.3679 0.1595 -0.1015 0.9983
-0.3684 0.1534 -0.1010 0.9984
-0.3689 0.1473 -0.1006 0.9984
-0.3694 0.1413 -0.1001 0.9984
-0.3698 0.1353 -0.0997 0.9984
-0.3701 0.1293 -0.0993 0.9984
-0.3705 0.1234 -0.0989 0.9984
-0.3713 0.1058 -0.0977 0.9984
-0.3718 0.0886 -0.0968 0.9984
-0.3719 0.0829 -0.0965 0.9984
-0.3721 0.0715 -0.0959 0.9984
-0.3716 0.0327 -0.0944 0.9985
-0.3712 0.0217 -0.0941 0.9985
-0.3710 0.0163 -0.0940 0.9985
-0.3638 0.0000 -0.0964 0.9985
-0.3644 -0.0106 -0.0966 0.9985
-0.3647 -0.0160 -0.0967 0.9985
-0.3655 -0.0429 -0.0975 0.9985
-0.3657 -0.0538 -0.0979 0.9985
-0.3657 -0.0593 -0.0982 0.9985
-0.3657 -0.0648 -0.0984 0.9985
-0.3656 -0.0759 -0.0989 0.9985
-0.3655 -0.0814 -0.0992 0.9985
-0.3653 -0.0870 -0.0995 0.9984
-0.3652 -0.0926 -0.0998 0.9984
-0.3648 -0.1039 -0.1005 0.9984
-0.3645 -0.1096 -0.1009 0.9984
-0.3642 -0.1154 -0.1012 0.9984
-0.3639 -0.1211 -0.1016 0.9984
-0.3635 -0.1270 -0.1020 0.9984
-0.3631 -0.1328 -0.1025 0.9984
-0.3622 -0.1446 -0.1034 0.9984
-0.3606 -0.1627 -0.1048 0.9984
-0.3600 -0.1688 -0.1054 0.9984
-0.3592 -0.1748 -0.1059 0.9983
-0.3584 -0.1809 -0.1064 0.9983
-0.3566 -0.1933 -0.1075 0.9983
-0.3542 -0.2197 -0.1105 0.9983
-0.3520 -0.2403 -0.1130 0.9982
-0.3474 -0.2764 -0.1176 0.9982
-0.3440 -0.2993 -0.1208 0.9981
-0.3400 -0.3230 -0.1243 0.9981
-0.3385 -0.3312 -0.1255 0.9980
-0.3370 -0.3395 -0.1268 0.9980
-0.3330 -0.3556 -0.1291 0.9980
-0.3308 -0.3638 -0.1303 0.9980
-0.3285 -0.3720 -0.1315 0.9979
-0.3237 -0.3890 -0.1341 0.9979
-0.3213 -0.3977 -0.1355 0.9979
-0.3187 -0.4066 -0.1369 0.9979
-0.3134 -0.4248 -0.1399 0.9978
-0.3050 -0.4537 -0.1449 0.9977
-0.3025 -0.4645 -0.1469 0.9977
-0.2998 -0.4755 -0.1489 0.9977
-0.2941 -0.4982 -0.1533 0.9976
-0.2847 -0.5342 -0.1604 0.9975
-0.2812 -0.5468 -0.1629 0.9975
-0.2999 -0.6779 -0.1964 0.9969
-0.3129 -0.7364 -0.2120 0.9967
-3.8183 -9.7687 -2.7792 0.9575
-3.6751 -9.8234 -2.7792 0.9575
-3.0950 -10.0213 -2.7792 0.9575
-2.8008 -10.1075 -2.7792 0.9575
-2.6529 -10.1473 -2.7792 0.9575
-2.2056 -10.2539 -2.7792 0.9575
-1.1471 -10.4254 -2.7792 0.9575
-0.9947 -10.4411 -2.7792 0.9575
-0.8420 -10.4545 -2.7792 0.9575
-0.5362 -10.4746 -2.7792 0.9575
-0.3831 -10.4814 -2.7792 0.9575
0.2298 -10.4859 -2.7792 0.9575
0.3831 -10.4814 -2.7792 0.9575
0.5362 -10.4746 -2.7792 0.9575
0.6892 -10.4657 -2.7792 0.9575
0.8420 -10.4545 -2.7792 0.9575
1.1471 -10.4254 -2.7792 0.9575
1.2993 -10.4075 -2.7792 0.9575
1.4513 -10.3875 -2.7792 0.9575
1.7541 -10.3406 -2.7792 0.9575
2.2056 -10.2539 -2.7792 0.9575
2.3552 -10.2205 -2.7792 0.9575
2.6529 -10.1473 -2.7792 0.9575
2.8008 -10.1075 -2.7792 0.9575
2.9482 -10.0655 -2.7792 0.9575
3.0950 -10.0213 -2.7792 0.9575
3.3865 -9.9266 -2.7792 0.9575
3.8182 -9.7687 -2.7792 0.9575
4.1020 -9.6529 -2.7792 0.9575
4.2426 -9.5920 -2.7792 0.9575
4.3823 -9.5289 -2.7792 0.9575
4.6589 -9.3969 -2.7792 0.9575
5.0662 -9.1837 -2.7792 0.9575
5.1999 -9.1086 -2.7792 0.9575
5.3324 -9.0317 -2.7792 0.9575
5.7231 -8.7893 -2.7792 0.9575
5.8509 -8.7047 -2.7792 0.9575
6.5906 -8.1590 -2.7792 0.9575
6.8262 -7.9629 -2.7792 0.9575
6.9419 -7.8624 -2.7792 0.9575
7.1686 -7.6562 -2.7792 0.9575
7.2797 -7.5506 -2.7792 0.9575
7.3893 -7.4434 -2.7792 0.9575
7.9129 -6.8842 -2.7792 0.9575
8.0126 -6.7679 -2.7792 0.9575
8.1106 -6.6500 -2.7792 0.9575
8.5745 -6.0403 -2.7792 0.9575
6.4695 -4.0134 -2.0174 0.9690
6.6634 -3.8688 -2.0417 0.9686
6.8626 -3.7206 -2.0685 0.9682
6.6546 -3.4830 -1.9903 0.9694
7.0106 -3.1623 -2.0379 0.9687
7.1117 -3.0837 -2.0540 0.9684
9.6871 -3.8682 -2.7640 0.9578
9.7960 -3.5834 -2.7640 0.9578
9.8965 -3.2957 -2.7640 0.9578
9.9436 -3.1507 -2.7640 0.9578
9.9886 -3.0051 -2.7640 0.9578
10.1665 -2.5787 -2.7792 0.9575
10.2030 -2.4298 -2.7792 0.9575
10.2697 -2.1307 -2.7792 0.9575
10.2997 -1.9804 -2.7792 0.9575
10.3766 -1.5271 -2.7792 0.9575
10.4335 -1.0709 -2.7792 0.9575
10.4604 -0.7656 -2.7792 0.9575
10.4705 -0.6126 -2.7792 0.9575
10.4783 -0.4596 -2.7792 0.9575
10.4872 -0.1533 -2.7792 0.9575
10.4884 0.0000 -2.7792 0.9575
10.4873 0.1533 -2.7792 0.9575
10.4705 0.6127 -2.7792 0.9575
10.4604 0.7656 -2.7792 0.9575
10.4481 0.9184 -2.7792 0.9575
10.4168 1.2233 -2.7792 0.9575
10.3978 1.3754 -2.7792 0.9575
10.3532 1.6786 -2.7792 0.9575
10.3276 1.8297 -2.7792 0.9575
10.2697 2.1307 -2.7792 0.9575
10.2374 2.2805 -2.7792 0.9575
10.1664 2.5787 -2.7792 0.9575
10.1277 2.7270 -2.7792 0.9575
10.0867 2.8746 -2.7792 0.9575
9.9984 3.1682 -2.7792 0.9575
9.9511 3.3139 -2.7792 0.9575
7.1037 3.2043 -2.0650 0.9683
6.7830 3.3015 -1.9990 0.9693
6.7156 3.5150 -2.0085 0.9691
6.7289 3.6482 -2.0282 0.9688
6.8007 4.0825 -2.1019 0.9677
6.9090 4.8671 -2.2394 0.9656
6.9567 5.2114 -2.3033 0.9647
6.9816 5.3910 -2.3373 0.9642
7.0057 5.5749 -2.3724 0.9636
7.0318 5.7656 -2.4096 0.9631
7.0774 5.9779 -2.4548 0.9624
7.1130 6.1883 -2.4983 0.9617
7.7083 7.1125 -2.7792 0.9575
7.4487 7.2871 -2.7612 0.9578
7.3414 7.3951 -2.7612 0.9578
7.1222 7.6064 -2.7612 0.9578
7.0103 7.7097 -2.7612 0.9578
6.7820 7.9113 -2.7612 0.9578
6.5479 8.1061 -2.7612 0.9578
6.3083 8.2939 -2.7612 0.9578
5.9387 8.5624 -2.7612 0.9578
5.8130 8.6482 -2.7612 0.9578
5.6860 8.7323 -2.7612 0.9578
5.4284 8.8947 -2.7612 0.9578
4.8693 8.5296 -2.6025 0.9602
5.0335 9.1241 -2.7612 0.9578
4.7647 9.2672 -2.7612 0.9578
4.6288 9.3358 -2.7612 0.9578
4.4919 9.4025 -2.7612 0.9578
4.3540 9.4671 -2.7612 0.9578
4.2152 9.5297 -2.7612 0.9578
4.0796 9.6000 -2.7640 0.9578
3.9389 9.6586 -2.7640 0.9578
3.3679 9.8722 -2.7640 0.9578
3.0780 9.9664 -2.7640 0.9578
2.7855 10.0521 -2.7640 0.9578
1.8946 10.2574 -2.7640 0.9578
1.2922 10.3505 -2.7640 0.9578
0.6854 10.4084 -2.7640 0.9578
0.5332 10.4172 -2.7640 0.9578
0.2286 10.4284 -2.7640 0.9578
-0.2286 10.4284 -2.7640 0.9578
-0.3810 10.4239 -2.7640 0.9578
-0.5332 10.4172 -2.7640 0.9578
-0.9892 10.3838 -2.7640 0.9578
-1.1409 10.3683 -2.7640 0.9578
-1.5941 10.3084 -2.7640 0.9578
-1.7445 10.2839 -2.7640 0.9578
-1.8947 10.2573 -2.7640 0.9578
-2.0443 10.2286 -2.7640 0.9578
-2.3423 10.1645 -2.7640 0.9578
-2.4906 10.1292 -2.7640 0.9578
-2.6383 10.0918 -2.7640 0.9578
-2.7855 10.0521 -2.7640 0.9578
-2.9321 10.0104 -2.7640 0.9578
-3.0781 9.9664 -2.7640 0.9578
-3.2233 9.9204 -2.7640 0.9578
-3.3679 9.8722 -2.7640 0.9578
-3.5118 9.8219 -2.7640 0.9578
-3.6550 9.7696 -2.7640 0.9578
-0.3129 0.7364 -0.2120 0.9967
-0.2999 0.6779 -0.1964 0.9969
-0.2884 0.6271 -0.1829 0.9971
-0.2783 0.5825 -0.1711 0.9973
-0.2775 0.5598 -0.1656 0.9974
-0.2879 0.5220 -0.1580 0.9975
-0.2942 0.4982 -0.1533 0.9976
-0.2971 0.4867 -0.1511 0.9976
-0.2998 0.4755 -0.1489 0.9977
-0.3161 0.4156 -0.1384 0.9978
-0.3187 0.4066 -0.1369 0.9979
-0.3213 0.3978 -0.1355 0.9979
-0.3237 0.3890 -0.1341 0.9979
-0.3261 0.3804 -0.1328 0.9979
-0.3308 0.3638 -0.1303 0.9980
-0.3385 0.3312 -0.1255 0.9980
-0.3400 0.3230 -0.1243 0.9981
-0.3414 0.3150 -0.1231 0.9981
-0.3427 0.3071 -0.1219 0.9981
-0.3520 0.2404 -0.1130 0.9982
-0.3528 0.2334 -0.1121 0.9983
-0.3536 0.2266 -0.1113 0.9983
-0.3542 0.2198 -0.1105 0.9983
-0.3549 0.2130 -0.1097 0.9983
-0.3555 0.2064 -0.1089 0.9983
-0.3561 0.1998 -0.1082 0.9983
-0.3566 0.1934 -0.1075 0.9983
-0.3584 0.1810 -0.1064 0.9983
-0.3592 0.1748 -0.1059 0.9983
-0.3600 0.1688 -0.1054 0.9984
-0.3606 0.1627 -0.1048 0.9984
-0.3627 0.1388 -0.1029 0.9984
-0.3635 0.1270 -0.1020 0.9984
-0.3642 0.1154 -0.1012 0.9984
-0.3652 0.0926 -0.0998 0.9984
-0.3653 0.0870 -0.0995 0.9984
-0.3656 0.0704 -0.0987 0.9985
-0.3657 0.0648 -0.0984 0.9985
-0.3657 0.0538 -0.0979 0.9985
-0.3656 0.0484 -0.0977 0.9985
-0.3655 0.0429 -0.0975 0.9985
-0.3654 0.0375 -0.0973 0.9985
-0.3653 0.0321 -0.0972 0.9985
-0.3649 0.0214 -0.0969 0.9985
-0.3647 0.0161 -0.0967 0.9985
-0.3644 0.0107 -0.0966 0.9985
-0.3642 0.0053 -0.0965 0.9985
-0.3580 -0.0052 -0.0991 0.9985
-0.3583 -0.0105 -0.0993 0.9985
-0.3588 -0.0210 -0.0995 0.9985
-0.3593 -0.0422 -0.1002 0.9985
-0.3594 -0.0475 -0.1004 0.9985
-0.3595 -0.0529 -0.1006 0.9985
-0.3594 -0.0637 -0.1011 0.9985
-0.3590 -0.0855 -0.1022 0.9985
-0.3586 -0.0966 -0.1028 0.9985
-0.3581 -0.1077 -0.1035 0.9984
-0.3567 -0.1305 -0.1052 0.9984
-0.3562 -0.1363 -0.1056 0.9984
-0.3552 -0.1479 -0.1065 0.9984
-0.3547 -0.1538 -0.1070 0.9984
-0.3534 -0.1657 -0.1081 0.9984
-0.3526 -0.1716 -0.1086 0.9984
-0.3499 -0.1897 -0.1102 0.9983
-0.3491 -0.1959 -0.1108 0.9983
-0.3479 -0.2088 -0.1123 0.9983
-0.3465 -0.2220 -0.1139 0.9983
-0.3449 -0.2354 -0.1156 0.9983
-0.3440 -0.2423 -0.1165 0.9983
-0.3421 -0.2562 -0.1183 0.9982
-0.3400 -0.2705 -0.1203 0.9982
-0.3389 -0.2779 -0.1213 0.9982
-0.3365 -0.2927 -0.1235 0.9982
-0.3352 -0.3003 -0.1246 0.9981
-0.3338 -0.3080 -0.1258 0.9981
-0.3255 -0.3476 -0.1319 0.9980
-0.3210 -0.3635 -0.1343 0.9980
-0.3161 -0.3798 -0.1368 0.9980
-0.3110 -0.3967 -0.1396 0.9979
-0.3028 -0.4232 -0.1441 0.9978
-0.2968 -0.4416 -0.1473 0.9978
-0.2936 -0.4509 -0.1490 0.9978
-0.2753 -0.5168 -0.1621 0.9976
-0.2718 -0.5287 -0.1646 0.9975
-0.2604 -0.5662 -0.1726 0.9974
-0.2662 -0.6018 -0.1822 0.9973
-0.2857 -0.7005 -0.2095 0.9969
-3.6542 -9.3490 -2.7792 0.9592
-3.5172 -9.4014 -2.7792 0.9592
-3.2410 -9.5001 -2.7792 0.9592
-3.1019 -9.5465 -2.7792 0.9592
-2.5389 -9.7114 -2.7792 0.9592
-2.3967 -9.7475 -2.7792 0.9592
-2.2540 -9.7814 -2.7792 0.9592
-2.1109 -9.8133 -2.7792 0.9592
-1.8233 -9.8708 -2.7792 0.9592
-1.6788 -9.8964 -2.7792 0.9592
-1.3889 -9.9412 -2.7792 0.9592
-1.2435 -9.9604 -2.7792 0.9592
-1.0979 -9.9775 -2.7792 0.9592
-0.6596 -10.0161 -2.7792 0.9592
-0.3666 -10.0311 -2.7792 0.9592
-0.2200 -10.0354 -2.7792 0.9592
-0.0733 -10.0375 -2.7792 0.9592
0.3666 -10.0311 -2.7792 0.9592
0.5131 -10.0246 -2.7792 0.9592
0.6596 -10.0161 -2.7792 0.9592
0.9519 -9.9925 -2.7792 0.9592
1.5340 -9.9198 -2.7792 0.9592
1.9673 -9.8431 -2.7792 0.9592
2.1109 -9.8133 -2.7792 0.9592
2.3967 -9.7474 -2.7792 0.9592
2.5389 -9.7114 -2.7792 0.9592
2.6805 -9.6732 -2.7792 0.9592
2.8216 -9.6330 -2.7792 0.9592
3.2410 -9.5002 -2.7792 0.9592
3.3795 -9.4518 -2.7792 0.9592
3.5172 -9.4014 -2.7792 0.9592
3.9258 -9.2382 -2.7792 0.9592
4.0604 -9.1799 -2.7792 0.9592
4.1941 -9.1196 -2.7792 0.9592
4.3269 -9.0573 -2.7792 0.9592
4.4588 -8.9931 -2.7792 0.9592
4.5897 -8.9270 -2.7792 0.9592
5.1033 -8.6437 -2.7792 0.9592
5.2291 -8.5682 -2.7792 0.9592
5.3537 -8.4909 -2.7792 0.9592
5.7207 -8.2480 -2.7792 0.9592
5.9592 -8.0774 -2.7792 0.9592
6.3075 -7.8085 -2.7792 0.9592
6.5329 -7.6209 -2.7792 0.9592
6.7528 -7.4267 -2.7792 0.9592
6.9670 -7.2262 -2.7792 0.9592
7.5729 -6.5884 -2.7792 0.9592
7.8544 -6.2503 -2.7792 0.9592
7.9449 -6.1348 -2.7792 0.9592
8.4515 -5.4156 -2.7792 0.9592
6.4882 -4.0250 -2.1140 0.9688
6.5849 -3.9530 -2.1265 0.9686
6.6829 -3.8801 -2.1396 0.9684
6.7535 -3.7902 -2.1442 0.9684
6.7295 -3.5223 -2.1030 0.9690
6.8216 -3.4444 -2.1159 0.9688
7.0594 -3.3093 -2.1587 0.9682
7.0340 -3.1729 -2.1365 0.9685
7.1223 -3.0882 -2.1494 0.9683
9.2709 -3.7020 -2.7640 0.9594
9.3241 -3.5661 -2.7640 0.9594
9.5595 -2.8760 -2.7640 0.9594
9.7297 -2.4679 -2.7792 0.9592
9.7647 -2.3254 -2.7792 0.9592
9.7976 -2.1825 -2.7792 0.9592
9.8285 -2.0391 -2.7792 0.9592
9.8839 -1.7511 -2.7792 0.9592
9.9084 -1.6064 -2.7792 0.9592
9.9308 -1.4615 -2.7792 0.9592
9.9693 -1.1707 -2.7792 0.9592
9.9992 -0.8789 -2.7792 0.9592
10.0207 -0.5863 -2.7792 0.9592
10.0281 -0.4398 -2.7792 0.9592
10.0335 -0.2933 -2.7792 0.9592
10.0367 -0.1466 -2.7792 0.9592
10.0367 0.1467 -2.7792 0.9592
10.0335 0.2933 -2.7792 0.9592
10.0281 0.4399 -2.7792 0.9592
9.9992 0.8789 -2.7792 0.9592
9.9511 1.3162 -2.7792 0.9592
9.9308 1.4615 -2.7792 0.9592
9.8839 1.7511 -2.7792 0.9592
9.8572 1.8953 -2.7792 0.9592
9.8285 2.0392 -2.7792 0.9592
9.7297 2.4679 -2.7792 0.9592
9.4268 3.4485 -2.7792 0.9592
7.9966 3.0585 -2.3705 0.9651
7.7053 3.0768 -2.2972 0.9661
6.7031 3.5084 -2.0948 0.9691
6.7528 3.6612 -2.1268 0.9686
6.7643 3.9273 -2.1657 0.9681
6.8110 4.2253 -2.2192 0.9673
6.8324 4.3781 -2.2468 0.9669
6.9000 4.8607 -2.3369 0.9656
6.9724 5.3839 -2.4391 0.9641
7.0274 5.7618 -2.5161 0.9630
7.0761 5.9768 -2.5646 0.9623
7.1096 6.1854 -2.6092 0.9616
7.4759 6.6984 -2.7792 0.9592
7.3772 6.8069 -2.7792 0.9592
7.2769 6.9140 -2.7792 0.9592
7.0718 7.1237 -2.7792 0.9592
6.9218 7.1793 -2.7612 0.9595
6.7091 7.3785 -2.7612 0.9595
6.3793 7.6654 -2.7612 0.9595
6.2666 7.7578 -2.7612 0.9595
6.1526 7.8485 -2.7612 0.9595
5.9206 8.0250 -2.7612 0.9595
5.5633 8.2767 -2.7612 0.9595
5.1952 8.5125 -2.7612 0.9595
4.8646 8.5214 -2.7168 0.9601
4.6891 8.8015 -2.7612 0.9595
4.5600 8.8690 -2.7612 0.9595
4.4299 8.9347 -2.7612 0.9595
4.1669 9.0604 -2.7612 0.9595
3.7659 9.2343 -2.7612 0.9595
3.4944 9.3404 -2.7612 0.9595
3.3576 9.3904 -2.7612 0.9595
3.0817 9.4845 -2.7612 0.9595
2.9428 9.5286 -2.7612 0.9595
2.8061 9.5803 -2.7640 0.9594
2.2417 9.7278 -2.7640 0.9594
2.0993 9.7595 -2.7640 0.9594
1.9565 9.7891 -2.7640 0.9594
1.8132 9.8167 -2.7640 0.9594
1.3813 9.8867 -2.7640 0.9594
0.9467 9.9378 -2.7640 0.9594
0.8014 9.9505 -2.7640 0.9594
0.6559 9.9612 -2.7640 0.9594
0.5103 9.9697 -2.7640 0.9594
0.3646 9.9761 -2.7640 0.9594
0.2188 9.9804 -2.7640 0.9594
-0.0729 9.9825 -2.7640 0.9594
-0.6560 9.9611 -2.7640 0.9594
-0.8014 9.9506 -2.7640 0.9594
-0.9467 9.9378 -2.7640 0.9594
-1.2367 9.9058 -2.7640 0.9594
-1.5256 9.8655 -2.7640 0.9594
-2.0993 9.7596 -2.7640 0.9594
-2.2417 9.7279 -2.7640 0.9594
-2.3836 9.6940 -2.7640 0.9594
-2.5250 9.6581 -2.7640 0.9594
-3.0817 9.4845 -2.7612 0.9595
-3.2200 9.4385 -2.7612 0.9595
-3.4944 9.3404 -2.7612 0.9595
-3.6305 9.2883 -2.7612 0.9595
-0.2857 0.7005 -0.2095 0.9969
