ply
format ascii 1.0
element vertex 1590
property float32 x
property float32 y
property float32 z
property float32 I
end_header
-0.6470 -0.3507 -0.0439 0.9971
-0.6491 -0.3643 -0.0444 0.9970
-0.6513 -0.3781 -0.0449 0.9970
-0.6536 -0.3923 -0.0455 0.9970
-0.6569 -0.4209 -0.0465 0.9969
-0.6594 -0.4502 -0.0476 0.9968
-0.6606 -0.4653 -0.0482 0.9968
-0.6641 -0.5128 -0.0500 0.9966
-0.6665 -0.5464 -0.0514 0.9966
-0.7163 -0.6050 -0.0559 0.9963
-11.9730 -11.0475 -0.9715 0.9368
-11.3114 -11.7324 -0.9719 0.9368
-11.1398 -11.8976 -0.9719 0.9368
-10.9659 -12.0602 -0.9720 0.9368
-10.7895 -12.2204 -0.9721 0.9368
-10.4299 -12.5330 -0.9723 0.9368
-6.9229 -8.8312 -0.6692 0.9560
-6.7838 -8.9192 -0.6683 0.9561
-6.2741 -9.0459 -0.6565 0.9568
-2.1467 -3.2968 -0.2346 0.9844
-2.1411 -3.3957 -0.2394 0.9840
-1.8322 -3.1032 -0.2149 0.9857
-1.7389 -3.0460 -0.2092 0.9860
-1.6691 -3.0256 -0.2061 0.9862
-1.5641 -3.0421 -0.2040 0.9864
-1.5124 -3.0503 -0.2030 0.9864
-1.4026 -3.0498 -0.2002 0.9866
-1.3600 -3.0748 -0.2005 0.9866
-1.3882 -3.4040 -0.2192 0.9854
-1.3128 -3.5091 -0.2234 0.9851
-1.2764 -3.5697 -0.2261 0.9849
-1.2285 -3.6010 -0.2269 0.9849
-1.2068 -3.7142 -0.2329 0.9845
-1.1185 -3.8189 -0.2373 0.9842
-1.0706 -3.8636 -0.2391 0.9841
-2.0214 -8.7719 -0.5368 0.9646
-1.5053 -8.8739 -0.5367 0.9646
-1.2432 -8.8979 -0.5358 0.9646
-0.2950 -2.6811 -0.1609 0.9892
-0.2228 -2.7674 -0.1656 0.9889
-0.1852 -2.8124 -0.1681 0.9888
-0.1463 -2.8588 -0.1707 0.9886
-0.1062 -2.9066 -0.1734 0.9884
-0.0648 -2.9561 -0.1763 0.9882
-0.0219 -3.0070 -0.1793 0.9880
0.0183 -2.4972 -0.1489 0.9900
0.0920 -2.5179 -0.1503 0.9900
0.2054 -2.5498 -0.1525 0.9898
0.2440 -2.5607 -0.1534 0.9897
0.2906 -2.3272 -0.1399 0.9906
0.5411 -2.5155 -0.1534 0.9897
0.6705 -2.5646 -0.1581 0.9894
0.8568 -2.6367 -0.1653 0.9890
0.9062 -2.6561 -0.1674 0.9888
1.0089 -2.6966 -0.1717 0.9885
1.1945 -2.8110 -0.1821 0.9878
1.2231 -2.6595 -0.1746 0.9883
1.2495 -2.5200 -0.1677 0.9888
1.2619 -2.4542 -0.1646 0.9890
1.2948 -2.3470 -0.1598 0.9893
1.3248 -2.3205 -0.1593 0.9893
1.3547 -2.2944 -0.1589 0.9894
1.3844 -2.2684 -0.1585 0.9894
1.4140 -2.2425 -0.1581 0.9894
1.4436 -2.2169 -0.1578 0.9895
6.0280 -8.4255 -0.6178 0.9593
7.8995 -10.3861 -0.7781 0.9491
7.6505 -9.7595 -0.7395 0.9515
7.6869 -9.5162 -0.7295 0.9522
3.4320 -3.8871 -0.3092 0.9794
7.9839 -8.7806 -0.7077 0.9536
8.1739 -8.7298 -0.7132 0.9532
8.6586 -8.9808 -0.7439 0.9512
9.1672 -8.9684 -0.7648 0.9499
9.4382 -8.9674 -0.7764 0.9492
12.1342 -11.1962 -0.9846 0.9360
12.2976 -11.0187 -0.9847 0.9360
13.1628 -10.4745 -1.0031 0.9348
5.4500 -4.0826 -0.4061 0.9731
5.1322 -3.5043 -0.3706 0.9754
5.0584 -3.1380 -0.3550 0.9764
5.3787 -3.1228 -0.3709 0.9754
5.3318 -2.8907 -0.3617 0.9760
5.3092 -2.7788 -0.3573 0.9763
6.3096 -3.0709 -0.4185 0.9723
6.3663 -2.8717 -0.4165 0.9724
8.3492 -3.1933 -0.5331 0.9648
8.6568 -3.1667 -0.5497 0.9637
9.4035 -2.8291 -0.5856 0.9614
13.5628 -3.2300 -0.8314 0.9457
16.1969 -3.6080 -0.9896 0.9357
16.2484 -3.3711 -0.9896 0.9357
16.2964 -3.1334 -0.9896 0.9357
16.3408 -2.8949 -0.9896 0.9357
16.7087 -2.2100 -1.0051 0.9347
16.7666 -1.7209 -1.0051 0.9347
16.7902 -1.4758 -1.0051 0.9347
16.8102 -1.2303 -1.0051 0.9347
16.8265 -0.9846 -1.0051 0.9347
16.8483 -0.4925 -1.0051 0.9347
16.8102 1.2304 -1.0051 0.9347
16.7903 1.4759 -1.0051 0.9347
16.7667 1.7210 -1.0051 0.9347
16.7395 1.9658 -1.0051 0.9347
16.7087 2.2101 -1.0051 0.9347
16.5948 2.9400 -1.0050 0.9347
16.1888 3.6063 -0.9891 0.9357
16.1347 4.8543 -1.0048 0.9347
10.3392 3.2761 -0.6468 0.9575
9.9862 3.3256 -0.6277 0.9587
9.6535 3.3723 -0.6098 0.9599
9.3509 3.4207 -0.5938 0.9609
9.1593 3.5032 -0.5848 0.9615
9.0930 3.6310 -0.5839 0.9615
8.9981 3.7464 -0.5812 0.9617
6.3177 2.8498 -0.4133 0.9726
6.1265 2.8720 -0.4035 0.9733
5.8126 2.9349 -0.3883 0.9742
5.6646 2.9649 -0.3813 0.9747
5.5617 3.0154 -0.3773 0.9750
5.4616 3.1710 -0.3766 0.9750
5.4224 3.4746 -0.3840 0.9745
5.3583 3.5450 -0.3831 0.9746
5.3302 3.6395 -0.3849 0.9745
5.5462 4.0296 -0.4088 0.9729
3.8611 2.8924 -0.2877 0.9809
3.7613 2.9045 -0.2834 0.9811
3.5703 2.9274 -0.2753 0.9817
3.4788 2.9384 -0.2715 0.9819
3.3897 2.9491 -0.2679 0.9822
3.2296 2.9799 -0.2620 0.9825
3.0784 3.0117 -0.2568 0.9829
3.0050 3.0270 -0.2544 0.9831
2.8622 3.0570 -0.2497 0.9834
2.7488 3.1133 -0.2477 0.9835
2.7098 3.1610 -0.2483 0.9835
2.6747 3.2141 -0.2493 0.9834
2.6443 3.2736 -0.2509 0.9833
2.6590 3.3921 -0.2570 0.9829
2.6745 3.5164 -0.2634 0.9825
2.6907 3.6471 -0.2703 0.9820
2.7078 3.7848 -0.2775 0.9815
2.7262 3.9307 -0.2853 0.9810
2.7459 4.0852 -0.2935 0.9805
2.9580 5.7532 -0.3858 0.9744
2.9943 6.0394 -0.4020 0.9733
2.9146 6.3376 -0.4160 0.9724
6.6781 15.0982 -0.9845 0.9360
6.4560 15.1924 -0.9844 0.9360
5.3266 15.6139 -0.9838 0.9360
0.8241 2.5364 -0.1590 0.9894
0.6551 2.5056 -0.1544 0.9897
0.5784 2.5100 -0.1536 0.9897
0.5404 2.5122 -0.1532 0.9898
0.5026 2.5143 -0.1529 0.9898
0.3525 2.5229 -0.1519 0.9898
0.2039 2.5314 -0.1514 0.9899
0.1669 2.5335 -0.1514 0.9899
0.1298 2.5355 -0.1514 0.9899
0.0929 2.5399 -0.1516 0.9899
0.0559 2.5492 -0.1521 0.9898
-0.0187 2.5681 -0.1531 0.9898
-0.1329 2.5968 -0.1551 0.9896
-0.1716 2.6066 -0.1558 0.9896
-0.4970 2.6909 -0.1632 0.9891
-1.4732 5.6358 -0.3474 0.9769
-1.5059 5.4351 -0.3363 0.9777
-1.5366 5.2467 -0.3260 0.9783
-1.5654 5.0694 -0.3164 0.9790
-1.6183 4.7443 -0.2989 0.9801
-1.6426 4.5947 -0.2910 0.9806
-1.6657 4.4529 -0.2835 0.9811
-1.6876 4.3181 -0.2765 0.9816
-1.7088 4.1906 -0.2699 0.9820
-1.7904 3.7483 -0.2477 0.9835
-1.8088 3.6488 -0.2428 0.9838
-1.8265 3.5529 -0.2382 0.9841
-1.8434 3.4607 -0.2338 0.9844
-1.8598 3.3717 -0.2296 0.9847
-1.8756 3.2859 -0.2256 0.9850
-1.9539 3.0011 -0.2135 0.9858
-2.1479 3.0025 -0.2201 0.9853
-2.3545 3.0039 -0.2276 0.9848
-2.4265 3.0044 -0.2303 0.9846
-2.5872 3.0183 -0.2371 0.9842
-2.7685 3.0451 -0.2454 0.9836
-3.0989 3.1220 -0.2623 0.9825
-3.2261 3.1564 -0.2692 0.9821
-4.3977 4.0577 -0.3568 0.9763
-0.8166 0.7105 -0.0645 0.9957
-0.6665 0.5465 -0.0514 0.9966
-0.6653 0.5295 -0.0507 0.9966
-0.6606 0.4654 -0.0482 0.9968
-0.6581 0.4354 -0.0471 0.9968
-0.6557 0.4068 -0.0460 0.9969
-0.6513 0.3782 -0.0449 0.9970
-0.6491 0.3643 -0.0444 0.9970
-0.6448 0.3375 -0.0434 0.9971
-0.6427 0.3245 -0.0429 0.9971
-0.6384 0.2993 -0.0420 0.9972
-0.6363 0.2871 -0.0416 0.9972
-0.6300 0.2516 -0.0405 0.9973
-0.6280 0.2402 -0.0401 0.9973
-0.6249 0.2184 -0.0395 0.9974
-0.6234 0.2077 -0.0392 0.9974
-0.6138 0.1273 -0.0374 0.9975
-0.6126 0.1179 -0.0372 0.9975
-0.6101 0.0990 -0.0369 0.9975
-0.6089 0.0896 -0.0367 0.9975
-0.6076 0.0804 -0.0366 0.9975
-0.6063 0.0713 -0.0364 0.9976
-0.6038 0.0531 -0.0361 0.9976
-0.6028 0.0442 -0.0360 0.9976
-0.6006 0.0264 -0.0359 0.9976
-0.5995 0.0176 -0.0358 0.9976
-0.5983 0.0088 -0.0357 0.9976
-0.5752 0.0000 -0.0407 0.9977
-0.5763 -0.0084 -0.0408 0.9977
-0.5773 -0.0168 -0.0409 0.9977
-0.5803 -0.0425 -0.0412 0.9977
-0.5813 -0.0511 -0.0413 0.9977
-0.5822 -0.0597 -0.0414 0.9977
-0.5842 -0.0772 -0.0417 0.9976
-0.5896 -0.1223 -0.0426 0.9976
-0.5907 -0.1315 -0.0428 0.9976
-0.5945 -0.1694 -0.0437 0.9975
-0.5955 -0.1791 -0.0440 0.9975
-0.5963 -0.1889 -0.0443 0.9975
-0.5975 -0.1989 -0.0446 0.9975
-0.5987 -0.2091 -0.0449 0.9975
-0.5999 -0.2194 -0.0452 0.9974
-0.6023 -0.2404 -0.0459 0.9974
-0.6050 -0.2623 -0.0467 0.9974
-0.6068 -0.2736 -0.0471 0.9973
-0.6102 -0.2970 -0.0480 0.9973
-0.6119 -0.3089 -0.0485 0.9973
-0.6136 -0.3211 -0.0490 0.9972
-0.6153 -0.3336 -0.0495 0.9972
-0.6187 -0.3592 -0.0506 0.9971
-0.6204 -0.3724 -0.0512 0.9971
-0.6240 -0.3998 -0.0524 0.9970
-0.6258 -0.4140 -0.0531 0.9970
-0.6274 -0.4284 -0.0538 0.9970
-0.6281 -0.4425 -0.0544 0.9969
-0.6289 -0.4569 -0.0550 0.9969
-0.6296 -0.4717 -0.0557 0.9969
-0.6304 -0.4867 -0.0564 0.9968
-0.6311 -0.5021 -0.0571 0.9968
-0.6317 -0.5179 -0.0578 0.9967
-0.6329 -0.5506 -0.0594 0.9966
-0.6970 -0.6245 -0.0662 0.9963
-10.1476 -9.6414 -0.9905 0.9454
-10.0064 -9.7895 -0.9906 0.9454
-9.4205 -10.3606 -0.9909 0.9454
-9.1152 -10.6332 -0.9911 0.9454
-2.3171 -2.9559 -0.2658 0.9851
-6.7121 -9.0979 -0.8000 0.9557
-8.0060 -11.1904 -0.9736 0.9463
-1.9219 -2.8593 -0.2438 0.9863
-1.8856 -2.8957 -0.2445 0.9862
-1.8490 -2.9325 -0.2453 0.9862
-1.8123 -2.9695 -0.2462 0.9861
-1.6883 -3.0604 -0.2473 0.9861
-1.6348 -3.0686 -0.2460 0.9862
-1.5744 -3.0622 -0.2437 0.9863
-1.3247 -3.1174 -0.2397 0.9865
-1.2746 -3.1254 -0.2388 0.9866
-1.3603 -3.4803 -0.2644 0.9851
-1.3343 -3.5665 -0.2695 0.9848
-1.2181 -3.5704 -0.2670 0.9850
-1.1218 -3.8298 -0.2824 0.9841
-1.0572 -3.8153 -0.2802 0.9842
-2.1885 -8.9007 -0.6486 0.9639
-2.0134 -8.7373 -0.6345 0.9647
-1.6104 -8.7183 -0.6274 0.9651
-1.3753 -8.8936 -0.6368 0.9646
-1.2426 -8.8940 -0.6355 0.9646
-0.2207 -2.7404 -0.1945 0.9890
-0.1834 -2.7846 -0.1975 0.9889
-0.0217 -2.9753 -0.2105 0.9881
0.0184 -2.5150 -0.1780 0.9900
0.0554 -2.5255 -0.1788 0.9899
0.1304 -2.5467 -0.1804 0.9898
0.1684 -2.5575 -0.1814 0.9898
0.2069 -2.5684 -0.1823 0.9897
0.2925 -2.3424 -0.1670 0.9906
0.4330 -2.5525 -0.1832 0.9897
0.4745 -2.5686 -0.1848 0.9896
0.5167 -2.5850 -0.1865 0.9895
0.6484 -2.6372 -0.1922 0.9892
0.6943 -2.6555 -0.1942 0.9891
0.7891 -2.6939 -0.1986 0.9888
0.8382 -2.7139 -0.2010 0.9887
0.8885 -2.7346 -0.2035 0.9885
0.9402 -2.7559 -0.2061 0.9884
0.9991 -2.7943 -0.2100 0.9882
1.1679 -3.1216 -0.2358 0.9867
1.1852 -2.9061 -0.2221 0.9875
1.2003 -2.8245 -0.2172 0.9878
1.2149 -2.7465 -0.2125 0.9880
1.2983 -2.4368 -0.1954 0.9890
1.3903 -2.3548 -0.1935 0.9891
1.4511 -2.3013 -0.1925 0.9891
1.5114 -2.2487 -0.1917 0.9892
6.2768 -8.5077 -0.7481 0.9585
8.0904 -10.3206 -0.9280 0.9488
9.2067 -10.7398 -1.0010 0.9449
3.4342 -3.8895 -0.3672 0.9794
9.8216 -10.1871 -1.0013 0.9448
10.2610 -9.7492 -1.0016 0.9448
10.6808 -9.2923 -1.0018 0.9448
10.5878 -8.9430 -0.9807 0.9459
10.9494 -8.9776 -1.0019 0.9448
11.0802 -8.8172 -1.0020 0.9448
11.2086 -8.6550 -1.0021 0.9448
5.4521 -4.0841 -0.4820 0.9731
5.0117 -3.6411 -0.4384 0.9755
5.0713 -3.5724 -0.4390 0.9754
5.1310 -3.5034 -0.4396 0.9754
5.1910 -3.4343 -0.4404 0.9753
4.7956 -3.0729 -0.4030 0.9774
5.0584 -3.1380 -0.4212 0.9764
5.3461 -3.2093 -0.4412 0.9753
5.3440 -3.1027 -0.4373 0.9755
5.2983 -2.8725 -0.4265 0.9761
5.2546 -2.6532 -0.4165 0.9767
6.2794 -2.8325 -0.4875 0.9728
6.3072 -2.7348 -0.4865 0.9728
7.6329 -3.1780 -0.5851 0.9674
8.3022 -3.3152 -0.6326 0.9648
8.4123 -3.2175 -0.6373 0.9645
8.7502 -3.0567 -0.6559 0.9635
9.5209 -2.8644 -0.7036 0.9609
13.3857 -3.6041 -0.9809 0.9459
13.6305 -3.0363 -0.9882 0.9455
13.6737 -2.8369 -0.9882 0.9455
13.7140 -2.6368 -0.9882 0.9455
13.9650 -2.4741 -1.0036 0.9447
14.0319 -2.0650 -1.0036 0.9447
14.0608 -1.8598 -1.0036 0.9447
14.0867 -1.6542 -1.0036 0.9447
14.1095 -1.4482 -1.0037 0.9447
14.1598 -0.8285 -1.0037 0.9447
14.1705 -0.6215 -1.0037 0.9447
14.1827 -0.2072 -1.0037 0.9447
14.1842 0.0000 -1.0037 0.9447
14.1827 0.2073 -1.0037 0.9447
14.1599 0.8286 -1.0037 0.9447
14.1096 1.4483 -1.0037 0.9447
14.0608 1.8599 -1.0036 0.9447
14.0319 2.0651 -1.0036 0.9447
13.9272 2.6779 -1.0036 0.9447
13.8863 2.8811 -1.0035 0.9447
13.8424 3.0836 -1.0035 0.9447
13.7955 3.2854 -1.0035 0.9447
13.6929 3.6869 -1.0034 0.9447
13.6371 3.8864 -1.0034 0.9447
10.4908 3.4936 -0.7824 0.9566
8.9886 3.7425 -0.6890 0.9617
6.3348 2.8575 -0.4918 0.9725
6.1498 2.8830 -0.4806 0.9731
5.9777 2.9095 -0.4704 0.9737
5.6751 2.9704 -0.4533 0.9746
5.5667 3.0181 -0.4481 0.9749
5.5166 3.0961 -0.4476 0.9750
5.4545 3.2744 -0.4502 0.9748
5.4528 3.3828 -0.4541 0.9746
5.3610 3.4353 -0.4506 0.9748
5.3007 3.5070 -0.4497 0.9748
5.2667 3.5961 -0.4513 0.9748
5.2675 3.7107 -0.4559 0.9745
5.5429 4.0272 -0.4848 0.9729
3.7449 2.8917 -0.3348 0.9812
3.6487 2.9035 -0.3300 0.9815
3.5551 2.9150 -0.3253 0.9817
3.4642 2.9261 -0.3209 0.9820
3.2949 2.9523 -0.3130 0.9824
3.2174 2.9687 -0.3098 0.9826
3.1414 2.9847 -0.3066 0.9828
3.0670 3.0005 -0.3036 0.9829
2.7421 3.1057 -0.2932 0.9835
2.6613 3.7198 -0.3236 0.9818
2.7432 4.0813 -0.3480 0.9805
2.7640 4.2448 -0.3584 0.9799
2.8094 4.6034 -0.3816 0.9786
2.8344 4.8008 -0.3945 0.9779
2.9208 5.4825 -0.4396 0.9754
5.4372 12.7947 -0.9837 0.9458
5.0599 12.9454 -0.9835 0.9458
4.8697 13.0166 -0.9834 0.9458
4.6785 13.0850 -0.9833 0.9458
0.6540 2.5013 -0.1829 0.9897
0.6156 2.5036 -0.1824 0.9897
0.5775 2.5058 -0.1820 0.9897
0.4266 2.5145 -0.1805 0.9898
0.2777 2.5230 -0.1796 0.9899
0.1666 2.5293 -0.1794 0.9899
0.0558 2.5449 -0.1801 0.9898
0.0187 2.5543 -0.1807 0.9898
-0.0187 2.5637 -0.1814 0.9898
-0.0943 2.5827 -0.1829 0.9897
-0.1326 2.5924 -0.1837 0.9896
-0.1713 2.6021 -0.1845 0.9896
-0.2103 2.6119 -0.1854 0.9895
-0.3705 2.6521 -0.1895 0.9893
-0.4536 2.6743 -0.1919 0.9892
-0.5952 2.7673 -0.2003 0.9887
-1.3533 5.8728 -0.4265 0.9761
-1.4306 5.8191 -0.4240 0.9763
-1.4656 5.6068 -0.4101 0.9770
-1.5292 5.2213 -0.3850 0.9784
-1.5581 5.0457 -0.3737 0.9790
-1.6112 4.7233 -0.3531 0.9802
-1.6356 4.5750 -0.3438 0.9807
-1.7016 4.1731 -0.3189 0.9821
-1.7215 4.0516 -0.3115 0.9825
-1.7423 3.9395 -0.3048 0.9829
-1.7623 3.8324 -0.2985 0.9832
-1.7815 3.7296 -0.2925 0.9836
-1.8000 3.6309 -0.2868 0.9839
-1.8177 3.5359 -0.2813 0.9842
-1.8512 3.3561 -0.2712 0.9847
-1.8671 3.2709 -0.2665 0.9850
-1.8823 3.1886 -0.2620 0.9853
-1.8971 3.1090 -0.2577 0.9855
-1.9477 2.9916 -0.2526 0.9858
-2.4150 2.9901 -0.2720 0.9847
-2.6628 3.0162 -0.2847 0.9840
-2.7571 3.0326 -0.2900 0.9837
-2.8555 3.0501 -0.2957 0.9834
-3.0729 3.0957 -0.3087 0.9827
-3.1983 3.1293 -0.3166 0.9822
-3.3303 3.1645 -0.3251 0.9817
-0.6970 0.6246 -0.0662 0.9963
-0.6329 0.5507 -0.0594 0.9966
-0.6323 0.5342 -0.0586 0.9967
-0.6310 0.5022 -0.0571 0.9968
-0.6304 0.4868 -0.0564 0.9968
-0.6289 0.4570 -0.0550 0.9969
-0.6282 0.4425 -0.0544 0.9969
-0.6274 0.4284 -0.0538 0.9970
-0.6258 0.4141 -0.0531 0.9970
-0.6240 0.3999 -0.0524 0.9970
-0.6170 0.3464 -0.0501 0.9972
-0.6153 0.3337 -0.0495 0.9972
-0.6102 0.2971 -0.0480 0.9973
-0.6085 0.2853 -0.0476 0.9973
-0.6067 0.2738 -0.0471 0.9973
-0.5987 0.2092 -0.0449 0.9975
-0.5975 0.1990 -0.0446 0.9975
-0.5963 0.1890 -0.0443 0.9975
-0.5954 0.1792 -0.0440 0.9975
-0.5936 0.1599 -0.0435 0.9975
-0.5926 0.1504 -0.0433 0.9976
-0.5917 0.1410 -0.0430 0.9976
-0.5907 0.1316 -0.0428 0.9976
-0.5897 0.1224 -0.0426 0.9976
-0.5886 0.1132 -0.0424 0.9976
-0.5875 0.1041 -0.0422 0.9976
-0.5865 0.0951 -0.0420 0.9976
-0.5853 0.0862 -0.0419 0.9976
-0.5813 0.0511 -0.0413 0.9977
-0.5773 0.0169 -0.0409 0.9977
-0.5547 0.0000 -0.0454 0.9978
-0.5567 -0.0162 -0.0456 0.9978
-0.5586 -0.0326 -0.0458 0.9978
-0.5595 -0.0409 -0.0460 0.9978
-0.5612 -0.0575 -0.0462 0.9977
-0.5620 -0.0660 -0.0464 0.9977
-0.5635 -0.0829 -0.0467 0.9977
-0.5645 -0.0915 -0.0468 0.9977
-0.5654 -0.1002 -0.0470 0.9977
-0.5664 -0.1089 -0.0472 0.9977
-0.5673 -0.1176 -0.0475 0.9977
-0.5682 -0.1265 -0.0477 0.9977
-0.5721 -0.1721 -0.0489 0.9976
-0.5736 -0.1910 -0.0495 0.9976
-0.5746 -0.2007 -0.0499 0.9976
-0.5755 -0.2105 -0.0502 0.9975
-0.5765 -0.2204 -0.0506 0.9975
-0.5802 -0.2617 -0.0521 0.9974
-0.5839 -0.2948 -0.0536 0.9974
-0.5853 -0.3064 -0.0541 0.9974
-0.5866 -0.3180 -0.0547 0.9973
-0.5879 -0.3300 -0.0552 0.9973
-0.5905 -0.3545 -0.0564 0.9972
-0.5918 -0.3671 -0.0570 0.9972
-0.5944 -0.3932 -0.0584 0.9971
-0.5983 -0.4347 -0.0606 0.9970
-0.5995 -0.4491 -0.0614 0.9970
-0.5998 -0.4632 -0.0621 0.9970
-0.6003 -0.4922 -0.0636 0.9969
-0.6008 -0.5383 -0.0661 0.9968
-0.6009 -0.5544 -0.0670 0.9967
-0.6766 -0.6428 -0.0764 0.9963
-8.6511 -8.4636 -0.9913 0.9526
-8.5271 -8.5896 -0.9914 0.9526
-8.4013 -8.7139 -0.9914 0.9526
-8.1442 -8.9570 -0.9916 0.9526
-8.0131 -9.0756 -0.9917 0.9526
-7.8802 -9.1924 -0.9917 0.9526
-2.2987 -3.0222 -0.3110 0.9849
-2.2126 -2.9991 -0.3053 0.9852
-1.8324 -3.0025 -0.2881 0.9860
-1.7080 -3.0961 -0.2896 0.9859
-1.6538 -3.1043 -0.2881 0.9860
-1.5909 -3.0943 -0.2850 0.9861
-1.5471 -3.1205 -0.2853 0.9861
-1.3890 -2.9075 -0.2639 0.9872
-1.3909 -3.1446 -0.2816 0.9863
-1.3397 -3.1527 -0.2806 0.9863
-1.1701 -3.6013 -0.3102 0.9849
-2.0168 -8.7521 -0.7357 0.9646
-1.8660 -8.6748 -0.7268 0.9650
-1.5019 -8.8539 -0.7356 0.9646
-0.3234 -2.5909 -0.2139 0.9896
-0.2894 -2.6308 -0.2168 0.9894
-0.2545 -2.6718 -0.2198 0.9893
-0.2185 -2.7140 -0.2230 0.9891
-0.0635 -2.8953 -0.2372 0.9884
-0.0215 -2.9442 -0.2412 0.9883
0.0185 -2.5331 -0.2075 0.9899
0.0934 -2.5543 -0.2094 0.9898
0.1313 -2.5652 -0.2104 0.9897
0.1697 -2.5762 -0.2115 0.9897
0.2084 -2.5873 -0.2126 0.9896
0.2711 -2.4633 -0.2030 0.9901
0.3416 -2.4449 -0.2022 0.9901
0.4480 -2.6409 -0.2194 0.9893
0.4910 -2.6584 -0.2214 0.9892
0.5797 -2.6947 -0.2258 0.9890
0.6721 -2.7332 -0.2305 0.9888
0.8188 -2.7954 -0.2386 0.9884
0.8702 -2.8174 -0.2415 0.9882
0.9229 -2.8402 -0.2446 0.9881
0.9823 -2.8793 -0.2492 0.9879
1.0063 -2.8144 -0.2448 0.9881
1.1752 -3.0067 -0.2644 0.9871
1.2062 -2.8382 -0.2526 0.9877
1.2206 -2.7595 -0.2472 0.9880
1.2345 -2.6842 -0.2420 0.9882
1.2478 -2.6119 -0.2371 0.9884
1.2701 -2.5617 -0.2342 0.9886
1.3338 -2.5036 -0.2323 0.9887
1.3967 -2.4466 -0.2308 0.9888
1.4280 -2.4186 -0.2301 0.9888
1.4902 -2.3633 -0.2288 0.9888
1.5211 -2.3361 -0.2283 0.9889
7.2476 -9.8237 -0.9999 0.9522
7.3910 -9.7176 -1.0000 0.9522
7.8115 -9.3864 -1.0002 0.9522
3.4363 -3.8919 -0.4253 0.9794
8.3489 -8.9167 -1.0005 0.9522
3.5654 -3.6980 -0.4207 0.9796
8.7335 -8.5441 -1.0007 0.9521
8.9806 -8.2864 -1.0009 0.9521
9.5646 -7.6111 -1.0012 0.9521
5.0106 -3.6404 -0.5073 0.9754
5.2872 -2.9673 -0.4966 0.9760
5.2225 -2.6370 -0.4792 0.9768
6.1947 -2.7943 -0.5566 0.9731
6.2769 -2.5064 -0.5536 0.9732
9.0281 -3.4529 -0.7917 0.9619
8.8745 -3.2464 -0.7740 0.9628
10.5094 -2.9950 -0.8951 0.9571
11.6366 -3.1332 -0.9871 0.9528
11.7238 -2.7920 -0.9871 0.9528
11.7636 -2.6204 -0.9871 0.9528
11.9842 -2.4864 -1.0025 0.9521
12.0195 -2.3111 -1.0025 0.9521
12.0522 -2.1352 -1.0025 0.9521
12.1098 -1.7821 -1.0026 0.9521
12.1347 -1.6051 -1.0026 0.9521
12.1571 -1.4275 -1.0026 0.9521
12.1767 -1.2498 -1.0026 0.9521
12.1938 -1.0718 -1.0026 0.9521
12.2083 -0.8936 -1.0026 0.9521
12.2201 -0.7150 -1.0026 0.9521
12.2399 -0.1788 -1.0026 0.9521
12.2293 0.5364 -1.0026 0.9521
12.2202 0.7151 -1.0026 0.9521
12.1939 1.0718 -1.0026 0.9521
12.1768 1.2499 -1.0026 0.9521
12.1571 1.4277 -1.0026 0.9521
12.0824 1.9590 -1.0026 0.9521
12.0523 2.1353 -1.0026 0.9521
11.9843 2.4864 -1.0025 0.9521
11.9464 2.6612 -1.0025 0.9521
11.8175 3.1820 -1.0024 0.9521
11.7189 3.5257 -1.0024 0.9521
11.6658 3.6964 -1.0023 0.9521
11.6102 3.8664 -1.0023 0.9521
11.4285 4.3711 -1.0022 0.9521
11.3630 4.5374 -1.0022 0.9521
9.0185 3.7550 -0.8002 0.9616
6.5576 2.8434 -0.5854 0.9717
6.1736 2.8941 -0.5585 0.9730
5.8346 2.9461 -0.5354 0.9741
5.4102 3.3563 -0.5215 0.9748
5.2666 3.4844 -0.5172 0.9750
5.2306 3.5715 -0.5188 0.9749
5.2222 3.6788 -0.5232 0.9747
5.2818 3.8375 -0.5348 0.9741
3.8359 2.8736 -0.3926 0.9809
3.7340 2.8833 -0.3864 0.9812
3.6352 2.8927 -0.3805 0.9815
3.4497 2.9138 -0.3699 0.9820
3.0557 2.9895 -0.3501 0.9830
2.9831 3.0050 -0.3468 0.9832
2.7398 3.1030 -0.3390 0.9835
2.6701 3.2084 -0.3419 0.9834
2.6687 3.5088 -0.3611 0.9825
2.6285 3.5628 -0.3626 0.9824
2.5824 3.6096 -0.3635 0.9823
2.5518 3.6791 -0.3667 0.9822
2.7406 4.0773 -0.4024 0.9805
2.7831 4.4140 -0.4274 0.9793
2.8065 4.5986 -0.4413 0.9786
2.8313 4.7955 -0.4561 0.9779
2.8580 5.0063 -0.4722 0.9771
2.8865 5.2324 -0.4895 0.9763
2.9504 5.7386 -0.5285 0.9744
2.9864 6.0234 -0.5507 0.9734
2.8669 6.2337 -0.5620 0.9728
2.8175 6.3698 -0.5705 0.9724
4.6953 11.0490 -0.9833 0.9530
4.3697 11.1796 -0.9832 0.9530
4.2055 11.2411 -0.9831 0.9530
0.8241 2.5361 -0.2184 0.9894
0.7778 2.5184 -0.2159 0.9895
0.7334 2.5037 -0.2137 0.9896
0.6926 2.4992 -0.2124 0.9896
0.5765 2.5016 -0.2103 0.9897
0.5386 2.5038 -0.2098 0.9898
0.4259 2.5104 -0.2085 0.9898
0.2772 2.5188 -0.2076 0.9899
0.2402 2.5209 -0.2074 0.9899
0.0557 2.5406 -0.2081 0.9899
0.0187 2.5499 -0.2089 0.9898
-0.0186 2.5593 -0.2096 0.9898
-0.0942 2.5782 -0.2113 0.9897
-0.1710 2.5975 -0.2132 0.9896
-0.2099 2.6073 -0.2142 0.9896
-0.2493 2.6171 -0.2153 0.9895
-0.2890 2.6271 -0.2165 0.9894
-0.3292 2.6371 -0.2177 0.9894
-0.3698 2.6473 -0.2189 0.9893
-0.4112 2.6597 -0.2204 0.9893
-0.5962 2.7718 -0.2322 0.9887
-1.3400 5.8150 -0.4888 0.9763
-1.4581 5.5782 -0.4722 0.9771
-1.5508 5.0221 -0.4305 0.9791
-1.5782 4.8579 -0.4184 0.9797
-1.6285 4.5554 -0.3962 0.9808
-1.6738 4.2829 -0.3766 0.9817
-1.6948 4.1564 -0.3677 0.9821
-1.7339 3.9206 -0.3511 0.9829
-1.7534 3.8129 -0.3437 0.9833
-1.7912 3.6132 -0.3303 0.9839
-1.8426 3.3407 -0.3125 0.9848
-1.8739 3.1745 -0.3019 0.9853
-1.8888 3.0954 -0.2970 0.9856
-1.9032 3.0188 -0.2923 0.9858
-1.9969 2.9712 -0.2932 0.9857
-2.1257 2.9716 -0.2993 0.9854
-2.1922 2.9717 -0.3025 0.9853
-2.3294 2.9720 -0.3093 0.9850
-2.4065 2.9796 -0.3137 0.9847
-2.6529 3.0051 -0.3283 0.9840
-2.7458 3.0202 -0.3343 0.9838
-2.9452 3.0552 -0.3476 0.9831
-3.0510 3.0737 -0.3547 0.9828
-0.6008 0.5384 -0.0661 0.9968
-0.6005 0.5073 -0.0644 0.9968
-0.6003 0.4923 -0.0636 0.9969
-0.6001 0.4776 -0.0628 0.9969
-0.5998 0.4632 -0.0621 0.9970
-0.5995 0.4491 -0.0614 0.9970
-0.5971 0.4207 -0.0598 0.9971
-0.5958 0.4068 -0.0591 0.9971
-0.5931 0.3801 -0.0577 0.9972
-0.5918 0.3672 -0.0570 0.9972
-0.5905 0.3546 -0.0564 0.9972
-0.5892 0.3422 -0.0558 0.9973
-0.5879 0.3300 -0.0552 0.9973
-0.5866 0.3181 -0.0547 0.9973
-0.5853 0.3064 -0.0541 0.9974
-0.5839 0.2949 -0.0536 0.9974
-0.5826 0.2836 -0.0531 0.9974
-0.5802 0.2618 -0.0521 0.9974
-0.5784 0.2409 -0.0513 0.9975
-0.5775 0.2306 -0.0509 0.9975
-0.5765 0.2205 -0.0506 0.9975
-0.5706 0.1537 -0.0484 0.9976
-0.5698 0.1446 -0.0482 0.9976
-0.5690 0.1355 -0.0479 0.9977
-0.5664 0.1089 -0.0472 0.9977
-0.5620 0.0661 -0.0464 0.9977
-0.5612 0.0577 -0.0462 0.9977
-0.5595 0.0410 -0.0460 0.9978
-0.5586 0.0327 -0.0458 0.9978
-0.5577 0.0245 -0.0457 0.9978
-0.5567 0.0163 -0.0456 0.9978
-0.5357 0.0000 -0.0499 0.9979
-0.5375 -0.0157 -0.0501 0.9978
-0.5392 -0.0315 -0.0503 0.9978
-0.5416 -0.0555 -0.0507 0.9978
-0.5423 -0.0637 -0.0508 0.9978
-0.5430 -0.0718 -0.0510 0.9978
-0.5443 -0.0882 -0.0513 0.9978
-0.5449 -0.0965 -0.0515 0.9978
-0.5480 -0.1305 -0.0524 0.9977
-0.5487 -0.1391 -0.0527 0.9977
-0.5493 -0.1479 -0.0530 0.9977
-0.5500 -0.1568 -0.0532 0.9977
-0.5523 -0.1929 -0.0544 0.9977
-0.5538 -0.2118 -0.0552 0.9976
-0.5546 -0.2214 -0.0556 0.9976
-0.5553 -0.2312 -0.0560 0.9976
-0.5560 -0.2411 -0.0564 0.9976
-0.5573 -0.2612 -0.0573 0.9975
-0.5579 -0.2715 -0.0578 0.9975
-0.5594 -0.2927 -0.0588 0.9975
-0.5614 -0.3150 -0.0599 0.9974
-0.5624 -0.3265 -0.0605 0.9974
-0.5633 -0.3382 -0.0612 0.9974
-0.5661 -0.3745 -0.0632 0.9973
-0.5687 -0.4132 -0.0654 0.9972
-0.5719 -0.4689 -0.0688 0.9970
-0.5715 -0.4972 -0.0705 0.9970
-0.5706 -0.5421 -0.0733 0.9968
-0.5702 -0.5578 -0.0742 0.9968
-0.6549 -0.6597 -0.0865 0.9963
-7.1710 -7.8865 -0.9921 0.9581
-7.0554 -7.9910 -0.9922 0.9581
-6.9383 -8.0938 -0.9922 0.9581
-6.8198 -8.1948 -0.9923 0.9581
-6.5783 -8.3917 -0.9924 0.9581
-2.3700 -3.1161 -0.3644 0.9844
-2.2800 -3.0904 -0.3574 0.9847
-2.1934 -3.0658 -0.3509 0.9850
-1.9647 -2.9230 -0.3278 0.9860
-1.9277 -2.9605 -0.3288 0.9859
-1.8151 -2.8787 -0.3168 0.9864
-1.5546 -2.8180 -0.2996 0.9872
-1.5598 -2.9277 -0.3088 0.9868
-1.5656 -3.0452 -0.3187 0.9863
-1.5119 -3.1648 -0.3265 0.9860
-1.4515 -3.1561 -0.3233 0.9861
-1.3265 -2.9989 -0.3052 0.9869
-1.3037 -3.1968 -0.3213 0.9862
-1.2140 -3.3954 -0.3356 0.9856
-1.1685 -3.4252 -0.3368 0.9856
-1.1705 -3.6025 -0.3526 0.9849
-1.1163 -3.6144 -0.3521 0.9849
-1.0369 -3.5400 -0.3433 0.9853
-0.9259 -3.7657 -0.3609 0.9845
-0.9168 -3.9786 -0.3800 0.9837
-1.8755 -8.7190 -0.8301 0.9648
-1.7413 -8.7125 -0.8269 0.9649
-1.6198 -8.7696 -0.8300 0.9648
-0.2867 -2.6063 -0.2440 0.9895
-0.2521 -2.6465 -0.2474 0.9894
-0.2165 -2.6879 -0.2510 0.9892
-0.1798 -2.7305 -0.2547 0.9891
-0.1420 -2.7743 -0.2586 0.9889
-0.0213 -2.9138 -0.2712 0.9884
0.0187 -2.5514 -0.2375 0.9898
0.0562 -2.5622 -0.2385 0.9898
0.1323 -2.5841 -0.2408 0.9897
0.2494 -2.6180 -0.2448 0.9895
0.2715 -2.4675 -0.2310 0.9901
0.2964 -2.3735 -0.2226 0.9904
0.5089 -2.7549 -0.2607 0.9888
0.5777 -2.6857 -0.2557 0.9890
0.6903 -2.8071 -0.2691 0.9885
0.7985 -2.8815 -0.2783 0.9881
0.8509 -2.9050 -0.2817 0.9879
0.9306 -3.0130 -0.2935 0.9874
1.0369 -2.7715 -0.2754 0.9882
1.1970 -2.9351 -0.2950 0.9873
1.2265 -2.7727 -0.2822 0.9879
1.2733 -2.6653 -0.2749 0.9882
1.4358 -2.5151 -0.2696 0.9884
1.4678 -2.4861 -0.2687 0.9885
1.4997 -2.4574 -0.2680 0.9885
1.5632 -2.4007 -0.2666 0.9886
1.5949 -2.3728 -0.2661 0.9886
1.6265 -2.3451 -0.2656 0.9886
6.5011 -8.5476 -0.9995 0.9578
6.6258 -8.4522 -0.9996 0.9578
3.3439 -4.0181 -0.4866 0.9792
3.5016 -3.8510 -0.4845 0.9793
7.3433 -7.8427 -1.0000 0.9578
3.5736 -3.7065 -0.4792 0.9795
2.5164 -2.5348 -0.3324 0.9858
2.5264 -2.4715 -0.3290 0.9859
7.8986 -7.2879 -1.0003 0.9577
8.1091 -7.0548 -1.0004 0.9577
8.2117 -6.9360 -1.0005 0.9577
8.3127 -6.8156 -1.0005 0.9577
8.5092 -6.5705 -1.0006 0.9577
5.4563 -4.0873 -0.6345 0.9730
5.4820 -3.9829 -0.6307 0.9731
5.0690 -3.5708 -0.5771 0.9754
5.1287 -3.5019 -0.5780 0.9754
5.1886 -3.4327 -0.5790 0.9753
4.7957 -3.0730 -0.5301 0.9774
5.2539 -2.9486 -0.5607 0.9761
5.2324 -2.8368 -0.5540 0.9764
5.2113 -2.7276 -0.5475 0.9766
5.1907 -2.6209 -0.5412 0.9769
5.6734 -2.7614 -0.5873 0.9750
5.6035 -2.6268 -0.5760 0.9754
8.7386 -3.1966 -0.8661 0.9633
9.4764 -3.1558 -0.9296 0.9607
10.1911 -2.9043 -0.9863 0.9583
10.2721 -2.6054 -0.9863 0.9583
10.4694 -2.4932 -1.0017 0.9577
10.6486 -1.5671 -1.0018 0.9577
10.7074 -1.0989 -1.0018 0.9577
10.7224 -0.9424 -1.0018 0.9577
10.7351 -0.7857 -1.0018 0.9577
10.7455 -0.6287 -1.0018 0.9577
10.7536 -0.4716 -1.0018 0.9577
10.7593 -0.3145 -1.0018 0.9577
10.7594 0.3145 -1.0018 0.9577
10.7536 0.4717 -1.0018 0.9577
10.7455 0.6288 -1.0018 0.9577
10.7351 0.7857 -1.0018 0.9577
10.7224 0.9425 -1.0018 0.9577
10.7074 1.0990 -1.0018 0.9577
10.6705 1.4114 -1.0018 0.9577
10.5692 2.0322 -1.0017 0.9577
10.5383 2.1864 -1.0017 0.9577
10.3495 2.9495 -1.0016 0.9577
10.2584 3.2505 -1.0016 0.9577
10.0499 3.8438 -1.0015 0.9577
9.9923 3.9901 -1.0014 0.9577
6.5826 2.8543 -0.6678 0.9716
6.3857 2.8804 -0.6520 0.9723
6.0212 2.9307 -0.6233 0.9735
5.6963 2.9815 -0.5984 0.9745
5.5769 3.0236 -0.5904 0.9748
5.5280 3.1025 -0.5900 0.9749
5.4813 3.1825 -0.5899 0.9749
5.3879 3.3425 -0.5901 0.9749
5.3056 3.3998 -0.5865 0.9750
5.1992 3.6626 -0.5919 0.9748
5.2389 3.8063 -0.6027 0.9743
3.7404 2.8883 -0.4398 0.9812
3.6413 2.8977 -0.4331 0.9815
3.2808 2.9396 -0.4100 0.9825
3.1266 2.9707 -0.4014 0.9828
3.0519 2.9857 -0.3974 0.9830
2.9786 3.0005 -0.3935 0.9832
2.9068 3.0150 -0.3898 0.9833
2.8363 3.0292 -0.3862 0.9835
2.7734 3.0502 -0.3837 0.9836
2.6712 3.2098 -0.3887 0.9834
2.6534 3.3848 -0.4003 0.9829
2.6498 3.4839 -0.4074 0.9826
2.5462 3.5589 -0.4073 0.9826
2.5095 3.6182 -0.4098 0.9825
2.7803 4.4095 -0.4852 0.9793
2.8282 4.7903 -0.5178 0.9779
2.8831 5.2263 -0.5555 0.9763
2.9137 5.4691 -0.5768 0.9754
2.9467 5.7313 -0.5998 0.9744
2.9332 6.1400 -0.6333 0.9730
2.8604 6.2196 -0.6372 0.9729
2.8089 6.3505 -0.6463 0.9725
4.1307 9.7204 -0.9830 0.9585
3.9880 9.7790 -0.9829 0.9585
3.5547 9.9419 -0.9827 0.9585
1.0663 3.1257 -0.3074 0.9868
0.8251 2.5392 -0.2485 0.9893
0.7330 2.5023 -0.2427 0.9896
0.5001 2.5018 -0.2375 0.9898
0.4625 2.5040 -0.2370 0.9898
0.4252 2.5062 -0.2366 0.9898
0.3879 2.5083 -0.2362 0.9899
0.3508 2.5104 -0.2359 0.9899
0.1292 2.5230 -0.2351 0.9899
0.0924 2.5270 -0.2354 0.9899
0.0187 2.5455 -0.2369 0.9898
-0.0940 2.5738 -0.2397 0.9897
-0.1322 2.5834 -0.2408 0.9897
-0.3695 2.6453 -0.2486 0.9893
-0.4110 2.6584 -0.2504 0.9893
-0.4960 2.6857 -0.2542 0.9891
-0.5436 2.7201 -0.2582 0.9889
-1.5711 4.8359 -0.4732 0.9798
-1.5970 4.6818 -0.4604 0.9803
-1.6449 4.3972 -0.4370 0.9813
-1.6881 4.1399 -0.4161 0.9822
-1.7082 4.0202 -0.4065 0.9826
-1.7273 3.9057 -0.3975 0.9830
-1.7457 3.7962 -0.3889 0.9834
-1.7825 3.5956 -0.3735 0.9840
-1.7656 3.4341 -0.3594 0.9846
-1.8342 3.3253 -0.3535 0.9849
-1.8502 3.2414 -0.3474 0.9851
-1.8656 3.1603 -0.3416 0.9854
-1.8950 3.0058 -0.3307 0.9858
-1.9868 2.9563 -0.3315 0.9858
-2.1148 2.9563 -0.3383 0.9855
-2.1807 2.9563 -0.3419 0.9854
-2.2481 2.9562 -0.3457 0.9852
-2.3210 2.9611 -0.3502 0.9850
-2.6432 2.9940 -0.3717 0.9841
-2.7345 3.0078 -0.3783 0.9838
-2.8317 3.0246 -0.3856 0.9835
-2.9327 3.0421 -0.3933 0.9832
-0.5702 0.5579 -0.0742 0.9968
-0.5706 0.5422 -0.0733 0.9968
-0.5710 0.5269 -0.0723 0.9969
-0.5713 0.5119 -0.0714 0.9969
-0.5670 0.3872 -0.0639 0.9972
-0.5660 0.3746 -0.0632 0.9973
-0.5643 0.3501 -0.0618 0.9973
-0.5624 0.3265 -0.0605 0.9974
-0.5604 0.3039 -0.0593 0.9974
-0.5585 0.2820 -0.0582 0.9975
-0.5579 0.2716 -0.0578 0.9975
-0.5567 0.2512 -0.0568 0.9975
-0.5560 0.2411 -0.0564 0.9976
-0.5546 0.2215 -0.0556 0.9976
-0.5538 0.2119 -0.0552 0.9976
-0.5522 0.1929 -0.0544 0.9977
-0.5517 0.1838 -0.0541 0.9977
-0.5506 0.1657 -0.0535 0.9977
-0.5500 0.1568 -0.0532 0.9977
-0.5493 0.1479 -0.0530 0.9977
-0.5480 0.1306 -0.0524 0.9977
-0.5465 0.1134 -0.0520 0.9978
-0.5449 0.0966 -0.0515 0.9978
-0.5443 0.0883 -0.0513 0.9978
-0.5430 0.0718 -0.0510 0.9978
-0.5416 0.0557 -0.0507 0.9978
-0.5392 0.0316 -0.0503 0.9978
-0.5384 0.0237 -0.0502 0.9978
-0.5375 0.0157 -0.0501 0.9978
-0.5366 0.0079 -0.0500 0.9978
-0.5178 0.0000 -0.0540 0.9979
-0.5211 -0.0305 -0.0544 0.9979
-0.5219 -0.0382 -0.0546 0.9979
-0.5239 -0.0615 -0.0550 0.9979
-0.5262 -0.0932 -0.0557 0.9979
-0.5267 -0.1012 -0.0559 0.9978
-0.5272 -0.1093 -0.0561 0.9978
-0.5284 -0.1258 -0.0566 0.9978
-0.5290 -0.1341 -0.0569 0.9978
-0.5295 -0.1425 -0.0572 0.9978
-0.5300 -0.1510 -0.0575 0.9978
-0.5305 -0.1596 -0.0578 0.9978
-0.5310 -0.1682 -0.0581 0.9978
-0.5314 -0.1770 -0.0584 0.9978
-0.5318 -0.1857 -0.0587 0.9977
-0.5322 -0.1946 -0.0591 0.9977
-0.5328 -0.2038 -0.0595 0.9977
-0.5334 -0.2130 -0.0599 0.9977
-0.5340 -0.2223 -0.0603 0.9977
-0.5345 -0.2317 -0.0607 0.9977
-0.5354 -0.2509 -0.0617 0.9976
-0.5358 -0.2607 -0.0621 0.9976
-0.5362 -0.2707 -0.0626 0.9976
-0.5365 -0.2807 -0.0631 0.9976
-0.5371 -0.3014 -0.0642 0.9975
-0.5414 -0.3813 -0.0690 0.9973
-0.5424 -0.4063 -0.0707 0.9973
-0.5432 -0.4322 -0.0724 0.9972
-0.5439 -0.4594 -0.0742 0.9971
-0.5442 -0.4734 -0.0752 0.9971
-6.0903 -7.3182 -0.9927 0.9624
-5.9831 -7.4069 -0.9928 0.9624
-1.9869 -2.9561 -0.3714 0.9858
-1.9496 -2.9941 -0.3725 0.9857
-1.8128 -3.0704 -0.3718 0.9858
-1.7554 -3.0750 -0.3692 0.9859
-1.6524 -2.9954 -0.3567 0.9863
-1.6353 -3.0695 -0.3626 0.9861
-1.5297 -3.2021 -0.3700 0.9858
-1.4763 -3.2100 -0.3684 0.9859
-1.4233 -3.2179 -0.3669 0.9859
-1.2671 -3.2418 -0.3629 0.9861
-1.2158 -3.2498 -0.3618 0.9861
-1.2111 -3.5500 -0.3911 0.9850
-1.1099 -3.5939 -0.3922 0.9850
-1.0733 -3.6645 -0.3981 0.9848
-1.0290 -3.7134 -0.4018 0.9846
-0.9973 -3.8148 -0.4111 0.9843
-0.9540 -3.8799 -0.4166 0.9841
-1.7615 -8.8136 -0.9371 0.9645
-0.3176 -2.5436 -0.2673 0.9897
-0.2841 -2.5821 -0.2709 0.9896
-0.1406 -2.7471 -0.2868 0.9890
-0.1020 -2.7913 -0.2912 0.9888
0.0188 -2.5701 -0.2680 0.9897
0.0566 -2.5811 -0.2692 0.9897
0.0947 -2.5921 -0.2704 0.9896
0.1722 -2.6146 -0.2732 0.9895
0.2115 -2.6261 -0.2747 0.9895
0.2513 -2.6378 -0.2763 0.9894
0.2538 -2.3064 -0.2419 0.9907
0.2983 -2.3893 -0.2511 0.9904
0.3983 -2.5759 -0.2718 0.9896
0.4549 -2.6813 -0.2836 0.9891
0.5642 -2.8228 -0.3001 0.9885
0.5863 -2.7254 -0.2907 0.9889
0.6421 -2.7865 -0.2981 0.9886
0.7010 -2.8508 -0.3061 0.9883
0.9345 -3.0257 -0.3302 0.9873
0.9969 -2.9221 -0.3219 0.9877
1.0669 -2.7295 -0.3056 0.9883
1.1442 -2.6926 -0.3050 0.9883
1.2427 -2.8094 -0.3203 0.9877
1.2769 -2.7763 -0.3186 0.9878
1.3108 -2.7438 -0.3171 0.9878
1.4112 -2.6489 -0.3129 0.9880
1.4772 -2.5877 -0.3107 0.9881
1.5101 -2.5576 -0.3097 0.9881
1.5427 -2.5278 -0.3088 0.9882
2.3546 -3.0036 -0.3979 0.9848
2.3682 -2.9318 -0.3930 0.9850
2.4184 -2.6596 -0.3748 0.9856
2.4299 -2.5951 -0.3707 0.9858
2.4410 -2.5318 -0.3667 0.9860
6.8539 -6.7052 -0.9997 0.9622
6.9515 -6.6048 -0.9998 0.9622
7.0477 -6.5028 -0.9998 0.9622
7.1423 -6.3995 -0.9999 0.9622
7.2354 -6.2947 -0.9999 0.9622
7.3270 -6.1886 -1.0000 0.9622
7.5054 -5.9725 -1.0001 0.9622
7.5922 -5.8625 -1.0001 0.9622
5.1053 -3.4859 -0.6446 0.9754
5.1874 -3.4319 -0.6485 0.9753
5.0585 -3.1381 -0.6207 0.9763
5.2643 -3.1601 -0.6402 0.9756
5.2209 -2.9301 -0.6242 0.9762
5.1999 -2.8192 -0.6167 0.9765
5.1794 -2.7109 -0.6095 0.9768
5.1593 -2.6050 -0.6026 0.9770
5.6392 -2.7447 -0.6539 0.9751
6.0316 -2.7207 -0.6899 0.9737
8.4313 -3.5104 -0.9522 0.9639
8.0122 -3.0644 -0.8944 0.9661
8.9690 -2.9868 -0.9856 0.9627
9.0119 -2.8555 -0.9857 0.9627
9.0528 -2.7236 -0.9857 0.9627
9.2708 -2.4961 -1.0010 0.9621
9.3401 -2.2243 -1.0011 0.9621
9.3718 -2.0876 -1.0011 0.9621
9.4783 -1.5367 -1.0012 0.9621
9.4999 -1.3980 -1.0012 0.9621
9.5194 -1.2591 -1.0012 0.9621
9.5368 -1.1199 -1.0012 0.9621
9.5523 -0.9804 -1.0012 0.9621
9.5770 -0.7009 -1.0012 0.9621
9.5862 -0.5609 -1.0012 0.9621
9.6017 -0.1403 -1.0012 0.9621
9.6027 0.0000 -1.0012 0.9621
9.6017 0.1404 -1.0012 0.9621
9.5986 0.2806 -1.0012 0.9621
9.5935 0.4209 -1.0012 0.9621
9.5770 0.7010 -1.0012 0.9621
9.5657 0.8409 -1.0012 0.9621
9.5523 0.9805 -1.0012 0.9621
9.4784 1.5368 -1.0012 0.9621
9.3718 2.0877 -1.0011 0.9621
9.3065 2.3606 -1.0011 0.9621
9.2332 2.6314 -1.0010 0.9621
9.1520 2.9000 -1.0010 0.9621
9.0154 3.2980 -1.0009 0.9621
8.9661 3.4293 -1.0009 0.9621
8.9148 3.5598 -1.0009 0.9621
8.8064 3.8185 -1.0008 0.9621
6.7814 3.1790 -0.7809 0.9703
6.7104 3.2662 -0.7781 0.9704
5.5820 3.0264 -0.6620 0.9748
5.2041 3.5534 -0.6570 0.9750
3.8494 2.8836 -0.5015 0.9808
3.7469 2.8932 -0.4936 0.9811
3.6475 2.9026 -0.4860 0.9814
3.5511 2.9117 -0.4788 0.9817
3.4607 2.9231 -0.4723 0.9819
3.3734 2.9349 -0.4662 0.9822
3.2891 2.9470 -0.4604 0.9824
3.1311 2.9750 -0.4503 0.9828
2.9828 3.0047 -0.4414 0.9831
2.6427 3.2716 -0.4385 0.9832
2.5690 3.4822 -0.4512 0.9827
2.5219 3.5250 -0.4519 0.9827
2.4556 3.6534 -0.4590 0.9825
2.8005 4.5888 -0.5605 0.9786
2.8515 4.9949 -0.5997 0.9771
2.9814 6.0134 -0.6998 0.9734
2.8624 6.2240 -0.7143 0.9728
2.8139 6.3617 -0.7253 0.9724
3.5491 8.7027 -0.9799 0.9629
1.0931 3.0571 -0.3385 0.9870
1.0358 3.0360 -0.3345 0.9872
0.8260 2.5422 -0.2787 0.9893
0.7326 2.5009 -0.2717 0.9896
0.6140 2.4969 -0.2681 0.9897
0.5371 2.4970 -0.2663 0.9898
0.4992 2.4976 -0.2656 0.9898
0.4618 2.4998 -0.2650 0.9898
0.3502 2.5062 -0.2638 0.9899
0.0923 2.5227 -0.2632 0.9899
-0.0186 2.5505 -0.2659 0.9898
-0.0561 2.5600 -0.2670 0.9898
-0.1320 2.5789 -0.2692 0.9897
-0.1704 2.5886 -0.2705 0.9896
-0.2092 2.5982 -0.2718 0.9896
-0.2881 2.6185 -0.2747 0.9895
-0.4108 2.6571 -0.2803 0.9892
-0.4529 2.6704 -0.2824 0.9892
-0.5432 2.7183 -0.2890 0.9889
-0.5981 2.7809 -0.2966 0.9886
-1.4460 5.5319 -0.5961 0.9773
-1.4771 5.3310 -0.5768 0.9780
-1.6146 4.5164 -0.5001 0.9809
-1.6380 4.3789 -0.4875 0.9814
-1.6602 4.2481 -0.4755 0.9818
-1.7392 3.7821 -0.4340 0.9834
-1.7568 3.6779 -0.4250 0.9837
-1.7537 3.2919 -0.3889 0.9851
-1.7993 3.2617 -0.3884 0.9851
-1.8875 2.9939 -0.3690 0.9859
-1.9295 2.9637 -0.3687 0.9859
-2.0398 2.9413 -0.3732 0.9857
-2.1039 2.9412 -0.3770 0.9856
-2.1694 2.9410 -0.3810 0.9854
-2.3896 2.9586 -0.3965 0.9848
-2.5496 2.9746 -0.4085 0.9844
-2.6334 2.9830 -0.4149 0.9841
-0.5418 0.5621 -0.0814 0.9969
-0.5416 0.5456 -0.0801 0.9969
-0.5424 0.5307 -0.0791 0.9970
-0.5432 0.5161 -0.0781 0.9970
-0.5439 0.4595 -0.0742 0.9971
-0.5436 0.4457 -0.0733 0.9972
-0.5432 0.4323 -0.0724 0.9972
-0.5428 0.4193 -0.0715 0.9972
-0.5408 0.3693 -0.0683 0.9974
-0.5403 0.3575 -0.0676 0.9974
-0.5397 0.3459 -0.0668 0.9974
-0.5392 0.3345 -0.0662 0.9975
-0.5385 0.3234 -0.0655 0.9975
-0.5362 0.2708 -0.0626 0.9976
-0.5358 0.2608 -0.0621 0.9976
-0.5345 0.2318 -0.0607 0.9977
-0.5339 0.2224 -0.0603 0.9977
-0.5334 0.2131 -0.0599 0.9977
-0.5322 0.1948 -0.0591 0.9977
-0.5318 0.1858 -0.0587 0.9977
-0.5300 0.1511 -0.0575 0.9978
-0.5295 0.1426 -0.0572 0.9978
-0.5284 0.1259 -0.0566 0.9978
-0.5278 0.1176 -0.0564 0.9978
-0.5267 0.1013 -0.0559 0.9978
-0.5262 0.0933 -0.0557 0.9979
-0.5239 0.0616 -0.0550 0.9979
-0.5233 0.0537 -0.0548 0.9979
-0.5226 0.0460 -0.0547 0.9979
-0.5219 0.0382 -0.0546 0.9979
-0.5211 0.0305 -0.0544 0.9979
-0.5011 0.0000 -0.0579 0.9980
-0.5019 -0.0073 -0.0580 0.9980
-0.5027 -0.0146 -0.0581 0.9980
-0.5034 -0.0220 -0.0582 0.9980
-0.5042 -0.0295 -0.0583 0.9980
-0.5067 -0.0595 -0.0589 0.9979
-0.5078 -0.0747 -0.0593 0.9979
-0.5082 -0.0823 -0.0595 0.9979
-0.5111 -0.1375 -0.0611 0.9979
-0.5118 -0.1539 -0.0617 0.9979
-0.5122 -0.1622 -0.0620 0.9978
-0.5125 -0.1707 -0.0624 0.9978
-0.5127 -0.1791 -0.0627 0.9978
-0.5130 -0.1876 -0.0631 0.9978
-0.5133 -0.1963 -0.0635 0.9978
-0.5137 -0.2051 -0.0639 0.9978
-0.5145 -0.2230 -0.0648 0.9977
-0.5148 -0.2322 -0.0652 0.9977
-0.5151 -0.2414 -0.0657 0.9977
-0.5158 -0.2796 -0.0678 0.9976
-0.5159 -0.2995 -0.0689 0.9976
-0.5161 -0.3202 -0.0701 0.9976
-0.5168 -0.3418 -0.0716 0.9975
-0.5170 -0.3530 -0.0723 0.9975
-0.5178 -0.4246 -0.0773 0.9973
-0.5178 -0.4504 -0.0793 0.9972
-0.5176 -0.4638 -0.0803 0.9972
-0.5172 -0.4914 -0.0824 0.9971
-0.5160 -0.5198 -0.0846 0.9971
-5.5963 -6.5282 -0.9930 0.9660
-5.5006 -6.6096 -0.9930 0.9660
-2.2507 -2.8711 -0.4213 0.9854
-2.1623 -2.9308 -0.4206 0.9854
-2.1176 -2.9598 -0.4203 0.9855
-1.9089 -3.0275 -0.4133 0.9857
-1.8925 -3.1009 -0.4195 0.9855
-1.7879 -3.1318 -0.4165 0.9856
-1.6278 -3.0554 -0.3998 0.9862
-1.5585 -3.0313 -0.3936 0.9864
-1.5468 -3.1197 -0.4021 0.9861
-1.4816 -3.1015 -0.3969 0.9863
-1.4323 -3.2381 -0.4089 0.9858
-1.2819 -3.2797 -0.4066 0.9859
-1.1783 -3.2957 -0.4042 0.9860
-1.1881 -3.4825 -0.4249 0.9853
-1.1442 -3.5214 -0.4276 0.9852
-1.1594 -3.7541 -0.4537 0.9843
-1.0528 -3.7993 -0.4553 0.9843
-0.9867 -3.7743 -0.4505 0.9844
-0.8821 -3.8282 -0.4537 0.9843
-0.8434 -3.9209 -0.4631 0.9840
-1.6888 -8.4498 -0.9951 0.9659
-0.4092 -2.4122 -0.2825 0.9902
-0.3785 -2.4475 -0.2860 0.9901
-0.3146 -2.5205 -0.2933 0.9898
-0.2815 -2.5584 -0.2972 0.9897
-0.2124 -2.6371 -0.3055 0.9894
-0.0616 -2.8084 -0.3244 0.9888
0.0189 -2.5891 -0.2990 0.9896
0.0955 -2.6114 -0.3018 0.9895
0.1343 -2.6228 -0.3033 0.9895
0.2532 -2.6579 -0.3083 0.9893
0.3003 -2.4055 -0.2799 0.9903
0.3488 -2.4964 -0.2911 0.9899
0.4013 -2.5948 -0.3032 0.9895
0.5093 -2.7574 -0.3238 0.9888
0.6521 -2.8295 -0.3353 0.9884
0.7121 -2.8960 -0.3444 0.9881
0.8247 -2.9759 -0.3566 0.9876
0.9794 -3.0141 -0.3660 0.9873
1.0044 -2.9441 -0.3592 0.9876
1.0286 -2.8767 -0.3528 0.9878
1.0800 -2.7629 -0.3426 0.9881
1.2195 -2.7571 -0.3481 0.9879
1.3159 -2.8612 -0.3637 0.9874
1.3507 -2.8273 -0.3618 0.9875
1.3852 -2.7938 -0.3601 0.9875
1.4195 -2.7609 -0.3585 0.9876
1.4536 -2.7284 -0.3570 0.9876
1.5213 -2.6647 -0.3543 0.9877
1.6218 -2.5721 -0.3511 0.9878
1.7551 -2.4531 -0.3483 0.9879
2.2604 -3.0638 -0.4397 0.9848
2.2900 -2.9212 -0.4286 0.9852
2.3041 -2.8523 -0.4234 0.9853
2.3177 -2.7848 -0.4184 0.9855
2.3435 -2.6542 -0.4089 0.9858
5.9140 -6.3162 -0.9992 0.9658
3.5903 -3.7239 -0.5973 0.9794
6.0967 -6.1413 -0.9993 0.9658
6.1860 -6.0518 -0.9994 0.9658
6.2741 -5.9611 -0.9994 0.9658
6.3608 -5.8691 -0.9995 0.9658
6.5302 -5.6812 -0.9995 0.9657
6.6128 -5.5854 -0.9996 0.9657
6.6940 -5.4884 -0.9996 0.9657
6.8521 -5.2910 -0.9997 0.9657
5.4605 -4.0904 -0.7879 0.9729
5.4862 -3.9859 -0.7831 0.9731
5.0666 -3.5692 -0.7157 0.9754
5.1883 -2.9118 -0.6870 0.9763
5.1678 -2.8018 -0.6788 0.9766
5.1478 -2.6943 -0.6710 0.9769
7.8747 -3.2787 -0.9850 0.9662
7.9220 -3.1633 -0.9851 0.9662
8.0536 -2.8133 -0.9851 0.9662
8.0941 -2.6954 -0.9852 0.9662
8.3663 -2.2526 -1.0005 0.9657
8.4289 -2.0073 -1.0006 0.9657
8.4574 -1.8839 -1.0006 0.9657
8.5091 -1.6361 -1.0006 0.9657
8.5322 -1.5116 -1.0006 0.9657
8.5535 -1.3867 -1.0006 0.9657
8.5906 -1.1363 -1.0007 0.9657
8.6063 -1.0106 -1.0007 0.9657
8.6509 -0.5061 -1.0007 0.9657
8.6620 -0.2532 -1.0007 0.9657
8.6657 0.0000 -1.0007 0.9657
8.6620 0.2532 -1.0007 0.9657
8.6202 0.8848 -1.0007 0.9657
8.6063 1.0107 -1.0007 0.9657
8.5730 1.2617 -1.0007 0.9657
8.5536 1.3868 -1.0007 0.9657
8.4842 1.7602 -1.0006 0.9657
8.3986 2.1303 -1.0006 0.9657
8.2199 2.7374 -1.0005 0.9657
8.0452 3.2125 -1.0004 0.9657
6.7549 3.2879 -0.8675 0.9702
6.7240 3.3952 -0.8699 0.9701
6.7625 3.5396 -0.8814 0.9697
7.6138 4.1280 -1.0001 0.9657
7.5524 4.2386 -1.0001 0.9657
7.4895 4.3484 -1.0001 0.9657
5.5191 3.3132 -0.7434 0.9744
5.2465 3.4711 -0.7265 0.9750
5.2104 3.5577 -0.7286 0.9749
5.2012 3.6640 -0.7347 0.9747
3.4707 2.9316 -0.5246 0.9819
3.3830 2.9432 -0.5178 0.9821
3.2983 2.9554 -0.5114 0.9823
3.2159 2.9673 -0.5053 0.9825
3.0606 2.9943 -0.4944 0.9829
2.8441 3.0376 -0.4805 0.9834
2.7786 3.0560 -0.4770 0.9835
2.7448 3.1088 -0.4789 0.9834
2.6774 3.2172 -0.4833 0.9833
2.6593 3.3923 -0.4978 0.9828
2.6064 3.4268 -0.4972 0.9828
2.4650 3.5541 -0.4995 0.9827
2.4347 3.6222 -0.5040 0.9826
2.7776 4.4053 -0.6014 0.9792
2.7988 4.5859 -0.6204 0.9786
2.8220 4.7797 -0.6410 0.9779
2.8482 4.9893 -0.6634 0.9771
2.8764 5.2139 -0.6876 0.9763
2.9066 5.4558 -0.7139 0.9754
2.9418 5.7219 -0.7430 0.9744
2.9445 6.1636 -0.7888 0.9729
2.8744 6.2502 -0.7944 0.9727
2.8411 6.4232 -0.8111 0.9721
3.3185 7.8088 -0.9798 0.9664
3.2038 7.8559 -0.9797 0.9664
1.2200 3.1211 -0.3870 0.9866
1.0182 2.9846 -0.3642 0.9874
0.8270 2.5453 -0.3090 0.9893
0.7766 2.5143 -0.3039 0.9895
0.6916 2.4958 -0.2991 0.9896
0.6525 2.4958 -0.2979 0.9897
0.5369 2.4958 -0.2948 0.9898
0.4989 2.4958 -0.2939 0.9898
0.4610 2.4958 -0.2931 0.9898
0.3866 2.5000 -0.2921 0.9899
0.2758 2.5063 -0.2912 0.9899
0.0921 2.5185 -0.2910 0.9899
-0.0559 2.5555 -0.2952 0.9898
-0.0937 2.5650 -0.2964 0.9897
-0.2879 2.6172 -0.3041 0.9895
-0.3692 2.6428 -0.3081 0.9893
-0.4527 2.6690 -0.3126 0.9892
-0.4954 2.6824 -0.3150 0.9891
-0.5429 2.7164 -0.3199 0.9889
-0.7670 3.3287 -0.3945 0.9863
-1.4459 5.5314 -0.6602 0.9772
-1.5333 4.9654 -0.6001 0.9793
-1.6747 4.1071 -0.5122 0.9823
-1.7143 3.8762 -0.4894 0.9831
-1.6554 3.3389 -0.4304 0.9851
-1.8254 3.1977 -0.4252 0.9853
-1.8642 3.0550 -0.4133 0.9857
-1.9669 2.9267 -0.4072 0.9859
-2.0932 2.9262 -0.4155 0.9856
-2.3811 2.9481 -0.4376 0.9849
-2.4596 2.9559 -0.4441 0.9846
-2.5404 2.9638 -0.4508 0.9844
-0.5205 0.5725 -0.0893 0.9969
-0.5160 0.5198 -0.0846 0.9971
-0.5172 0.4914 -0.0824 0.9971
-0.5177 0.4505 -0.0793 0.9972
-0.5179 0.4374 -0.0783 0.9973
-0.5170 0.3531 -0.0723 0.9975
-0.5165 0.3310 -0.0708 0.9975
-0.5161 0.3203 -0.0701 0.9976
-0.5159 0.2996 -0.0689 0.9976
-0.5159 0.2896 -0.0683 0.9976
-0.5157 0.2700 -0.0672 0.9977
-0.5151 0.2415 -0.0657 0.9977
-0.5130 0.1877 -0.0631 0.9978
-0.5127 0.1792 -0.0627 0.9978
-0.5119 0.1540 -0.0617 0.9978
-0.5115 0.1458 -0.0614 0.9979
-0.5111 0.1377 -0.0611 0.9979
-0.5106 0.1296 -0.0608 0.9979
-0.5102 0.1215 -0.0606 0.9979
-0.5091 0.0979 -0.0599 0.9979
-0.5087 0.0902 -0.0597 0.9979
-0.5082 0.0825 -0.0595 0.9979
-0.5072 0.0671 -0.0591 0.9979
-0.5061 0.0520 -0.0588 0.9980
-0.5055 0.0445 -0.0586 0.9980
-0.5049 0.0370 -0.0585 0.9980
-0.5035 0.0221 -0.0582 0.9980
-0.5027 0.0147 -0.0581 0.9980
-0.5019 0.0074 -0.0580 0.9980
-0.4861 -0.0071 -0.0616 0.9980
-0.4869 -0.0142 -0.0617 0.9980
-0.4876 -0.0213 -0.0618 0.9980
-0.4882 -0.0286 -0.0620 0.9980
-0.4888 -0.0357 -0.0621 0.9980
-0.4900 -0.0502 -0.0624 0.9980
-0.4905 -0.0575 -0.0626 0.9980
-0.4914 -0.0723 -0.0630 0.9980
-0.4922 -0.0871 -0.0634 0.9980
-0.4929 -0.1022 -0.0638 0.9980
-0.4932 -0.1098 -0.0640 0.9980
-0.4934 -0.1175 -0.0643 0.9980
-0.4938 -0.1330 -0.0648 0.9979
-0.4941 -0.1408 -0.0651 0.9979
-0.4950 -0.1729 -0.0664 0.9979
-0.4951 -0.1811 -0.0668 0.9979
-0.4952 -0.1894 -0.0672 0.9979
-0.4957 -0.2064 -0.0680 0.9978
-0.4959 -0.2150 -0.0685 0.9978
-0.4962 -0.2326 -0.0695 0.9978
-0.4963 -0.2691 -0.0715 0.9977
-0.4963 -0.2784 -0.0721 0.9977
-0.4957 -0.3075 -0.0739 0.9977
-0.4951 -0.3275 -0.0752 0.9976
-0.4952 -0.3381 -0.0760 0.9976
-0.4951 -0.3487 -0.0768 0.9976
-0.4923 -0.4677 -0.0861 0.9973
-0.4917 -0.4810 -0.0872 0.9972
-0.4893 -0.5226 -0.0907 0.9971
-0.4882 -0.5369 -0.0920 0.9971
-0.4976 -0.5805 -0.0969 0.9969
-4.9255 -6.0977 -0.9933 0.9689
-4.6543 -6.3086 -0.9935 0.9689
-4.5618 -6.3762 -0.9935 0.9689
-2.2105 -3.1871 -0.4915 0.9845
-1.8628 -2.7714 -0.4232 0.9866
-1.9949 -3.0638 -0.4633 0.9854
-1.9014 -3.1155 -0.4625 0.9854
-1.8578 -3.1466 -0.4631 0.9854
-1.7375 -3.1497 -0.4559 0.9856
-1.6794 -3.1524 -0.4526 0.9857
-1.6106 -3.1327 -0.4464 0.9859
-1.4133 -3.1952 -0.4428 0.9860
-1.4036 -3.3029 -0.4548 0.9856
-1.2997 -3.3252 -0.4524 0.9857
-1.2241 -3.2719 -0.4427 0.9860
-1.1755 -3.2878 -0.4425 0.9860
-1.1642 -3.4125 -0.4569 0.9856
-1.1259 -3.4650 -0.4617 0.9854
-0.9846 -3.7661 -0.4933 0.9844
-0.9255 -3.7642 -0.4912 0.9845
-0.9084 -3.9420 -0.5126 0.9838
-0.8408 -3.9090 -0.5067 0.9840
-0.4354 -2.3573 -0.3038 0.9904
-0.3751 -2.4260 -0.3111 0.9902
-0.3119 -2.4978 -0.3190 0.9899
-0.2789 -2.5351 -0.3232 0.9898
-0.2104 -2.6125 -0.3321 0.9895
-0.1000 -2.7366 -0.3470 0.9890
-0.0610 -2.7804 -0.3524 0.9888
-0.0206 -2.8255 -0.3581 0.9887
0.0574 -2.6196 -0.3321 0.9895
0.0962 -2.6311 -0.3336 0.9894
0.1353 -2.6426 -0.3353 0.9894
0.2148 -2.6662 -0.3390 0.9893
0.2571 -2.3367 -0.2979 0.9906
0.3513 -2.5141 -0.3217 0.9898
0.4619 -2.7226 -0.3500 0.9889
0.5090 -2.7552 -0.3551 0.9888
0.6683 -2.9000 -0.3771 0.9881
0.9426 -3.0521 -0.4048 0.9872
0.9870 -3.0375 -0.4047 0.9872
1.0363 -2.8982 -0.3900 0.9877
1.0597 -2.8324 -0.3832 0.9879
1.1070 -2.8321 -0.3853 0.9878
1.1543 -2.8303 -0.3874 0.9878
1.2021 -2.8287 -0.3895 0.9877
1.2506 -2.8273 -0.3918 0.9876
1.2997 -2.8259 -0.3942 0.9875
1.3932 -2.9162 -0.4096 0.9871
1.4286 -2.8813 -0.4075 0.9871
1.4637 -2.8469 -0.4057 0.9872
1.4987 -2.8130 -0.4039 0.9872
1.5681 -2.7468 -0.4008 0.9873
1.6026 -2.7143 -0.3994 0.9874
1.6370 -2.6822 -0.3982 0.9874
1.6713 -2.6506 -0.3971 0.9874
1.7055 -2.6193 -0.3961 0.9875
1.8424 -2.4972 -0.3933 0.9876
2.2138 -2.9106 -0.4634 0.9854
2.2287 -2.8430 -0.4578 0.9855
2.2431 -2.7768 -0.4524 0.9857
2.2570 -2.7121 -0.4471 0.9859
5.3028 -5.8319 -0.9989 0.9687
5.7946 -5.3466 -0.9991 0.9687
5.8724 -5.2616 -0.9992 0.9687
5.9489 -5.1755 -0.9992 0.9687
5.4626 -4.0920 -0.8649 0.9729
5.0654 -3.5683 -0.7852 0.9753
4.9942 -3.3041 -0.7589 0.9761
5.1596 -3.3061 -0.7766 0.9756
5.1971 -3.1198 -0.7682 0.9759
5.1763 -3.0054 -0.7585 0.9762
5.1560 -2.8936 -0.7492 0.9764
5.1360 -2.7846 -0.7404 0.9767
6.3020 -3.0673 -0.8882 0.9721
7.0825 -3.1947 -0.9846 0.9692
7.1287 -3.0910 -0.9846 0.9692
7.1732 -2.9866 -0.9847 0.9692
7.2163 -2.8815 -0.9847 0.9692
7.2578 -2.7758 -0.9847 0.9692
7.4134 -2.5896 -0.9951 0.9688
7.4875 -2.4934 -1.0001 0.9687
7.5575 -2.2737 -1.0001 0.9687
7.5900 -2.1630 -1.0001 0.9687
7.6209 -2.0519 -1.0001 0.9687
7.6779 -1.8285 -1.0002 0.9687
7.7509 -1.4903 -1.0002 0.9687
7.8090 -1.1492 -1.0002 0.9687
7.8251 -1.0350 -1.0003 0.9687
7.8394 -0.9206 -1.0003 0.9687
7.8521 -0.8059 -1.0003 0.9687
7.8724 -0.5762 -1.0003 0.9687
7.8859 -0.3459 -1.0003 0.9687
7.8902 -0.2306 -1.0003 0.9687
7.8927 0.1154 -1.0003 0.9687
7.8800 0.4611 -1.0003 0.9687
7.8521 0.8060 -1.0003 0.9687
7.7720 1.3770 -1.0002 0.9687
7.7510 1.4904 -1.0002 0.9687
7.7283 1.6034 -1.0002 0.9687
7.6779 1.8285 -1.0002 0.9687
7.6502 1.9405 -1.0002 0.9687
7.5900 2.1631 -1.0001 0.9687
7.3706 2.8191 -1.0000 0.9687
7.3285 2.9264 -1.0000 0.9687
7.2395 3.1391 -0.9999 0.9687
7.1927 3.2445 -0.9999 0.9687
7.1443 3.3491 -0.9999 0.9687
6.9357 3.7603 -0.9998 0.9687
6.8798 3.8611 -0.9997 0.9687
5.4157 3.3597 -0.8076 0.9746
5.2321 3.5725 -0.8028 0.9748
5.2306 3.6847 -0.8108 0.9745
6.3808 4.6359 -0.9995 0.9687
3.7600 2.9034 -0.6020 0.9810
3.5713 2.9282 -0.5852 0.9816
3.4808 2.9401 -0.5774 0.9818
3.2248 2.9756 -0.5560 0.9825
2.9913 3.0132 -0.5380 0.9830
2.9191 3.0277 -0.5329 0.9832
2.7813 3.0589 -0.5239 0.9835
2.6810 3.2215 -0.5311 0.9832
2.6484 3.2787 -0.5341 0.9831
2.5938 3.4104 -0.5430 0.9829
2.5397 3.4425 -0.5421 0.9829
2.4525 3.5361 -0.5453 0.9828
2.4209 3.6017 -0.5499 0.9827
2.8027 4.5923 -0.6818 0.9785
2.8253 4.7854 -0.7042 0.9778
2.8496 4.9917 -0.7284 0.9771
2.9667 6.2100 -0.8721 0.9726
2.9041 6.3145 -0.8808 0.9724
0.7762 2.5133 -0.3333 0.9895
0.7318 2.4982 -0.3299 0.9896
0.5749 2.4947 -0.3244 0.9897
0.5367 2.4947 -0.3234 0.9898
0.4608 2.4947 -0.3215 0.9898
0.4232 2.4947 -0.3206 0.9898
0.3860 2.4958 -0.3200 0.9899
0.3490 2.4980 -0.3196 0.9899
0.1652 2.5084 -0.3186 0.9899
0.1286 2.5105 -0.3185 0.9899
0.0919 2.5142 -0.3188 0.9899
0.0554 2.5234 -0.3198 0.9899
-0.1698 2.5795 -0.3276 0.9896
-0.2479 2.6035 -0.3314 0.9895
-0.3690 2.6415 -0.3380 0.9893
-0.4104 2.6545 -0.3404 0.9892
-0.4525 2.6677 -0.3429 0.9891
-0.6001 2.7901 -0.3616 0.9886
-1.4086 5.7288 -0.7476 0.9765
-1.4458 5.5309 -0.7244 0.9772
-1.5058 5.1418 -0.6789 0.9786
-1.6061 4.4926 -0.6046 0.9809
-1.5963 3.4710 -0.4841 0.9847
-1.6067 3.3632 -0.4723 0.9851
-1.6349 3.2977 -0.4664 0.9853
-1.7112 3.2120 -0.4612 0.9854
-1.7563 3.1838 -0.4608 0.9854
-1.8063 3.1640 -0.4617 0.9854
-1.8561 3.0418 -0.4516 0.9857
-1.8757 2.9754 -0.4457 0.9859
-1.9175 2.9453 -0.4454 0.9859
-1.9592 2.9152 -0.4451 0.9859
-2.0192 2.9117 -0.4490 0.9858
-2.0825 2.9112 -0.4536 0.9857
-2.1512 2.9162 -0.4592 0.9855
