ply
format ascii 1.0
element vertex 1595
property float32 x
property float32 y
property float32 z
property float32 I
end_header
3.9523 -0.0577 -1.0006 0.9838
3.9527 0.0000 -1.0006 0.9838
3.9459 0.2309 -1.0006 0.9838
3.9319 0.4036 -1.0006 0.9838
3.9256 0.4610 -1.0006 0.9838
3.9104 0.5755 -1.0006 0.9838
3.9015 0.6326 -1.0006 0.9838
3.8918 0.6895 -1.0006 0.9838
3.8578 0.8594 -1.0006 0.9838
3.8309 0.9717 -1.0005 0.9838
3.8163 1.0275 -1.0005 0.9838
3.7845 1.1386 -1.0005 0.9838
3.6910 1.4117 -1.0004 0.9838
3.6480 1.5189 -1.0004 0.9838
3.6253 1.5720 -1.0003 0.9838
3.6019 1.6247 -1.0003 0.9838
3.5527 1.7292 -1.0003 0.9838
3.5270 1.7809 -1.0002 0.9838
3.5005 1.8322 -1.0002 0.9838
3.4732 1.8831 -1.0002 0.9838
3.4166 1.9837 -1.0001 0.9838
3.3871 2.0333 -1.0001 0.9838
3.2622 2.2275 -1.0000 0.9838
3.1955 2.3217 -0.9999 0.9838
3.1611 2.3681 -0.9999 0.9838
3.0904 2.4593 -0.9998 0.9838
3.0170 2.5484 -0.9998 0.9838
2.8626 2.7198 -0.9996 0.9838
2.8224 2.7612 -0.9996 0.9838
2.6984 2.8819 -0.9995 0.9838
2.6559 2.9209 -0.9994 0.9838
2.5250 3.0342 -0.9993 0.9838
2.4351 3.1064 -0.9992 0.9838
2.3893 3.1414 -0.9992 0.9838
2.3430 3.1759 -0.9991 0.9838
1.9603 3.2121 -0.9526 0.9846
1.8626 3.1547 -0.9275 0.9850
1.7971 3.1479 -0.9176 0.9852
1.7420 3.1577 -0.9129 0.9852
1.6938 3.1793 -0.9120 0.9852
1.5953 3.6068 -0.9984 0.9839
1.5424 3.6296 -0.9984 0.9839
1.4891 3.6516 -0.9983 0.9839
1.3275 3.7127 -0.9982 0.9839
1.2183 3.7495 -0.9981 0.9839
1.1633 3.7668 -0.9980 0.9839
1.1081 3.7831 -0.9980 0.9839
0.8850 3.8406 -0.9977 0.9839
0.8287 3.8529 -0.9977 0.9839
0.7724 3.8644 -0.9976 0.9839
0.5755 3.3924 -0.8711 0.9859
0.4150 3.3241 -0.8481 0.9863
0.3658 3.3247 -0.8468 0.9863
0.2228 3.3829 -0.8582 0.9861
0.1291 3.5323 -0.8948 0.9855
0.0863 3.9373 -0.9970 0.9839
0.0288 3.9380 -0.9969 0.9839
-0.0863 3.9366 -0.9968 0.9839
-0.2013 3.9321 -0.9967 0.9839
-0.3160 3.9240 -0.9966 0.9839
-0.3733 3.9188 -0.9966 0.9839
-0.4305 3.9127 -0.9965 0.9839
-0.4876 3.9058 -0.9965 0.9839
-0.6015 3.8895 -0.9963 0.9839
-0.6582 3.8800 -0.9963 0.9839
-0.7148 3.8698 -0.9962 0.9839
-0.7579 3.5237 -0.9125 0.9852
-0.8365 3.1996 -0.8372 0.9864
-0.9448 3.2257 -0.8509 0.9862
-1.2700 3.7225 -0.9957 0.9839
-1.3241 3.7034 -0.9957 0.9839
-0.3430 0.7754 -0.2146 0.9965
-0.3001 0.6054 -0.1711 0.9972
-0.2911 0.5662 -0.1612 0.9974
-0.2945 0.5529 -0.1586 0.9974
-0.2978 0.5398 -0.1561 0.9975
-0.3067 0.5027 -0.1491 0.9976
-0.3095 0.4908 -0.1469 0.9976
-0.3121 0.4793 -0.1448 0.9976
-0.3145 0.4680 -0.1427 0.9977
-0.3169 0.4569 -0.1408 0.9977
-0.3191 0.4461 -0.1389 0.9977
-0.3215 0.4357 -0.1371 0.9978
-0.3268 0.4169 -0.1341 0.9978
-0.3293 0.4077 -0.1327 0.9978
-0.3317 0.3987 -0.1313 0.9979
-0.3364 0.3809 -0.1287 0.9979
-0.3408 0.3640 -0.1262 0.9979
-0.3430 0.3557 -0.1251 0.9980
-0.3450 0.3475 -0.1240 0.9980
-0.3465 0.3390 -0.1227 0.9980
-0.3492 0.3223 -0.1203 0.9980
-0.3505 0.3141 -0.1191 0.9981
-0.3517 0.3061 -0.1180 0.9981
-0.3540 0.2903 -0.1159 0.9981
-0.3550 0.2825 -0.1149 0.9981
-0.3560 0.2750 -0.1139 0.9981
-0.3570 0.2675 -0.1129 0.9982
-0.3578 0.2600 -0.1120 0.9982
-0.3594 0.2455 -0.1102 0.9982
-0.3616 0.2243 -0.1077 0.9982
-0.3621 0.2174 -0.1069 0.9983
-0.3633 0.2039 -0.1055 0.9983
-0.3637 0.1973 -0.1047 0.9983
-0.3643 0.1907 -0.1041 0.9983
-0.3652 0.1844 -0.1036 0.9983
-0.3684 0.1534 -0.1010 0.9984
-0.3698 0.1353 -0.0997 0.9984
-0.3701 0.1293 -0.0993 0.9984
-0.3705 0.1234 -0.0989 0.9984
-0.3708 0.1175 -0.0985 0.9984
-0.3713 0.1058 -0.0977 0.9984
-0.3715 0.1000 -0.0974 0.9984
-0.3717 0.0943 -0.0971 0.9984
-0.3719 0.0829 -0.0965 0.9984
-0.3720 0.0772 -0.0962 0.9984
-0.3721 0.0660 -0.0957 0.9984
-0.3721 0.0604 -0.0954 0.9984
-0.3721 0.0548 -0.0952 0.9984
-0.3719 0.0437 -0.0948 0.9985
-0.3716 0.0327 -0.0944 0.9985
-0.3714 0.0272 -0.0943 0.9985
-0.3712 0.0217 -0.0941 0.9985
-0.3710 0.0163 -0.0940 0.9985
-0.3707 0.0108 -0.0939 0.9985
-0.3704 0.0054 -0.0938 0.9985
-0.3638 0.0000 -0.0964 0.9985
-0.3641 -0.0053 -0.0965 0.9985
-0.3649 -0.0214 -0.0969 0.9985
-0.3653 -0.0321 -0.0972 0.9985
-0.3655 -0.0429 -0.0975 0.9985
-0.3656 -0.0538 -0.0979 0.9985
-0.3656 -0.0759 -0.0989 0.9985
-0.3654 -0.0814 -0.0992 0.9985
-0.3653 -0.0870 -0.0995 0.9984
-0.3650 -0.0982 -0.1002 0.9984
-0.3647 -0.1039 -0.1005 0.9984
-0.3639 -0.1211 -0.1016 0.9984
-0.3627 -0.1387 -0.1029 0.9984
-0.3622 -0.1446 -0.1034 0.9984
-0.3600 -0.1688 -0.1054 0.9984
-0.3584 -0.1809 -0.1064 0.9983
-0.3575 -0.1871 -0.1069 0.9983
-0.3561 -0.1998 -0.1082 0.9983
-0.3555 -0.2064 -0.1089 0.9983
-0.3542 -0.2197 -0.1105 0.9983
-0.3528 -0.2334 -0.1121 0.9983
-0.3512 -0.2474 -0.1138 0.9982
-0.3503 -0.2545 -0.1147 0.9982
-0.3494 -0.2618 -0.1157 0.9982
-0.3463 -0.2839 -0.1187 0.9981
-0.3440 -0.2992 -0.1208 0.9981
-0.3414 -0.3150 -0.1231 0.9981
-0.3400 -0.3230 -0.1243 0.9981
-0.3386 -0.3312 -0.1255 0.9980
-0.3352 -0.3476 -0.1280 0.9980
-0.3261 -0.3804 -0.1328 0.9979
-0.3187 -0.4066 -0.1369 0.9979
-0.3134 -0.4247 -0.1399 0.9978
-0.3050 -0.4537 -0.1449 0.9977
-0.2998 -0.4755 -0.1489 0.9977
-0.2970 -0.4867 -0.1511 0.9976
-0.2941 -0.4982 -0.1533 0.9976
-0.2775 -0.5598 -0.1656 0.9974
-0.2783 -0.5825 -0.1711 0.9973
-0.2884 -0.6271 -0.1829 0.9971
-1.2457 -3.4841 -0.9805 0.9848
-0.9883 -3.5667 -0.9807 0.9848
-0.9362 -3.5809 -0.9808 0.9848
-0.7256 -3.6302 -0.9810 0.9848
-0.6725 -3.6406 -0.9810 0.9848
-0.6192 -3.6502 -0.9811 0.9848
-0.5659 -3.6591 -0.9811 0.9848
-0.5123 -3.6672 -0.9812 0.9848
-0.4050 -3.6810 -0.9813 0.9848
-0.3512 -3.6867 -0.9813 0.9848
-0.2973 -3.6916 -0.9814 0.9848
-0.2434 -3.6958 -0.9814 0.9848
-0.0812 -3.7034 -0.9816 0.9848
-0.0271 -3.7044 -0.9816 0.9848
0.1894 -3.7004 -0.9818 0.9848
0.2975 -3.6937 -0.9819 0.9848
0.3515 -3.6892 -0.9820 0.9848
0.4054 -3.6838 -0.9820 0.9848
0.4591 -3.6777 -0.9821 0.9848
0.5129 -3.6708 -0.9821 0.9848
0.6200 -3.6546 -0.9822 0.9848
0.6733 -3.6454 -0.9823 0.9848
0.7265 -3.6354 -0.9823 0.9848
0.8326 -3.6129 -0.9824 0.9848
0.8853 -3.6005 -0.9825 0.9848
0.9379 -3.5874 -0.9825 0.9848
0.9902 -3.5735 -0.9826 0.9848
1.0943 -3.5434 -0.9827 0.9848
1.1461 -3.5272 -0.9827 0.9848
1.2997 -3.4741 -0.9829 0.9848
1.3504 -3.4549 -0.9829 0.9848
1.4509 -3.4143 -0.9830 0.9848
1.5007 -3.3929 -0.9831 0.9848
1.6967 -3.3000 -0.9833 0.9848
1.7448 -3.2750 -0.9833 0.9848
1.8399 -3.2230 -0.9834 0.9848
1.9335 -3.1681 -0.9835 0.9848
1.9797 -3.1397 -0.9835 0.9848
2.1156 -3.0503 -0.9837 0.9848
2.2040 -2.9874 -0.9837 0.9848
2.2475 -2.9550 -0.9838 0.9848
2.3752 -2.8540 -0.9839 0.9848
2.4167 -2.8192 -0.9839 0.9848
2.4577 -2.7837 -0.9840 0.9848
2.7722 -2.5579 -0.9995 0.9845
2.8094 -2.5172 -0.9996 0.9845
2.8460 -2.4760 -0.9996 0.9845
2.8819 -2.4342 -0.9996 0.9845
2.9862 -2.3058 -0.9997 0.9845
3.0196 -2.2620 -0.9998 0.9845
3.0524 -2.2177 -0.9998 0.9845
3.0846 -2.1729 -0.9998 0.9845
3.1161 -2.1277 -0.9998 0.9845
3.1772 -2.0359 -0.9999 0.9845
3.2636 -1.8948 -1.0000 0.9845
3.2910 -1.8470 -1.0000 0.9845
3.4406 -1.5519 -1.0002 0.9845
3.4846 -1.4508 -1.0002 0.9845
3.5055 -1.3998 -1.0002 0.9845
3.5637 -1.2449 -1.0003 0.9845
3.5816 -1.1927 -1.0003 0.9845
3.6150 -1.0876 -1.0003 0.9845
3.6306 -1.0346 -1.0003 0.9845
3.6453 -0.9815 -1.0004 0.9845
3.6850 -0.8209 -1.0004 0.9845
3.6966 -0.7669 -1.0004 0.9845
3.7075 -0.7129 -1.0004 0.9845
3.7175 -0.6586 -1.0004 0.9845
3.7429 -0.4950 -1.0004 0.9845
3.7655 -0.2756 -1.0005 0.9845
3.7692 -0.2205 -1.0005 0.9845
3.7740 -0.1103 -1.0005 0.9845
3.7752 0.0552 -1.0005 0.9845
3.7740 0.1104 -1.0005 0.9845
3.7692 0.2206 -1.0005 0.9845
3.7429 0.4951 -1.0004 0.9845
3.7268 0.6042 -1.0004 0.9845
3.7175 0.6587 -1.0004 0.9845
3.7075 0.7129 -1.0004 0.9845
3.6966 0.7670 -1.0004 0.9845
3.6306 1.0346 -1.0003 0.9845
3.5816 1.1927 -1.0003 0.9845
3.5451 1.2969 -1.0003 0.9845
3.5257 1.3484 -1.0002 0.9845
3.5055 1.3998 -1.0002 0.9845
3.4846 1.4508 -1.0002 0.9845
3.4406 1.5520 -1.0002 0.9845
3.4175 1.6021 -1.0001 0.9845
3.3937 1.6518 -1.0001 0.9845
3.3438 1.7502 -1.0001 0.9845
3.2067 1.9893 -0.9999 0.9845
3.1470 2.0820 -0.9999 0.9845
3.1162 2.1277 -0.9999 0.9845
3.0846 2.1730 -0.9998 0.9845
3.0525 2.2178 -0.9998 0.9845
3.0196 2.2621 -0.9998 0.9845
2.9521 2.3492 -0.9997 0.9845
2.7723 2.5579 -0.9995 0.9845
2.6572 2.6767 -0.9994 0.9845
2.6177 2.7152 -0.9994 0.9845
2.5777 2.7530 -0.9993 0.9845
2.4543 2.8630 -0.9992 0.9845
2.4121 2.8984 -0.9992 0.9845
2.3261 2.9675 -0.9991 0.9845
2.2824 3.0009 -0.9991 0.9845
2.2383 3.0339 -0.9990 0.9845
2.1485 3.0977 -0.9989 0.9845
2.1029 3.1287 -0.9989 0.9845
2.0569 3.1589 -0.9989 0.9845
1.6242 3.4000 -0.9984 0.9845
1.4735 3.4674 -0.9983 0.9845
1.4226 3.4883 -0.9983 0.9845
1.0056 3.6290 -0.9979 0.9845
0.8455 3.6690 -0.9977 0.9845
0.7917 3.6808 -0.9977 0.9845
0.5244 3.3911 -0.9092 0.9859
0.4184 3.3515 -0.8950 0.9861
0.3202 3.3613 -0.8947 0.9861
0.2725 3.3829 -0.8993 0.9861
0.2252 3.4201 -0.9082 0.9859
0.0825 3.7616 -0.9970 0.9846
0.0275 3.7622 -0.9969 0.9846
-0.1374 3.7592 -0.9968 0.9846
-0.1923 3.7566 -0.9967 0.9846
-0.2471 3.7532 -0.9967 0.9846
-0.5203 3.7242 -0.9964 0.9846
-0.5747 3.7161 -0.9964 0.9846
-0.6289 3.7070 -0.9963 0.9846
-0.6829 3.6972 -0.9963 0.9846
-0.7573 3.5207 -0.9543 0.9852
-0.7991 3.2499 -0.8868 0.9862
-0.9634 3.2893 -0.9082 0.9859
-1.0241 3.3159 -0.9196 0.9857
-1.1613 3.5741 -0.9958 0.9846
-1.2133 3.5566 -0.9958 0.9846
-1.2651 3.5383 -0.9957 0.9846
-1.3678 3.4995 -0.9956 0.9846
-1.4188 3.4789 -0.9956 0.9846
-0.3129 0.7364 -0.2120 0.9967
-0.2884 0.6271 -0.1829 0.9971
-0.2775 0.5598 -0.1656 0.9974
-0.2812 0.5469 -0.1629 0.9975
-0.2911 0.5100 -0.1556 0.9976
-0.2970 0.4868 -0.1511 0.9976
-0.3025 0.4645 -0.1469 0.9977
-0.3050 0.4537 -0.1449 0.9977
-0.3076 0.4435 -0.1430 0.9978
-0.3105 0.4341 -0.1414 0.9978
-0.3134 0.4248 -0.1399 0.9978
-0.3187 0.4066 -0.1369 0.9979
-0.3213 0.3977 -0.1355 0.9979
-0.3261 0.3804 -0.1328 0.9979
-0.3285 0.3721 -0.1315 0.9979
-0.3330 0.3557 -0.1291 0.9980
-0.3352 0.3476 -0.1280 0.9980
-0.3385 0.3312 -0.1255 0.9980
-0.3427 0.3071 -0.1219 0.9981
-0.3439 0.2993 -0.1208 0.9981
-0.3451 0.2915 -0.1197 0.9981
-0.3463 0.2839 -0.1187 0.9981
-0.3474 0.2764 -0.1176 0.9982
-0.3484 0.2691 -0.1166 0.9982
-0.3503 0.2545 -0.1147 0.9982
-0.3512 0.2475 -0.1138 0.9982
-0.3528 0.2334 -0.1121 0.9983
-0.3535 0.2266 -0.1113 0.9983
-0.3542 0.2198 -0.1105 0.9983
-0.3549 0.2131 -0.1097 0.9983
-0.3561 0.1999 -0.1082 0.9983
-0.3566 0.1934 -0.1075 0.9983
-0.3575 0.1871 -0.1069 0.9983
-0.3592 0.1749 -0.1059 0.9983
-0.3622 0.1447 -0.1034 0.9984
-0.3639 0.1212 -0.1016 0.9984
-0.3650 0.0983 -0.1002 0.9984
-0.3652 0.0927 -0.0998 0.9984
-0.3653 0.0870 -0.0995 0.9984
-0.3657 0.0648 -0.0984 0.9985
-0.3657 0.0593 -0.0982 0.9985
-0.3655 0.0429 -0.0975 0.9985
-0.3654 0.0375 -0.0973 0.9985
-0.3653 0.0321 -0.0972 0.9985
-0.3651 0.0267 -0.0970 0.9985
-0.3649 0.0214 -0.0969 0.9985
-0.3581 -0.0052 -0.0991 0.9985
-0.3583 -0.0104 -0.0993 0.9985
-0.3588 -0.0210 -0.0995 0.9985
-0.3590 -0.0263 -0.0997 0.9985
-0.3592 -0.0368 -0.1000 0.9985
-0.3593 -0.0422 -0.1002 0.9985
-0.3594 -0.0475 -0.1004 0.9985
-0.3594 -0.0529 -0.1006 0.9985
-0.3595 -0.0583 -0.1008 0.9985
-0.3594 -0.0637 -0.1011 0.9985
-0.3594 -0.0691 -0.1013 0.9985
-0.3592 -0.0800 -0.1019 0.9985
-0.3590 -0.0854 -0.1022 0.9985
-0.3588 -0.0910 -0.1025 0.9985
-0.3586 -0.0965 -0.1028 0.9985
-0.3581 -0.1077 -0.1035 0.9984
-0.3575 -0.1190 -0.1043 0.9984
-0.3552 -0.1479 -0.1065 0.9984
-0.3499 -0.1897 -0.1102 0.9983
-0.3491 -0.1959 -0.1108 0.9983
-0.3464 -0.2220 -0.1139 0.9983
-0.3457 -0.2286 -0.1148 0.9983
-0.3440 -0.2423 -0.1165 0.9983
-0.3431 -0.2492 -0.1174 0.9982
-0.3421 -0.2562 -0.1184 0.9982
-0.3400 -0.2705 -0.1203 0.9982
-0.3389 -0.2778 -0.1213 0.9982
-0.3365 -0.2927 -0.1235 0.9982
-0.3338 -0.3080 -0.1258 0.9981
-0.3277 -0.3398 -0.1307 0.9980
-0.3209 -0.3635 -0.1343 0.9980
-0.3185 -0.3716 -0.1355 0.9980
-0.3161 -0.3798 -0.1368 0.9980
-0.3110 -0.3967 -0.1396 0.9979
-0.3056 -0.4143 -0.1425 0.9979
-0.2937 -0.4509 -0.1490 0.9978
-0.2907 -0.4610 -0.1509 0.9977
-0.2879 -0.4717 -0.1530 0.9977
-0.2849 -0.4825 -0.1552 0.9977
-0.2644 -0.5534 -0.1698 0.9975
-0.2604 -0.5662 -0.1726 0.9974
-0.2662 -0.6018 -0.1822 0.9973
-0.2754 -0.6479 -0.1949 0.9971
-1.2408 -3.3167 -0.9805 0.9854
-1.1923 -3.3346 -0.9805 0.9854
-1.0945 -3.3684 -0.9806 0.9854
-1.0452 -3.3842 -0.9807 0.9854
-0.8960 -3.4272 -0.9808 0.9854
-0.7450 -3.4637 -0.9810 0.9854
-0.6944 -3.4744 -0.9810 0.9854
-0.5416 -3.5020 -0.9811 0.9854
-0.4904 -3.5097 -0.9812 0.9854
-0.4390 -3.5166 -0.9812 0.9854
-0.3361 -3.5284 -0.9813 0.9854
-0.2329 -3.5370 -0.9814 0.9854
-0.0777 -3.5444 -0.9816 0.9854
-0.0259 -3.5453 -0.9816 0.9854
0.0259 -3.5455 -0.9817 0.9854
0.0777 -3.5449 -0.9817 0.9854
0.1295 -3.5436 -0.9818 0.9854
0.2847 -3.5350 -0.9819 0.9854
0.4394 -3.5196 -0.9821 0.9854
0.4908 -3.5130 -0.9821 0.9854
0.6444 -3.4886 -0.9823 0.9854
0.6953 -3.4790 -0.9823 0.9854
0.7968 -3.4576 -0.9824 0.9854
0.8472 -3.4457 -0.9825 0.9854
0.8976 -3.4332 -0.9825 0.9854
0.9477 -3.4199 -0.9826 0.9854
1.0473 -3.3911 -0.9827 0.9854
1.1950 -3.3423 -0.9828 0.9854
1.2438 -3.3247 -0.9828 0.9854
1.3406 -3.2872 -0.9829 0.9854
1.3885 -3.2674 -0.9830 0.9854
1.4361 -3.2469 -0.9830 0.9854
1.5306 -3.2039 -0.9831 0.9854
1.6697 -3.1342 -0.9832 0.9854
1.7154 -3.1096 -0.9833 0.9854
1.9382 -2.9766 -0.9835 0.9854
1.9816 -2.9482 -0.9835 0.9854
2.1508 -2.8279 -0.9837 0.9854
2.1920 -2.7962 -0.9837 0.9854
2.2327 -2.7640 -0.9838 0.9854
2.2729 -2.7311 -0.9838 0.9854
2.3127 -2.6978 -0.9838 0.9854
2.3519 -2.6638 -0.9839 0.9854
2.4071 -2.6472 -0.9907 0.9853
2.4653 -2.6330 -0.9987 0.9851
2.5050 -2.5982 -0.9993 0.9851
2.5428 -2.5614 -0.9993 0.9851
2.5800 -2.5240 -0.9993 0.9851
2.6167 -2.4862 -0.9994 0.9851
2.6528 -2.4478 -0.9994 0.9851
2.6884 -2.4088 -0.9994 0.9851
2.7234 -2.3693 -0.9995 0.9851
2.7917 -2.2889 -0.9995 0.9851
2.8249 -2.2480 -0.9996 0.9851
2.8575 -2.2065 -0.9996 0.9851
2.8895 -2.1645 -0.9996 0.9851
2.9517 -2.0793 -0.9997 0.9851
3.0114 -1.9923 -0.9997 0.9851
3.0403 -1.9482 -0.9998 0.9851
3.1229 -1.8132 -0.9999 0.9851
3.1492 -1.7674 -0.9999 0.9851
3.1997 -1.6747 -0.9999 0.9851
3.2474 -1.5806 -1.0000 0.9851
3.2702 -1.5330 -1.0000 0.9851
3.2923 -1.4850 -1.0000 0.9851
3.3344 -1.3883 -1.0001 0.9851
3.3737 -1.2903 -1.0001 0.9851
3.3922 -1.2409 -1.0001 0.9851
3.4592 -1.0407 -1.0002 0.9851
3.4741 -0.9900 -1.0002 0.9851
3.5016 -0.8882 -1.0002 0.9851
3.5142 -0.8369 -1.0002 0.9851
3.5262 -0.7855 -1.0002 0.9851
3.5477 -0.6821 -1.0003 0.9851
3.5742 -0.5260 -1.0003 0.9851
3.5816 -0.4737 -1.0003 0.9851
3.5881 -0.4214 -1.0003 0.9851
3.5939 -0.3689 -1.0003 0.9851
3.5990 -0.3163 -1.0003 0.9851
3.6067 -0.2110 -1.0003 0.9851
3.6094 0.1584 -1.0003 0.9851
3.6032 0.2638 -1.0003 0.9851
3.5990 0.3163 -1.0003 0.9851
3.5939 0.3689 -1.0003 0.9851
3.5881 0.4214 -1.0003 0.9851
3.5816 0.4738 -1.0003 0.9851
3.5742 0.5260 -1.0003 0.9851
3.5661 0.5782 -1.0003 0.9851
3.5573 0.6302 -1.0003 0.9851
3.5016 0.8882 -1.0002 0.9851
3.4882 0.9393 -1.0002 0.9851
3.4741 0.9901 -1.0002 0.9851
3.4435 1.0912 -1.0002 0.9851
3.3737 1.2904 -1.0001 0.9851
3.3544 1.3395 -1.0001 0.9851
3.2924 1.4851 -1.0000 0.9851
3.2474 1.5806 -1.0000 0.9851
3.2239 1.6279 -1.0000 0.9851
3.1997 1.6747 -0.9999 0.9851
3.1748 1.7213 -0.9999 0.9851
3.1492 1.7675 -0.9999 0.9851
3.1230 1.8133 -0.9999 0.9851
3.0961 1.8586 -0.9998 0.9851
3.0685 1.9036 -0.9998 0.9851
3.0403 1.9482 -0.9998 0.9851
3.0114 1.9924 -0.9998 0.9851
2.9518 2.0794 -0.9997 0.9851
2.8896 2.1646 -0.9996 0.9851
2.8576 2.2065 -0.9996 0.9851
2.7579 2.3295 -0.9995 0.9851
2.7235 2.3694 -0.9995 0.9851
2.6884 2.4089 -0.9995 0.9851
2.6528 2.4478 -0.9994 0.9851
2.5428 2.5614 -0.9993 0.9851
2.4278 2.6701 -0.9992 0.9851
2.3082 2.7736 -0.9991 0.9851
2.2673 2.8070 -0.9991 0.9851
2.2260 2.8397 -0.9990 0.9851
2.1842 2.8718 -0.9990 0.9851
2.1419 2.9033 -0.9989 0.9851
1.9684 3.0229 -0.9988 0.9851
1.9239 3.0512 -0.9987 0.9851
1.7421 3.1579 -0.9986 0.9851
1.6957 3.1829 -0.9985 0.9851
1.6489 3.2072 -0.9985 0.9851
1.6018 3.2307 -0.9984 0.9851
1.5544 3.2537 -0.9984 0.9851
1.5066 3.2759 -0.9983 0.9851
1.4101 3.3182 -0.9982 0.9851
1.3614 3.3384 -0.9982 0.9851
1.3124 3.3577 -0.9982 0.9851
1.2136 3.3943 -0.9981 0.9851
1.1638 3.4115 -0.9980 0.9852
1.1138 3.4280 -0.9980 0.9852
1.0131 3.4587 -0.9979 0.9852
0.9624 3.4730 -0.9978 0.9852
0.9115 3.4865 -0.9978 0.9852
0.8604 3.4993 -0.9977 0.9852
0.7061 3.5331 -0.9976 0.9852
0.6544 3.5429 -0.9975 0.9852
0.6025 3.5519 -0.9975 0.9852
0.4773 3.4163 -0.9551 0.9858
0.4240 3.3964 -0.9477 0.9859
0.3734 3.3939 -0.9454 0.9859
0.2767 3.4352 -0.9542 0.9858
0.1841 3.5965 -0.9971 0.9852
0.1315 3.5986 -0.9970 0.9852
-0.0263 3.6004 -0.9969 0.9852
-0.0789 3.5995 -0.9968 0.9852
-0.1315 3.5978 -0.9968 0.9852
-0.1840 3.5953 -0.9967 0.9852
-0.3413 3.5832 -0.9966 0.9852
-0.3936 3.5776 -0.9965 0.9852
-0.4458 3.5714 -0.9965 0.9852
-0.8183 3.3282 -0.9489 0.9859
-1.0111 3.4521 -0.9960 0.9852
-1.1115 3.4207 -0.9959 0.9852
-1.2108 3.3865 -0.9958 0.9852
-1.2601 3.3683 -0.9957 0.9852
-1.3091 3.3493 -0.9957 0.9852
-0.2754 0.6480 -0.1949 0.9971
-0.2662 0.6018 -0.1822 0.9973
-0.2604 0.5662 -0.1726 0.9974
-0.2682 0.5410 -0.1672 0.9975
-0.2753 0.5168 -0.1621 0.9976
-0.2819 0.4937 -0.1574 0.9976
-0.2878 0.4717 -0.1530 0.9977
-0.2936 0.4510 -0.1490 0.9978
-0.3056 0.4143 -0.1425 0.9979
-0.3084 0.4054 -0.1410 0.9979
-0.3110 0.3968 -0.1396 0.9979
-0.3160 0.3798 -0.1368 0.9980
-0.3185 0.3716 -0.1355 0.9980
-0.3210 0.3636 -0.1343 0.9980
-0.3277 0.3399 -0.1307 0.9980
-0.3293 0.3318 -0.1294 0.9981
-0.3338 0.3080 -0.1258 0.9981
-0.3365 0.2928 -0.1235 0.9982
-0.3377 0.2853 -0.1224 0.9982
-0.3389 0.2779 -0.1213 0.9982
-0.3421 0.2563 -0.1184 0.9982
-0.3431 0.2493 -0.1174 0.9982
-0.3440 0.2424 -0.1165 0.9983
-0.3449 0.2355 -0.1156 0.9983
-0.3457 0.2287 -0.1148 0.9983
-0.3464 0.2220 -0.1139 0.9983
-0.3479 0.2089 -0.1123 0.9983
-0.3491 0.1959 -0.1108 0.9983
-0.3499 0.1897 -0.1102 0.9983
-0.3518 0.1776 -0.1091 0.9984
-0.3526 0.1716 -0.1086 0.9984
-0.3541 0.1597 -0.1075 0.9984
-0.3547 0.1538 -0.1070 0.9984
-0.3562 0.1363 -0.1056 0.9984
-0.3584 0.1022 -0.1032 0.9985
-0.3588 0.0911 -0.1025 0.9985
-0.3593 0.0745 -0.1016 0.9985
-0.3594 0.0637 -0.1011 0.9985
-0.3594 0.0583 -0.1008 0.9985
-0.3592 0.0369 -0.1000 0.9985
-0.3591 0.0316 -0.0998 0.9985
-0.3590 0.0263 -0.0997 0.9985
-0.3588 0.0210 -0.0995 0.9985
-0.3585 0.0157 -0.0994 0.9985
-0.3524 -0.0103 -0.1018 0.9985
-0.3526 -0.0155 -0.1019 0.9985
-0.3528 -0.0206 -0.1021 0.9985
-0.3530 -0.0258 -0.1022 0.9985
-0.3532 -0.0363 -0.1026 0.9985
-0.3534 -0.0520 -0.1032 0.9985
-0.3534 -0.0573 -0.1034 0.9985
-0.3534 -0.0626 -0.1037 0.9985
-0.3533 -0.0679 -0.1039 0.9985
-0.3532 -0.0733 -0.1042 0.9985
-0.3531 -0.0786 -0.1045 0.9985
-0.3529 -0.0840 -0.1048 0.9985
-0.3525 -0.0948 -0.1054 0.9985
-0.3519 -0.1059 -0.1062 0.9985
-0.3516 -0.1114 -0.1065 0.9985
-0.3512 -0.1169 -0.1069 0.9985
-0.3508 -0.1225 -0.1073 0.9985
-0.3500 -0.1338 -0.1082 0.9984
-0.3494 -0.1395 -0.1087 0.9984
-0.3489 -0.1452 -0.1092 0.9984
-0.3483 -0.1511 -0.1097 0.9984
-0.3444 -0.1802 -0.1123 0.9984
-0.3435 -0.1862 -0.1128 0.9984
-0.3417 -0.1984 -0.1141 0.9984
-0.3410 -0.2047 -0.1149 0.9983
-0.3388 -0.2241 -0.1173 0.9983
-0.3379 -0.2307 -0.1182 0.9983
-0.3351 -0.2510 -0.1209 0.9983
-0.3340 -0.2579 -0.1219 0.9982
-0.3317 -0.2720 -0.1239 0.9982
-0.3251 -0.3089 -0.1295 0.9981
-0.3183 -0.3399 -0.1345 0.9981
-0.3160 -0.3475 -0.1357 0.9980
-0.3088 -0.3711 -0.1394 0.9980
-0.3010 -0.3957 -0.1436 0.9979
-0.2982 -0.4042 -0.1451 0.9979
-0.2954 -0.4128 -0.1466 0.9979
-0.2924 -0.4216 -0.1482 0.9979
-0.2862 -0.4396 -0.1515 0.9978
-0.2829 -0.4487 -0.1532 0.9978
-0.2762 -0.4679 -0.1569 0.9977
-0.2666 -0.5003 -0.1637 0.9976
-0.2630 -0.5116 -0.1662 0.9976
-0.2594 -0.5231 -0.1687 0.9976
-0.2516 -0.5471 -0.1739 0.9975
-0.2475 -0.5594 -0.1767 0.9975
-0.2457 -0.5781 -0.1814 0.9974
-0.2529 -0.6200 -0.1934 0.9972
-1.1895 -3.1794 -0.9805 0.9860
-1.1430 -3.1966 -0.9806 0.9860
-1.0492 -3.2289 -0.9807 0.9860
-1.0019 -3.2441 -0.9807 0.9860
-0.9544 -3.2585 -0.9808 0.9860
-0.8589 -3.2854 -0.9808 0.9860
-0.7626 -3.3093 -0.9809 0.9860
-0.6169 -3.3400 -0.9811 0.9860
-0.5681 -3.3489 -0.9811 0.9860
-0.4701 -3.3643 -0.9812 0.9860
-0.3222 -3.3822 -0.9814 0.9860
-0.1737 -3.3936 -0.9815 0.9860
-0.0745 -3.3975 -0.9816 0.9860
-0.0248 -3.3984 -0.9816 0.9859
0.0248 -3.3986 -0.9817 0.9859
0.0745 -3.3980 -0.9817 0.9859
0.1241 -3.3967 -0.9818 0.9859
0.2729 -3.3885 -0.9819 0.9859
0.3224 -3.3843 -0.9820 0.9859
0.4705 -3.3674 -0.9821 0.9859
0.5197 -3.3604 -0.9822 0.9859
0.6177 -3.3440 -0.9822 0.9859
0.7152 -3.3248 -0.9823 0.9859
0.9084 -3.2780 -0.9825 0.9859
0.9562 -3.2646 -0.9826 0.9859
1.0038 -3.2504 -0.9826 0.9859
1.0513 -3.2355 -0.9827 0.9859
1.0985 -3.2200 -0.9827 0.9859
1.1455 -3.2037 -0.9827 0.9859
1.2849 -3.1508 -0.9829 0.9859
1.3309 -3.1318 -0.9829 0.9859
1.3766 -3.1122 -0.9830 0.9859
1.4220 -3.0919 -0.9830 0.9859
1.5563 -3.0270 -0.9831 0.9859
1.6004 -3.0041 -0.9832 0.9859
1.6442 -2.9805 -0.9832 0.9859
1.7307 -2.9314 -0.9833 0.9859
1.7735 -2.9059 -0.9833 0.9859
1.8158 -2.8798 -0.9834 0.9859
1.8578 -2.8531 -0.9834 0.9859
1.9405 -2.7979 -0.9835 0.9859
1.9813 -2.7693 -0.9835 0.9859
2.0216 -2.7401 -0.9836 0.9859
2.0615 -2.7104 -0.9836 0.9859
2.1456 -2.6561 -0.9862 0.9859
2.2510 -2.6259 -0.9990 0.9857
2.2893 -2.5928 -0.9991 0.9857
2.3270 -2.5592 -0.9991 0.9857
2.3642 -2.5250 -0.9991 0.9857
2.4009 -2.4902 -0.9992 0.9857
2.4371 -2.4550 -0.9992 0.9857
2.4728 -2.4192 -0.9992 0.9857
2.6433 -2.2326 -0.9994 0.9857
2.6757 -2.1938 -0.9994 0.9857
2.7075 -2.1546 -0.9995 0.9857
2.7388 -2.1148 -0.9995 0.9857
2.7695 -2.0746 -0.9995 0.9857
2.8291 -1.9929 -0.9996 0.9857
2.8580 -1.9514 -0.9996 0.9857
2.8863 -1.9095 -0.9996 0.9857
2.9410 -1.8245 -0.9997 0.9857
2.9674 -1.7814 -0.9997 0.9857
2.9932 -1.7379 -0.9997 0.9857
3.0899 -1.5602 -0.9998 0.9857
3.1343 -1.4693 -0.9999 0.9857
3.1555 -1.4233 -0.9999 0.9857
3.2150 -1.2838 -0.9999 0.9857
3.2335 -1.2367 -1.0000 0.9857
3.2513 -1.1893 -1.0000 0.9857
3.2683 -1.1418 -1.0000 0.9857
3.2847 -1.0939 -1.0000 0.9857
3.3154 -0.9975 -1.0000 0.9857
3.3297 -0.9489 -1.0001 0.9857
3.3432 -0.9001 -1.0001 0.9857
3.3682 -0.8021 -1.0001 0.9857
3.3902 -0.7034 -1.0001 0.9857
3.4002 -0.6537 -1.0001 0.9857
3.4094 -0.6040 -1.0001 0.9857
3.4327 -0.4540 -1.0002 0.9857
3.4445 -0.3536 -1.0002 0.9857
3.4493 -0.3032 -1.0002 0.9857
3.4534 -0.2527 -1.0002 0.9857
3.4568 -0.2023 -1.0002 0.9857
3.4593 -0.1518 -1.0002 0.9857
3.4623 0.0506 -1.0002 0.9857
3.4612 0.1012 -1.0002 0.9857
3.4534 0.2528 -1.0002 0.9857
3.4494 0.3032 -1.0002 0.9857
3.4446 0.3536 -1.0002 0.9857
3.4327 0.4540 -1.0002 0.9857
3.4179 0.5541 -1.0001 0.9857
3.3903 0.7034 -1.0001 0.9857
3.3796 0.7529 -1.0001 0.9857
3.3682 0.8021 -1.0001 0.9857
3.3561 0.8513 -1.0001 0.9857
3.3432 0.9002 -1.0001 0.9857
3.3297 0.9489 -1.0001 0.9857
3.3004 1.0458 -1.0000 0.9857
3.2847 1.0939 -1.0000 0.9857
3.1959 1.3307 -0.9999 0.9857
3.1555 1.4234 -0.9999 0.9857
3.1125 1.5149 -0.9999 0.9857
3.0667 1.6052 -0.9998 0.9857
3.0429 1.6498 -0.9998 0.9857
3.0183 1.6940 -0.9998 0.9857
2.9140 1.8673 -0.9997 0.9857
2.8863 1.9096 -0.9996 0.9857
2.8580 1.9515 -0.9996 0.9857
2.8291 1.9929 -0.9996 0.9857
2.7388 2.1149 -0.9995 0.9857
2.7075 2.1546 -0.9995 0.9857
2.6757 2.1939 -0.9994 0.9857
2.6433 2.2327 -0.9994 0.9857
2.5081 2.3830 -0.9993 0.9857
2.4372 2.4550 -0.9992 0.9857
2.3642 2.5251 -0.9991 0.9857
2.2511 2.6260 -0.9990 0.9857
2.1732 2.6904 -0.9990 0.9857
2.1336 2.7218 -0.9989 0.9857
2.0935 2.7525 -0.9989 0.9857
2.0530 2.7827 -0.9989 0.9857
2.0120 2.8123 -0.9988 0.9857
1.9289 2.8697 -0.9987 0.9857
1.8866 2.8975 -0.9987 0.9857
1.7576 2.9770 -0.9986 0.9857
1.7139 3.0022 -0.9985 0.9857
1.6697 3.0268 -0.9985 0.9857
1.6253 3.0508 -0.9984 0.9857
1.5805 3.0741 -0.9984 0.9857
1.4898 3.1187 -0.9983 0.9857
1.4441 3.1400 -0.9983 0.9857
1.3516 3.1805 -0.9982 0.9857
1.3049 3.1998 -0.9981 0.9857
0.9225 3.3290 -0.9978 0.9857
0.8737 3.3420 -0.9977 0.9857
0.8247 3.3542 -0.9977 0.9857
0.7756 3.3657 -0.9976 0.9857
0.7263 3.3765 -0.9976 0.9857
0.6769 3.3866 -0.9976 0.9857
0.6273 3.3960 -0.9975 0.9857
0.5277 3.4125 -0.9974 0.9857
0.4778 3.4197 -0.9974 0.9857
0.4277 3.4262 -0.9973 0.9857
0.3274 3.4369 -0.9972 0.9857
0.2772 3.4412 -0.9972 0.9857
0.2269 3.4446 -0.9971 0.9857
0.1765 3.4475 -0.9971 0.9857
0.0757 3.4508 -0.9970 0.9857
-0.2267 3.4432 -0.9967 0.9857
-0.3773 3.4295 -0.9966 0.9857
-0.4274 3.4234 -0.9965 0.9857
-0.6265 3.3920 -0.9963 0.9857
-0.7253 3.3718 -0.9962 0.9857
-0.9209 3.3232 -0.9960 0.9857
-1.0175 3.2946 -0.9960 0.9857
-1.1132 3.2631 -0.9959 0.9857
-0.2609 0.6675 -0.2070 0.9970
-0.2457 0.5781 -0.1814 0.9974
-0.2475 0.5595 -0.1767 0.9975
-0.2630 0.5116 -0.1662 0.9976
-0.2665 0.5004 -0.1637 0.9976
-0.2699 0.4893 -0.1614 0.9977
-0.2731 0.4785 -0.1591 0.9977
-0.2796 0.4581 -0.1550 0.9978
-0.2924 0.4216 -0.1482 0.9979
-0.2954 0.4129 -0.1466 0.9979
-0.2982 0.4042 -0.1451 0.9979
-0.3036 0.3873 -0.1422 0.9980
-0.3062 0.3791 -0.1408 0.9980
-0.3088 0.3711 -0.1394 0.9980
-0.3113 0.3632 -0.1382 0.9980
-0.3137 0.3554 -0.1369 0.9980
-0.3183 0.3400 -0.1345 0.9981
-0.3203 0.3322 -0.1333 0.9981
-0.3220 0.3243 -0.1320 0.9981
-0.3251 0.3088 -0.1295 0.9981
-0.3265 0.3013 -0.1283 0.9982
-0.3318 0.2720 -0.1239 0.9982
-0.3329 0.2650 -0.1229 0.9982
-0.3340 0.2580 -0.1219 0.9982
-0.3350 0.2511 -0.1209 0.9983
-0.3361 0.2442 -0.1200 0.9983
-0.3370 0.2374 -0.1191 0.9983
-0.3379 0.2308 -0.1182 0.9983
-0.3388 0.2241 -0.1173 0.9983
-0.3396 0.2176 -0.1165 0.9983
-0.3403 0.2112 -0.1157 0.9983
-0.3411 0.2048 -0.1149 0.9983
-0.3417 0.1985 -0.1141 0.9984
-0.3424 0.1922 -0.1134 0.9984
-0.3434 0.1863 -0.1128 0.9984
-0.3444 0.1804 -0.1123 0.9984
-0.3462 0.1686 -0.1112 0.9984
-0.3470 0.1627 -0.1107 0.9984
-0.3494 0.1396 -0.1087 0.9984
-0.3499 0.1339 -0.1082 0.9984
-0.3516 0.1114 -0.1065 0.9985
-0.3532 0.0733 -0.1042 0.9985
-0.3533 0.0680 -0.1039 0.9985
-0.3534 0.0573 -0.1034 0.9985
-0.3534 0.0520 -0.1032 0.9985
-0.3533 0.0415 -0.1028 0.9985
-0.3532 0.0363 -0.1026 0.9985
-0.3531 0.0311 -0.1024 0.9985
-0.3530 0.0259 -0.1022 0.9985
-0.3524 0.0103 -0.1018 0.9985
-0.3463 -0.0050 -0.1042 0.9986
-0.3466 -0.0101 -0.1043 0.9986
-0.3468 -0.0152 -0.1045 0.9986
-0.3470 -0.0203 -0.1046 0.9985
-0.3472 -0.0254 -0.1047 0.9985
-0.3474 -0.0356 -0.1051 0.9985
-0.3475 -0.0408 -0.1053 0.9985
-0.3475 -0.0459 -0.1055 0.9985
-0.3475 -0.0563 -0.1059 0.9985
-0.3475 -0.0615 -0.1062 0.9985
-0.3465 -0.0933 -0.1080 0.9985
-0.3452 -0.1150 -0.1095 0.9985
-0.3447 -0.1204 -0.1099 0.9985
-0.3408 -0.1597 -0.1133 0.9984
-0.3400 -0.1655 -0.1138 0.9984
-0.3391 -0.1712 -0.1143 0.9984
-0.3382 -0.1770 -0.1148 0.9984
-0.3372 -0.1828 -0.1154 0.9984
-0.3362 -0.1887 -0.1160 0.9984
-0.3337 -0.2070 -0.1182 0.9984
-0.3329 -0.2133 -0.1190 0.9983
-0.3321 -0.2197 -0.1198 0.9983
-0.3312 -0.2261 -0.1207 0.9983
-0.3303 -0.2326 -0.1216 0.9983
-0.3293 -0.2392 -0.1225 0.9983
-0.3272 -0.2526 -0.1244 0.9983
-0.3249 -0.2664 -0.1264 0.9982
-0.3209 -0.2875 -0.1297 0.9982
-0.3195 -0.2948 -0.1308 0.9982
-0.3180 -0.3021 -0.1320 0.9982
-0.3165 -0.3096 -0.1332 0.9982
-0.3148 -0.3171 -0.1345 0.9981
-0.3113 -0.3325 -0.1371 0.9981
-0.2939 -0.3863 -0.1461 0.9980
-0.2911 -0.3946 -0.1475 0.9980
-0.2883 -0.4029 -0.1491 0.9979
-0.2853 -0.4114 -0.1506 0.9979
-0.2791 -0.4286 -0.1539 0.9979
-0.2690 -0.4555 -0.1592 0.9978
-0.2583 -0.4848 -0.1653 0.9977
-0.2473 -0.5176 -0.1726 0.9976
-0.2392 -0.5407 -0.1779 0.9975
-0.2304 -0.5650 -0.1836 0.9975
-0.2322 -0.5940 -0.1919 0.9973
-0.2383 -0.6369 -0.2046 0.9972
-1.0523 -3.0847 -0.9807 0.9865
-0.8705 -3.1414 -0.9808 0.9865
-0.8245 -3.1539 -0.9809 0.9865
-0.7321 -3.1770 -0.9810 0.9865
-0.4983 -3.2227 -0.9812 0.9865
-0.4512 -3.2297 -0.9812 0.9865
-0.3093 -3.2468 -0.9814 0.9865
-0.0715 -3.2615 -0.9816 0.9865
0.0715 -3.2620 -0.9817 0.9865
0.1668 -3.2588 -0.9818 0.9865
0.2144 -3.2561 -0.9819 0.9865
0.3569 -3.2441 -0.9820 0.9865
0.4043 -3.2386 -0.9820 0.9865
0.4517 -3.2325 -0.9821 0.9865
0.5459 -3.2182 -0.9822 0.9865
0.6866 -3.1916 -0.9823 0.9865
0.7796 -3.1705 -0.9824 0.9865
0.8259 -3.1589 -0.9824 0.9865
0.9179 -3.1337 -0.9825 0.9865
0.9636 -3.1202 -0.9826 0.9865
1.0092 -3.1059 -0.9826 0.9865
1.0996 -3.0753 -0.9827 0.9865
1.1891 -3.0421 -0.9828 0.9864
1.2334 -3.0246 -0.9828 0.9864
1.2776 -3.0063 -0.9829 0.9864
1.3650 -2.9680 -0.9830 0.9864
1.4083 -2.9479 -0.9830 0.9864
1.6614 -2.8139 -0.9832 0.9864
1.7430 -2.7644 -0.9833 0.9864
1.7833 -2.7387 -0.9833 0.9864
1.8627 -2.6856 -0.9834 0.9864
1.9545 -2.6493 -0.9906 0.9863
2.0061 -2.6376 -0.9971 0.9863
2.0480 -2.6125 -0.9988 0.9862
2.0860 -2.5825 -0.9989 0.9862
2.2337 -2.4565 -0.9990 0.9862
2.3046 -2.3904 -0.9991 0.9862
2.4406 -2.2519 -0.9992 0.9862
2.4733 -2.2161 -0.9992 0.9862
2.5056 -2.1798 -0.9993 0.9862
2.5683 -2.1058 -0.9993 0.9862
2.6289 -2.0300 -0.9994 0.9862
2.6873 -1.9524 -0.9994 0.9862
2.8483 -1.7098 -0.9996 0.9862
2.8730 -1.6681 -0.9996 0.9862
2.9659 -1.4975 -0.9997 0.9862
3.1207 -1.1416 -0.9999 0.9862
3.1372 -1.0959 -0.9999 0.9862
3.1528 -1.0500 -0.9999 0.9862
3.2213 -0.8170 -1.0000 0.9862
3.2541 -0.6751 -1.0000 0.9862
3.2637 -0.6275 -1.0000 0.9862
3.2806 -0.5319 -1.0000 0.9862
3.2881 -0.4839 -1.0000 0.9862
3.2948 -0.4358 -1.0000 0.9862
3.3147 -0.2425 -1.0000 0.9862
3.3204 -0.1456 -1.0000 0.9862
3.3222 -0.0971 -1.0000 0.9862
3.3233 -0.0486 -1.0000 0.9862
3.3233 0.0486 -1.0000 0.9862
3.3147 0.2426 -1.0000 0.9862
3.3108 0.2911 -1.0000 0.9862
3.3009 0.3876 -1.0000 0.9862
3.2948 0.4358 -1.0000 0.9862
3.2725 0.5798 -1.0000 0.9862
3.2541 0.6752 -1.0000 0.9862
3.2439 0.7226 -1.0000 0.9862
3.2329 0.7699 -1.0000 0.9862
3.1823 0.9574 -0.9999 0.9862
3.1679 1.0038 -0.9999 0.9862
3.1529 1.0500 -0.9999 0.9862
3.1372 1.0959 -0.9999 0.9862
3.1208 1.1417 -0.9999 0.9862
3.0676 1.2772 -0.9998 0.9862
3.0485 1.3218 -0.9998 0.9862
2.9875 1.4541 -0.9997 0.9862
2.9436 1.5407 -0.9997 0.9862
2.8972 1.6260 -0.9996 0.9862
2.8483 1.7099 -0.9996 0.9862
2.8230 1.7512 -0.9996 0.9862
2.7705 1.8329 -0.9995 0.9862
2.6584 1.9914 -0.9994 0.9862
2.6289 2.0300 -0.9994 0.9862
2.5989 2.0682 -0.9994 0.9862
2.4074 2.2874 -0.9992 0.9862
2.3737 2.3222 -0.9992 0.9862
2.1975 2.4889 -0.9990 0.9862
2.0480 2.6126 -0.9988 0.9862
2.0095 2.6421 -0.9988 0.9862
1.9707 2.6711 -0.9988 0.9862
1.8916 2.7273 -0.9987 0.9862
1.8515 2.7546 -0.9987 0.9862
1.7288 2.8328 -0.9985 0.9862
1.6872 2.8576 -0.9985 0.9862
1.6028 2.9055 -0.9984 0.9862
1.5601 2.9285 -0.9984 0.9862
1.5171 2.9508 -0.9983 0.9862
1.4738 2.9726 -0.9983 0.9862
1.0249 3.1541 -0.9979 0.9862
0.9321 3.1825 -0.9978 0.9862
0.8855 3.1956 -0.9977 0.9862
0.7917 3.2198 -0.9977 0.9862
0.6498 3.2510 -0.9975 0.9862
0.6022 3.2600 -0.9975 0.9862
0.5066 3.2759 -0.9974 0.9862
0.3625 3.2945 -0.9973 0.9863
0.2661 3.3034 -0.9972 0.9863
0.1210 3.3114 -0.9970 0.9863
-0.0242 3.3130 -0.9969 0.9863
-0.1694 3.3084 -0.9968 0.9863
-0.2176 3.3054 -0.9967 0.9863
-0.4103 3.2864 -0.9965 0.9863
-0.6015 3.2562 -0.9963 0.9863
-0.7435 3.2263 -0.9962 0.9863
-0.8373 3.2030 -0.9961 0.9863
-1.0229 3.1480 -0.9959 0.9863
-0.2451 0.6855 -0.2190 0.9970
-0.2383 0.6369 -0.2046 0.9972
-0.2304 0.5650 -0.1836 0.9975
-0.2392 0.5407 -0.1779 0.9975
-0.2473 0.5177 -0.1726 0.9976
-0.2583 0.4848 -0.1653 0.9977
-0.2616 0.4743 -0.1630 0.9977
-0.2690 0.4556 -0.1592 0.9978
-0.2724 0.4465 -0.1574 0.9978
-0.2758 0.4375 -0.1556 0.9978
-0.2791 0.4287 -0.1539 0.9979
-0.2823 0.4199 -0.1522 0.9979
-0.2882 0.4029 -0.1491 0.9979
-0.2939 0.3864 -0.1461 0.9980
-0.2966 0.3784 -0.1446 0.9980
-0.2992 0.3704 -0.1433 0.9980
-0.3067 0.3474 -0.1394 0.9981
-0.3091 0.3400 -0.1382 0.9981
-0.3113 0.3325 -0.1371 0.9981
-0.3165 0.3096 -0.1332 0.9982
-0.3223 0.2804 -0.1285 0.9982
-0.3248 0.2664 -0.1264 0.9982
-0.3260 0.2595 -0.1254 0.9983
-0.3293 0.2393 -0.1225 0.9983
-0.3321 0.2197 -0.1198 0.9983
-0.3329 0.2134 -0.1190 0.9983
-0.3345 0.2008 -0.1174 0.9984
-0.3352 0.1946 -0.1166 0.9984
-0.3362 0.1887 -0.1160 0.9984
-0.3408 0.1598 -0.1133 0.9984
-0.3433 0.1371 -0.1112 0.9985
-0.3438 0.1315 -0.1108 0.9985
-0.3452 0.1150 -0.1095 0.9985
-0.3455 0.1095 -0.1091 0.9985
-0.3462 0.0987 -0.1083 0.9985
-0.3465 0.0933 -0.1080 0.9985
-0.3473 0.0721 -0.1067 0.9985
-0.3474 0.0668 -0.1064 0.9985
-0.3475 0.0616 -0.1062 0.9985
-0.3475 0.0564 -0.1059 0.9985
-0.3475 0.0511 -0.1057 0.9985
-0.3475 0.0408 -0.1053 0.9985
-0.3472 0.0254 -0.1047 0.9985
-0.3470 0.0204 -0.1046 0.9985
-0.3468 0.0153 -0.1045 0.9986
-0.3466 0.0102 -0.1043 0.9986
-0.3404 0.0000 -0.1066 0.9986
-0.3407 -0.0049 -0.1067 0.9986
-0.3412 -0.0150 -0.1069 0.9986
-0.3418 -0.0503 -0.1081 0.9986
-0.3415 -0.0708 -0.1092 0.9985
-0.3413 -0.0760 -0.1095 0.9985
-0.3409 -0.0864 -0.1101 0.9985
-0.3407 -0.0917 -0.1104 0.9985
-0.3404 -0.0970 -0.1108 0.9985
-0.3374 -0.1347 -0.1137 0.9985
-0.3368 -0.1402 -0.1142 0.9985
-0.3362 -0.1457 -0.1147 0.9985
-0.3321 -0.1738 -0.1173 0.9984
-0.3311 -0.1795 -0.1179 0.9984
-0.3301 -0.1853 -0.1185 0.9984
-0.3281 -0.1970 -0.1198 0.9984
-0.3273 -0.2031 -0.1206 0.9984
-0.3247 -0.2217 -0.1231 0.9984
-0.3238 -0.2281 -0.1240 0.9983
-0.3228 -0.2345 -0.1249 0.9983
-0.3217 -0.2410 -0.1258 0.9983
-0.3206 -0.2475 -0.1268 0.9983
-0.3194 -0.2542 -0.1278 0.9983
-0.3182 -0.2609 -0.1288 0.9983
-0.3169 -0.2676 -0.1299 0.9983
-0.3142 -0.2815 -0.1321 0.9982
-0.3096 -0.3029 -0.1356 0.9982
-0.3045 -0.3252 -0.1394 0.9981
-0.3023 -0.3325 -0.1407 0.9981
-0.3000 -0.3398 -0.1419 0.9981
-0.2925 -0.3621 -0.1457 0.9981
-0.2898 -0.3697 -0.1471 0.9980
-0.2871 -0.3775 -0.1484 0.9980
-0.2843 -0.3853 -0.1499 0.9980
-0.2785 -0.4015 -0.1529 0.9980
-0.2690 -0.4266 -0.1579 0.9979
-0.2656 -0.4352 -0.1596 0.9979
-0.2586 -0.4529 -0.1633 0.9978
-0.2395 -0.5013 -0.1739 0.9977
-0.2271 -0.5344 -0.1818 0.9976
-0.2176 -0.6085 -0.2023 0.9973
-0.7483 -3.0432 -0.9810 0.9870
-0.7038 -3.0540 -0.9810 0.9870
-0.6591 -3.0641 -0.9810 0.9869
-0.5693 -3.0823 -0.9811 0.9869
-0.5242 -3.0904 -0.9812 0.9869
-0.4791 -3.0978 -0.9812 0.9869
-0.4338 -3.1047 -0.9813 0.9869
-0.3884 -3.1108 -0.9813 0.9869
-0.2973 -3.1211 -0.9814 0.9869
-0.2517 -3.1252 -0.9814 0.9869
-0.2060 -3.1287 -0.9815 0.9869
-0.1603 -3.1315 -0.9815 0.9869
-0.1145 -3.1337 -0.9816 0.9869
-0.0229 -3.1360 -0.9816 0.9869
0.1146 -3.1344 -0.9818 0.9869
0.2061 -3.1300 -0.9819 0.9869
0.2518 -3.1267 -0.9819 0.9869
0.3887 -3.1132 -0.9820 0.9869
0.4341 -3.1073 -0.9821 0.9869
0.5248 -3.0935 -0.9822 0.9869
0.5700 -3.0857 -0.9822 0.9869
0.6150 -3.0771 -0.9822 0.9869
0.6599 -3.0680 -0.9823 0.9869
0.7047 -3.0581 -0.9823 0.9869
0.7493 -3.0477 -0.9824 0.9869
0.8823 -3.0123 -0.9825 0.9869
0.9263 -2.9992 -0.9825 0.9869
0.9700 -2.9854 -0.9826 0.9869
1.1856 -2.9073 -0.9828 0.9869
1.2702 -2.8716 -0.9829 0.9869
1.3120 -2.8529 -0.9829 0.9869
1.4360 -2.7930 -0.9830 0.9869
1.5171 -2.7500 -0.9831 0.9869
1.5969 -2.7047 -0.9832 0.9869
1.6363 -2.6812 -0.9832 0.9869
1.6778 -2.6609 -0.9846 0.9869
1.7261 -2.6509 -0.9902 0.9868
1.8564 -2.5947 -0.9987 0.9867
1.9316 -2.5396 -0.9987 0.9867
1.9685 -2.5112 -0.9988 0.9867
2.0051 -2.4822 -0.9988 0.9867
2.1121 -2.3922 -0.9989 0.9867
2.1469 -2.3611 -0.9989 0.9867
2.2151 -2.2976 -0.9990 0.9867
2.2486 -2.2650 -0.9990 0.9867
2.2815 -2.2320 -0.9991 0.9867
2.3139 -2.1985 -0.9991 0.9867
2.3773 -2.1301 -0.9992 0.9867
2.4980 -1.9878 -0.9993 0.9867
2.5268 -1.9511 -0.9993 0.9867
2.5829 -1.8765 -0.9993 0.9867
2.6101 -1.8386 -0.9994 0.9867
2.6368 -1.8004 -0.9994 0.9867
2.6629 -1.7617 -0.9994 0.9867
2.7377 -1.6434 -0.9995 0.9867
2.8293 -1.4809 -0.9996 0.9867
2.8714 -1.3976 -0.9996 0.9867
2.9111 -1.3131 -0.9997 0.9867
2.9484 -1.2276 -0.9997 0.9867
2.9831 -1.1409 -0.9997 0.9867
2.9995 -1.0972 -0.9997 0.9867
3.0304 -1.0091 -0.9998 0.9867
3.0587 -0.9202 -0.9998 0.9867
3.0718 -0.8754 -0.9998 0.9867
3.0843 -0.8304 -0.9998 0.9867
3.0961 -0.7853 -0.9998 0.9867
3.1073 -0.7400 -0.9998 0.9867
3.1369 -0.6031 -0.9999 0.9867
3.1454 -0.5572 -0.9999 0.9867
3.1532 -0.5112 -0.9999 0.9867
3.1668 -0.4189 -0.9999 0.9867
3.1726 -0.3726 -0.9999 0.9867
3.1777 -0.3262 -0.9999 0.9867
3.1890 -0.1866 -0.9999 0.9867
3.1931 -0.0933 -0.9999 0.9867
3.1931 0.0934 -0.9999 0.9867
3.1822 0.2797 -0.9999 0.9867
3.1726 0.3726 -0.9999 0.9867
3.1668 0.4189 -0.9999 0.9867
3.1604 0.4651 -0.9999 0.9867
3.1532 0.5112 -0.9999 0.9867
3.1368 0.6032 -0.9999 0.9867
3.0718 0.8755 -0.9998 0.9867
3.0448 0.9648 -0.9998 0.9867
3.0304 1.0092 -0.9998 0.9867
3.0153 1.0534 -0.9998 0.9867
2.9995 1.0973 -0.9997 0.9867
2.9831 1.1409 -0.9997 0.9867
2.9484 1.2276 -0.9997 0.9867
2.8916 1.3556 -0.9996 0.9867
2.8715 1.3976 -0.9996 0.9867
2.7847 1.5629 -0.9995 0.9867
2.7377 1.6435 -0.9995 0.9867
2.6368 1.8004 -0.9994 0.9867
2.5551 1.9141 -0.9993 0.9867
2.4387 2.0598 -0.9992 0.9867
2.3139 2.1986 -0.9991 0.9867
2.2486 2.2651 -0.9990 0.9867
2.2151 2.2976 -0.9990 0.9867
2.1813 2.3297 -0.9990 0.9867
2.0769 2.4228 -0.9989 0.9867
2.0051 2.4823 -0.9988 0.9867
1.9685 2.5113 -0.9988 0.9867
1.9315 2.5396 -0.9987 0.9867
1.8564 2.5948 -0.9987 0.9867
1.8182 2.6216 -0.9986 0.9867
1.7797 2.6477 -0.9986 0.9867
1.6617 2.7229 -0.9985 0.9867
1.6217 2.7468 -0.9984 0.9867
1.5813 2.7700 -0.9984 0.9867
1.4166 2.8573 -0.9983 0.9867
1.3747 2.8775 -0.9982 0.9867
1.2471 2.9346 -0.9981 0.9867
1.0293 3.0173 -0.9979 0.9867
0.9851 3.0318 -0.9978 0.9867
0.8960 3.0591 -0.9978 0.9867
0.7610 3.0950 -0.9976 0.9867
0.7157 3.1057 -0.9976 0.9867
0.5788 3.1336 -0.9975 0.9867
0.2557 3.1754 -0.9972 0.9867
0.2093 3.1786 -0.9971 0.9867
0.1628 3.1812 -0.9971 0.9867
0.1163 3.1831 -0.9970 0.9867
0.0233 3.1849 -0.9969 0.9867
-0.0233 3.1847 -0.9969 0.9867
-0.0698 3.1839 -0.9968 0.9867
-0.1163 3.1824 -0.9968 0.9867
-0.1628 3.1802 -0.9968 0.9867
-0.2092 3.1774 -0.9967 0.9867
-0.2556 3.1738 -0.9967 0.9867
-0.3019 3.1696 -0.9966 0.9867
-0.3482 3.1647 -0.9966 0.9867
-0.3944 3.1592 -0.9965 0.9867
-0.4405 3.1529 -0.9965 0.9867
-0.4865 3.1460 -0.9965 0.9867
-0.5324 3.1385 -0.9964 0.9867
-0.6238 3.1213 -0.9963 0.9867
-0.6693 3.1117 -0.9963 0.9867
-0.8050 3.0790 -0.9962 0.9867
-0.8498 3.0668 -0.9961 0.9868
-0.9390 3.0404 -0.9960 0.9868
-0.2225 0.6521 -0.2157 0.9971
-0.2175 0.6085 -0.2023 0.9973
-0.2180 0.5578 -0.1875 0.9975
-0.2271 0.5344 -0.1818 0.9976
-0.2395 0.5012 -0.1739 0.9977
-0.2510 0.4712 -0.1671 0.9978
-0.2549 0.4620 -0.1652 0.9978
-0.2586 0.4530 -0.1633 0.9978
-0.2657 0.4353 -0.1596 0.9979
-0.2690 0.4267 -0.1579 0.9979
-0.2754 0.4098 -0.1545 0.9979
-0.2785 0.4015 -0.1529 0.9980
-0.2814 0.3934 -0.1514 0.9980
-0.2843 0.3854 -0.1499 0.9980
-0.2871 0.3775 -0.1484 0.9980
-0.2925 0.3621 -0.1457 0.9981
-0.2951 0.3546 -0.1444 0.9981
-0.3000 0.3398 -0.1419 0.9981
-0.3024 0.3325 -0.1407 0.9981
-0.3080 0.3102 -0.1368 0.9982
-0.3096 0.3029 -0.1356 0.9982
-0.3112 0.2957 -0.1344 0.9982
-0.3127 0.2886 -0.1332 0.9982
-0.3156 0.2746 -0.1309 0.9982
-0.3169 0.2677 -0.1299 0.9983
-0.3206 0.2475 -0.1268 0.9983
-0.3217 0.2411 -0.1258 0.9983
-0.3238 0.2281 -0.1240 0.9983
-0.3247 0.2218 -0.1231 0.9984
-0.3256 0.2155 -0.1222 0.9984
-0.3265 0.2093 -0.1214 0.9984
-0.3273 0.2031 -0.1206 0.9984
-0.3281 0.1970 -0.1198 0.9984
-0.3311 0.1796 -0.1179 0.9984
-0.3331 0.1682 -0.1168 0.9984
-0.3340 0.1626 -0.1163 0.9984
-0.3355 0.1514 -0.1152 0.9985
-0.3362 0.1458 -0.1147 0.9985
-0.3374 0.1347 -0.1137 0.9985
-0.3379 0.1293 -0.1132 0.9985
-0.3400 0.1023 -0.1112 0.9985
-0.3404 0.0971 -0.1108 0.9985
-0.3406 0.0918 -0.1104 0.9985
-0.3409 0.0865 -0.1101 0.9985
-0.3413 0.0761 -0.1095 0.9985
-0.3418 0.0554 -0.1084 0.9985
-0.3418 0.0504 -0.1081 0.9986
-0.3416 0.0301 -0.1073 0.9986
-0.3415 0.0250 -0.1072 0.9986
-0.3413 0.0200 -0.1070 0.9986
-0.3412 0.0150 -0.1069 0.9986
-0.3350 0.0000 -0.1089 0.9986
-0.3362 -0.0345 -0.1099 0.9986
-0.3362 -0.0445 -0.1103 0.9986
-0.3362 -0.0495 -0.1105 0.9986
-0.3362 -0.0545 -0.1108 0.9986
-0.3360 -0.0646 -0.1113 0.9986
-0.3357 -0.0748 -0.1119 0.9986
-0.3355 -0.0798 -0.1122 0.9986
-0.3343 -0.1006 -0.1136 0.9985
-0.3340 -0.1058 -0.1139 0.9985
-0.3336 -0.1111 -0.1143 0.9985
-0.3331 -0.1164 -0.1148 0.9985
-0.3326 -0.1216 -0.1152 0.9985
-0.3321 -0.1270 -0.1157 0.9985
-0.3316 -0.1324 -0.1161 0.9985
-0.3310 -0.1378 -0.1166 0.9985
-0.3304 -0.1432 -0.1171 0.9985
-0.3290 -0.1542 -0.1182 0.9985
-0.3262 -0.1707 -0.1198 0.9985
-0.3252 -0.1763 -0.1203 0.9984
-0.3211 -0.1992 -0.1229 0.9984
-0.3194 -0.2113 -0.1246 0.9984
-0.3185 -0.2174 -0.1254 0.9984
-0.3118 -0.2557 -0.1311 0.9983
-0.3105 -0.2622 -0.1322 0.9983
-0.3091 -0.2689 -0.1333 0.9983
-0.3077 -0.2757 -0.1344 0.9983
-0.3062 -0.2825 -0.1355 0.9982
-0.3031 -0.2964 -0.1379 0.9982
-0.3014 -0.3036 -0.1391 0.9982
-0.2996 -0.3108 -0.1404 0.9982
-0.2959 -0.3254 -0.1430 0.9982
-0.2935 -0.3325 -0.1442 0.9981
-0.2886 -0.3468 -0.1467 0.9981
-0.2806 -0.3689 -0.1508 0.9981
-0.2778 -0.3765 -0.1522 0.9980
-0.2749 -0.3842 -0.1536 0.9980
-0.2657 -0.4081 -0.1584 0.9980
-0.2625 -0.4163 -0.1601 0.9979
-0.2557 -0.4330 -0.1636 0.9979
-0.2521 -0.4416 -0.1654 0.9979
-0.2446 -0.4591 -0.1692 0.9978
-0.2407 -0.4680 -0.1712 0.9978
-0.2366 -0.4772 -0.1732 0.9978
-0.2281 -0.4961 -0.1776 0.9977
-0.2241 -0.5065 -0.1801 0.9977
-0.2108 -0.5392 -0.1883 0.9976
-0.2060 -0.5506 -0.1912 0.9975
-0.2010 -0.5623 -0.1942 0.9975
-0.2019 -0.6213 -0.2125 0.9973
-0.2055 -0.6654 -0.2265 0.9971
-0.8478 -2.8943 -0.9809 0.9874
-0.7629 -2.9181 -0.9809 0.9874
-0.7202 -2.9290 -0.9810 0.9874
-0.5046 -2.9744 -0.9812 0.9874
-0.3738 -2.9941 -0.9813 0.9874
-0.2862 -3.0039 -0.9814 0.9874
-0.1543 -3.0140 -0.9815 0.9874
-0.1102 -3.0161 -0.9816 0.9874
-0.0661 -3.0175 -0.9816 0.9874
-0.0220 -3.0182 -0.9816 0.9874
0.0662 -3.0179 -0.9817 0.9874
0.1102 -3.0167 -0.9818 0.9874
0.1543 -3.0149 -0.9818 0.9874
0.1984 -3.0125 -0.9818 0.9874
0.2424 -3.0093 -0.9819 0.9874
0.3302 -3.0013 -0.9820 0.9874
0.5485 -2.9697 -0.9822 0.9874
0.6351 -2.9527 -0.9823 0.9874
0.8067 -2.9111 -0.9824 0.9874
0.8914 -2.8865 -0.9825 0.9874
0.9336 -2.8732 -0.9825 0.9874
1.0588 -2.8299 -0.9827 0.9874
1.1818 -2.7811 -0.9828 0.9874
1.2224 -2.7637 -0.9828 0.9874
1.2627 -2.7456 -0.9829 0.9874
1.3425 -2.7078 -0.9829 0.9874
1.4660 -2.6575 -0.9871 0.9873
1.5586 -2.6397 -0.9970 0.9872
1.6374 -2.5968 -0.9985 0.9872
1.6753 -2.5727 -0.9985 0.9872
1.7498 -2.5229 -0.9986 0.9872
1.7866 -2.4971 -0.9986 0.9872
1.8229 -2.4709 -0.9986 0.9872
1.8589 -2.4440 -0.9987 0.9872
1.9644 -2.3605 -0.9988 0.9872
1.9988 -2.3316 -0.9988 0.9872
2.0327 -2.3022 -0.9988 0.9872
2.0992 -2.2420 -0.9989 0.9872
2.1318 -2.2111 -0.9989 0.9872
2.1957 -2.1480 -0.9990 0.9872
2.2576 -2.0831 -0.9990 0.9872
2.3469 -1.9823 -0.9991 0.9872
2.3757 -1.9479 -0.9991 0.9872
2.4317 -1.8777 -0.9992 0.9872
2.5119 -1.7695 -0.9993 0.9872
2.6112 -1.6199 -0.9994 0.9872
2.6346 -1.5816 -0.9994 0.9872
2.6799 -1.5039 -0.9994 0.9872
2.7016 -1.4647 -0.9995 0.9872
2.7228 -1.4251 -0.9995 0.9872
2.8016 -1.2637 -0.9996 0.9872
2.8544 -1.1398 -0.9996 0.9872
2.8866 -1.0559 -0.9996 0.9872
2.9018 -1.0136 -0.9996 0.9872
2.9163 -0.9711 -0.9997 0.9872
2.9435 -0.8855 -0.9997 0.9872
2.9562 -0.8424 -0.9997 0.9872
2.9904 -0.7121 -0.9997 0.9872
3.0270 -0.5362 -0.9998 0.9872
3.0345 -0.4920 -0.9998 0.9872
3.0476 -0.4030 -0.9998 0.9872
3.0532 -0.3585 -0.9998 0.9872
3.0624 -0.2691 -0.9998 0.9872
3.0713 -0.1347 -0.9998 0.9872
3.0739 -0.0449 -0.9998 0.9872
3.0742 0.0000 -0.9998 0.9872
3.0729 0.0898 -0.9998 0.9872
3.0713 0.1347 -0.9998 0.9872
3.0624 0.2692 -0.9998 0.9872
3.0581 0.3139 -0.9998 0.9872
3.0532 0.3586 -0.9998 0.9872
3.0414 0.4476 -0.9998 0.9872
3.0269 0.5363 -0.9998 0.9872
3.0099 0.6245 -0.9998 0.9872
2.9682 0.7992 -0.9997 0.9872
2.9562 0.8425 -0.9997 0.9872
2.9435 0.8856 -0.9997 0.9872
2.9018 1.0137 -0.9997 0.9872
2.8708 1.0980 -0.9996 0.9872
2.8544 1.1398 -0.9996 0.9872
2.8374 1.1814 -0.9996 0.9872
2.7828 1.3046 -0.9995 0.9872
2.7634 1.3450 -0.9995 0.9872
2.7434 1.3852 -0.9995 0.9872
2.7228 1.4252 -0.9995 0.9872
2.7016 1.4647 -0.9995 0.9872
2.6347 1.5816 -0.9994 0.9872
2.6112 1.6199 -0.9994 0.9872
2.5872 1.6579 -0.9994 0.9872
2.5119 1.7695 -0.9993 0.9872
2.4590 1.8421 -0.9992 0.9872
2.4040 1.9130 -0.9992 0.9872
2.3469 1.9823 -0.9991 0.9872
2.2879 2.0500 -0.9991 0.9872
2.1957 2.1481 -0.9990 0.9872
2.1640 2.1799 -0.9990 0.9872
2.0992 2.2421 -0.9989 0.9872
1.9297 2.3889 -0.9987 0.9872
1.8230 2.4709 -0.9986 0.9872
1.7498 2.5229 -0.9986 0.9872
1.6753 2.5728 -0.9985 0.9872
1.6374 2.5970 -0.9985 0.9872
1.5219 2.6659 -0.9983 0.9872
1.4827 2.6878 -0.9983 0.9872
1.4433 2.7090 -0.9983 0.9872
1.4035 2.7298 -0.9982 0.9872
1.3634 2.7498 -0.9982 0.9872
1.3230 2.7694 -0.9982 0.9872
1.2002 2.8244 -0.9980 0.9872
1.1588 2.8415 -0.9980 0.9872
1.1171 2.8580 -0.9980 0.9872
1.0330 2.8892 -0.9979 0.9872
0.9907 2.9039 -0.9978 0.9872
0.9481 2.9179 -0.9978 0.9872
0.9053 2.9313 -0.9978 0.9872
0.8623 2.9441 -0.9977 0.9872
0.7324 2.9787 -0.9976 0.9872
0.5571 3.0159 -0.9974 0.9872
0.5129 3.0236 -0.9974 0.9872
0.4687 3.0307 -0.9974 0.9872
0.4243 3.0370 -0.9973 0.9872
0.3799 3.0428 -0.9973 0.9872
0.3353 3.0479 -0.9972 0.9872
0.2908 3.0524 -0.9972 0.9872
0.2014 3.0593 -0.9971 0.9872
0.0672 3.0647 -0.9970 0.9872
0.0224 3.0653 -0.9969 0.9872
-0.0672 3.0644 -0.9968 0.9872
-0.1567 3.0609 -0.9968 0.9872
-0.2013 3.0581 -0.9967 0.9872
-0.2460 3.0547 -0.9967 0.9872
-0.3796 3.0406 -0.9966 0.9872
-0.4240 3.0346 -0.9965 0.9872
-0.4683 3.0279 -0.9965 0.9872
-0.5565 3.0127 -0.9964 0.9872
-0.6004 3.0042 -0.9963 0.9872
-0.6442 2.9950 -0.9963 0.9872
-0.6879 2.9851 -0.9963 0.9872
-0.7314 2.9746 -0.9962 0.9872
-0.2055 0.6655 -0.2265 0.9971
-0.2019 0.6213 -0.2125 0.9973
-0.1985 0.5820 -0.2000 0.9974
-0.2010 0.5623 -0.1942 0.9975
-0.2154 0.5281 -0.1855 0.9976
-0.2198 0.5172 -0.1828 0.9976
-0.2241 0.5065 -0.1801 0.9977
-0.2324 0.4864 -0.1753 0.9977
-0.2366 0.4772 -0.1732 0.9978
-0.2521 0.4416 -0.1654 0.9979
-0.2657 0.4081 -0.1584 0.9980
-0.2689 0.4000 -0.1568 0.9980
-0.2719 0.3921 -0.1552 0.9980
-0.2749 0.3843 -0.1536 0.9980
-0.2778 0.3765 -0.1522 0.9980
-0.2806 0.3690 -0.1508 0.9981
-0.2834 0.3615 -0.1494 0.9981
-0.2860 0.3541 -0.1480 0.9981
-0.2911 0.3396 -0.1455 0.9981
-0.2935 0.3325 -0.1442 0.9981
-0.2996 0.3108 -0.1404 0.9982
-0.3014 0.3036 -0.1391 0.9982
-0.3047 0.2895 -0.1367 0.9982
-0.3062 0.2826 -0.1355 0.9982
-0.3091 0.2689 -0.1333 0.9983
-0.3118 0.2556 -0.1311 0.9983
-0.3142 0.2427 -0.1291 0.9983
-0.3154 0.2362 -0.1281 0.9983
-0.3165 0.2299 -0.1272 0.9984
-0.3175 0.2237 -0.1263 0.9984
-0.3211 0.1993 -0.1229 0.9984
-0.3220 0.1933 -0.1221 0.9984
-0.3231 0.1877 -0.1215 0.9984
-0.3242 0.1820 -0.1209 0.9984
-0.3262 0.1708 -0.1198 0.9985
-0.3281 0.1597 -0.1187 0.9985
-0.3290 0.1543 -0.1182 0.9985
-0.3297 0.1487 -0.1176 0.9985
-0.3304 0.1433 -0.1171 0.9985
-0.3310 0.1379 -0.1166 0.9985
-0.3316 0.1324 -0.1161 0.9985
-0.3321 0.1270 -0.1157 0.9985
-0.3326 0.1217 -0.1152 0.9985
-0.3331 0.1164 -0.1148 0.9985
-0.3336 0.1111 -0.1143 0.9985
-0.3340 0.1059 -0.1139 0.9985
-0.3343 0.1006 -0.1136 0.9985
-0.3347 0.0954 -0.1132 0.9985
-0.3357 0.0748 -0.1119 0.9986
-0.3359 0.0697 -0.1116 0.9986
-0.3360 0.0646 -0.1113 0.9986
-0.3361 0.0596 -0.1110 0.9986
-0.3362 0.0545 -0.1108 0.9986
-0.3362 0.0495 -0.1105 0.9986
-0.3362 0.0445 -0.1103 0.9986
-0.3362 0.0395 -0.1101 0.9986
-0.3362 0.0345 -0.1099 0.9986
-0.3361 0.0296 -0.1097 0.9986
-0.3358 0.0197 -0.1094 0.9986
-0.3305 -0.0193 -0.1117 0.9986
-0.3306 -0.0241 -0.1119 0.9986
-0.3307 -0.0291 -0.1120 0.9986
-0.3308 -0.0339 -0.1122 0.9986
-0.3306 -0.0586 -0.1133 0.9986
-0.3305 -0.0635 -0.1136 0.9986
-0.3304 -0.0686 -0.1139 0.9986
-0.3302 -0.0736 -0.1142 0.9986
-0.3300 -0.0786 -0.1145 0.9986
-0.3297 -0.0836 -0.1148 0.9986
-0.3294 -0.0887 -0.1152 0.9986
-0.3288 -0.0989 -0.1159 0.9986
-0.3284 -0.1040 -0.1163 0.9985
-0.3280 -0.1092 -0.1167 0.9985
-0.3270 -0.1196 -0.1175 0.9985
-0.3240 -0.1462 -0.1200 0.9985
-0.3233 -0.1515 -0.1205 0.9985
-0.3224 -0.1569 -0.1210 0.9985
-0.3215 -0.1623 -0.1216 0.9985
-0.3174 -0.1842 -0.1239 0.9985
-0.3151 -0.1955 -0.1252 0.9984
-0.3068 -0.2441 -0.1324 0.9983
-0.3056 -0.2505 -0.1334 0.9983
-0.3029 -0.2634 -0.1355 0.9983
-0.3014 -0.2701 -0.1366 0.9983
-0.2999 -0.2767 -0.1377 0.9983
-0.2983 -0.2835 -0.1389 0.9983
-0.2967 -0.2902 -0.1401 0.9982
-0.2950 -0.2971 -0.1413 0.9982
-0.2933 -0.3042 -0.1426 0.9982
-0.2914 -0.3113 -0.1439 0.9982
-0.2895 -0.3184 -0.1453 0.9982
-0.2873 -0.3254 -0.1465 0.9982
-0.2849 -0.3323 -0.1477 0.9982
-0.2824 -0.3393 -0.1490 0.9981
-0.2771 -0.3536 -0.1516 0.9981
-0.2686 -0.3755 -0.1558 0.9981
-0.2626 -0.3907 -0.1589 0.9980
-0.2562 -0.4064 -0.1622 0.9980
-0.2529 -0.4144 -0.1639 0.9980
-0.2495 -0.4225 -0.1656 0.9979
-0.2459 -0.4307 -0.1674 0.9979
-0.2422 -0.4391 -0.1693 0.9979
-0.2384 -0.4476 -0.1712 0.9979
-0.2305 -0.4648 -0.1751 0.9978
-0.2220 -0.4828 -0.1794 0.9978
-0.2130 -0.5012 -0.1838 0.9977
-0.2040 -0.5218 -0.1891 0.9976
-0.1992 -0.5325 -0.1919 0.9976
-0.1839 -0.5661 -0.2009 0.9975
-0.1830 -0.5926 -0.2094 0.9974
-0.1852 -0.6322 -0.2224 0.9972
-0.7351 -2.8118 -0.9810 0.9878
-0.6940 -2.8224 -0.9810 0.9878
-0.6527 -2.8323 -0.9810 0.9878
