ply
format ascii 1.0
element vertex 1594
property float32 x
property float32 y
property float32 z
property float32 I
end_header
-0.3586 0.0966 -0.1028 0.9985
-0.3590 0.0855 -0.1022 0.9985
-0.3593 0.0745 -0.1016 0.9985
-0.3594 0.0691 -0.1013 0.9985
-0.3594 0.0475 -0.1004 0.9985
-0.3594 0.0422 -0.1002 0.9985
-0.3591 0.0316 -0.0998 0.9985
-0.3590 0.0262 -0.0997 0.9985
-0.3588 0.0210 -0.0995 0.9985
-0.3581 0.0052 -0.0991 0.9985
-0.3518 0.0000 -0.1016 0.9985
-0.3524 -0.0103 -0.1018 0.9985
-0.3526 -0.0155 -0.1019 0.9985
-0.3530 -0.0258 -0.1022 0.9985
-0.3531 -0.0310 -0.1024 0.9985
-0.3532 -0.0362 -0.1026 0.9985
-0.3533 -0.0415 -0.1028 0.9985
-0.3534 -0.0573 -0.1034 0.9985
-0.3534 -0.0626 -0.1037 0.9985
-0.3533 -0.0679 -0.1039 0.9985
-0.3530 -0.0786 -0.1045 0.9985
-0.3527 -0.0895 -0.1051 0.9985
-0.3516 -0.1114 -0.1065 0.9985
-0.3512 -0.1170 -0.1069 0.9985
-0.3508 -0.1226 -0.1073 0.9985
-0.3504 -0.1282 -0.1078 0.9984
-0.3483 -0.1511 -0.1097 0.9984
-0.3444 -0.1803 -0.1123 0.9984
-0.3435 -0.1863 -0.1128 0.9984
-0.3361 -0.2441 -0.1200 0.9983
-0.3329 -0.2649 -0.1229 0.9982
-0.3317 -0.2720 -0.1239 0.9982
-0.3305 -0.2792 -0.1250 0.9982
-0.3293 -0.2864 -0.1261 0.9982
-0.3265 -0.3013 -0.1283 0.9982
-0.3235 -0.3165 -0.1307 0.9981
-0.3219 -0.3243 -0.1320 0.9981
-0.3183 -0.3400 -0.1345 0.9981
-0.3160 -0.3476 -0.1357 0.9980
-0.3062 -0.3791 -0.1408 0.9980
-0.2862 -0.4396 -0.1515 0.9978
-0.2796 -0.4581 -0.1550 0.9978
-0.2731 -0.4784 -0.1591 0.9977
-0.2666 -0.5004 -0.1637 0.9976
-0.2631 -0.5116 -0.1662 0.9976
-0.2594 -0.5232 -0.1687 0.9976
-0.2474 -0.5595 -0.1767 0.9975
-0.2528 -0.6200 -0.1934 0.9972
-0.2609 -0.6675 -0.2070 0.9970
-1.1436 -3.1984 -0.9811 0.9860
-1.0969 -3.2152 -0.9813 0.9860
-1.0028 -3.2470 -0.9816 0.9860
-0.9554 -3.2618 -0.9817 0.9859
-0.9078 -3.2759 -0.9819 0.9859
-0.6180 -3.3461 -0.9828 0.9859
-0.5692 -3.3552 -0.9830 0.9859
-0.5202 -3.3638 -0.9832 0.9859
-0.4710 -3.3716 -0.9833 0.9859
-0.3725 -3.3850 -0.9836 0.9859
-0.2735 -3.3956 -0.9840 0.9859
-0.1245 -3.4061 -0.9845 0.9859
-0.0747 -3.4080 -0.9846 0.9859
-0.0249 -3.4093 -0.9848 0.9859
0.1744 -3.4073 -0.9854 0.9859
0.2242 -3.4049 -0.9856 0.9859
0.2740 -3.4018 -0.9858 0.9859
0.3237 -3.3980 -0.9859 0.9859
0.6206 -3.3600 -0.9869 0.9859
0.7188 -3.3414 -0.9872 0.9859
0.7676 -3.3312 -0.9874 0.9859
0.8164 -3.3202 -0.9876 0.9859
0.9133 -3.2959 -0.9879 0.9859
0.9616 -3.2827 -0.9880 0.9859
1.0096 -3.2689 -0.9882 0.9859
1.1524 -3.2230 -0.9887 0.9858
1.1995 -3.2064 -0.9888 0.9858
1.3857 -3.1328 -0.9894 0.9858
1.5673 -3.0483 -0.9900 0.9858
1.6119 -3.0255 -0.9902 0.9858
1.7001 -2.9780 -0.9905 0.9858
1.7869 -2.9279 -0.9908 0.9858
1.8722 -2.8753 -0.9911 0.9858
1.9143 -2.8480 -0.9912 0.9858
1.9580 -2.8232 -0.9924 0.9858
1.9994 -2.7946 -0.9925 0.9858
2.1240 -2.7096 -0.9944 0.9858
2.2728 -2.6512 -1.0087 0.9856
2.3499 -2.5845 -1.0089 0.9856
2.4250 -2.5152 -1.0092 0.9856
2.4981 -2.4439 -1.0094 0.9856
2.5690 -2.3704 -1.0097 0.9856
2.6037 -2.3329 -1.0098 0.9856
2.6377 -2.2948 -1.0099 0.9855
2.7367 -2.1777 -1.0102 0.9855
2.7685 -2.1377 -1.0103 0.9855
2.7997 -2.0973 -1.0104 0.9855
2.8604 -2.0150 -1.0106 0.9855
2.9185 -1.9309 -1.0108 0.9855
3.0012 -1.8017 -1.0111 0.9855
3.0531 -1.7134 -1.0113 0.9855
3.1023 -1.6238 -1.0114 0.9855
3.1489 -1.5327 -1.0116 0.9855
3.1928 -1.4402 -1.0117 0.9855
3.2138 -1.3935 -1.0118 0.9855
3.2340 -1.3465 -1.0119 0.9855
3.2905 -1.2037 -1.0120 0.9855
3.3079 -1.1555 -1.0121 0.9855
3.3406 -1.0585 -1.0122 0.9855
3.3843 -0.9112 -1.0123 0.9855
3.4214 -0.7622 -1.0125 0.9855
3.4424 -0.6619 -1.0125 0.9855
3.4756 -0.4598 -1.0127 0.9855
3.4820 -0.4089 -1.0127 0.9855
3.4877 -0.3580 -1.0127 0.9855
3.4926 -0.3070 -1.0127 0.9855
3.5028 -0.1537 -1.0127 0.9855
3.5047 -0.1025 -1.0127 0.9855
3.5001 0.2048 -1.0127 0.9855
3.4967 0.2559 -1.0127 0.9855
3.4756 0.4597 -1.0127 0.9855
3.4684 0.5104 -1.0126 0.9855
3.4518 0.6116 -1.0126 0.9855
3.4424 0.6619 -1.0125 0.9855
3.4214 0.7622 -1.0125 0.9855
3.4098 0.8120 -1.0124 0.9855
3.3704 0.9605 -1.0123 0.9855
3.3559 1.0097 -1.0123 0.9855
3.3406 1.0585 -1.0122 0.9855
3.2905 1.2037 -1.0120 0.9855
3.2724 1.2516 -1.0120 0.9855
3.2340 1.3465 -1.0119 0.9855
3.2138 1.3935 -1.0118 0.9855
3.1489 1.5327 -1.0116 0.9855
3.1260 1.5784 -1.0115 0.9855
3.0781 1.6688 -1.0113 0.9855
3.0275 1.7577 -1.0112 0.9855
2.9468 1.8882 -1.0109 0.9855
2.9186 1.9309 -1.0108 0.9855
2.8898 1.9732 -1.0107 0.9855
2.7997 2.0973 -1.0104 0.9855
2.7685 2.1377 -1.0103 0.9855
2.7043 2.2173 -1.0101 0.9855
2.6713 2.2563 -1.0100 0.9855
2.6377 2.2948 -1.0099 0.9855
2.5690 2.3704 -1.0097 0.9856
2.5338 2.4075 -1.0096 0.9856
2.4618 2.4798 -1.0093 0.9856
2.4250 2.5152 -1.0092 0.9856
2.2336 2.6839 -1.0086 0.9856
2.1938 2.7159 -1.0084 0.9856
2.1536 2.7473 -1.0083 0.9856
2.0719 2.8083 -1.0080 0.9856
1.8601 2.9500 -1.0073 0.9856
1.8165 2.9764 -1.0072 0.9856
1.7282 3.0273 -1.0069 0.9856
1.6836 3.0518 -1.0067 0.9856
1.5932 3.0988 -1.0065 0.9856
1.5475 3.1213 -1.0063 0.9856
1.5016 3.1431 -1.0061 0.9856
1.4552 3.1642 -1.0060 0.9856
1.3146 3.2235 -1.0055 0.9856
1.2194 3.2595 -1.0052 0.9856
1.1715 3.2764 -1.0051 0.9856
1.1233 3.2927 -1.0049 0.9856
0.9285 3.3505 -1.0043 0.9856
0.7804 3.3863 -1.0038 0.9856
0.7307 3.3968 -1.0036 0.9856
0.5808 3.4239 -1.0031 0.9856
0.4804 3.4382 -1.0028 0.9856
0.3291 3.4543 -1.0023 0.9857
0.2785 3.4582 -1.0021 0.9857
0.2279 3.4612 -1.0019 0.9857
0.1773 3.4636 -1.0018 0.9857
0.1266 3.4653 -1.0016 0.9857
0.0253 3.4663 -1.0013 0.9857
-0.0759 3.4645 -1.0009 0.9857
-0.1265 3.4624 -1.0008 0.9857
-0.2276 3.4561 -1.0004 0.9857
-0.2780 3.4518 -1.0003 0.9857
-0.3284 3.4468 -1.0001 0.9857
-0.3786 3.4411 -0.9999 0.9857
-0.6283 3.4014 -0.9991 0.9857
-0.7272 3.3805 -0.9988 0.9857
-0.8254 3.3568 -0.9985 0.9857
-0.9228 3.3301 -0.9981 0.9857
-0.9712 3.3157 -0.9980 0.9857
-1.0673 3.2849 -0.9977 0.9857
-1.1625 3.2513 -0.9974 0.9857
-1.2097 3.2334 -0.9972 0.9857
-0.2609 0.6675 -0.2070 0.9970
-0.2457 0.5781 -0.1814 0.9974
-0.2556 0.5350 -0.1713 0.9975
-0.2594 0.5232 -0.1687 0.9976
-0.2630 0.5116 -0.1662 0.9976
-0.2665 0.5003 -0.1637 0.9976
-0.2699 0.4893 -0.1614 0.9977
-0.2830 0.4487 -0.1532 0.9978
-0.2894 0.4305 -0.1498 0.9978
-0.3010 0.3957 -0.1436 0.9979
-0.3036 0.3873 -0.1422 0.9980
-0.3063 0.3791 -0.1408 0.9980
-0.3088 0.3711 -0.1394 0.9980
-0.3137 0.3553 -0.1369 0.9980
-0.3160 0.3476 -0.1357 0.9980
-0.3203 0.3322 -0.1333 0.9981
-0.3251 0.3088 -0.1295 0.9981
-0.3279 0.2938 -0.1272 0.9982
-0.3293 0.2864 -0.1261 0.9982
-0.3305 0.2792 -0.1250 0.9982
-0.3329 0.2649 -0.1229 0.9982
-0.3361 0.2441 -0.1200 0.9983
-0.3370 0.2374 -0.1191 0.9983
-0.3379 0.2307 -0.1182 0.9983
-0.3388 0.2241 -0.1173 0.9983
-0.3418 0.1984 -0.1141 0.9984
-0.3444 0.1802 -0.1123 0.9984
-0.3453 0.1743 -0.1117 0.9984
-0.3462 0.1685 -0.1112 0.9984
-0.3470 0.1627 -0.1107 0.9984
-0.3477 0.1568 -0.1102 0.9984
-0.3483 0.1510 -0.1097 0.9984
-0.3489 0.1452 -0.1092 0.9984
-0.3499 0.1338 -0.1082 0.9984
-0.3504 0.1282 -0.1078 0.9984
-0.3519 0.1059 -0.1062 0.9985
-0.3522 0.1004 -0.1058 0.9985
-0.3527 0.0895 -0.1051 0.9985
-0.3529 0.0840 -0.1048 0.9985
-0.3533 0.0679 -0.1039 0.9985
-0.3534 0.0626 -0.1037 0.9985
-0.3534 0.0573 -0.1034 0.9985
-0.3534 0.0467 -0.1030 0.9985
-0.3533 0.0415 -0.1028 0.9985
-0.3531 0.0311 -0.1024 0.9985
-0.3530 0.0259 -0.1022 0.9985
-0.3524 0.0103 -0.1018 0.9985
-0.3463 -0.0051 -0.1042 0.9986
-0.3468 -0.0152 -0.1045 0.9986
-0.3473 -0.0305 -0.1049 0.9985
-0.3474 -0.0357 -0.1051 0.9985
-0.3475 -0.0408 -0.1053 0.9985
-0.3475 -0.0512 -0.1057 0.9985
-0.3475 -0.0564 -0.1059 0.9985
-0.3474 -0.0668 -0.1064 0.9985
-0.3473 -0.0721 -0.1067 0.9985
-0.3470 -0.0827 -0.1073 0.9985
-0.3462 -0.0987 -0.1083 0.9985
-0.3459 -0.1041 -0.1087 0.9985
-0.3456 -0.1095 -0.1091 0.9985
-0.3448 -0.1204 -0.1099 0.9985
-0.3438 -0.1315 -0.1108 0.9985
-0.3433 -0.1371 -0.1112 0.9985
-0.3415 -0.1541 -0.1127 0.9984
-0.3391 -0.1713 -0.1143 0.9984
-0.3382 -0.1770 -0.1148 0.9984
-0.3352 -0.1946 -0.1166 0.9984
-0.3345 -0.2008 -0.1174 0.9984
-0.3337 -0.2070 -0.1182 0.9984
-0.3329 -0.2134 -0.1190 0.9983
-0.3321 -0.2197 -0.1198 0.9983
-0.3312 -0.2262 -0.1207 0.9983
-0.3303 -0.2327 -0.1216 0.9983
-0.3293 -0.2393 -0.1225 0.9983
-0.3261 -0.2595 -0.1254 0.9983
-0.3249 -0.2663 -0.1264 0.9982
-0.3236 -0.2734 -0.1275 0.9982
-0.3209 -0.2876 -0.1297 0.9982
-0.3195 -0.2948 -0.1308 0.9982
-0.3113 -0.3325 -0.1371 0.9981
-0.3091 -0.3399 -0.1382 0.9981
-0.3043 -0.3550 -0.1407 0.9980
-0.3018 -0.3627 -0.1420 0.9980
-0.2882 -0.4030 -0.1491 0.9979
-0.2853 -0.4114 -0.1506 0.9979
-0.2823 -0.4200 -0.1522 0.9979
-0.2758 -0.4375 -0.1556 0.9978
-0.2725 -0.4465 -0.1574 0.9978
-0.2654 -0.4648 -0.1610 0.9978
-0.2616 -0.4743 -0.1630 0.9977
-0.2583 -0.4848 -0.1653 0.9977
-0.2392 -0.5408 -0.1779 0.9975
-0.2349 -0.5527 -0.1807 0.9975
-0.2383 -0.6369 -0.2046 0.9972
-0.2451 -0.6854 -0.2190 0.9970
-1.0531 -3.0870 -0.9814 0.9865
-1.0080 -3.1025 -0.9815 0.9865
-0.9628 -3.1173 -0.9817 0.9865
-0.9173 -3.1316 -0.9818 0.9865
-0.8256 -3.1580 -0.9821 0.9865
-0.7795 -3.1702 -0.9823 0.9865
-0.7332 -3.1818 -0.9825 0.9865
-0.6401 -3.2029 -0.9828 0.9864
-0.5934 -3.2123 -0.9829 0.9864
-0.4050 -3.2436 -0.9835 0.9864
-0.3576 -3.2497 -0.9837 0.9864
-0.3101 -3.2551 -0.9838 0.9864
-0.1672 -3.2671 -0.9843 0.9864
-0.1195 -3.2697 -0.9845 0.9864
-0.0717 -3.2716 -0.9846 0.9864
0.1196 -3.2723 -0.9853 0.9864
0.2152 -3.2686 -0.9856 0.9864
0.2630 -3.2655 -0.9857 0.9864
0.3584 -3.2575 -0.9861 0.9864
0.4060 -3.2524 -0.9862 0.9864
0.4536 -3.2466 -0.9864 0.9864
0.5011 -3.2402 -0.9865 0.9864
0.5957 -3.2252 -0.9868 0.9864
0.6429 -3.2166 -0.9870 0.9864
0.6899 -3.2074 -0.9871 0.9864
0.7836 -3.1869 -0.9875 0.9864
0.8766 -3.1636 -0.9878 0.9864
0.9690 -3.1377 -0.9881 0.9864
1.0606 -3.1089 -0.9884 0.9864
1.1514 -3.0775 -0.9887 0.9864
1.2411 -3.0435 -0.9890 0.9864
1.3299 -3.0068 -0.9893 0.9864
1.3739 -2.9875 -0.9894 0.9864
1.4610 -2.9469 -0.9897 0.9864
1.5042 -2.9257 -0.9898 0.9864
1.6316 -2.8582 -0.9903 0.9863
1.7168 -2.8131 -0.9916 0.9863
1.7987 -2.7625 -0.9919 0.9863
1.8392 -2.7362 -0.9920 0.9863
2.1811 -2.5444 -1.0084 0.9861
2.2551 -2.4801 -1.0086 0.9861
2.2914 -2.4472 -1.0087 0.9861
2.3271 -2.4138 -1.0089 0.9861
2.4653 -2.2748 -1.0093 0.9861
2.4986 -2.2387 -1.0094 0.9861
2.5312 -2.2022 -1.0095 0.9861
2.5951 -2.1278 -1.0097 0.9861
2.6866 -2.0126 -1.0100 0.9861
2.7160 -1.9733 -1.0101 0.9861
2.7730 -1.8935 -1.0103 0.9861
2.8007 -1.8529 -1.0104 0.9861
2.8277 -1.8120 -1.0105 0.9861
2.8541 -1.7706 -1.0106 0.9861
2.9051 -1.6867 -1.0108 0.9861
2.9297 -1.6442 -1.0108 0.9861
2.9996 -1.5146 -1.0111 0.9861
3.0430 -1.4265 -1.0112 0.9861
3.1032 -1.2920 -1.0114 0.9861
3.1400 -1.2009 -1.0115 0.9861
3.1574 -1.1550 -1.0116 0.9861
3.1741 -1.1088 -1.0117 0.9861
3.1901 -1.0624 -1.0117 0.9861
3.2055 -1.0157 -1.0118 0.9861
3.2341 -0.9217 -1.0119 0.9861
3.2474 -0.8744 -1.0119 0.9861
3.2718 -0.7792 -1.0120 0.9860
3.2829 -0.7313 -1.0120 0.9860
3.3031 -0.6351 -1.0121 0.9860
3.3122 -0.5868 -1.0121 0.9860
3.3411 -0.3923 -1.0122 0.9860
3.3512 -0.2946 -1.0122 0.9860
3.3610 -0.1474 -1.0123 0.9860
3.3643 0.0000 -1.0123 0.9860
3.3465 0.3435 -1.0122 0.9860
3.3281 0.4898 -1.0122 0.9860
3.3205 0.5384 -1.0121 0.9860
3.3121 0.5867 -1.0121 0.9860
3.3031 0.6351 -1.0121 0.9860
3.2829 0.7313 -1.0120 0.9860
3.2599 0.8268 -1.0119 0.9860
3.2474 0.8744 -1.0119 0.9861
3.2202 0.9688 -1.0118 0.9861
3.2055 1.0157 -1.0118 0.9861
3.1902 1.0624 -1.0117 0.9861
3.1574 1.1550 -1.0116 0.9861
3.1400 1.2010 -1.0115 0.9861
3.0838 1.3371 -1.0114 0.9861
3.0216 1.4707 -1.0112 0.9861
2.9996 1.5145 -1.0111 0.9861
2.9297 1.6442 -1.0109 0.9861
2.9051 1.6867 -1.0108 0.9861
2.8541 1.7705 -1.0106 0.9861
2.8007 1.8529 -1.0104 0.9861
2.7731 1.8934 -1.0103 0.9861
2.7448 1.9336 -1.0102 0.9861
2.6867 2.0126 -1.0101 0.9861
2.6262 2.0898 -1.0099 0.9861
2.5951 2.1278 -1.0098 0.9861
2.5635 2.1652 -1.0096 0.9861
2.5313 2.2022 -1.0095 0.9861
2.3973 2.3453 -1.0091 0.9861
2.3625 2.3798 -1.0090 0.9861
2.2184 2.5125 -1.0085 0.9861
2.1435 2.5756 -1.0083 0.9861
2.0278 2.6661 -1.0079 0.9861
1.9884 2.6951 -1.0078 0.9861
1.9485 2.7235 -1.0076 0.9861
1.8676 2.7786 -1.0074 0.9861
1.7851 2.8312 -1.0071 0.9861
1.7012 2.8813 -1.0068 0.9861
1.4853 2.9957 -1.0061 0.9861
1.4411 3.0166 -1.0059 0.9861
1.3070 3.0755 -1.0055 0.9861
1.2162 3.1115 -1.0052 0.9861
1.0317 3.1753 -1.0046 0.9862
0.9851 3.1896 -1.0044 0.9862
0.7490 3.2505 -1.0037 0.9862
0.6056 3.2786 -1.0032 0.9862
0.5094 3.2938 -1.0029 0.9862
0.4128 3.3062 -1.0026 0.9862
0.3159 3.3159 -1.0022 0.9862
0.2673 3.3196 -1.0021 0.9862
0.2188 3.3226 -1.0019 0.9862
0.1216 3.3266 -1.0016 0.9862
0.0729 3.3274 -1.0014 0.9862
-0.0729 3.3258 -1.0010 0.9862
-0.1215 3.3238 -1.0008 0.9862
-0.1700 3.3212 -1.0006 0.9862
-0.2185 3.3179 -1.0005 0.9862
-0.5077 3.2829 -0.9995 0.9862
-0.5555 3.2746 -0.9994 0.9862
-0.6032 3.2655 -0.9992 0.9862
-0.6507 3.2559 -0.9990 0.9862
-0.7454 3.2345 -0.9987 0.9862
-0.7924 3.2227 -0.9986 0.9862
-0.8393 3.2103 -0.9984 0.9862
-1.0248 3.1539 -0.9978 0.9862
-1.0706 3.1381 -0.9977 0.9862
-0.2451 0.6855 -0.2191 0.9970
-0.2304 0.5649 -0.1836 0.9975
-0.2349 0.5527 -0.1807 0.9975
-0.2392 0.5407 -0.1779 0.9975
-0.2433 0.5291 -0.1752 0.9976
-0.2473 0.5176 -0.1726 0.9976
-0.2548 0.4955 -0.1676 0.9977
-0.2617 0.4743 -0.1630 0.9977
-0.2725 0.4464 -0.1574 0.9978
-0.2758 0.4374 -0.1556 0.9978
-0.2882 0.4029 -0.1491 0.9979
-0.2966 0.3783 -0.1446 0.9980
-0.2992 0.3705 -0.1433 0.9980
-0.3018 0.3627 -0.1420 0.9980
-0.3091 0.3399 -0.1382 0.9981
-0.3148 0.3171 -0.1345 0.9981
-0.3165 0.3096 -0.1332 0.9982
-0.3209 0.2875 -0.1297 0.9982
-0.3249 0.2663 -0.1264 0.9982
-0.3261 0.2595 -0.1254 0.9983
-0.3272 0.2526 -0.1244 0.9983
-0.3283 0.2459 -0.1234 0.9983
-0.3303 0.2327 -0.1216 0.9983
-0.3321 0.2197 -0.1198 0.9983
-0.3329 0.2134 -0.1190 0.9983
-0.3345 0.2008 -0.1174 0.9984
-0.3362 0.1886 -0.1160 0.9984
-0.3382 0.1770 -0.1148 0.9984
-0.3391 0.1712 -0.1143 0.9984
-0.3415 0.1540 -0.1127 0.9984
-0.3433 0.1370 -0.1112 0.9985
-0.3443 0.1259 -0.1103 0.9985
-0.3452 0.1149 -0.1095 0.9985
-0.3459 0.1041 -0.1087 0.9985
-0.3465 0.0932 -0.1080 0.9985
-0.3467 0.0880 -0.1076 0.9985
-0.3470 0.0826 -0.1073 0.9985
-0.3475 0.0616 -0.1062 0.9985
-0.3475 0.0563 -0.1059 0.9985
-0.3475 0.0408 -0.1053 0.9985
-0.3474 0.0356 -0.1051 0.9985
-0.3472 0.0254 -0.1047 0.9985
-0.3404 0.0000 -0.1066 0.9986
-0.3417 -0.0605 -0.1086 0.9985
-0.3413 -0.0761 -0.1095 0.9985
-0.3411 -0.0812 -0.1098 0.9985
-0.3407 -0.0918 -0.1104 0.9985
-0.3400 -0.1023 -0.1112 0.9985
-0.3397 -0.1077 -0.1115 0.9985
-0.3393 -0.1130 -0.1119 0.9985
-0.3384 -0.1238 -0.1128 0.9985
-0.3374 -0.1348 -0.1137 0.9985
-0.3339 -0.1626 -0.1163 0.9984
-0.3331 -0.1682 -0.1168 0.9984
-0.3321 -0.1738 -0.1173 0.9984
-0.3311 -0.1796 -0.1179 0.9984
-0.3281 -0.1970 -0.1198 0.9984
-0.3265 -0.2092 -0.1214 0.9984
-0.3248 -0.2218 -0.1231 0.9984
-0.3228 -0.2345 -0.1249 0.9983
-0.3217 -0.2410 -0.1258 0.9983
-0.3206 -0.2475 -0.1268 0.9983
-0.3182 -0.2609 -0.1288 0.9983
-0.3169 -0.2677 -0.1299 0.9983
-0.3156 -0.2746 -0.1309 0.9982
-0.3113 -0.2957 -0.1344 0.9982
-0.3024 -0.3326 -0.1407 0.9981
-0.2951 -0.3546 -0.1444 0.9981
-0.2899 -0.3698 -0.1471 0.9980
-0.2871 -0.3775 -0.1484 0.9980
-0.2843 -0.3853 -0.1499 0.9980
-0.2814 -0.3934 -0.1514 0.9980
-0.2785 -0.4016 -0.1529 0.9980
-0.2754 -0.4098 -0.1545 0.9979
-0.2723 -0.4182 -0.1562 0.9979
-0.2690 -0.4267 -0.1579 0.9979
-0.2656 -0.4353 -0.1596 0.9979
-0.2586 -0.4530 -0.1633 0.9978
-0.2549 -0.4620 -0.1652 0.9978
-0.2510 -0.4712 -0.1671 0.9978
-0.2471 -0.4806 -0.1691 0.9977
-0.2395 -0.5012 -0.1739 0.9977
-0.2355 -0.5121 -0.1764 0.9976
-0.2271 -0.5345 -0.1818 0.9976
-0.2227 -0.5459 -0.1846 0.9975
-0.2180 -0.5578 -0.1875 0.9975
-0.9256 -2.9970 -0.9818 0.9869
-0.8379 -3.0237 -0.9821 0.9869
-0.7494 -3.0477 -0.9824 0.9869
-0.7049 -3.0588 -0.9825 0.9869
-0.6154 -3.0791 -0.9828 0.9869
-0.5704 -3.0882 -0.9830 0.9869
-0.4801 -3.1045 -0.9833 0.9869
-0.3437 -3.1239 -0.9837 0.9869
-0.2524 -3.1336 -0.9840 0.9869
-0.2066 -3.1374 -0.9842 0.9869
-0.1608 -3.1407 -0.9843 0.9869
-0.1149 -3.1431 -0.9845 0.9869
-0.0689 -3.1449 -0.9846 0.9869
-0.0230 -3.1461 -0.9848 0.9869
0.0230 -3.1466 -0.9849 0.9869
0.1150 -3.1455 -0.9853 0.9869
0.1609 -3.1440 -0.9854 0.9869
0.2528 -3.1389 -0.9857 0.9869
0.2987 -3.1354 -0.9859 0.9869
0.3445 -3.1311 -0.9860 0.9869
0.3903 -3.1263 -0.9862 0.9869
0.4360 -3.1207 -0.9863 0.9869
0.4816 -3.1145 -0.9865 0.9869
0.5271 -3.1076 -0.9866 0.9869
0.5726 -3.1000 -0.9868 0.9869
0.6179 -3.0918 -0.9869 0.9869
0.6631 -3.0829 -0.9871 0.9869
0.7083 -3.0734 -0.9872 0.9869
0.7979 -3.0522 -0.9875 0.9869
1.0194 -2.9880 -0.9882 0.9869
1.1498 -2.9418 -0.9887 0.9868
1.1929 -2.9251 -0.9888 0.9868
1.2357 -2.9078 -0.9890 0.9868
1.2782 -2.8898 -0.9891 0.9868
1.3205 -2.8712 -0.9892 0.9868
1.4472 -2.8148 -0.9907 0.9868
1.5698 -2.7498 -0.9911 0.9868
1.6542 -2.7105 -0.9939 0.9868
1.7521 -2.6909 -1.0051 0.9866
1.8726 -2.6173 -1.0074 0.9866
1.9108 -2.5900 -1.0075 0.9866
1.9487 -2.5621 -1.0076 0.9866
1.9862 -2.5338 -1.0077 0.9866
2.0233 -2.5048 -1.0079 0.9866
2.0599 -2.4752 -1.0080 0.9866
2.0961 -2.4452 -1.0081 0.9866
2.1671 -2.3834 -1.0083 0.9866
2.2020 -2.3518 -1.0084 0.9866
2.2702 -2.2870 -1.0087 0.9866
2.3037 -2.2537 -1.0088 0.9866
2.3691 -2.1859 -1.0090 0.9866
2.4010 -2.1513 -1.0091 0.9866
2.4324 -2.1162 -1.0092 0.9866
2.4633 -2.0807 -1.0093 0.9866
2.5529 -1.9712 -1.0096 0.9866
2.6099 -1.8962 -1.0098 0.9866
2.6376 -1.8580 -1.0099 0.9866
2.6647 -1.8195 -1.0100 0.9866
2.7171 -1.7411 -1.0101 0.9866
2.7673 -1.6613 -1.0103 0.9866
2.7915 -1.6208 -1.0104 0.9866
2.8151 -1.5799 -1.0105 0.9866
2.8381 -1.5387 -1.0105 0.9866
2.8823 -1.4554 -1.0107 0.9866
2.9439 -1.3279 -1.0109 0.9866
2.9818 -1.2415 -1.0110 0.9866
2.9998 -1.1979 -1.0111 0.9866
3.0499 -1.0654 -1.0112 0.9866
3.0653 -1.0209 -1.0113 0.9865
3.0941 -0.9309 -1.0114 0.9865
3.1323 -0.7945 -1.0115 0.9865
3.1544 -0.7027 -1.0116 0.9865
3.1645 -0.6566 -1.0116 0.9865
3.1825 -0.5639 -1.0117 0.9865
3.1905 -0.5173 -1.0117 0.9865
3.1977 -0.4706 -1.0117 0.9865
3.2044 -0.4239 -1.0118 0.9865
3.2103 -0.3770 -1.0118 0.9865
3.2155 -0.3301 -1.0118 0.9865
3.2200 -0.2830 -1.0118 0.9865
3.2239 -0.2360 -1.0118 0.9865
3.2270 -0.1888 -1.0118 0.9865
3.2322 -0.0472 -1.0118 0.9865
3.2326 0.0000 -1.0119 0.9865
3.2295 0.1416 -1.0118 0.9865
3.2239 0.2359 -1.0118 0.9865
3.2155 0.3300 -1.0118 0.9865
3.2103 0.3770 -1.0118 0.9865
3.1978 0.4706 -1.0117 0.9865
3.1825 0.5638 -1.0117 0.9865
3.1324 0.7945 -1.0115 0.9865
3.1203 0.8402 -1.0115 0.9865
3.1075 0.8856 -1.0114 0.9865
3.0941 0.9309 -1.0114 0.9865
3.0499 1.0655 -1.0113 0.9866
3.0339 1.1098 -1.0112 0.9866
3.0172 1.1540 -1.0111 0.9866
2.9998 1.1978 -1.0111 0.9866
2.9439 1.3279 -1.0109 0.9866
2.9035 1.4132 -1.0108 0.9866
2.8823 1.4554 -1.0107 0.9866
2.8605 1.4972 -1.0106 0.9866
2.7915 1.6207 -1.0104 0.9866
2.7426 1.7014 -1.0102 0.9866
2.6647 1.8195 -1.0100 0.9866
2.6376 1.8580 -1.0099 0.9866
2.5529 1.9713 -1.0096 0.9866
2.4937 2.0446 -1.0094 0.9866
2.4633 2.0806 -1.0093 0.9866
2.4325 2.1162 -1.0092 0.9866
2.4010 2.1513 -1.0091 0.9866
2.3691 2.1859 -1.0090 0.9866
2.3366 2.2201 -1.0089 0.9866
2.3037 2.2537 -1.0088 0.9866
2.0599 2.4752 -1.0080 0.9866
1.9862 2.5337 -1.0077 0.9866
1.9109 2.5901 -1.0075 0.9866
1.8726 2.6174 -1.0074 0.9866
1.6754 2.7453 -1.0067 0.9866
1.4696 2.8584 -1.0060 0.9866
1.4275 2.8791 -1.0059 0.9866
1.3423 2.9188 -1.0056 0.9866
1.2994 2.9377 -1.0055 0.9866
1.2126 2.9736 -1.0052 0.9866
0.9468 3.0656 -1.0043 0.9866
0.8566 3.0911 -1.0040 0.9866
0.8112 3.1027 -1.0039 0.9866
0.7656 3.1139 -1.0037 0.9866
0.7199 3.1243 -1.0036 0.9867
0.5359 3.1591 -1.0030 0.9867
0.4896 3.1661 -1.0028 0.9867
0.4432 3.1724 -1.0027 0.9867
0.3502 3.1830 -1.0023 0.9867
0.2103 3.1938 -1.0019 0.9867
0.1169 3.1976 -1.0016 0.9867
0.0234 3.1987 -1.0013 0.9867
-0.0701 3.1970 -1.0010 0.9867
-0.1168 3.1952 -1.0008 0.9867
-0.1634 3.1926 -1.0007 0.9867
-0.2100 3.1894 -1.0005 0.9867
-0.3030 3.1809 -1.0002 0.9867
-0.3957 3.1697 -0.9999 0.9867
-0.4419 3.1631 -0.9997 0.9867
-0.5340 3.1479 -0.9994 0.9867
-0.5799 3.1393 -0.9993 0.9867
-0.7618 3.0982 -0.9987 0.9867
-0.8069 3.0863 -0.9985 0.9867
-0.8518 3.0737 -0.9984 0.9867
-0.8965 3.0605 -0.9982 0.9867
-0.2225 0.6522 -0.2157 0.9971
-0.2176 0.6085 -0.2023 0.9973
-0.2132 0.5698 -0.1904 0.9975
-0.2314 0.5231 -0.1791 0.9976
-0.2395 0.5012 -0.1739 0.9977
-0.2510 0.4712 -0.1671 0.9978
-0.2690 0.4267 -0.1579 0.9979
-0.2843 0.3853 -0.1499 0.9980
-0.2871 0.3774 -0.1484 0.9980
-0.2898 0.3698 -0.1471 0.9980
-0.2925 0.3621 -0.1457 0.9981
-0.2951 0.3546 -0.1444 0.9981
-0.3000 0.3398 -0.1419 0.9981
-0.3024 0.3325 -0.1407 0.9981
-0.3045 0.3252 -0.1394 0.9981
-0.3080 0.3102 -0.1368 0.9982
-0.3112 0.2957 -0.1344 0.9982
-0.3156 0.2746 -0.1309 0.9982
-0.3182 0.2609 -0.1288 0.9983
-0.3194 0.2542 -0.1278 0.9983
-0.3228 0.2345 -0.1249 0.9983
-0.3238 0.2280 -0.1240 0.9983
-0.3248 0.2217 -0.1231 0.9984
-0.3265 0.2092 -0.1214 0.9984
-0.3273 0.2030 -0.1206 0.9984
-0.3290 0.1911 -0.1191 0.9984
-0.3301 0.1853 -0.1185 0.9984
-0.3321 0.1738 -0.1173 0.9984
-0.3330 0.1681 -0.1168 0.9984
-0.3355 0.1513 -0.1152 0.9985
-0.3368 0.1402 -0.1142 0.9985
-0.3393 0.1130 -0.1119 0.9985
-0.3412 0.0812 -0.1098 0.9985
-0.3415 0.0709 -0.1092 0.9985
-0.3416 0.0657 -0.1089 0.9985
-0.3417 0.0605 -0.1086 0.9985
-0.3418 0.0452 -0.1079 0.9986
-0.3418 0.0401 -0.1077 0.9986
-0.3417 0.0351 -0.1075 0.9986
-0.3415 0.0250 -0.1072 0.9986
-0.3412 0.0150 -0.1069 0.9986
-0.3410 0.0100 -0.1068 0.9986
-0.3350 -0.0000 -0.1089 0.9986
-0.3352 -0.0049 -0.1090 0.9986
-0.3355 -0.0098 -0.1091 0.9986
-0.3357 -0.0147 -0.1093 0.9986
-0.3358 -0.0196 -0.1094 0.9986
-0.3360 -0.0246 -0.1096 0.9986
-0.3361 -0.0296 -0.1097 0.9986
-0.3362 -0.0445 -0.1103 0.9986
-0.3362 -0.0545 -0.1108 0.9986
-0.3361 -0.0595 -0.1110 0.9986
-0.3355 -0.0799 -0.1122 0.9986
-0.3352 -0.0850 -0.1125 0.9985
-0.3350 -0.0902 -0.1128 0.9985
-0.3344 -0.1006 -0.1136 0.9985
-0.3340 -0.1059 -0.1139 0.9985
-0.3336 -0.1111 -0.1143 0.9985
-0.3331 -0.1164 -0.1148 0.9985
-0.3326 -0.1217 -0.1152 0.9985
-0.3310 -0.1378 -0.1166 0.9985
-0.3304 -0.1433 -0.1171 0.9985
-0.3297 -0.1487 -0.1176 0.9985
-0.3281 -0.1597 -0.1187 0.9985
-0.3272 -0.1652 -0.1192 0.9985
-0.3242 -0.1820 -0.1209 0.9984
-0.3231 -0.1877 -0.1215 0.9984
-0.3220 -0.1933 -0.1221 0.9984
-0.3211 -0.1993 -0.1229 0.9984
-0.3203 -0.2053 -0.1237 0.9984
-0.3175 -0.2237 -0.1263 0.9984
-0.3154 -0.2362 -0.1281 0.9983
-0.3142 -0.2427 -0.1291 0.9983
-0.3105 -0.2623 -0.1322 0.9983
-0.3077 -0.2757 -0.1344 0.9983
-0.3047 -0.2895 -0.1367 0.9982
-0.3031 -0.2965 -0.1379 0.9982
-0.3014 -0.3036 -0.1391 0.9982
-0.2997 -0.3108 -0.1404 0.9982
-0.2959 -0.3254 -0.1430 0.9982
-0.2935 -0.3325 -0.1442 0.9981
-0.2911 -0.3396 -0.1455 0.9981
-0.2886 -0.3469 -0.1467 0.9981
-0.2806 -0.3690 -0.1508 0.9981
-0.2749 -0.3842 -0.1536 0.9980
-0.2719 -0.3920 -0.1552 0.9980
-0.2689 -0.4000 -0.1568 0.9980
-0.2625 -0.4163 -0.1601 0.9979
-0.2591 -0.4246 -0.1618 0.9979
-0.2484 -0.4503 -0.1673 0.9978
-0.2446 -0.4591 -0.1692 0.9978
-0.2407 -0.4681 -0.1712 0.9978
-0.2366 -0.4772 -0.1732 0.9978
-0.2324 -0.4864 -0.1753 0.9977
-0.2241 -0.5065 -0.1801 0.9977
-0.2010 -0.5623 -0.1942 0.9975
-0.1985 -0.5819 -0.2000 0.9974
-0.2018 -0.6213 -0.2124 0.9973
-0.8488 -2.8979 -0.9821 0.9874
-0.7640 -2.9223 -0.9824 0.9874
-0.7213 -2.9336 -0.9825 0.9874
-0.6785 -2.9443 -0.9826 0.9874
-0.6355 -2.9543 -0.9828 0.9874
-0.5490 -2.9724 -0.9831 0.9874
-0.5056 -2.9806 -0.9832 0.9874
-0.4621 -2.9881 -0.9833 0.9874
-0.4184 -2.9950 -0.9835 0.9874
-0.3747 -3.0012 -0.9836 0.9874
-0.3308 -3.0068 -0.9838 0.9874
-0.2869 -3.0117 -0.9839 0.9874
-0.2429 -3.0161 -0.9841 0.9874
-0.1547 -3.0228 -0.9844 0.9873
-0.1106 -3.0252 -0.9845 0.9873
-0.0663 -3.0269 -0.9847 0.9873
-0.0221 -3.0280 -0.9848 0.9873
0.0664 -3.0283 -0.9851 0.9873
0.1106 -3.0274 -0.9852 0.9873
0.2433 -3.0210 -0.9857 0.9873
0.2875 -3.0176 -0.9858 0.9873
0.3756 -3.0087 -0.9861 0.9873
0.4196 -3.0034 -0.9863 0.9873
0.5074 -2.9907 -0.9865 0.9873
0.5510 -2.9834 -0.9867 0.9873
0.6382 -2.9669 -0.9870 0.9873
0.6816 -2.9577 -0.9871 0.9873
0.7679 -2.9373 -0.9874 0.9873
0.8537 -2.9145 -0.9877 0.9873
0.8963 -2.9021 -0.9878 0.9873
0.9810 -2.8755 -0.9881 0.9873
1.0230 -2.8612 -0.9882 0.9873
1.0649 -2.8464 -0.9884 0.9873
1.1077 -2.8340 -0.9896 0.9873
1.2721 -2.7660 -0.9901 0.9873
1.3527 -2.7284 -0.9904 0.9873
1.7646 -2.5443 -1.0070 0.9871
1.8018 -2.5186 -1.0071 0.9871
1.8751 -2.4654 -1.0074 0.9871
1.9112 -2.4380 -1.0075 0.9871
1.9468 -2.4101 -1.0076 0.9871
1.9821 -2.3817 -1.0077 0.9871
2.0169 -2.3527 -1.0078 0.9870
2.0512 -2.3233 -1.0079 0.9870
2.0852 -2.2933 -1.0081 0.9870
2.1844 -2.2005 -1.0084 0.9870
2.3404 -2.0362 -1.0089 0.9870
2.3701 -2.0020 -1.0090 0.9870
2.3994 -1.9673 -1.0091 0.9870
2.4563 -1.8967 -1.0093 0.9870
2.4839 -1.8608 -1.0094 0.9870
2.6858 -1.5594 -1.0100 0.9870
2.7085 -1.5201 -1.0101 0.9870
2.7306 -1.4805 -1.0102 0.9870
2.7522 -1.4405 -1.0103 0.9870
2.7934 -1.3597 -1.0104 0.9870
2.8323 -1.2777 -1.0105 0.9870
2.8509 -1.2361 -1.0106 0.9870
2.8688 -1.1945 -1.0106 0.9870
2.9028 -1.1102 -1.0108 0.9870
2.9343 -1.0251 -1.0109 0.9870
2.9491 -0.9821 -1.0109 0.9870
3.0136 -0.7644 -1.0111 0.9870
3.0245 -0.7203 -1.0112 0.9870
3.0535 -0.5871 -1.0113 0.9870
3.0695 -0.4977 -1.0113 0.9870
3.0828 -0.4078 -1.0114 0.9870
3.0886 -0.3627 -1.0114 0.9870
3.0979 -0.2723 -1.0114 0.9870
3.1016 -0.2270 -1.0114 0.9870
3.1046 -0.1817 -1.0114 0.9870
3.1069 -0.1363 -1.0114 0.9870
3.1086 -0.0909 -1.0114 0.9870
3.1096 -0.0455 -1.0114 0.9870
3.1100 0.0000 -1.0114 0.9870
3.1046 0.1816 -1.0114 0.9870
3.1016 0.2270 -1.0114 0.9870
3.0829 0.4078 -1.0114 0.9870
3.0765 0.4527 -1.0113 0.9870
3.0695 0.4976 -1.0113 0.9870
3.0535 0.5871 -1.0113 0.9870
3.0445 0.6316 -1.0112 0.9870
3.0136 0.7643 -1.0111 0.9870
3.0020 0.8083 -1.0111 0.9870
2.9897 0.8520 -1.0111 0.9870
2.9768 0.8956 -1.0110 0.9870
2.9491 0.9821 -1.0109 0.9870
2.9343 1.0250 -1.0109 0.9870
2.9189 1.0678 -1.0108 0.9870
2.8324 1.2776 -1.0105 0.9870
2.7085 1.5201 -1.0101 0.9870
2.6858 1.5594 -1.0101 0.9870
2.6625 1.5983 -1.0100 0.9870
2.6143 1.6752 -1.0098 0.9870
2.5111 1.8244 -1.0095 0.9870
2.4563 1.8967 -1.0093 0.9870
2.4281 1.9322 -1.0092 0.9870
2.3102 2.0699 -1.0088 0.9870
2.2795 2.1032 -1.0087 0.9870
2.2483 2.1361 -1.0086 0.9870
2.2166 2.1685 -1.0085 0.9870
2.1844 2.2004 -1.0084 0.9870
2.1518 2.2318 -1.0083 0.9870
2.1187 2.2628 -1.0082 0.9870
2.0852 2.2933 -1.0081 0.9870
2.0513 2.3232 -1.0080 0.9870
2.0169 2.3527 -1.0078 0.9870
1.9821 2.3817 -1.0077 0.9871
1.8751 2.4654 -1.0074 0.9871
1.8387 2.4922 -1.0073 0.9871
1.8018 2.5185 -1.0071 0.9871
1.7647 2.5443 -1.0070 0.9871
1.7271 2.5695 -1.0069 0.9871
1.6891 2.5941 -1.0068 0.9871
1.6509 2.6181 -1.0066 0.9871
1.6122 2.6417 -1.0065 0.9871
1.5732 2.6646 -1.0064 0.9871
1.5339 2.6870 -1.0063 0.9871
1.4141 2.7505 -1.0059 0.9871
1.3329 2.7899 -1.0056 0.9871
1.2917 2.8087 -1.0055 0.9871
1.2504 2.8269 -1.0053 0.9871
1.1248 2.8778 -1.0049 0.9871
1.0825 2.8936 -1.0048 0.9871
0.9972 2.9232 -1.0045 0.9871
0.9543 2.9370 -1.0043 0.9871
0.9111 2.9502 -1.0042 0.9871
0.7806 2.9860 -1.0038 0.9871
0.7368 2.9966 -1.0036 0.9871
0.6929 3.0066 -1.0035 0.9871
0.6488 3.0161 -1.0033 0.9871
0.6045 3.0248 -1.0032 0.9871
0.5602 3.0328 -1.0030 0.9871
0.4712 3.0470 -1.0027 0.9871
0.4265 3.0531 -1.0026 0.9871
0.3818 3.0586 -1.0025 0.9871
0.3371 3.0634 -1.0023 0.9871
0.2473 3.0710 -1.0020 0.9871
0.0675 3.0784 -1.0014 0.9871
-0.0225 3.0781 -1.0011 0.9871
-0.0675 3.0770 -1.0010 0.9871
-0.2021 3.0698 -1.0005 0.9871
-0.2917 3.0616 -1.0002 0.9871
-0.3809 3.0509 -0.9999 0.9872
-0.4697 3.0376 -0.9996 0.9872
-0.5582 3.0217 -0.9994 0.9872
-0.7333 2.9821 -0.9988 0.9872
-0.7767 2.9707 -0.9986 0.9872
-0.8199 2.9586 -0.9985 0.9872
-0.8629 2.9459 -0.9983 0.9872
-0.2019 0.6213 -0.2125 0.9973
-0.1985 0.5820 -0.2000 0.9974
-0.2154 0.5281 -0.1855 0.9976
-0.2281 0.4960 -0.1776 0.9977
-0.2484 0.4503 -0.1673 0.9978
-0.2591 0.4246 -0.1618 0.9979
-0.2806 0.3690 -0.1508 0.9981
-0.2834 0.3615 -0.1494 0.9981
-0.2886 0.3468 -0.1467 0.9981
-0.2935 0.3325 -0.1442 0.9981
-0.2959 0.3254 -0.1430 0.9982
-0.2978 0.3181 -0.1417 0.9982
-0.2997 0.3108 -0.1404 0.9982
-0.3014 0.3036 -0.1391 0.9982
-0.3031 0.2965 -0.1379 0.9982
-0.3047 0.2895 -0.1367 0.9982
-0.3062 0.2825 -0.1355 0.9982
-0.3077 0.2757 -0.1344 0.9983
-0.3091 0.2689 -0.1333 0.9983
-0.3105 0.2623 -0.1322 0.9983
-0.3118 0.2556 -0.1311 0.9983
-0.3130 0.2491 -0.1301 0.9983
-0.3142 0.2426 -0.1291 0.9983
-0.3154 0.2362 -0.1281 0.9983
-0.3185 0.2174 -0.1254 0.9984
-0.3203 0.2052 -0.1237 0.9984
-0.3212 0.1992 -0.1229 0.9984
-0.3220 0.1933 -0.1221 0.9984
-0.3231 0.1876 -0.1215 0.9984
-0.3242 0.1820 -0.1209 0.9984
-0.3272 0.1652 -0.1192 0.9985
-0.3281 0.1597 -0.1187 0.9985
-0.3290 0.1542 -0.1182 0.9985
-0.3297 0.1487 -0.1176 0.9985
-0.3310 0.1378 -0.1166 0.9985
-0.3327 0.1217 -0.1152 0.9985
-0.3336 0.1111 -0.1143 0.9985
-0.3343 0.1006 -0.1136 0.9985
-0.3347 0.0954 -0.1132 0.9985
-0.3350 0.0902 -0.1128 0.9985
-0.3353 0.0850 -0.1125 0.9985
-0.3355 0.0799 -0.1122 0.9986
-0.3359 0.0696 -0.1116 0.9986
-0.3361 0.0595 -0.1110 0.9986
-0.3362 0.0545 -0.1108 0.9986
-0.3362 0.0495 -0.1105 0.9986
-0.3362 0.0445 -0.1103 0.9986
-0.3362 0.0395 -0.1101 0.9986
-0.3362 0.0345 -0.1099 0.9986
-0.3361 0.0295 -0.1097 0.9986
-0.3358 0.0196 -0.1094 0.9986
-0.3355 0.0098 -0.1091 0.9986
-0.3352 0.0049 -0.1090 0.9986
-0.3296 -0.0000 -0.1113 0.9986
-0.3303 -0.0145 -0.1116 0.9986
-0.3306 -0.0242 -0.1119 0.9986
-0.3308 -0.0340 -0.1122 0.9986
-0.3308 -0.0437 -0.1126 0.9986
-0.3308 -0.0487 -0.1129 0.9986
-0.3308 -0.0536 -0.1131 0.9986
-0.3306 -0.0636 -0.1136 0.9986
-0.3304 -0.0685 -0.1139 0.9986
-0.3300 -0.0786 -0.1145 0.9986
-0.3298 -0.0836 -0.1148 0.9986
-0.3288 -0.0989 -0.1159 0.9986
-0.3284 -0.1041 -0.1163 0.9985
-0.3280 -0.1092 -0.1167 0.9985
-0.3265 -0.1249 -0.1180 0.9985
-0.3260 -0.1302 -0.1185 0.9985
-0.3247 -0.1408 -0.1195 0.9985
-0.3233 -0.1516 -0.1205 0.9985
-0.3224 -0.1570 -0.1210 0.9985
-0.3205 -0.1678 -0.1221 0.9985
-0.3195 -0.1732 -0.1227 0.9985
-0.3185 -0.1787 -0.1233 0.9985
-0.3174 -0.1843 -0.1239 0.9985
-0.3143 -0.2014 -0.1260 0.9984
-0.3114 -0.2194 -0.1286 0.9984
-0.3103 -0.2255 -0.1295 0.9984
-0.3092 -0.2317 -0.1304 0.9984
-0.3080 -0.2379 -0.1314 0.9984
-0.3056 -0.2505 -0.1334 0.9983
-0.3043 -0.2570 -0.1344 0.9983
-0.3028 -0.2635 -0.1355 0.9983
-0.2967 -0.2903 -0.1401 0.9982
-0.2950 -0.2972 -0.1413 0.9982
-0.2933 -0.3042 -0.1426 0.9982
-0.2895 -0.3185 -0.1453 0.9982
-0.2849 -0.3323 -0.1477 0.9982
-0.2824 -0.3394 -0.1490 0.9981
-0.2771 -0.3536 -0.1516 0.9981
-0.2716 -0.3681 -0.1544 0.9981
-0.2687 -0.3755 -0.1558 0.9981
-0.2626 -0.3907 -0.1589 0.9980
-0.2562 -0.4064 -0.1622 0.9980
-0.2459 -0.4307 -0.1674 0.9979
-0.2422 -0.4391 -0.1693 0.9979
-0.2305 -0.4649 -0.1751 0.9978
-0.2263 -0.4738 -0.1772 0.9978
-0.2176 -0.4920 -0.1816 0.9977
-0.1992 -0.5325 -0.1919 0.9976
-0.1943 -0.5435 -0.1948 0.9976
-0.1892 -0.5547 -0.1978 0.9975
-0.1840 -0.5662 -0.2009 0.9975
-0.1852 -0.6322 -0.2223 0.9972
-0.7370 -2.8192 -0.9835 0.9878
-0.6958 -2.8300 -0.9836 0.9878
-0.6545 -2.8403 -0.9838 0.9878
-0.6124 -2.8468 -0.9829 0.9878
-0.5708 -2.8559 -0.9830 0.9878
-0.4453 -2.8794 -0.9834 0.9878
-0.4032 -2.8860 -0.9835 0.9878
-0.3188 -2.8973 -0.9838 0.9878
-0.2341 -2.9063 -0.9841 0.9878
-0.1916 -2.9098 -0.9842 0.9878
-0.0213 -2.9177 -0.9848 0.9878
0.0213 -2.9180 -0.9849 0.9878
0.1066 -2.9170 -0.9852 0.9878
0.1919 -2.9136 -0.9855 0.9877
0.2344 -2.9108 -0.9856 0.9877
0.2770 -2.9075 -0.9858 0.9877
0.6149 -2.8586 -0.9869 0.9877
0.6567 -2.8497 -0.9870 0.9877
0.6991 -2.8432 -0.9882 0.9877
0.7406 -2.8331 -0.9884 0.9877
0.8233 -2.8110 -0.9887 0.9877
0.8645 -2.7991 -0.9888 0.9877
0.9054 -2.7866 -0.9889 0.9877
0.9461 -2.7734 -0.9891 0.9877
0.9867 -2.7596 -0.9892 0.9877
1.0271 -2.7454 -0.9893 0.9877
1.1080 -2.7168 -0.9903 0.9877
1.1518 -2.7104 -0.9940 0.9876
1.1958 -2.7036 -0.9978 0.9876
1.2402 -2.6966 -1.0018 0.9875
1.2840 -2.6878 -1.0054 0.9875
1.3234 -2.6691 -1.0055 0.9875
1.3624 -2.6498 -1.0057 0.9875
1.4011 -2.6300 -1.0058 0.9875
1.4396 -2.6096 -1.0059 0.9875
1.5156 -2.5670 -1.0062 0.9875
1.5531 -2.5449 -1.0063 0.9875
1.6273 -2.4991 -1.0065 0.9875
1.7000 -2.4511 -1.0068 0.9875
1.7358 -2.4262 -1.0069 0.9875
1.8411 -2.3486 -1.0073 0.9875
1.8754 -2.3218 -1.0074 0.9875
1.9429 -2.2664 -1.0076 0.9875
2.0087 -2.2092 -1.0078 0.9875
2.0410 -2.1798 -1.0079 0.9875
2.0728 -2.1500 -1.0080 0.9875
2.1352 -2.0889 -1.0082 0.9875
2.1657 -2.0577 -1.0083 0.9875
2.1958 -2.0261 -1.0084 0.9875
2.2254 -1.9939 -1.0085 0.9875
2.2545 -1.9614 -1.0086 0.9875
2.3661 -1.8271 -1.0090 0.9875
2.3927 -1.7924 -1.0091 0.9875
2.4696 -1.6863 -1.0093 0.9875
2.5182 -1.6137 -1.0095 0.9875
2.5417 -1.5768 -1.0096 0.9875
2.5647 -1.5396 -1.0096 0.9875
2.5871 -1.5021 -1.0097 0.9875
2.6303 -1.4260 -1.0099 0.9874
2.6907 -1.3097 -1.0101 0.9874
2.7460 -1.1907 -1.0102 0.9874
2.7633 -1.1505 -1.0103 0.9874
2.8115 -1.0285 -1.0105 0.9874
2.8407 -0.9460 -1.0106 0.9874
2.8543 -0.9044 -1.0106 0.9874
2.8673 -0.8627 -1.0106 0.9874
2.8798 -0.8207 -1.0107 0.9874
2.8916 -0.7786 -1.0107 0.9874
2.9027 -0.7362 -1.0108 0.9874
2.9132 -0.6938 -1.0108 0.9874
2.9325 -0.6084 -1.0109 0.9874
2.9492 -0.5225 -1.0109 0.9874
2.9565 -0.4794 -1.0109 0.9874
2.9633 -0.4361 -1.0110 0.9874
2.9797 -0.3059 -1.0110 0.9874
2.9874 -0.2187 -1.0110 0.9874
2.9904 -0.1750 -1.0111 0.9874
2.9955 0.0000 -1.0111 0.9874
2.9942 0.0875 -1.0111 0.9874
2.9926 0.1312 -1.0111 0.9874
2.9904 0.1750 -1.0111 0.9874
2.9839 0.2623 -1.0110 0.9874
2.9797 0.3058 -1.0110 0.9874
2.9694 0.3927 -1.0110 0.9874
2.9633 0.4361 -1.0110 0.9874
2.9492 0.5225 -1.0109 0.9874
2.9325 0.6084 -1.0109 0.9874
2.9232 0.6512 -1.0108 0.9874
2.8916 0.7786 -1.0107 0.9874
2.8798 0.8207 -1.0107 0.9874
2.8673 0.8627 -1.0106 0.9874
2.8264 0.9873 -1.0105 0.9874
2.8116 1.0285 -1.0105 0.9874
2.7800 1.1101 -1.0104 0.9874
2.7633 1.1505 -1.0103 0.9874
2.7282 1.2306 -1.0102 0.9874
2.7098 1.2703 -1.0101 0.9874
2.6908 1.3097 -1.0101 0.9874
2.6712 1.3487 -1.0100 0.9874
2.6510 1.3875 -1.0099 0.9874
2.6090 1.4642 -1.0098 0.9874
2.5647 1.5396 -1.0097 0.9875
2.5418 1.5768 -1.0096 0.9875
2.4445 1.7220 -1.0093 0.9875
2.3927 1.7924 -1.0091 0.9875
2.3661 1.8270 -1.0090 0.9875
2.2831 1.9284 -1.0087 0.9875
2.2254 1.9939 -1.0085 0.9875
2.1958 2.0260 -1.0084 0.9875
2.1657 2.0577 -1.0083 0.9875
2.1352 2.0890 -1.0082 0.9875
2.1043 2.1197 -1.0081 0.9875
2.0729 2.1500 -1.0080 0.9875
2.0088 2.2092 -1.0078 0.9875
1.9760 2.2380 -1.0077 0.9875
1.9094 2.2943 -1.0075 0.9875
1.8064 2.3750 -1.0072 0.9875
1.7713 2.4009 -1.0070 0.9875
1.6638 2.4754 -1.0067 0.9875
1.5532 2.5449 -1.0063 0.9875
1.5156 2.5670 -1.0062 0.9875
1.4396 2.6096 -1.0059 0.9875
1.4012 2.6300 -1.0058 0.9875
1.3234 2.6692 -1.0056 0.9875
1.2047 2.7235 -1.0052 0.9875
1.0429 2.7877 -1.0046 0.9875
1.0020 2.8023 -1.0045 0.9875
0.8779 2.8423 -1.0041 0.9875
0.7942 2.8661 -1.0038 0.9875
0.7521 2.8769 -1.0037 0.9875
0.6676 2.8969 -1.0034 0.9875
0.6251 2.9059 -1.0033 0.9875
0.4969 2.9292 -1.0028 0.9875
0.4540 2.9358 -1.0027 0.9875
0.4110 2.9416 -1.0025 0.9875
0.2816 2.9557 -1.0021 0.9875
0.2383 2.9590 -1.0020 0.9875
0.1950 2.9618 -1.0018 0.9875
0.1517 2.9639 -1.0017 0.9875
0.1084 2.9654 -1.0016 0.9876
0.0650 2.9662 -1.0014 0.9876
-0.0217 2.9660 -1.0011 0.9876
-0.1515 2.9609 -1.0007 0.9876
-0.1948 2.9579 -1.0006 0.9876
-0.3671 2.9399 -1.0000 0.9876
-0.4526 2.9271 -0.9997 0.9876
-0.5378 2.9117 -0.9994 0.9876
-0.6646 2.8841 -0.9990 0.9876
-0.7066 2.8737 -0.9989 0.9876
-0.7484 2.8628 -0.9987 0.9876
-0.7901 2.8511 -0.9986 0.9876
-0.1852 0.6323 -0.2224 0.9972
-0.1830 0.5927 -0.2094 0.9974
-0.2039 0.5218 -0.1891 0.9976
-0.2085 0.5112 -0.1864 0.9977
-0.2130 0.5012 -0.1838 0.9977
-0.2221 0.4827 -0.1794 0.9978
-0.2263 0.4737 -0.1772 0.9978
-0.2384 0.4476 -0.1712 0.9979
-0.2422 0.4391 -0.1693 0.9979
-0.2459 0.4307 -0.1674 0.9979
-0.2495 0.4225 -0.1656 0.9979
-0.2562 0.4064 -0.1622 0.9980
-0.2595 0.3985 -0.1605 0.9980
-0.2687 0.3755 -0.1558 0.9981
-0.2716 0.3681 -0.1544 0.9981
-0.2771 0.3535 -0.1516 0.9981
-0.2798 0.3464 -0.1503 0.9981
-0.2849 0.3323 -0.1477 0.9982
-0.2873 0.3254 -0.1465 0.9982
-0.2914 0.3113 -0.1439 0.9982
-0.2950 0.2972 -0.1413 0.9982
-0.2967 0.2902 -0.1401 0.9982
-0.3014 0.2701 -0.1366 0.9983
-0.3029 0.2635 -0.1355 0.9983
-0.3042 0.2570 -0.1344 0.9983
-0.3056 0.2505 -0.1334 0.9983
-0.3080 0.2379 -0.1314 0.9984
-0.3092 0.2316 -0.1304 0.9984
-0.3103 0.2255 -0.1295 0.9984
-0.3134 0.2073 -0.1268 0.9984
-0.3143 0.2014 -0.1260 0.9984
-0.3224 0.1570 -0.1210 0.9985
-0.3233 0.1515 -0.1205 0.9985
-0.3247 0.1408 -0.1195 0.9985
-0.3254 0.1355 -0.1190 0.9985
-0.3265 0.1249 -0.1180 0.9985
-0.3271 0.1196 -0.1175 0.9985
-0.3291 0.0938 -0.1155 0.9986
-0.3295 0.0887 -0.1152 0.9986
-0.3297 0.0836 -0.1148 0.9986
-0.3302 0.0736 -0.1142 0.9986
-0.3304 0.0685 -0.1139 0.9986
-0.3305 0.0636 -0.1136 0.9986
-0.3307 0.0536 -0.1131 0.9986
-0.3308 0.0487 -0.1129 0.9986
-0.3307 0.0290 -0.1120 0.9986
-0.3306 0.0241 -0.1119 0.9986
-0.3305 0.0193 -0.1117 0.9986
-0.3253 -0.0238 -0.1141 0.9986
-0.3255 -0.0382 -0.1147 0.9986
-0.3255 -0.0430 -0.1149 0.9986
-0.3255 -0.0479 -0.1151 0.9986
-0.3254 -0.0528 -0.1154 0.9986
-0.3253 -0.0577 -0.1156 0.9986
-0.3252 -0.0625 -0.1159 0.9986
-0.3248 -0.0724 -0.1165 0.9986
-0.3246 -0.0773 -0.1168 0.9986
-0.3237 -0.0923 -0.1178 0.9986
-0.3221 -0.1125 -0.1194 0.9986
-0.3205 -0.1280 -0.1208 0.9985
-0.3185 -0.1437 -0.1223 0.9985
-0.3178 -0.1490 -0.1228 0.9985
-0.3169 -0.1542 -0.1233 0.9985
-0.3159 -0.1595 -0.1238 0.9985
-0.3140 -0.1702 -0.1250 0.9985
-0.3129 -0.1756 -0.1256 0.9985
-0.3084 -0.1976 -0.1282 0.9984
-0.3065 -0.2093 -0.1299 0.9984
-0.3055 -0.2152 -0.1307 0.9984
-0.3044 -0.2212 -0.1317 0.9984
-0.2995 -0.2456 -0.1355 0.9984
-0.2968 -0.2582 -0.1377 0.9983
-0.2938 -0.2711 -0.1399 0.9983
-0.2922 -0.2777 -0.1410 0.9983
-0.2889 -0.2910 -0.1435 0.9983
-0.2852 -0.3047 -0.1460 0.9982
-0.2833 -0.3116 -0.1474 0.9982
-0.2813 -0.3186 -0.1487 0.9982
-0.2789 -0.3254 -0.1499 0.9982
-0.2764 -0.3321 -0.1512 0.9982
-0.2738 -0.3390 -0.1525 0.9982
-0.2684 -0.3529 -0.1551 0.9981
-0.2597 -0.3744 -0.1594 0.9981
-0.2566 -0.3818 -0.1609 0.9981
-0.2435 -0.4124 -0.1676 0.9980
-0.2399 -0.4204 -0.1694 0.9980
-0.2363 -0.4284 -0.1712 0.9979
-0.1978 -0.5062 -0.1902 0.9977
-0.1929 -0.5155 -0.1926 0.9977
-0.1880 -0.5259 -0.1954 0.9976
-0.1830 -0.5364 -0.1983 0.9976
-0.1778 -0.5472 -0.2013 0.9976
-0.1724 -0.5582 -0.2044 0.9975
-0.7124 -2.7250 -0.9856 0.9881
-0.5512 -2.7579 -0.9841 0.9882
-0.5109 -2.7660 -0.9843 0.9882
-0.4705 -2.7736 -0.9844 0.9881
-0.3487 -2.7927 -0.9848 0.9881
-0.3079 -2.7979 -0.9849 0.9881
-0.2670 -2.8024 -0.9851 0.9881
-0.2261 -2.8064 -0.9852 0.9881
-0.1850 -2.8098 -0.9853 0.9881
-0.1440 -2.8127 -0.9855 0.9881
0.0206 -2.8178 -0.9860 0.9881
0.1029 -2.8168 -0.9863 0.9881
0.1441 -2.8154 -0.9864 0.9881
0.1852 -2.8133 -0.9865 0.9881
0.2263 -2.8107 -0.9867 0.9881
0.3084 -2.8037 -0.9870 0.9881
0.3494 -2.7992 -0.9871 0.9881
0.4720 -2.7824 -0.9875 0.9881
0.5126 -2.7755 -0.9876 0.9881
0.5533 -2.7681 -0.9878 0.9881
0.5937 -2.7602 -0.9879 0.9881
0.6743 -2.7423 -0.9882 0.9881
0.9217 -2.7018 -0.9989 0.9880
1.0452 -2.6741 -1.0046 0.9879
1.0843 -2.6589 -1.0048 0.9879
1.1232 -2.6430 -1.0049 0.9879
1.2763 -2.5742 -1.0054 0.9879
1.3139 -2.5556 -1.0055 0.9879
1.3884 -2.5168 -1.0058 0.9879
1.4251 -2.4965 -1.0059 0.9879
1.4617 -2.4757 -1.0060 0.9879
1.4979 -2.4544 -1.0061 0.9879
1.5338 -2.4325 -1.0062 0.9879
1.6045 -2.3872 -1.0065 0.9879
1.6740 -2.3398 -1.0067 0.9879
1.7082 -2.3154 -1.0068 0.9879
1.7421 -2.2904 -1.0069 0.9879
1.7755 -2.2650 -1.0070 0.9879
1.9683 -2.1022 -1.0077 0.9879
2.0885 -1.9844 -1.0081 0.9879
2.1175 -1.9538 -1.0082 0.9879
2.2017 -1.8597 -1.0084 0.9879
2.2288 -1.8275 -1.0085 0.9879
2.3815 -1.6261 -1.0090 0.9879
2.4051 -1.5912 -1.0091 0.9879
2.4731 -1.4847 -1.0093 0.9879
2.5758 -1.3006 -1.0097 0.9878
2.6130 -1.2250 -1.0098 0.9878
2.6307 -1.1867 -1.0099 0.9878
2.6480 -1.1482 -1.0099 0.9878
2.7111 -0.9917 -1.0101 0.9878
2.7254 -0.9521 -1.0102 0.9878
2.7523 -0.8721 -1.0103 0.9878
2.7649 -0.8318 -1.0103 0.9878
2.7768 -0.7914 -1.0103 0.9878
2.7882 -0.7507 -1.0104 0.9878
2.7990 -0.7100 -1.0104 0.9878
2.8091 -0.6690 -1.0105 0.9878
2.8187 -0.6279 -1.0105 0.9878
2.8360 -0.5453 -1.0105 0.9878
2.8437 -0.5038 -1.0106 0.9878
2.8633 -0.3787 -1.0106 0.9878
2.8772 -0.2529 -1.0107 0.9878
2.8835 -0.1688 -1.0107 0.9878
2.8872 -0.0845 -1.0107 0.9878
2.8881 -0.0422 -1.0107 0.9878
2.8881 0.0422 -1.0107 0.9878
2.8857 0.1266 -1.0107 0.9878
2.8835 0.1687 -1.0107 0.9878
2.8732 0.2949 -1.0107 0.9878
2.8438 0.5038 -1.0106 0.9878
2.8360 0.5452 -1.0105 0.9878
2.8277 0.5866 -1.0105 0.9878
2.8187 0.6279 -1.0105 0.9878
2.7990 0.7100 -1.0104 0.9878
2.7769 0.7913 -1.0103 0.9878
2.7649 0.8318 -1.0103 0.9878
2.7391 0.9122 -1.0102 0.9878
2.6480 1.1482 -1.0099 0.9878
2.4052 1.5912 -1.0091 0.9879
2.3815 1.6261 -1.0090 0.9879
2.3074 1.7284 -1.0088 0.9879
2.1175 1.9538 -1.0082 0.9879
2.0591 2.0145 -1.0080 0.9879
2.0293 2.0441 -1.0079 0.9879
1.9990 2.0734 -1.0078 0.9879
1.9056 2.1583 -1.0075 0.9879
1.8737 2.1857 -1.0074 0.9879
1.7755 2.2650 -1.0070 0.9879
1.7421 2.2904 -1.0069 0.9879
1.5693 2.4101 -1.0064 0.9879
1.5338 2.4325 -1.0063 0.9879
1.4979 2.4544 -1.0061 0.9879
1.4252 2.4966 -1.0059 0.9879
1.3884 2.5168 -1.0058 0.9879
1.1232 2.6430 -1.0049 0.9879
1.0452 2.6741 -1.0046 0.9879
0.8466 2.7414 -1.0040 0.9879
0.7660 2.7643 -1.0037 0.9879
0.7254 2.7748 -1.0036 0.9879
0.6847 2.7847 -1.0035 0.9879
0.6439 2.7941 -1.0033 0.9879
0.5618 2.8109 -1.0030 0.9879
0.5206 2.8184 -1.0029 0.9879
0.4793 2.8254 -1.0028 0.9879
0.3133 2.8470 -1.0022 0.9879
0.1881 2.8568 -1.0018 0.9879
0.1045 2.8603 -1.0015 0.9879
0.0627 2.8612 -1.0014 0.9879
-0.0627 2.8599 -1.0010 0.9880
-0.1044 2.8584 -1.0008 0.9880
-0.2295 2.8498 -1.0004 0.9880
-0.4367 2.8236 -0.9998 0.9880
-0.5597 2.8005 -0.9993 0.9880
-0.6005 2.7917 -0.9992 0.9880
-0.6412 2.7823 -0.9991 0.9880
-0.7220 2.7616 -0.9988 0.9880
-0.1667 0.6015 -0.2184 0.9974
-0.1778 0.5472 -0.2013 0.9976
-0.1830 0.5364 -0.1983 0.9976
-0.1978 0.5061 -0.1902 0.9977
-0.2119 0.4790 -0.1833 0.9978
-0.2163 0.4702 -0.1811 0.9978
-0.2247 0.4531 -0.1770 0.9979
-0.2325 0.4365 -0.1731 0.9979
-0.2363 0.4283 -0.1712 0.9979
-0.2399 0.4203 -0.1694 0.9980
-0.2435 0.4124 -0.1676 0.9980
-0.2469 0.4046 -0.1658 0.9980
-0.2502 0.3968 -0.1642 0.9980
-0.2534 0.3892 -0.1625 0.9980
-0.2566 0.3817 -0.1609 0.9981
-0.2738 0.3389 -0.1525 0.9982
-0.2764 0.3321 -0.1512 0.9982
-0.2788 0.3253 -0.1499 0.9982
-0.2813 0.3186 -0.1487 0.9982
-0.2922 0.2777 -0.1411 0.9983
-0.2982 0.2518 -0.1366 0.9983
-0.2995 0.2456 -0.1355 0.9984
-0.3044 0.2212 -0.1317 0.9984
-0.3055 0.2152 -0.1307 0.9984
-0.3107 0.1865 -0.1268 0.9985
-0.3118 0.1810 -0.1262 0.9985
-0.3129 0.1756 -0.1256 0.9985
-0.3159 0.1595 -0.1238 0.9985
-0.3169 0.1542 -0.1233 0.9985
-0.3178 0.1489 -0.1228 0.9985
-0.3185 0.1437 -0.1223 0.9985
-0.3192 0.1384 -0.1217 0.9985
-0.3205 0.1280 -0.1208 0.9985
-0.3216 0.1176 -0.1198 0.9985
-0.3226 0.1074 -0.1190 0.9986
-0.3234 0.0973 -0.1182 0.9986
-0.3241 0.0872 -0.1174 0.9986
-0.3246 0.0773 -0.1168 0.9986
-0.3248 0.0724 -0.1165 0.9986
-0.3251 0.0674 -0.1162 0.9986
-0.3253 0.0577 -0.1156 0.9986
-0.3254 0.0527 -0.1154 0.9986
-0.3255 0.0431 -0.1149 0.9986
-0.3255 0.0334 -0.1145 0.9986
-0.3254 0.0286 -0.1143 0.9986
-0.3253 0.0238 -0.1141 0.9986
-0.3249 0.0095 -0.1137 0.9986
-0.3196 -0.0047 -0.1158 0.9986
-0.3198 -0.0094 -0.1159 0.9986
-0.3200 -0.0141 -0.1161 0.9986
-0.3202 -0.0234 -0.1164 0.9986
-0.3203 -0.0281 -0.1165 0.9986
-0.3203 -0.0471 -0.1173 0.9986
-0.3200 -0.0615 -0.1181 0.9986
-0.3198 -0.0664 -0.1184 0.9986
-0.3191 -0.0809 -0.1193 0.9986
-0.3188 -0.0859 -0.1197 0.9986
-0.3181 -0.0957 -0.1204 0.9986
-0.3177 -0.1007 -0.1208 0.9986
-0.3173 -0.1056 -0.1212 0.9986
-0.3163 -0.1157 -0.1220 0.9986
-0.3145 -0.1310 -0.1235 0.9986
-0.3132 -0.1412 -0.1245 0.9985
-0.3123 -0.1464 -0.1250 0.9985
-0.3114 -0.1516 -0.1255 0.9985
-0.3106 -0.1568 -0.1261 0.9985
-0.3096 -0.1620 -0.1266 0.9985
-0.3052 -0.1832 -0.1290 0.9985
-0.3040 -0.1886 -0.1297 0.9985
-0.3008 -0.2054 -0.1320 0.9985
-0.2997 -0.2112 -0.1329 0.9984
-0.2975 -0.2229 -0.1347 0.9984
-0.2963 -0.2288 -0.1357 0.9984
-0.2937 -0.2409 -0.1376 0.9984
-0.2923 -0.2470 -0.1387 0.9984
-0.2909 -0.2531 -0.1397 0.9984
-0.2863 -0.2721 -0.1431 0.9983
-0.2846 -0.2785 -0.1443 0.9983
-0.2829 -0.2850 -0.1455 0.9983
-0.2811 -0.2916 -0.1468 0.9983
-0.2793 -0.2983 -0.1481 0.9983
-0.2773 -0.3051 -0.1494 0.9982
-0.2731 -0.3185 -0.1520 0.9982
-0.2706 -0.3251 -0.1533 0.9982
-0.2626 -0.3453 -0.1572 0.9982
-0.2569 -0.3591 -0.1600 0.9981
-0.2508 -0.3732 -0.1630 0.9981
-0.2477 -0.3804 -0.1645 0.9981
-0.2412 -0.3952 -0.1678 0.9980
-0.2377 -0.4027 -0.1695 0.9980
-0.2342 -0.4104 -0.1712 0.9980
-0.2306 -0.4181 -0.1730 0.9980
-0.2191 -0.4419 -0.1787 0.9979
-0.2150 -0.4501 -0.1808 0.9979
-0.2064 -0.4667 -0.1849 0.9978
-0.2019 -0.4753 -0.1871 0.9978
-0.1926 -0.4927 -0.1917 0.9978
-0.1877 -0.5016 -0.1941 0.9977
-0.1667 -0.5397 -0.2047 0.9976
-0.1498 -0.5730 -0.2146 0.9975
-0.1496 -0.6083 -0.2270 0.9973
-0.5798 -2.6957 -0.9993 0.9883
-0.4997 -2.7051 -0.9969 0.9884
-0.4594 -2.7079 -0.9954 0.9884
-0.0199 -2.7229 -0.9868 0.9885
0.0199 -2.7228 -0.9868 0.9885
0.1394 -2.7215 -0.9876 0.9885
0.1791 -2.7206 -0.9881 0.9885
0.2590 -2.7181 -0.9895 0.9885
0.4997 -2.7051 -0.9969 0.9884
0.5400 -2.7021 -0.9986 0.9883
0.5806 -2.6989 -1.0005 0.9883
0.6211 -2.6955 -1.0024 0.9883
0.6611 -2.6886 -1.0034 0.9883
0.7004 -2.6790 -1.0035 0.9883
0.8174 -2.6467 -1.0039 0.9883
0.8561 -2.6348 -1.0040 0.9883
0.9711 -2.5958 -1.0044 0.9883
1.0091 -2.5816 -1.0045 0.9883
1.0468 -2.5670 -1.0046 0.9883
1.0843 -2.5517 -1.0048 0.9883
1.1217 -2.5359 -1.0049 0.9883
1.1587 -2.5195 -1.0050 0.9883
1.1955 -2.5026 -1.0051 0.9883
1.2685 -2.4672 -1.0054 0.9883
1.3045 -2.4487 -1.0055 0.9883
1.3403 -2.4297 -1.0056 0.9883
1.3758 -2.4101 -1.0057 0.9883
1.4111 -2.3900 -1.0058 0.9883
1.4460 -2.3694 -1.0060 0.9883
1.5150 -2.3267 -1.0062 0.9883
1.5490 -2.3046 -1.0063 0.9883
1.5827 -2.2819 -1.0064 0.9883
1.6490 -2.2352 -1.0066 0.9883
1.7140 -2.1865 -1.0068 0.9882
1.7775 -2.1359 -1.0070 0.9882
1.8396 -2.0835 -1.0072 0.9882
1.9589 -1.9733 -1.0076 0.9882
1.9877 -1.9446 -1.0077 0.9882
2.0440 -1.8861 -1.0079 0.9882
2.0716 -1.8562 -1.0080 0.9882
2.1515 -1.7641 -1.0083 0.9882
2.2273 -1.6685 -1.0085 0.9882
2.2516 -1.6359 -1.0086 0.9882
2.3216 -1.5360 -1.0088 0.9882
2.3440 -1.5020 -1.0089 0.9882
2.3659 -1.4677 -1.0090 0.9882
2.3872 -1.4331 -1.0091 0.9882
2.4081 -1.3981 -1.0091 0.9882
2.4482 -1.3273 -1.0093 0.9882
2.4675 -1.2915 -1.0093 0.9882
2.4863 -1.2554 -1.0094 0.9882
2.5045 -1.2191 -1.0094 0.9882
2.5720 -1.0709 -1.0097 0.9882
2.6025 -0.9954 -1.0098 0.9882
2.6169 -0.9573 -1.0098 0.9882
2.6566 -0.8418 -1.0099 0.9882
2.6688 -0.8029 -1.0100 0.9882
2.7115 -0.6457 -1.0101 0.9882
2.7207 -0.6061 -1.0102 0.9882
2.7294 -0.5662 -1.0102 0.9882
2.7374 -0.5263 -1.0102 0.9882
2.7518 -0.4462 -1.0103 0.9882
2.7688 -0.3252 -1.0103 0.9882
2.7805 -0.2035 -1.0104 0.9882
2.7832 -0.1629 -1.0104 0.9882
2.7853 -0.1222 -1.0104 0.9882
2.7868 -0.0815 -1.0104 0.9882
2.7853 0.1221 -1.0104 0.9882
2.7805 0.2035 -1.0104 0.9882
2.7772 0.2441 -1.0103 0.9882
2.7688 0.3251 -1.0103 0.9882
2.7637 0.3655 -1.0103 0.9882
2.7517 0.4461 -1.0103 0.9882
2.7449 0.4863 -1.0102 0.9882
2.7374 0.5263 -1.0102 0.9882
2.7207 0.6061 -1.0102 0.9882
2.6913 0.7246 -1.0101 0.9882
2.6803 0.7639 -1.0100 0.9882
2.6688 0.8029 -1.0100 0.9882
2.6566 0.8418 -1.0100 0.9882
2.6439 0.8805 -1.0099 0.9882
2.6025 0.9953 -1.0098 0.9882
2.5721 1.0709 -1.0097 0.9882
2.5560 1.1083 -1.0096 0.9882
2.5222 1.1823 -1.0095 0.9882
2.4863 1.2554 -1.0094 0.9882
2.4081 1.3981 -1.0091 0.9882
2.3659 1.4677 -1.0090 0.9882
2.3441 1.5020 -1.0089 0.9882
2.2516 1.6359 -1.0086 0.9882
2.2273 1.6685 -1.0085 0.9882
2.2025 1.7007 -1.0085 0.9882
2.1772 1.7326 -1.0084 0.9882
2.1515 1.7640 -1.0083 0.9882
2.1253 1.7951 -1.0082 0.9882
2.0161 1.9155 -1.0078 0.9882
1.9297 2.0015 -1.0076 0.9882
1.9000 2.0293 -1.0075 0.9882
1.7460 2.1614 -1.0070 0.9882
1.6161 2.2588 -1.0065 0.9883
1.5827 2.2819 -1.0064 0.9883
1.5150 2.3266 -1.0062 0.9883
1.4807 2.3483 -1.0061 0.9883
1.4461 2.3694 -1.0060 0.9883
1.3759 2.4101 -1.0057 0.9883
1.3404 2.4297 -1.0056 0.9883
1.2321 2.4852 -1.0053 0.9883
1.1955 2.5026 -1.0051 0.9883
1.1587 2.5195 -1.0050 0.9883
0.9711 2.5958 -1.0044 0.9883
0.9330 2.6094 -1.0043 0.9883
0.8174 2.6467 -1.0039 0.9883
0.7786 2.6580 -1.0038 0.9883
0.7395 2.6688 -1.0036 0.9883
0.7004 2.6790 -1.0035 0.9883
0.6216 2.6976 -1.0032 0.9883
0.5424 2.7139 -1.0030 0.9883
0.5026 2.7212 -1.0029 0.9883
0.3827 2.7395 -1.0025 0.9883
0.2622 2.7526 -1.0021 0.9883
0.1009 2.7617 -1.0015 0.9883
0.0606 2.7625 -1.0014 0.9883
