ply
format ascii 1.0
element vertex 1594
property float32 x
property float32 y
property float32 z
property float32 I
end_header
-0.3647 -0.0160 -0.0967 0.9985
-0.3651 -0.0268 -0.0970 0.9985
-0.3654 -0.0375 -0.0973 0.9985
-0.3656 -0.0484 -0.0977 0.9985
-0.3657 -0.0593 -0.0982 0.9985
-0.3655 -0.0814 -0.0992 0.9985
-0.3653 -0.0870 -0.0995 0.9984
-0.3652 -0.0927 -0.0998 0.9984
-0.3648 -0.1040 -0.1005 0.9984
-0.3645 -0.1097 -0.1009 0.9984
-0.3631 -0.1329 -0.1025 0.9984
-0.3627 -0.1387 -0.1029 0.9984
-0.3617 -0.1506 -0.1038 0.9984
-0.3612 -0.1566 -0.1043 0.9984
-0.3606 -0.1627 -0.1048 0.9984
-0.3600 -0.1688 -0.1054 0.9984
-0.3592 -0.1748 -0.1059 0.9983
-0.3575 -0.1871 -0.1069 0.9983
-0.3566 -0.1933 -0.1075 0.9983
-0.3555 -0.2064 -0.1089 0.9983
-0.3542 -0.2198 -0.1105 0.9983
-0.3494 -0.2618 -0.1157 0.9982
-0.3484 -0.2690 -0.1166 0.9982
-0.3474 -0.2765 -0.1176 0.9982
-0.3452 -0.2915 -0.1197 0.9981
-0.3440 -0.2993 -0.1208 0.9981
-0.3427 -0.3071 -0.1219 0.9981
-0.3400 -0.3230 -0.1243 0.9981
-0.3352 -0.3477 -0.1280 0.9980
-0.3330 -0.3557 -0.1291 0.9980
-0.3213 -0.3977 -0.1355 0.9979
-0.3187 -0.4066 -0.1369 0.9979
-0.3161 -0.4156 -0.1384 0.9978
-0.3134 -0.4248 -0.1399 0.9978
-0.3106 -0.4341 -0.1414 0.9978
-0.3076 -0.4435 -0.1430 0.9978
-0.3050 -0.4537 -0.1449 0.9977
-0.2971 -0.4867 -0.1511 0.9976
-0.2942 -0.4982 -0.1533 0.9976
-0.2911 -0.5100 -0.1556 0.9976
-0.2847 -0.5343 -0.1604 0.9975
-0.2812 -0.5469 -0.1629 0.9975
-0.2783 -0.5826 -0.1711 0.9973
-0.2885 -0.6271 -0.1829 0.9971
-0.3130 -0.7364 -0.2120 0.9967
-1.2937 -3.4579 -0.9783 0.9848
-0.9859 -3.5579 -0.9783 0.9848
-0.7236 -3.6204 -0.9783 0.9848
-0.6706 -3.6305 -0.9783 0.9848
-0.6175 -3.6399 -0.9783 0.9848
-0.4574 -3.6636 -0.9783 0.9848
-0.4038 -3.6698 -0.9783 0.9848
-0.3501 -3.6753 -0.9783 0.9848
-0.2426 -3.6840 -0.9783 0.9848
-0.0809 -3.6911 -0.9783 0.9848
-0.0270 -3.6919 -0.9783 0.9848
0.0269 -3.6919 -0.9783 0.9848
0.1348 -3.6895 -0.9783 0.9848
0.1887 -3.6871 -0.9783 0.9848
0.2964 -3.6801 -0.9783 0.9848
0.3501 -3.6754 -0.9783 0.9848
0.4038 -3.6699 -0.9783 0.9848
0.5642 -3.6486 -0.9783 0.9848
0.6706 -3.6306 -0.9783 0.9848
0.7236 -3.6204 -0.9783 0.9848
0.8815 -3.5852 -0.9783 0.9848
0.9338 -3.5720 -0.9783 0.9848
1.0378 -3.5432 -0.9783 0.9848
1.0895 -3.5277 -0.9783 0.9848
1.1409 -3.5113 -0.9783 0.9848
1.2430 -3.4765 -0.9783 0.9848
1.2937 -3.4580 -0.9783 0.9848
1.4440 -3.3980 -0.9783 0.9848
1.4935 -3.3765 -0.9783 0.9848
1.5427 -3.3543 -0.9783 0.9848
1.5915 -3.3315 -0.9783 0.9848
1.6400 -3.3079 -0.9783 0.9848
1.6882 -3.2836 -0.9783 0.9848
1.7360 -3.2586 -0.9783 0.9848
1.7834 -3.2328 -0.9783 0.9848
1.8304 -3.2064 -0.9783 0.9848
1.8771 -3.1793 -0.9783 0.9848
1.9233 -3.1516 -0.9783 0.9848
1.9692 -3.1231 -0.9783 0.9848
2.2351 -2.9388 -0.9784 0.9848
2.2778 -2.9058 -0.9784 0.9848
2.3643 -2.8411 -0.9794 0.9848
2.4464 -2.7708 -0.9794 0.9848
2.4866 -2.7348 -0.9794 0.9848
2.5943 -2.6909 -0.9905 0.9847
2.6446 -2.6640 -0.9947 0.9846
2.7957 -2.5049 -0.9947 0.9846
2.8677 -2.4222 -0.9947 0.9846
2.9711 -2.2942 -0.9947 0.9846
3.0043 -2.2505 -0.9947 0.9846
3.0688 -2.1619 -0.9947 0.9846
3.1001 -2.1168 -0.9947 0.9846
3.1307 -2.0712 -0.9947 0.9846
3.2184 -1.9320 -0.9947 0.9846
3.2463 -1.8848 -0.9947 0.9846
3.3000 -1.7892 -0.9947 0.9846
3.3258 -1.7408 -0.9947 0.9846
3.3509 -1.6920 -0.9947 0.9846
3.3753 -1.6429 -0.9947 0.9846
3.3989 -1.5934 -0.9947 0.9846
3.4218 -1.5435 -0.9947 0.9846
3.4441 -1.4934 -0.9947 0.9846
3.4862 -1.3921 -0.9947 0.9846
3.5439 -1.2380 -0.9947 0.9846
3.5616 -1.1861 -0.9947 0.9846
3.5786 -1.1339 -0.9947 0.9846
3.6102 -1.0289 -0.9947 0.9846
3.6249 -0.9760 -0.9947 0.9846
3.6387 -0.9230 -0.9947 0.9846
3.6642 -0.8162 -0.9947 0.9846
3.6757 -0.7626 -0.9947 0.9846
3.6864 -0.7088 -0.9947 0.9846
3.6964 -0.6549 -0.9947 0.9846
3.7056 -0.6008 -0.9947 0.9846
3.7140 -0.5466 -0.9947 0.9846
3.7536 -0.0549 -0.9948 0.9846
3.7540 0.0000 -0.9948 0.9846
3.7536 0.0548 -0.9948 0.9846
3.7505 0.1645 -0.9948 0.9846
3.7441 0.2740 -0.9948 0.9846
3.7397 0.3287 -0.9948 0.9846
3.7285 0.4379 -0.9948 0.9846
3.7217 0.4923 -0.9948 0.9846
3.6966 0.6549 -0.9948 0.9846
3.6866 0.7088 -0.9948 0.9846
3.6643 0.8162 -0.9948 0.9846
3.6520 0.8698 -0.9948 0.9846
3.6389 0.9230 -0.9948 0.9846
3.6250 0.9761 -0.9948 0.9846
3.5619 1.1862 -0.9948 0.9846
3.5257 1.2897 -0.9948 0.9846
3.5065 1.3411 -0.9948 0.9846
3.4658 1.4430 -0.9948 0.9846
3.3262 1.7409 -0.9948 0.9846
3.2188 1.9323 -0.9948 0.9846
3.1902 1.9791 -0.9948 0.9846
3.0372 2.2067 -0.9948 0.9846
2.9715 2.2945 -0.9948 0.9846
2.9377 2.3377 -0.9948 0.9846
2.9032 2.3804 -0.9948 0.9846
2.7961 2.5053 -0.9948 0.9846
2.6449 2.6644 -0.9948 0.9846
2.6057 2.7027 -0.9948 0.9846
2.4015 2.8857 -0.9948 0.9846
2.3162 2.9547 -0.9948 0.9846
2.2728 2.9882 -0.9948 0.9846
2.2289 3.0211 -0.9948 0.9846
2.0943 3.1159 -0.9948 0.9846
2.0486 3.1461 -0.9948 0.9846
2.0024 3.1757 -0.9948 0.9846
1.7652 3.3134 -0.9948 0.9846
1.6677 3.3636 -0.9948 0.9846
1.4683 3.4553 -0.9948 0.9846
1.4177 3.4764 -0.9948 0.9846
1.3667 3.4968 -0.9948 0.9846
1.3155 3.5163 -0.9948 0.9846
1.2122 3.5533 -0.9948 0.9846
1.1601 3.5706 -0.9948 0.9846
1.1079 3.5871 -0.9948 0.9846
1.0026 3.6180 -0.9948 0.9846
0.9496 3.6323 -0.9948 0.9846
0.8964 3.6457 -0.9948 0.9846
0.8430 3.6584 -0.9948 0.9846
0.7895 3.6704 -0.9948 0.9846
0.6819 3.6919 -0.9948 0.9846
0.6279 3.7014 -0.9948 0.9846
0.3560 3.7374 -0.9948 0.9846
0.3014 3.7422 -0.9948 0.9846
0.2467 3.7462 -0.9948 0.9846
0.1919 3.7495 -0.9948 0.9846
-0.0274 3.7542 -0.9948 0.9846
-0.0823 3.7534 -0.9948 0.9846
-0.1919 3.7494 -0.9948 0.9846
-0.2467 3.7462 -0.9948 0.9846
-0.3014 3.7422 -0.9948 0.9846
-0.4106 3.7318 -0.9948 0.9846
-0.6819 3.6918 -0.9948 0.9846
-0.7358 3.6815 -0.9948 0.9846
-0.7895 3.6704 -0.9948 0.9846
-0.9496 3.6322 -0.9948 0.9846
-1.0026 3.6180 -0.9948 0.9846
-1.0553 3.6029 -0.9948 0.9846
-1.1079 3.5871 -0.9948 0.9846
-1.1602 3.5705 -0.9948 0.9846
-1.2122 3.5531 -0.9948 0.9846
-1.3155 3.5162 -0.9948 0.9846
-1.3667 3.4966 -0.9948 0.9846
-0.3130 0.7364 -0.2120 0.9967
-0.2783 0.5825 -0.1711 0.9973
-0.2776 0.5598 -0.1656 0.9974
-0.2998 0.4755 -0.1489 0.9977
-0.3050 0.4537 -0.1449 0.9977
-0.3188 0.4066 -0.1369 0.9979
-0.3237 0.3890 -0.1341 0.9979
-0.3308 0.3638 -0.1303 0.9980
-0.3330 0.3557 -0.1291 0.9980
-0.3352 0.3476 -0.1280 0.9980
-0.3370 0.3395 -0.1268 0.9980
-0.3414 0.3150 -0.1231 0.9981
-0.3452 0.2915 -0.1197 0.9981
-0.3474 0.2764 -0.1176 0.9982
-0.3512 0.2474 -0.1138 0.9982
-0.3521 0.2404 -0.1130 0.9982
-0.3528 0.2334 -0.1121 0.9983
-0.3536 0.2265 -0.1113 0.9983
-0.3549 0.2130 -0.1097 0.9983
-0.3561 0.1998 -0.1082 0.9983
-0.3584 0.1810 -0.1064 0.9983
-0.3601 0.1688 -0.1054 0.9984
-0.3612 0.1566 -0.1043 0.9984
-0.3618 0.1506 -0.1038 0.9984
-0.3627 0.1388 -0.1029 0.9984
-0.3632 0.1328 -0.1025 0.9984
-0.3635 0.1270 -0.1020 0.9984
-0.3639 0.1212 -0.1016 0.9984
-0.3650 0.0983 -0.1002 0.9984
-0.3657 0.0648 -0.0984 0.9985
-0.3657 0.0538 -0.0979 0.9985
-0.3655 0.0429 -0.0975 0.9985
-0.3653 0.0321 -0.0972 0.9985
-0.3649 0.0213 -0.0969 0.9985
-0.3647 0.0160 -0.0967 0.9985
-0.3645 0.0106 -0.0966 0.9985
-0.3642 0.0053 -0.0965 0.9985
-0.3581 -0.0052 -0.0991 0.9985
-0.3586 -0.0157 -0.0994 0.9985
-0.3592 -0.0316 -0.0998 0.9985
-0.3594 -0.0475 -0.1004 0.9985
-0.3595 -0.0637 -0.1011 0.9985
-0.3594 -0.0691 -0.1013 0.9985
-0.3592 -0.0800 -0.1019 0.9985
-0.3591 -0.0855 -0.1022 0.9985
-0.3584 -0.1022 -0.1032 0.9985
-0.3581 -0.1077 -0.1035 0.9984
-0.3575 -0.1191 -0.1043 0.9984
-0.3571 -0.1247 -0.1047 0.9984
-0.3562 -0.1363 -0.1056 0.9984
-0.3557 -0.1420 -0.1061 0.9984
-0.3541 -0.1597 -0.1075 0.9984
-0.3508 -0.1836 -0.1096 0.9984
-0.3491 -0.1959 -0.1108 0.9983
-0.3485 -0.2023 -0.1116 0.9983
-0.3472 -0.2154 -0.1131 0.9983
-0.3465 -0.2220 -0.1139 0.9983
-0.3457 -0.2287 -0.1148 0.9983
-0.3431 -0.2493 -0.1174 0.9982
-0.3400 -0.2706 -0.1203 0.9982
-0.3377 -0.2852 -0.1224 0.9982
-0.3365 -0.2927 -0.1235 0.9982
-0.3352 -0.3003 -0.1246 0.9981
-0.3294 -0.3318 -0.1294 0.9981
-0.3277 -0.3398 -0.1307 0.9980
-0.3186 -0.3716 -0.1355 0.9980
-0.3161 -0.3798 -0.1368 0.9980
-0.3136 -0.3882 -0.1382 0.9979
-0.3111 -0.3968 -0.1396 0.9979
-0.3084 -0.4055 -0.1410 0.9979
-0.3057 -0.4143 -0.1425 0.9979
-0.3028 -0.4232 -0.1441 0.9978
-0.2999 -0.4323 -0.1457 0.9978
-0.2968 -0.4416 -0.1473 0.9978
-0.2937 -0.4510 -0.1490 0.9978
-0.2907 -0.4610 -0.1509 0.9977
-0.2850 -0.4827 -0.1552 0.9977
-0.2819 -0.4937 -0.1574 0.9976
-0.2787 -0.5052 -0.1597 0.9976
-0.2719 -0.5288 -0.1646 0.9975
-0.2682 -0.5409 -0.1672 0.9975
-0.2604 -0.5662 -0.1726 0.9974
-0.2754 -0.6480 -0.1949 0.9971
-1.2381 -3.3094 -0.9783 0.9854
-1.1896 -3.3271 -0.9783 0.9854
-1.1408 -3.3441 -0.9783 0.9854
-0.9932 -3.3909 -0.9783 0.9854
-0.9436 -3.4050 -0.9783 0.9854
-0.8437 -3.4312 -0.9783 0.9854
-0.7934 -3.4432 -0.9783 0.9854
-0.6925 -3.4648 -0.9783 0.9854
-0.6418 -3.4746 -0.9783 0.9854
-0.5910 -3.4836 -0.9783 0.9854
-0.5400 -3.4919 -0.9783 0.9854
-0.4377 -3.5062 -0.9783 0.9854
-0.3865 -3.5122 -0.9783 0.9854
-0.3351 -3.5174 -0.9783 0.9854
-0.2837 -3.5220 -0.9783 0.9854
-0.1806 -3.5287 -0.9783 0.9854
-0.1291 -3.5310 -0.9783 0.9854
-0.0774 -3.5325 -0.9783 0.9854
-0.0258 -3.5333 -0.9783 0.9854
0.0258 -3.5333 -0.9783 0.9854
0.0774 -3.5326 -0.9783 0.9854
0.1290 -3.5310 -0.9783 0.9854
0.2321 -3.5258 -0.9783 0.9854
0.3864 -3.5122 -0.9783 0.9854
0.5400 -3.4919 -0.9783 0.9854
0.5909 -3.4837 -0.9783 0.9854
0.6418 -3.4746 -0.9783 0.9854
0.6925 -3.4649 -0.9783 0.9854
0.7431 -3.4544 -0.9783 0.9854
0.8437 -3.4312 -0.9783 0.9854
0.8937 -3.4185 -0.9783 0.9854
1.0427 -3.3761 -0.9783 0.9854
1.0919 -3.3605 -0.9783 0.9854
1.2381 -3.3095 -0.9783 0.9854
1.4293 -3.2315 -0.9783 0.9854
1.4764 -3.2102 -0.9783 0.9854
1.5231 -3.1884 -0.9783 0.9854
1.5696 -3.1657 -0.9783 0.9854
1.6156 -3.1425 -0.9783 0.9854
1.7518 -3.0687 -0.9783 0.9854
1.7964 -3.0428 -0.9783 0.9854
1.8846 -2.9889 -0.9784 0.9854
1.9281 -2.9611 -0.9784 0.9854
2.0138 -2.9035 -0.9784 0.9854
2.0560 -2.8738 -0.9784 0.9854
2.1823 -2.7840 -0.9794 0.9854
2.4168 -2.6580 -0.9947 0.9852
2.4554 -2.6223 -0.9947 0.9852
2.4934 -2.5862 -0.9947 0.9852
2.5309 -2.5495 -0.9947 0.9852
2.6403 -2.4362 -0.9947 0.9852
2.6756 -2.3973 -0.9947 0.9852
2.7103 -2.3580 -0.9947 0.9852
2.7445 -2.3181 -0.9947 0.9852
2.8435 -2.1957 -0.9947 0.9852
2.8752 -2.1539 -0.9947 0.9852
2.9669 -2.0258 -0.9947 0.9852
2.9962 -1.9823 -0.9947 0.9852
3.0248 -1.9383 -0.9947 0.9852
3.0528 -1.8939 -0.9947 0.9852
3.0802 -1.8491 -0.9947 0.9852
3.1329 -1.7583 -0.9947 0.9852
3.1583 -1.7123 -0.9947 0.9852
3.1829 -1.6660 -0.9947 0.9852
3.2303 -1.5723 -0.9947 0.9852
3.2529 -1.5249 -0.9947 0.9852
3.2961 -1.4292 -0.9947 0.9852
3.3166 -1.3809 -0.9947 0.9852
3.3556 -1.2834 -0.9947 0.9852
3.3740 -1.2343 -0.9947 0.9852
3.4086 -1.1351 -0.9947 0.9852
3.5067 -0.7812 -0.9947 0.9852
3.5178 -0.7298 -0.9947 0.9852
3.5544 -0.5231 -0.9947 0.9852
3.5617 -0.4711 -0.9947 0.9852
3.5682 -0.4190 -0.9947 0.9852
3.5739 -0.3668 -0.9947 0.9852
3.5831 -0.2623 -0.9948 0.9852
3.5866 -0.2098 -0.9948 0.9852
3.5893 -0.1574 -0.9948 0.9852
3.5928 0.0000 -0.9948 0.9852
3.5924 0.0525 -0.9948 0.9852
3.5912 0.1050 -0.9948 0.9852
3.5893 0.1575 -0.9948 0.9852
3.5866 0.2098 -0.9948 0.9852
3.5790 0.3146 -0.9948 0.9852
3.5683 0.4190 -0.9948 0.9852
3.5465 0.5750 -0.9948 0.9852
3.5377 0.6268 -0.9948 0.9852
3.5282 0.6784 -0.9948 0.9852
3.5179 0.7299 -0.9948 0.9852
3.4405 1.0351 -0.9948 0.9852
3.4088 1.1352 -0.9948 0.9852
3.3919 1.1849 -0.9948 0.9852
3.3558 1.2835 -0.9948 0.9852
3.3169 1.3810 -0.9948 0.9852
3.2964 1.4294 -0.9948 0.9852
3.2532 1.5250 -0.9948 0.9852
3.2306 1.5724 -0.9948 0.9852
3.1832 1.6662 -0.9948 0.9852
3.1586 1.7125 -0.9948 0.9852
3.1332 1.7585 -0.9948 0.9852
3.0805 1.8492 -0.9948 0.9852
3.0252 1.9385 -0.9948 0.9852
2.9965 1.9825 -0.9948 0.9852
2.9068 2.1119 -0.9948 0.9852
2.8756 2.1542 -0.9948 0.9852
2.8438 2.1960 -0.9948 0.9852
2.8114 2.2373 -0.9948 0.9852
2.7784 2.2781 -0.9948 0.9852
2.7449 2.3185 -0.9948 0.9852
2.7107 2.3583 -0.9948 0.9852
2.6047 2.4748 -0.9948 0.9852
2.5683 2.5127 -0.9948 0.9852
2.4171 2.6584 -0.9948 0.9852
2.3781 2.6934 -0.9948 0.9852
2.3384 2.7279 -0.9948 0.9852
2.2167 2.8277 -0.9948 0.9852
2.0906 2.9221 -0.9948 0.9852
2.0477 2.9524 -0.9948 0.9852
1.9606 3.0110 -0.9948 0.9852
1.9163 3.0393 -0.9948 0.9852
1.8267 3.0941 -0.9948 0.9852
1.7813 3.1204 -0.9948 0.9852
1.6894 3.1711 -0.9948 0.9852
1.5960 3.2191 -0.9948 0.9852
1.5488 3.2421 -0.9948 0.9852
1.5013 3.2644 -0.9948 0.9852
1.4534 3.2859 -0.9948 0.9852
1.2590 3.3652 -0.9948 0.9852
1.1601 3.4006 -0.9948 0.9852
1.1103 3.4172 -0.9948 0.9852
1.0602 3.4330 -0.9948 0.9852
0.9595 3.4626 -0.9948 0.9852
0.8579 3.4891 -0.9948 0.9852
0.8068 3.5013 -0.9948 0.9852
0.7556 3.5126 -0.9948 0.9852
0.6009 3.5424 -0.9948 0.9852
0.5491 3.5508 -0.9948 0.9852
0.4971 3.5584 -0.9948 0.9852
0.4451 3.5654 -0.9948 0.9852
0.3930 3.5715 -0.9948 0.9852
0.3407 3.5768 -0.9948 0.9852
0.2884 3.5814 -0.9948 0.9852
0.2361 3.5852 -0.9948 0.9852
0.1312 3.5907 -0.9948 0.9852
0.0262 3.5930 -0.9948 0.9852
-0.0263 3.5929 -0.9948 0.9852
-0.0788 3.5921 -0.9948 0.9852
-0.2361 3.5852 -0.9948 0.9852
-0.4451 3.5654 -0.9948 0.9852
-0.4972 3.5584 -0.9948 0.9852
-0.5491 3.5508 -0.9948 0.9852
-0.6009 3.5424 -0.9948 0.9852
-0.6526 3.5332 -0.9948 0.9852
-0.8068 3.5012 -0.9948 0.9852
-0.8579 3.4891 -0.9948 0.9852
-0.9088 3.4762 -0.9948 0.9852
-0.9595 3.4625 -0.9948 0.9852
-1.0602 3.4330 -0.9948 0.9852
-1.1103 3.4171 -0.9948 0.9852
-1.2097 3.3832 -0.9948 0.9852
-1.2590 3.3652 -0.9948 0.9852
-0.2644 0.5534 -0.1698 0.9975
-0.2819 0.4937 -0.1574 0.9976
-0.2850 0.4826 -0.1552 0.9977
-0.2879 0.4717 -0.1530 0.9977
-0.2907 0.4610 -0.1509 0.9977
-0.2999 0.4323 -0.1457 0.9978
-0.3084 0.4055 -0.1410 0.9979
-0.3111 0.3968 -0.1396 0.9979
-0.3136 0.3882 -0.1382 0.9979
-0.3161 0.3798 -0.1368 0.9980
-0.3186 0.3716 -0.1355 0.9980
-0.3210 0.3635 -0.1343 0.9980
-0.3233 0.3555 -0.1330 0.9980
-0.3294 0.3318 -0.1294 0.9981
-0.3324 0.3158 -0.1269 0.9981
-0.3338 0.3080 -0.1258 0.9981
-0.3365 0.2927 -0.1235 0.9982
-0.3377 0.2852 -0.1224 0.9982
-0.3389 0.2779 -0.1213 0.9982
-0.3400 0.2706 -0.1203 0.9982
-0.3411 0.2634 -0.1193 0.9982
-0.3421 0.2563 -0.1184 0.9982
-0.3457 0.2287 -0.1148 0.9983
-0.3485 0.2023 -0.1116 0.9983
-0.3517 0.1776 -0.1091 0.9984
-0.3526 0.1716 -0.1086 0.9984
-0.3541 0.1597 -0.1075 0.9984
-0.3547 0.1538 -0.1070 0.9984
-0.3552 0.1479 -0.1065 0.9984
-0.3567 0.1305 -0.1052 0.9984
-0.3575 0.1191 -0.1043 0.9984
-0.3581 0.1077 -0.1035 0.9984
-0.3589 0.0910 -0.1025 0.9985
-0.3593 0.0745 -0.1016 0.9985
-0.3594 0.0637 -0.1011 0.9985
-0.3594 0.0475 -0.1004 0.9985
-0.3593 0.0368 -0.1000 0.9985
-0.3591 0.0316 -0.0998 0.9985
-0.3590 0.0262 -0.0997 0.9985
-0.3586 0.0157 -0.0994 0.9985
-0.3583 0.0105 -0.0993 0.9985
-0.3581 0.0052 -0.0991 0.9985
-0.3521 -0.0052 -0.1017 0.9985
-0.3534 -0.0520 -0.1032 0.9985
-0.3534 -0.0573 -0.1034 0.9985
-0.3534 -0.0626 -0.1037 0.9985
-0.3533 -0.0680 -0.1039 0.9985
-0.3532 -0.0733 -0.1042 0.9985
-0.3531 -0.0787 -0.1045 0.9985
-0.3529 -0.0841 -0.1048 0.9985
-0.3527 -0.0895 -0.1051 0.9985
-0.3525 -0.0949 -0.1054 0.9985
-0.3522 -0.1004 -0.1058 0.9985
-0.3519 -0.1059 -0.1062 0.9985
-0.3516 -0.1114 -0.1065 0.9985
-0.3513 -0.1170 -0.1069 0.9985
-0.3495 -0.1396 -0.1087 0.9984
-0.3489 -0.1453 -0.1092 0.9984
-0.3477 -0.1568 -0.1102 0.9984
-0.3470 -0.1627 -0.1107 0.9984
-0.3404 -0.2111 -0.1157 0.9983
-0.3396 -0.2176 -0.1165 0.9983
-0.3388 -0.2241 -0.1173 0.9983
-0.3379 -0.2307 -0.1182 0.9983
-0.3361 -0.2442 -0.1200 0.9983
-0.3351 -0.2510 -0.1209 0.9983
-0.3341 -0.2580 -0.1219 0.9982
-0.3306 -0.2792 -0.1250 0.9982
-0.3293 -0.2864 -0.1261 0.9982
-0.3280 -0.2938 -0.1272 0.9982
-0.3265 -0.3013 -0.1283 0.9982
-0.3251 -0.3089 -0.1295 0.9981
-0.3236 -0.3165 -0.1307 0.9981
-0.3183 -0.3400 -0.1345 0.9981
-0.3160 -0.3476 -0.1357 0.9980
-0.3037 -0.3873 -0.1422 0.9980
-0.2982 -0.4042 -0.1451 0.9979
-0.2924 -0.4216 -0.1482 0.9979
-0.2894 -0.4305 -0.1498 0.9978
-0.2829 -0.4487 -0.1532 0.9978
-0.2796 -0.4581 -0.1550 0.9978
-0.2763 -0.4679 -0.1569 0.9977
-0.2732 -0.4785 -0.1591 0.9977
-0.2666 -0.5003 -0.1637 0.9976
-0.2594 -0.5232 -0.1687 0.9976
-0.2516 -0.5471 -0.1739 0.9975
-0.2457 -0.5781 -0.1814 0.9974
-0.2609 -0.6676 -0.2070 0.9970
-1.1403 -3.1892 -0.9783 0.9860
-1.0936 -3.2055 -0.9783 0.9860
-1.0467 -3.2212 -0.9783 0.9860
-0.9995 -3.2362 -0.9783 0.9860
-0.9521 -3.2504 -0.9783 0.9860
-0.9045 -3.2640 -0.9783 0.9860
-0.8567 -3.2768 -0.9783 0.9860
-0.8087 -3.2890 -0.9783 0.9860
-0.7606 -3.3005 -0.9783 0.9860
-0.6638 -3.3213 -0.9783 0.9860
-0.4687 -3.3544 -0.9783 0.9860
-0.4196 -3.3609 -0.9783 0.9860
-0.3705 -3.3667 -0.9783 0.9860
-0.2719 -3.3761 -0.9783 0.9860
-0.1732 -3.3826 -0.9783 0.9860
-0.1237 -3.3848 -0.9783 0.9860
0.0247 -3.3869 -0.9783 0.9860
0.0742 -3.3862 -0.9783 0.9860
0.1731 -3.3826 -0.9783 0.9860
0.2225 -3.3797 -0.9783 0.9860
0.2719 -3.3761 -0.9783 0.9860
0.3212 -3.3718 -0.9783 0.9860
0.3704 -3.3667 -0.9783 0.9860
0.4686 -3.3545 -0.9783 0.9860
0.5176 -3.3473 -0.9783 0.9860
0.6152 -3.3307 -0.9783 0.9860
0.7123 -3.3113 -0.9783 0.9860
0.7605 -3.3005 -0.9783 0.9860
1.0466 -3.2213 -0.9783 0.9860
1.2790 -3.1363 -0.9783 0.9860
1.3247 -3.1173 -0.9783 0.9860
1.5045 -3.0345 -0.9783 0.9860
1.5487 -3.0123 -0.9783 0.9860
1.5926 -2.9894 -0.9783 0.9860
1.7220 -2.9167 -0.9784 0.9860
1.7644 -2.8912 -0.9784 0.9860
1.8065 -2.8651 -0.9784 0.9860
1.8502 -2.8415 -0.9794 0.9860
1.8915 -2.8142 -0.9794 0.9860
1.9324 -2.7862 -0.9794 0.9860
1.9730 -2.7577 -0.9794 0.9860
2.0130 -2.7286 -0.9794 0.9860
2.1131 -2.6956 -0.9893 0.9858
2.2028 -2.6469 -0.9947 0.9858
2.2412 -2.6145 -0.9947 0.9858
2.2792 -2.5814 -0.9947 0.9858
2.3536 -2.5137 -0.9947 0.9858
2.5309 -2.3352 -0.9947 0.9858
2.5647 -2.2980 -0.9947 0.9858
2.5980 -2.2603 -0.9947 0.9858
2.6308 -2.2221 -0.9947 0.9858
2.6630 -2.1834 -0.9947 0.9858
2.6946 -2.1443 -0.9947 0.9858
2.7561 -2.0646 -0.9947 0.9858
2.8153 -1.9832 -0.9947 0.9858
2.8995 -1.8580 -0.9947 0.9858
2.9263 -1.8154 -0.9947 0.9858
2.9781 -1.7291 -0.9947 0.9858
3.0031 -1.6854 -0.9947 0.9858
3.0274 -1.6414 -0.9947 0.9858
3.0511 -1.5970 -0.9947 0.9858
3.0741 -1.5522 -0.9947 0.9858
3.0964 -1.5071 -0.9947 0.9858
3.1392 -1.4160 -0.9947 0.9858
3.1595 -1.3700 -0.9947 0.9858
3.1792 -1.3237 -0.9947 0.9858
3.2511 -1.1357 -0.9947 0.9858
3.3119 -0.9438 -0.9947 0.9858
3.3254 -0.8954 -0.9947 0.9858
3.3381 -0.8467 -0.9947 0.9858
3.3614 -0.7488 -0.9947 0.9858
3.3720 -0.6996 -0.9947 0.9858
3.3819 -0.6502 -0.9947 0.9858
3.3910 -0.6008 -0.9947 0.9858
3.3994 -0.5512 -0.9947 0.9858
3.4071 -0.5014 -0.9947 0.9858
3.4141 -0.4516 -0.9947 0.9858
3.4204 -0.4017 -0.9947 0.9858
3.4259 -0.3516 -0.9947 0.9858
3.4306 -0.3016 -0.9947 0.9858
3.4347 -0.2514 -0.9947 0.9858
3.4424 -0.1006 -0.9948 0.9858
3.4439 0.0000 -0.9948 0.9858
3.4435 0.0504 -0.9948 0.9858
3.4424 0.1006 -0.9948 0.9858
3.4380 0.2012 -0.9948 0.9858
3.4307 0.3015 -0.9948 0.9858
3.4204 0.4016 -0.9948 0.9858
3.4142 0.4516 -0.9948 0.9858
3.3911 0.6008 -0.9948 0.9858
3.3503 0.7979 -0.9948 0.9858
3.3255 0.8954 -0.9948 0.9858
3.2980 0.9922 -0.9948 0.9858
3.2831 1.0403 -0.9948 0.9858
3.2168 1.2303 -0.9948 0.9858
3.1984 1.2772 -0.9948 0.9858
3.1794 1.3238 -0.9948 0.9858
3.1598 1.3701 -0.9948 0.9858
3.1394 1.4161 -0.9948 0.9858
3.0967 1.5072 -0.9948 0.9858
3.0277 1.6415 -0.9948 0.9858
3.0034 1.6856 -0.9948 0.9858
2.9528 1.7727 -0.9948 0.9858
2.9266 1.8156 -0.9948 0.9858
2.8723 1.9003 -0.9948 0.9858
2.8156 1.9834 -0.9948 0.9858
2.7863 2.0244 -0.9948 0.9858
2.6949 2.1445 -0.9948 0.9858
2.6311 2.2224 -0.9948 0.9858
2.5312 2.3355 -0.9948 0.9858
2.4968 2.3723 -0.9948 0.9858
2.4264 2.4442 -0.9948 0.9858
2.3540 2.5141 -0.9948 0.9858
2.3170 2.5482 -0.9948 0.9858
2.2795 2.5818 -0.9948 0.9858
2.2415 2.6148 -0.9948 0.9858
2.1642 2.6792 -0.9948 0.9858
2.1248 2.7106 -0.9948 0.9858
2.0850 2.7413 -0.9948 0.9858
2.0447 2.7715 -0.9948 0.9858
1.9628 2.8300 -0.9948 0.9858
1.6194 3.0396 -0.9948 0.9858
1.5299 3.0857 -0.9948 0.9858
1.3932 3.1498 -0.9948 0.9858
1.3470 3.1698 -0.9948 0.9858
1.3005 3.1891 -0.9948 0.9858
1.2538 3.2078 -0.9948 0.9858
1.1120 3.2597 -0.9948 0.9858
1.0643 3.2756 -0.9948 0.9858
1.0163 3.2908 -0.9948 0.9858
0.9197 3.3190 -0.9948 0.9858
0.8711 3.3322 -0.9948 0.9858
0.7734 3.3562 -0.9948 0.9858
0.7243 3.3671 -0.9948 0.9858
0.5760 3.3956 -0.9948 0.9858
0.4765 3.4110 -0.9948 0.9858
0.4267 3.4177 -0.9948 0.9858
0.3266 3.4286 -0.9948 0.9858
0.0252 3.4440 -0.9948 0.9858
-0.0252 3.4440 -0.9948 0.9858
-0.0755 3.4433 -0.9948 0.9858
-0.1761 3.4396 -0.9948 0.9858
-0.2263 3.4367 -0.9948 0.9858
-0.2765 3.4330 -0.9948 0.9858
-0.3267 3.4286 -0.9948 0.9858
-0.5263 3.4036 -0.9948 0.9858
-0.5760 3.3956 -0.9948 0.9858
-0.6750 3.3773 -0.9948 0.9858
-0.7734 3.3561 -0.9948 0.9858
-0.8224 3.3445 -0.9948 0.9858
-0.8712 3.3321 -0.9948 0.9858
-1.0163 3.2907 -0.9948 0.9858
-1.0643 3.2755 -0.9948 0.9858
-1.1121 3.2596 -0.9948 0.9858
-1.1595 3.2430 -0.9948 0.9858
-1.2068 3.2257 -0.9948 0.9858
-0.2609 0.6675 -0.2070 0.9970
-0.2529 0.6201 -0.1934 0.9972
-0.2457 0.5781 -0.1814 0.9974
-0.2516 0.5471 -0.1739 0.9975
-0.2666 0.5003 -0.1637 0.9976
-0.2763 0.4678 -0.1569 0.9977
-0.2924 0.4216 -0.1482 0.9979
-0.2954 0.4128 -0.1466 0.9979
-0.2982 0.4042 -0.1451 0.9979
-0.3010 0.3957 -0.1436 0.9979
-0.3036 0.3873 -0.1422 0.9980
-0.3063 0.3791 -0.1408 0.9980
-0.3088 0.3711 -0.1394 0.9980
-0.3113 0.3631 -0.1382 0.9980
-0.3137 0.3553 -0.1369 0.9980
-0.3183 0.3399 -0.1345 0.9981
-0.3251 0.3089 -0.1295 0.9981
-0.3266 0.3013 -0.1283 0.9982
-0.3279 0.2938 -0.1272 0.9982
-0.3329 0.2649 -0.1229 0.9982
-0.3370 0.2374 -0.1191 0.9983
-0.3404 0.2111 -0.1157 0.9983
-0.3418 0.1984 -0.1141 0.9984
-0.3425 0.1922 -0.1134 0.9984
-0.3435 0.1862 -0.1128 0.9984
-0.3444 0.1803 -0.1123 0.9984
-0.3454 0.1743 -0.1117 0.9984
-0.3462 0.1685 -0.1112 0.9984
-0.3471 0.1627 -0.1107 0.9984
-0.3484 0.1511 -0.1097 0.9984
-0.3489 0.1453 -0.1092 0.9984
-0.3499 0.1338 -0.1082 0.9984
-0.3504 0.1282 -0.1078 0.9984
-0.3513 0.1170 -0.1069 0.9985
-0.3516 0.1114 -0.1065 0.9985
-0.3522 0.1004 -0.1058 0.9985
-0.3525 0.0949 -0.1054 0.9985
-0.3529 0.0841 -0.1048 0.9985
-0.3531 0.0786 -0.1045 0.9985
-0.3532 0.0733 -0.1042 0.9985
-0.3534 0.0626 -0.1037 0.9985
-0.3534 0.0573 -0.1034 0.9985
-0.3534 0.0520 -0.1032 0.9985
-0.3533 0.0414 -0.1028 0.9985
-0.3533 0.0362 -0.1026 0.9985
-0.3532 0.0310 -0.1024 0.9985
-0.3526 0.0155 -0.1019 0.9985
-0.3466 -0.0102 -0.1043 0.9986
-0.3468 -0.0152 -0.1045 0.9986
-0.3470 -0.0203 -0.1046 0.9985
-0.3472 -0.0254 -0.1047 0.9985
-0.3474 -0.0357 -0.1051 0.9985
-0.3475 -0.0408 -0.1053 0.9985
-0.3475 -0.0563 -0.1059 0.9985
-0.3475 -0.0616 -0.1062 0.9985
-0.3473 -0.0720 -0.1067 0.9985
-0.3456 -0.1095 -0.1091 0.9985
-0.3448 -0.1205 -0.1099 0.9985
-0.3439 -0.1315 -0.1108 0.9985
-0.3428 -0.1427 -0.1117 0.9985
-0.3422 -0.1484 -0.1122 0.9984
-0.3409 -0.1598 -0.1133 0.9984
-0.3400 -0.1655 -0.1138 0.9984
-0.3382 -0.1770 -0.1148 0.9984
-0.3372 -0.1828 -0.1154 0.9984
-0.3345 -0.2008 -0.1174 0.9984
-0.3338 -0.2070 -0.1182 0.9984
-0.3330 -0.2134 -0.1190 0.9983
-0.3321 -0.2197 -0.1198 0.9983
-0.3312 -0.2262 -0.1207 0.9983
-0.3293 -0.2393 -0.1225 0.9983
-0.3272 -0.2527 -0.1244 0.9983
-0.3249 -0.2664 -0.1264 0.9982
-0.3236 -0.2733 -0.1275 0.9982
-0.3223 -0.2804 -0.1285 0.9982
-0.3149 -0.3172 -0.1345 0.9981
-0.3132 -0.3248 -0.1358 0.9981
-0.3114 -0.3325 -0.1371 0.9981
-0.3068 -0.3474 -0.1394 0.9981
-0.2911 -0.3946 -0.1475 0.9980
-0.2853 -0.4114 -0.1506 0.9979
-0.2823 -0.4199 -0.1522 0.9979
-0.2791 -0.4286 -0.1539 0.9979
-0.2654 -0.4648 -0.1610 0.9978
-0.2583 -0.4848 -0.1653 0.9977
-0.2548 -0.4955 -0.1676 0.9977
-0.2473 -0.5176 -0.1726 0.9976
-0.2433 -0.5291 -0.1752 0.9976
-0.2392 -0.5407 -0.1779 0.9975
-0.2349 -0.5527 -0.1807 0.9975
-0.2383 -0.6370 -0.2046 0.9972
-1.0498 -3.0772 -0.9783 0.9865
-1.0047 -3.0923 -0.9783 0.9865
-0.9140 -3.1203 -0.9783 0.9865
-0.8683 -3.1333 -0.9783 0.9865
-0.8224 -3.1457 -0.9783 0.9865
-0.7301 -3.1684 -0.9783 0.9865
-0.6838 -3.1787 -0.9783 0.9865
-0.5906 -3.1973 -0.9783 0.9865
-0.4969 -3.2132 -0.9783 0.9865
-0.4499 -3.2202 -0.9783 0.9865
-0.4028 -3.2264 -0.9783 0.9865
-0.3556 -3.2319 -0.9783 0.9865
-0.3084 -3.2368 -0.9783 0.9865
-0.2137 -3.2444 -0.9783 0.9865
-0.1662 -3.2472 -0.9783 0.9865
-0.1188 -3.2493 -0.9783 0.9865
-0.0713 -3.2506 -0.9783 0.9865
-0.0238 -3.2513 -0.9783 0.9865
0.0713 -3.2506 -0.9783 0.9865
0.2136 -3.2444 -0.9783 0.9865
0.2610 -3.2410 -0.9783 0.9865
0.3083 -3.2368 -0.9783 0.9865
0.6837 -3.1788 -0.9783 0.9865
0.7301 -3.1684 -0.9783 0.9865
0.7763 -3.1574 -0.9783 0.9865
0.8224 -3.1457 -0.9783 0.9865
0.8683 -3.1334 -0.9783 0.9865
0.9140 -3.1204 -0.9783 0.9865
0.9595 -3.1067 -0.9783 0.9865
1.0047 -3.0923 -0.9783 0.9865
1.0498 -3.0773 -0.9783 0.9865
1.1393 -3.0453 -0.9783 0.9865
1.2278 -3.0107 -0.9783 0.9865
1.3152 -2.9736 -0.9783 0.9865
1.4016 -2.9339 -0.9783 0.9865
1.5288 -2.8697 -0.9784 0.9865
1.6138 -2.8269 -0.9794 0.9865
1.7761 -2.7278 -0.9794 0.9865
1.8212 -2.7096 -0.9823 0.9865
1.9229 -2.6878 -0.9944 0.9863
1.9625 -2.6601 -0.9947 0.9863
2.0394 -2.6016 -0.9947 0.9863
2.1515 -2.5098 -0.9947 0.9863
2.1879 -2.4781 -0.9947 0.9863
2.2944 -2.3798 -0.9947 0.9863
2.3630 -2.3118 -0.9947 0.9863
2.3965 -2.2770 -0.9947 0.9863
2.4940 -2.1698 -0.9947 0.9863
2.5564 -2.0960 -0.9947 0.9863
2.5867 -2.0584 -0.9947 0.9863
2.6744 -1.9431 -0.9947 0.9863
2.7025 -1.9038 -0.9947 0.9863
2.7570 -1.8241 -0.9947 0.9863
2.7834 -1.7836 -0.9947 0.9863
2.8589 -1.6599 -0.9947 0.9863
2.8829 -1.6180 -0.9947 0.9863
2.9725 -1.4468 -0.9947 0.9863
3.0135 -1.3593 -0.9947 0.9863
3.0330 -1.3151 -0.9947 0.9863
3.0702 -1.2260 -0.9947 0.9863
3.0878 -1.1810 -0.9947 0.9863
3.1047 -1.1357 -0.9947 0.9863
3.1366 -1.0445 -0.9947 0.9863
3.1515 -0.9986 -0.9947 0.9863
3.2045 -0.8128 -0.9947 0.9863
3.2160 -0.7659 -0.9947 0.9863
3.2269 -0.7188 -0.9947 0.9863
3.2465 -0.6242 -0.9947 0.9863
3.2553 -0.5767 -0.9947 0.9863
3.2633 -0.5291 -0.9947 0.9863
3.2707 -0.4814 -0.9947 0.9863
3.2774 -0.4335 -0.9947 0.9863
3.2834 -0.3856 -0.9947 0.9863
3.2887 -0.3375 -0.9947 0.9863
3.2972 -0.2413 -0.9947 0.9863
3.3004 -0.1931 -0.9947 0.9863
3.3028 -0.1449 -0.9948 0.9863
3.3046 -0.0966 -0.9948 0.9863
3.3060 0.0000 -0.9948 0.9863
3.3057 0.0483 -0.9948 0.9863
3.3004 0.1931 -0.9948 0.9863
3.2972 0.2413 -0.9948 0.9863
3.2888 0.3375 -0.9948 0.9863
3.2708 0.4814 -0.9948 0.9863
3.2635 0.5291 -0.9948 0.9863
3.2466 0.6243 -0.9948 0.9863
3.2270 0.7188 -0.9948 0.9863
3.2161 0.7659 -0.9948 0.9863
3.1211 1.0903 -0.9948 0.9863
3.1049 1.1358 -0.9948 0.9863
3.0704 1.2261 -0.9948 0.9863
3.0137 1.3595 -0.9948 0.9863
2.9292 1.5332 -0.9948 0.9863
2.9065 1.5758 -0.9948 0.9863
2.8592 1.6600 -0.9948 0.9863
2.8346 1.7016 -0.9948 0.9863
2.8095 1.7429 -0.9948 0.9863
2.7837 1.7838 -0.9948 0.9863
2.7574 1.8243 -0.9948 0.9863
2.7304 1.8644 -0.9948 0.9863
2.5871 2.0587 -0.9948 0.9863
2.5258 2.1334 -0.9948 0.9863
2.4623 2.2063 -0.9948 0.9863
2.4299 2.2421 -0.9948 0.9863
2.3633 2.3121 -0.9948 0.9863
2.3293 2.3464 -0.9948 0.9863
2.2948 2.3802 -0.9948 0.9863
2.2242 2.4462 -0.9948 0.9863
2.1882 2.4784 -0.9948 0.9863
2.1149 2.5413 -0.9948 0.9863
2.0775 2.5720 -0.9948 0.9863
2.0015 2.6316 -0.9948 0.9863
1.8843 2.7168 -0.9948 0.9863
1.8041 2.7707 -0.9948 0.9863
1.6809 2.8471 -0.9948 0.9863
1.5970 2.8950 -0.9948 0.9863
1.5117 2.9404 -0.9948 0.9863
1.4252 2.9833 -0.9948 0.9863
1.3814 3.0038 -0.9948 0.9863
1.3374 3.0237 -0.9948 0.9863
1.2931 3.0429 -0.9948 0.9863
1.2036 3.0794 -0.9948 0.9863
1.1131 3.1132 -0.9948 0.9863
1.0675 3.1292 -0.9948 0.9863
1.0217 3.1445 -0.9948 0.9863
0.8829 3.1862 -0.9948 0.9863
0.6953 3.2323 -0.9948 0.9863
0.6005 3.2513 -0.9948 0.9863
0.5529 3.2597 -0.9948 0.9863
0.4096 3.2807 -0.9948 0.9863
0.3616 3.2864 -0.9948 0.9863
0.2172 3.2991 -0.9948 0.9863
0.1207 3.3040 -0.9948 0.9863
0.0241 3.3062 -0.9948 0.9863
-0.0242 3.3061 -0.9948 0.9863
-0.0725 3.3055 -0.9948 0.9863
-0.1690 3.3019 -0.9948 0.9863
-0.2654 3.2955 -0.9948 0.9863
-0.3136 3.2913 -0.9948 0.9863
-0.3616 3.2864 -0.9948 0.9863
-0.4575 3.2744 -0.9948 0.9863
-0.5053 3.2673 -0.9948 0.9863
-0.5529 3.2597 -0.9948 0.9863
-0.6953 3.2323 -0.9948 0.9863
-0.7424 3.2218 -0.9948 0.9863
-0.7894 3.2105 -0.9948 0.9863
-0.8363 3.1987 -0.9948 0.9863
-0.9294 3.1729 -0.9948 0.9863
-1.0217 3.1443 -0.9948 0.9863
-0.2451 0.6855 -0.2190 0.9970
-0.2383 0.6369 -0.2046 0.9972
-0.2322 0.5940 -0.1919 0.9973
-0.2304 0.5649 -0.1836 0.9975
-0.2392 0.5407 -0.1779 0.9975
-0.2433 0.5291 -0.1752 0.9976
-0.2473 0.5176 -0.1726 0.9976
-0.2511 0.5065 -0.1701 0.9976
-0.2583 0.4848 -0.1653 0.9977
-0.2654 0.4648 -0.1610 0.9978
-0.2725 0.4464 -0.1574 0.9978
-0.2791 0.4286 -0.1539 0.9979
-0.2966 0.3784 -0.1446 0.9980
-0.2993 0.3704 -0.1433 0.9980
-0.3043 0.3550 -0.1407 0.9980
-0.3067 0.3474 -0.1394 0.9981
-0.3091 0.3399 -0.1382 0.9981
-0.3113 0.3325 -0.1371 0.9981
-0.3165 0.3096 -0.1332 0.9982
-0.3180 0.3021 -0.1320 0.9982
-0.3209 0.2876 -0.1297 0.9982
-0.3223 0.2804 -0.1285 0.9982
-0.3303 0.2327 -0.1216 0.9983
-0.3312 0.2262 -0.1207 0.9983
-0.3338 0.2070 -0.1182 0.9984
-0.3362 0.1887 -0.1160 0.9984
-0.3391 0.1712 -0.1143 0.9984
-0.3409 0.1598 -0.1133 0.9984
-0.3422 0.1484 -0.1122 0.9984
-0.3428 0.1427 -0.1117 0.9985
-0.3433 0.1371 -0.1112 0.9985
-0.3439 0.1315 -0.1108 0.9985
-0.3443 0.1260 -0.1103 0.9985
-0.3448 0.1205 -0.1099 0.9985
-0.3455 0.1095 -0.1091 0.9985
-0.3465 0.0933 -0.1080 0.9985
-0.3467 0.0879 -0.1076 0.9985
-0.3471 0.0773 -0.1070 0.9985
-0.3475 0.0563 -0.1059 0.9985
-0.3475 0.0512 -0.1057 0.9985
-0.3475 0.0408 -0.1053 0.9985
-0.3472 0.0254 -0.1047 0.9985
-0.3469 0.0152 -0.1045 0.9986
-0.3466 0.0102 -0.1043 0.9986
-0.3464 0.0050 -0.1042 0.9986
-0.3405 0.0000 -0.1066 0.9986
-0.3407 -0.0050 -0.1067 0.9986
-0.3410 -0.0100 -0.1068 0.9986
-0.3414 -0.0200 -0.1070 0.9986
-0.3417 -0.0351 -0.1075 0.9986
-0.3417 -0.0605 -0.1086 0.9985
-0.3411 -0.0812 -0.1098 0.9985
-0.3407 -0.0918 -0.1104 0.9985
-0.3404 -0.0970 -0.1108 0.9985
-0.3401 -0.1023 -0.1112 0.9985
-0.3384 -0.1238 -0.1128 0.9985
-0.3379 -0.1292 -0.1132 0.9985
-0.3374 -0.1347 -0.1137 0.9985
-0.3368 -0.1402 -0.1142 0.9985
-0.3362 -0.1458 -0.1147 0.9985
-0.3348 -0.1570 -0.1158 0.9985
-0.3321 -0.1738 -0.1173 0.9984
-0.3281 -0.1970 -0.1198 0.9984
-0.3274 -0.2031 -0.1206 0.9984
-0.3257 -0.2155 -0.1222 0.9984
-0.3238 -0.2281 -0.1240 0.9983
-0.3206 -0.2475 -0.1268 0.9983
-0.3182 -0.2609 -0.1288 0.9983
-0.3170 -0.2677 -0.1299 0.9983
-0.3142 -0.2816 -0.1321 0.9982
-0.3128 -0.2886 -0.1332 0.9982
-0.3113 -0.2957 -0.1344 0.9982
-0.3080 -0.3103 -0.1368 0.9982
-0.3063 -0.3177 -0.1381 0.9982
-0.3045 -0.3252 -0.1394 0.9981
-0.3024 -0.3325 -0.1407 0.9981
-0.2976 -0.3471 -0.1431 0.9981
-0.2925 -0.3621 -0.1457 0.9981
-0.2899 -0.3698 -0.1471 0.9980
-0.2754 -0.4098 -0.1545 0.9979
-0.2723 -0.4182 -0.1562 0.9979
-0.2657 -0.4353 -0.1596 0.9979
-0.2622 -0.4441 -0.1614 0.9978
-0.2549 -0.4620 -0.1652 0.9978
-0.2510 -0.4712 -0.1671 0.9978
-0.2395 -0.5012 -0.1739 0.9977
-0.2355 -0.5121 -0.1764 0.9976
-0.2271 -0.5344 -0.1818 0.9976
-0.2180 -0.5578 -0.1875 0.9975
-0.2176 -0.6085 -0.2023 0.9973
-0.9658 -2.9725 -0.9783 0.9870
-0.7905 -3.0238 -0.9783 0.9870
-0.7019 -3.0456 -0.9783 0.9870
-0.6573 -3.0556 -0.9783 0.9870
-0.6126 -3.0649 -0.9783 0.9870
-0.3872 -3.1014 -0.9783 0.9870
-0.2964 -3.1114 -0.9783 0.9870
-0.2509 -3.1154 -0.9783 0.9870
-0.2054 -3.1187 -0.9783 0.9870
0.0228 -3.1254 -0.9783 0.9870
0.0685 -3.1247 -0.9783 0.9870
0.1141 -3.1234 -0.9783 0.9870
0.1598 -3.1214 -0.9783 0.9870
0.2053 -3.1187 -0.9783 0.9870
0.2509 -3.1154 -0.9783 0.9870
0.2964 -3.1114 -0.9783 0.9870
0.4776 -3.0888 -0.9783 0.9870
0.5227 -3.0815 -0.9783 0.9870
0.5677 -3.0735 -0.9783 0.9870
0.6125 -3.0649 -0.9783 0.9870
0.6573 -3.0555 -0.9783 0.9870
0.7463 -3.0351 -0.9783 0.9870
0.8346 -3.0120 -0.9783 0.9870
0.8785 -2.9995 -0.9783 0.9870
1.0523 -2.9431 -0.9783 0.9870
1.0952 -2.9274 -0.9783 0.9870
1.2643 -2.8584 -0.9783 0.9870
1.3073 -2.8427 -0.9794 0.9870
1.3487 -2.8233 -0.9794 0.9870
1.4307 -2.7827 -0.9794 0.9870
1.5114 -2.7397 -0.9794 0.9870
1.5519 -2.7185 -0.9798 0.9870
1.5985 -2.7076 -0.9842 0.9869
1.6948 -2.6879 -0.9947 0.9868
1.7339 -2.6629 -0.9947 0.9868
1.8110 -2.6111 -0.9947 0.9868
1.8489 -2.5844 -0.9947 0.9868
1.8865 -2.5571 -0.9947 0.9868
2.0327 -2.4425 -0.9947 0.9868
2.0681 -2.4126 -0.9947 0.9868
2.1032 -2.3821 -0.9947 0.9868
2.1378 -2.3511 -0.9947 0.9868
2.3667 -2.1206 -0.9947 0.9868
2.3974 -2.0857 -0.9947 0.9868
2.4276 -2.0505 -0.9947 0.9868
2.4573 -2.0148 -0.9947 0.9868
2.5152 -1.9421 -0.9947 0.9868
2.5433 -1.9052 -0.9947 0.9868
2.5979 -1.8301 -0.9947 0.9868
2.6503 -1.7534 -0.9947 0.9868
2.7004 -1.6752 -0.9947 0.9868
2.7482 -1.5956 -0.9947 0.9868
2.7712 -1.5553 -0.9947 0.9868
2.8367 -1.4323 -0.9947 0.9868
2.8573 -1.3907 -0.9947 0.9868
2.8773 -1.3489 -0.9947 0.9868
2.9155 -1.2642 -0.9947 0.9868
2.9512 -1.1785 -0.9947 0.9868
2.9844 -1.0918 -0.9947 0.9868
3.0001 -1.0480 -0.9947 0.9868
3.0294 -0.9599 -0.9947 0.9868
3.0562 -0.8710 -0.9947 0.9868
3.0914 -0.7362 -0.9947 0.9868
3.1116 -0.6455 -0.9947 0.9868
3.1208 -0.6000 -0.9947 0.9868
3.1440 -0.4627 -0.9947 0.9868
3.1505 -0.4167 -0.9947 0.9868
3.1613 -0.3245 -0.9947 0.9868
3.1695 -0.2320 -0.9947 0.9868
3.1779 0.0000 -0.9948 0.9868
3.1766 0.0929 -0.9948 0.9868
3.1695 0.2320 -0.9948 0.9868
3.1658 0.2783 -0.9948 0.9868
3.1614 0.3245 -0.9948 0.9868
3.1441 0.4627 -0.9948 0.9868
3.1209 0.6001 -0.9948 0.9868
3.1117 0.6456 -0.9948 0.9868
3.0915 0.7362 -0.9948 0.9868
3.0433 0.9156 -0.9948 0.9868
2.9683 1.1353 -0.9948 0.9868
2.9339 1.2216 -0.9948 0.9868
2.9158 1.2643 -0.9948 0.9868
2.8969 1.3068 -0.9948 0.9868
2.8776 1.3490 -0.9948 0.9868
2.8576 1.3909 -0.9948 0.9868
2.8369 1.4325 -0.9948 0.9868
2.8157 1.4737 -0.9948 0.9868
2.7939 1.5148 -0.9948 0.9868
2.7714 1.5554 -0.9948 0.9868
2.7248 1.6357 -0.9948 0.9868
2.7006 1.6754 -0.9948 0.9868
2.6759 1.7146 -0.9948 0.9868
2.6505 1.7536 -0.9948 0.9868
2.5981 1.8303 -0.9948 0.9868
2.5436 1.9054 -0.9948 0.9868
2.4868 1.9789 -0.9948 0.9868
2.4279 2.0508 -0.9948 0.9868
2.3977 2.0860 -0.9948 0.9868
2.3670 2.1208 -0.9948 0.9868
2.3357 2.1552 -0.9948 0.9868
2.3040 2.1891 -0.9948 0.9868
2.2718 2.2225 -0.9948 0.9868
2.2390 2.2555 -0.9948 0.9868
2.2058 2.2880 -0.9948 0.9868
2.1722 2.3199 -0.9948 0.9868
2.1381 2.3514 -0.9948 0.9868
2.1035 2.3825 -0.9948 0.9868
1.9240 2.5296 -0.9948 0.9868
1.8492 2.5848 -0.9948 0.9868
1.6951 2.6884 -0.9948 0.9868
1.6556 2.7129 -0.9948 0.9868
1.4943 2.8050 -0.9948 0.9868
1.4532 2.8264 -0.9948 0.9868
1.2856 2.9066 -0.9948 0.9868
1.2001 2.9429 -0.9948 0.9868
1.1136 2.9767 -0.9948 0.9868
1.0700 2.9927 -0.9948 0.9868
0.9821 3.0226 -0.9948 0.9868
0.9378 3.0366 -0.9948 0.9868
0.8038 3.0748 -0.9948 0.9868
0.7588 3.0862 -0.9948 0.9868
0.7136 3.0970 -0.9948 0.9868
0.6683 3.1071 -0.9948 0.9868
0.6229 3.1165 -0.9948 0.9868
0.5772 3.1253 -0.9948 0.9868
0.5315 3.1334 -0.9948 0.9868
0.4857 3.1408 -0.9948 0.9868
0.4397 3.1476 -0.9948 0.9868
0.3937 3.1537 -0.9948 0.9868
0.3476 3.1591 -0.9948 0.9868
0.2551 3.1679 -0.9948 0.9868
0.1624 3.1740 -0.9948 0.9868
0.1161 3.1760 -0.9948 0.9868
0.0232 3.1781 -0.9948 0.9868
-0.0232 3.1780 -0.9948 0.9868
-0.1161 3.1760 -0.9948 0.9868
-0.1625 3.1740 -0.9948 0.9868
-0.3937 3.1536 -0.9948 0.9868
-0.5773 3.1253 -0.9948 0.9868
-0.6229 3.1165 -0.9948 0.9868
-0.6684 3.1070 -0.9948 0.9868
-0.7137 3.0970 -0.9948 0.9868
-0.8039 3.0748 -0.9948 0.9868
-0.8487 3.0627 -0.9948 0.9868
-0.9379 3.0366 -0.9948 0.9868
-0.2176 0.6084 -0.2023 0.9973
-0.2227 0.5460 -0.1846 0.9975
-0.2433 0.4907 -0.1714 0.9977
-0.2471 0.4805 -0.1691 0.9977
-0.2511 0.4712 -0.1671 0.9978
-0.2586 0.4530 -0.1633 0.9978
-0.2622 0.4441 -0.1614 0.9978
-0.2657 0.4353 -0.1596 0.9979
-0.2976 0.3471 -0.1431 0.9981
-0.3000 0.3398 -0.1419 0.9981
-0.3024 0.3325 -0.1407 0.9981
-0.3045 0.3252 -0.1394 0.9981
-0.3097 0.3029 -0.1356 0.9982
-0.3128 0.2885 -0.1332 0.9982
-0.3182 0.2609 -0.1288 0.9983
-0.3217 0.2410 -0.1258 0.9983
-0.3228 0.2345 -0.1249 0.9983
-0.3248 0.2217 -0.1231 0.9984
-0.3257 0.2155 -0.1222 0.9984
-0.3266 0.2092 -0.1214 0.9984
-0.3273 0.2030 -0.1206 0.9984
-0.3301 0.1852 -0.1185 0.9984
-0.3312 0.1795 -0.1179 0.9984
-0.3331 0.1682 -0.1168 0.9984
-0.3340 0.1625 -0.1163 0.9984
-0.3348 0.1570 -0.1158 0.9985
-0.3356 0.1514 -0.1152 0.9985
-0.3362 0.1458 -0.1147 0.9985
-0.3389 0.1184 -0.1124 0.9985
-0.3393 0.1130 -0.1119 0.9985
-0.3397 0.1077 -0.1115 0.9985
-0.3401 0.1023 -0.1112 0.9985
-0.3404 0.0970 -0.1108 0.9985
-0.3412 0.0812 -0.1098 0.9985
-0.3417 0.0657 -0.1089 0.9985
-0.3417 0.0605 -0.1086 0.9985
-0.3418 0.0452 -0.1079 0.9986
-0.3417 0.0351 -0.1075 0.9986
-0.3414 0.0200 -0.1070 0.9986
-0.3410 0.0100 -0.1068 0.9986
-0.3407 0.0050 -0.1067 0.9986
-0.3350 0.0000 -0.1089 0.9986
-0.3352 -0.0049 -0.1090 0.9986
-0.3357 -0.0147 -0.1093 0.9986
-0.3359 -0.0197 -0.1094 0.9986
-0.3360 -0.0246 -0.1096 0.9986
-0.3361 -0.0296 -0.1097 0.9986
-0.3362 -0.0345 -0.1099 0.9986
-0.3363 -0.0445 -0.1103 0.9986
-0.3363 -0.0495 -0.1105 0.9986
-0.3362 -0.0545 -0.1108 0.9986
-0.3355 -0.0799 -0.1122 0.9986
-0.3353 -0.0851 -0.1125 0.9985
-0.3347 -0.0954 -0.1132 0.9985
-0.3340 -0.1059 -0.1139 0.9985
-0.3336 -0.1111 -0.1143 0.9985
-0.3327 -0.1217 -0.1152 0.9985
-0.3310 -0.1378 -0.1166 0.9985
-0.3297 -0.1487 -0.1176 0.9985
-0.3281 -0.1597 -0.1187 0.9985
-0.3263 -0.1708 -0.1198 0.9985
-0.3232 -0.1876 -0.1215 0.9984
-0.3212 -0.1992 -0.1229 0.9984
-0.3203 -0.2052 -0.1237 0.9984
-0.3194 -0.2113 -0.1246 0.9984
-0.3185 -0.2175 -0.1254 0.9984
-0.3175 -0.2236 -0.1263 0.9984
-0.3154 -0.2362 -0.1281 0.9983
-0.3143 -0.2426 -0.1291 0.9983
-0.3105 -0.2622 -0.1322 0.9983
-0.3062 -0.2825 -0.1355 0.9982
-0.3014 -0.3036 -0.1391 0.9982
-0.2997 -0.3108 -0.1404 0.9982
-0.2979 -0.3181 -0.1417 0.9982
-0.2936 -0.3325 -0.1442 0.9981
-0.2911 -0.3396 -0.1455 0.9981
-0.2886 -0.3468 -0.1467 0.9981
-0.2860 -0.3541 -0.1480 0.9981
-0.2749 -0.3842 -0.1536 0.9980
-0.2719 -0.3921 -0.1552 0.9980
-0.2689 -0.4000 -0.1568 0.9980
-0.2557 -0.4330 -0.1636 0.9979
-0.2521 -0.4416 -0.1654 0.9979
-0.2484 -0.4503 -0.1673 0.9978
-0.2446 -0.4591 -0.1692 0.9978
-0.2407 -0.4681 -0.1712 0.9978
-0.2324 -0.4864 -0.1753 0.9977
-0.2282 -0.4960 -0.1776 0.9977
-0.2198 -0.5172 -0.1828 0.9976
-0.2154 -0.5281 -0.1855 0.9976
-0.2010 -0.5623 -0.1942 0.9975
-0.2019 -0.6213 -0.2125 0.9973
-0.8456 -2.8868 -0.9783 0.9874
-0.7609 -2.9104 -0.9783 0.9874
-0.7183 -2.9211 -0.9783 0.9874
-0.6755 -2.9313 -0.9783 0.9874
-0.5031 -2.9658 -0.9783 0.9874
-0.4597 -2.9728 -0.9783 0.9874
-0.1538 -3.0042 -0.9783 0.9874
-0.1099 -3.0061 -0.9783 0.9874
-0.0660 -3.0074 -0.9783 0.9874
-0.0220 -3.0080 -0.9783 0.9874
0.0659 -3.0074 -0.9783 0.9874
0.1538 -3.0042 -0.9783 0.9874
0.2415 -2.9984 -0.9783 0.9874
0.3290 -2.9901 -0.9783 0.9874
0.5464 -2.9581 -0.9783 0.9874
0.5896 -2.9498 -0.9783 0.9874
0.6326 -2.9409 -0.9783 0.9874
0.8033 -2.8989 -0.9783 0.9874
0.9296 -2.8610 -0.9783 0.9874
0.9713 -2.8471 -0.9783 0.9874
1.0138 -2.8357 -0.9794 0.9874
1.0963 -2.8048 -0.9794 0.9874
1.1778 -2.7716 -0.9794 0.9874
1.2988 -2.7188 -0.9799 0.9874
1.3435 -2.7099 -0.9837 0.9874
1.3891 -2.7020 -0.9881 0.9873
1.4773 -2.6779 -0.9947 0.9872
1.5549 -2.6336 -0.9947 0.9872
1.6688 -2.5630 -0.9947 0.9872
1.7061 -2.5383 -0.9947 0.9872
1.7430 -2.5131 -0.9947 0.9872
1.7795 -2.4873 -0.9947 0.9872
1.8157 -2.4611 -0.9947 0.9872
1.8514 -2.4343 -0.9947 0.9872
1.8868 -2.4070 -0.9947 0.9872
1.9905 -2.3220 -0.9947 0.9872
2.0575 -2.2629 -0.9947 0.9872
2.0904 -2.2325 -0.9947 0.9872
2.1227 -2.2018 -0.9947 0.9872
2.2172 -2.1066 -0.9947 0.9872
2.2478 -2.0740 -0.9947 0.9872
2.2778 -2.0410 -0.9947 0.9872
2.3365 -1.9735 -0.9947 0.9872
2.3651 -1.9392 -0.9947 0.9872
2.3932 -1.9045 -0.9947 0.9872
2.4208 -1.8693 -0.9947 0.9872
2.4478 -1.8337 -0.9947 0.9872
2.5003 -1.7614 -0.9947 0.9872
2.5258 -1.7246 -0.9947 0.9872
2.5508 -1.6876 -0.9947 0.9872
2.5990 -1.6123 -0.9947 0.9872
2.6450 -1.5357 -0.9947 0.9872
2.6672 -1.4969 -0.9947 0.9872
2.6887 -1.4578 -0.9947 0.9872
2.7098 -1.4183 -0.9947 0.9872
2.7302 -1.3786 -0.9947 0.9872
2.8061 -1.2167 -0.9947 0.9872
2.8236 -1.1756 -0.9947 0.9872
2.8404 -1.1343 -0.9947 0.9872
2.8567 -1.0926 -0.9947 0.9872
2.9019 -0.9664 -0.9947 0.9872
2.9157 -0.9238 -0.9947 0.9872
2.9289 -0.8812 -0.9947 0.9872
2.9414 -0.8383 -0.9947 0.9872
2.9647 -0.7520 -0.9947 0.9872
2.9754 -0.7086 -0.9947 0.9872
2.9948 -0.6213 -0.9947 0.9872
3.0036 -0.5775 -0.9947 0.9872
3.0322 -0.4011 -0.9947 0.9872
3.0377 -0.3568 -0.9947 0.9872
3.0426 -0.3123 -0.9947 0.9872
3.0469 -0.2678 -0.9947 0.9872
3.0505 -0.2233 -0.9947 0.9872
3.0557 -0.1340 -0.9947 0.9872
3.0573 -0.0894 -0.9948 0.9872
3.0583 -0.0447 -0.9948 0.9872
3.0586 0.0000 -0.9948 0.9872
3.0573 0.0894 -0.9948 0.9872
3.0557 0.1340 -0.9948 0.9872
3.0505 0.2233 -0.9948 0.9872
3.0427 0.3123 -0.9948 0.9872
3.0118 0.5336 -0.9948 0.9872
2.9855 0.6651 -0.9948 0.9872
2.9535 0.7953 -0.9948 0.9872
2.9020 0.9664 -0.9948 0.9872
2.8876 1.0087 -0.9948 0.9872
2.8725 1.0508 -0.9948 0.9872
2.8569 1.0927 -0.9948 0.9872
2.8238 1.1757 -0.9948 0.9872
2.7882 1.2577 -0.9948 0.9872
2.7695 1.2983 -0.9948 0.9872
2.7304 1.3787 -0.9948 0.9872
2.7100 1.4185 -0.9948 0.9872
2.6890 1.4579 -0.9948 0.9872
2.6452 1.5359 -0.9948 0.9872
2.5992 1.6125 -0.9948 0.9872
2.5510 1.6877 -0.9948 0.9872
2.5006 1.7616 -0.9948 0.9872
2.4746 1.7979 -0.9948 0.9872
2.3934 1.9047 -0.9948 0.9872
2.3368 1.9737 -0.9948 0.9872
2.2175 2.1069 -0.9948 0.9872
2.1550 2.1708 -0.9948 0.9872
2.1230 2.2021 -0.9948 0.9872
2.0245 2.2930 -0.9948 0.9872
1.9221 2.3795 -0.9948 0.9872
1.8517 2.4346 -0.9948 0.9872
1.7798 2.4877 -0.9948 0.9872
1.7063 2.5387 -0.9948 0.9872
1.6314 2.5875 -0.9948 0.9872
1.5551 2.6340 -0.9948 0.9872
1.4382 2.6996 -0.9948 0.9872
1.3986 2.7204 -0.9948 0.9872
1.3185 2.7601 -0.9948 0.9872
1.2781 2.7791 -0.9948 0.9872
1.1550 2.8323 -0.9948 0.9872
1.1135 2.8489 -0.9948 0.9872
1.0298 2.8803 -0.9948 0.9872
0.9026 2.9227 -0.9948 0.9872
0.8598 2.9355 -0.9948 0.9872
0.8168 2.9477 -0.9948 0.9872
0.7737 2.9594 -0.9948 0.9872
0.6869 2.9807 -0.9948 0.9872
0.5995 2.9995 -0.9948 0.9872
0.4674 3.0229 -0.9948 0.9872
0.2455 3.0490 -0.9948 0.9872
0.1563 3.0548 -0.9948 0.9872
-0.0671 3.0581 -0.9948 0.9872
-0.1117 3.0568 -0.9948 0.9872
-0.2010 3.0522 -0.9948 0.9872
-0.3346 3.0404 -0.9948 0.9872
-0.3790 3.0352 -0.9948 0.9872
-0.4675 3.0229 -0.9948 0.9872
-0.5556 3.0079 -0.9948 0.9872
-0.7303 2.9703 -0.9948 0.9872
-0.7737 2.9594 -0.9948 0.9872
-0.8168 2.9477 -0.9948 0.9872
-0.8598 2.9355 -0.9948 0.9872
-0.2055 0.6654 -0.2265 0.9971
-0.1985 0.5819 -0.2000 0.9974
-0.2010 0.5622 -0.1942 0.9975
-0.2108 0.5392 -0.1883 0.9976
-0.2154 0.5281 -0.1855 0.9976
-0.2198 0.5172 -0.1828 0.9976
-0.2241 0.5065 -0.1801 0.9977
-0.2324 0.4864 -0.1753 0.9977
-0.2446 0.4591 -0.1692 0.9978
-0.2521 0.4416 -0.1654 0.9979
-0.2557 0.4330 -0.1636 0.9979
-0.2658 0.4081 -0.1584 0.9980
-0.2689 0.4000 -0.1568 0.9980
-0.2720 0.3920 -0.1552 0.9980
-0.2749 0.3841 -0.1536 0.9980
-0.2807 0.3690 -0.1508 0.9981
-0.2861 0.3541 -0.1480 0.9981
-0.2886 0.3468 -0.1467 0.9981
-0.2959 0.3254 -0.1430 0.9982
-0.2979 0.3181 -0.1417 0.9982
-0.2996 0.3108 -0.1404 0.9982
-0.3014 0.3036 -0.1391 0.9982
-0.3031 0.2965 -0.1379 0.9982
-0.3077 0.2757 -0.1344 0.9983
-0.3091 0.2689 -0.1333 0.9983
-0.3130 0.2491 -0.1301 0.9983
-0.3154 0.2362 -0.1281 0.9983
-0.3165 0.2299 -0.1272 0.9984
-0.3175 0.2236 -0.1263 0.9984
-0.3185 0.2175 -0.1254 0.9984
-0.3194 0.2113 -0.1246 0.9984
-0.3203 0.2052 -0.1237 0.9984
-0.3220 0.1933 -0.1221 0.9984
-0.3290 0.1542 -0.1182 0.9985
-0.3297 0.1487 -0.1176 0.9985
-0.3304 0.1433 -0.1171 0.9985
-0.3310 0.1378 -0.1166 0.9985
-0.3327 0.1217 -0.1152 0.9985
-0.3332 0.1163 -0.1148 0.9985
-0.3340 0.1058 -0.1139 0.9985
-0.3344 0.1006 -0.1136 0.9985
-0.3347 0.0954 -0.1132 0.9985
-0.3353 0.0850 -0.1125 0.9985
-0.3360 0.0646 -0.1113 0.9986
-0.3361 0.0596 -0.1110 0.9986
-0.3363 0.0445 -0.1103 0.9986
-0.3362 0.0395 -0.1101 0.9986
-0.3362 0.0345 -0.1099 0.9986
-0.3361 0.0295 -0.1097 0.9986
-0.3355 0.0098 -0.1091 0.9986
-0.3352 0.0049 -0.1090 0.9986
-0.3301 -0.0096 -0.1115 0.9986
-0.3305 -0.0193 -0.1117 0.9986
-0.3307 -0.0291 -0.1120 0.9986
-0.3308 -0.0340 -0.1122 0.9986
-0.3308 -0.0536 -0.1131 0.9986
-0.3307 -0.0586 -0.1133 0.9986
-0.3305 -0.0636 -0.1136 0.9986
-0.3304 -0.0685 -0.1139 0.9986
-0.3302 -0.0735 -0.1142 0.9986
-0.3300 -0.0786 -0.1145 0.9986
-0.3295 -0.0887 -0.1152 0.9986
-0.3284 -0.1041 -0.1163 0.9985
-0.3280 -0.1092 -0.1167 0.9985
-0.3276 -0.1144 -0.1171 0.9985
-0.3271 -0.1196 -0.1175 0.9985
-0.3265 -0.1249 -0.1180 0.9985
-0.3260 -0.1302 -0.1185 0.9985
-0.3247 -0.1408 -0.1195 0.9985
-0.3241 -0.1462 -0.1200 0.9985
-0.3224 -0.1570 -0.1210 0.9985
-0.3215 -0.1623 -0.1216 0.9985
-0.3195 -0.1733 -0.1227 0.9985
-0.3174 -0.1843 -0.1239 0.9985
-0.3163 -0.1898 -0.1245 0.9984
-0.3134 -0.2073 -0.1268 0.9984
-0.3114 -0.2194 -0.1286 0.9984
-0.3081 -0.2379 -0.1314 0.9984
-0.3069 -0.2442 -0.1324 0.9983
-0.3056 -0.2506 -0.1334 0.9983
-0.3029 -0.2635 -0.1355 0.9983
-0.3014 -0.2701 -0.1366 0.9983
-0.2999 -0.2767 -0.1377 0.9983
-0.2984 -0.2834 -0.1389 0.9983
-0.2967 -0.2903 -0.1401 0.9982
-0.2950 -0.2972 -0.1413 0.9982
-0.2933 -0.3042 -0.1426 0.9982
-0.2915 -0.3113 -0.1439 0.9982
-0.2896 -0.3184 -0.1453 0.9982
-0.2873 -0.3254 -0.1465 0.9982
-0.2824 -0.3393 -0.1490 0.9981
-0.2744 -0.3608 -0.1530 0.9981
-0.2716 -0.3681 -0.1544 0.9981
-0.2687 -0.3755 -0.1558 0.9981
-0.2626 -0.3907 -0.1589 0.9980
-0.2595 -0.3985 -0.1605 0.9980
-0.2562 -0.4064 -0.1622 0.9980
-0.2346 -0.4562 -0.1731 0.9978
-0.2263 -0.4737 -0.1772 0.9978
-0.2176 -0.4920 -0.1816 0.9977
-0.2130 -0.5012 -0.1838 0.9977
-0.2085 -0.5112 -0.1864 0.9977
-0.1840 -0.5661 -0.2009 0.9975
-0.7749 -2.7963 -0.9794 0.9878
-0.6928 -2.8177 -0.9794 0.9878
-0.5681 -2.8423 -0.9783 0.9878
-0.4430 -2.8645 -0.9783 0.9878
-0.4011 -2.8707 -0.9783 0.9878
-0.3591 -2.8762 -0.9783 0.9878
-0.2749 -2.8855 -0.9783 0.9878
-0.1905 -2.8923 -0.9783 0.9878
-0.0212 -2.8985 -0.9783 0.9878
0.0635 -2.8979 -0.9783 0.9878
0.1058 -2.8966 -0.9783 0.9878
0.1482 -2.8948 -0.9783 0.9878
0.1904 -2.8923 -0.9783 0.9878
0.2327 -2.8892 -0.9783 0.9878
0.2749 -2.8855 -0.9783 0.9878
0.3170 -2.8812 -0.9783 0.9878
0.3591 -2.8762 -0.9783 0.9878
0.4011 -2.8707 -0.9783 0.9878
0.4848 -2.8578 -0.9783 0.9878
0.5265 -2.8504 -0.9783 0.9878
0.5681 -2.8423 -0.9783 0.9878
0.6516 -2.8277 -0.9794 0.9878
0.7339 -2.8074 -0.9794 0.9878
0.7749 -2.7963 -0.9794 0.9878
0.8157 -2.7847 -0.9794 0.9878
0.8562 -2.7725 -0.9794 0.9878
0.8967 -2.7598 -0.9794 0.9878
0.9769 -2.7324 -0.9794 0.9878
1.0603 -2.7127 -0.9830 0.9878
1.1036 -2.7064 -0.9865 0.9877
1.2703 -2.6591 -0.9947 0.9876
1.3090 -2.6402 -0.9947 0.9876
1.3856 -2.6008 -0.9947 0.9876
1.4234 -2.5804 -0.9947 0.9876
1.4610 -2.5593 -0.9947 0.9876
1.6439 -2.4458 -0.9947 0.9876
1.7147 -2.3967 -0.9947 0.9876
1.7495 -2.3714 -0.9947 0.9876
1.8518 -2.2925 -0.9947 0.9876
1.8851 -2.2652 -0.9947 0.9876
1.9180 -2.2374 -0.9947 0.9876
1.9505 -2.2091 -0.9947 0.9876
2.0142 -2.1512 -0.9947 0.9876
2.0454 -2.1216 -0.9947 0.9876
2.1364 -2.0299 -0.9947 0.9876
2.1658 -1.9984 -0.9947 0.9876
2.2514 -1.9016 -0.9947 0.9876
2.3060 -1.8350 -0.9947 0.9876
2.3842 -1.7322 -0.9947 0.9876
2.4338 -1.6618 -0.9947 0.9876
2.4578 -1.6261 -0.9947 0.9876
2.4813 -1.5900 -0.9947 0.9876
2.5043 -1.5536 -0.9947 0.9876
2.5700 -1.4423 -0.9947 0.9876
2.6498 -1.2898 -0.9947 0.9876
2.7207 -1.1328 -0.9947 0.9876
2.7370 -1.0929 -0.9947 0.9876
2.7677 -1.0125 -0.9947 0.9876
2.7961 -0.9312 -0.9947 0.9876
2.8457 -0.7662 -0.9947 0.9876
2.8566 -0.7245 -0.9947 0.9876
2.8766 -0.6407 -0.9947 0.9876
2.9158 -0.4291 -0.9947 0.9876
2.9270 -0.3438 -0.9947 0.9876
2.9393 -0.2151 -0.9947 0.9876
2.9444 -0.1291 -0.9947 0.9876
2.9459 -0.0861 -0.9947 0.9876
2.9469 0.0431 -0.9948 0.9876
2.9459 0.0861 -0.9948 0.9876
2.9359 0.2580 -0.9948 0.9876
2.9318 0.3009 -0.9948 0.9876
2.9271 0.3438 -0.9948 0.9876
2.9218 0.3864 -0.9948 0.9876
2.9158 0.4291 -0.9948 0.9876
2.9020 0.5141 -0.9948 0.9876
2.8942 0.5565 -0.9948 0.9876
2.8858 0.5987 -0.9948 0.9876
2.8670 0.6828 -0.9948 0.9876
2.8459 0.7662 -0.9948 0.9876
2.8344 0.8077 -0.9948 0.9876
2.8223 0.8491 -0.9948 0.9876
2.7963 0.9312 -0.9948 0.9876
2.7824 0.9720 -0.9948 0.9876
2.7528 1.0529 -0.9948 0.9876
2.7371 1.0930 -0.9948 0.9876
2.7208 1.1329 -0.9948 0.9876
2.6866 1.2119 -0.9948 0.9876
2.6686 1.2510 -0.9948 0.9876
2.6309 1.3284 -0.9948 0.9876
2.6112 1.3667 -0.9948 0.9876
2.5910 1.4048 -0.9948 0.9876
2.5702 1.4425 -0.9948 0.9876
2.5488 1.4798 -0.9948 0.9876
2.5045 1.5537 -0.9948 0.9876
2.4815 1.5901 -0.9948 0.9876
2.4580 1.6262 -0.9948 0.9876
2.3589 1.7670 -0.9948 0.9876
2.2792 1.8687 -0.9948 0.9876
2.2516 1.9018 -0.9948 0.9876
2.1951 1.9668 -0.9948 0.9876
2.1367 2.0301 -0.9948 0.9876
2.1068 2.0611 -0.9948 0.9876
2.0457 2.1218 -0.9948 0.9876
1.9507 2.2094 -0.9948 0.9876
