ply
format ascii 1.0
element vertex 1597
property float32 x
property float32 y
property float32 z
property float32 I
end_header
-1.4203 -3.7964 -0.9785 0.9835
-1.1961 -3.8729 -0.9785 0.9835
-1.0824 -3.9062 -0.9785 0.9835
-0.9678 -3.9361 -0.9785 0.9835
-0.9102 -3.9498 -0.9785 0.9835
-0.8524 -3.9627 -0.9785 0.9835
-0.7944 -3.9748 -0.9785 0.9835
-0.6195 -4.0057 -0.9785 0.9835
-0.3254 -4.0403 -0.9785 0.9835
-0.2072 -4.0481 -0.9785 0.9835
-0.0296 -4.0532 -0.9785 0.9835
0.2072 -4.0481 -0.9785 0.9835
0.6194 -4.0057 -0.9785 0.9835
0.7363 -3.9859 -0.9785 0.9835
0.9102 -3.9498 -0.9785 0.9835
0.9678 -3.9361 -0.9785 0.9835
1.0824 -3.9062 -0.9785 0.9835
1.1394 -3.8900 -0.9785 0.9835
1.1961 -3.8729 -0.9785 0.9835
1.3647 -3.8168 -0.9785 0.9835
1.4756 -3.7753 -0.9785 0.9835
1.6396 -3.7070 -0.9785 0.9835
1.7473 -3.6575 -0.9785 0.9835
1.8005 -3.6316 -0.9785 0.9835
1.9059 -3.5774 -0.9785 0.9835
1.9579 -3.5492 -0.9785 0.9835
2.0096 -3.5202 -0.9785 0.9835
2.0608 -3.4905 -0.9785 0.9835
2.1619 -3.4287 -0.9785 0.9835
2.2118 -3.3968 -0.9785 0.9835
2.3101 -3.3307 -0.9785 0.9835
2.4064 -3.2618 -0.9785 0.9835
2.4538 -3.2263 -0.9785 0.9835
2.5007 -3.1901 -0.9785 0.9835
2.5928 -3.1157 -0.9785 0.9835
2.6828 -3.0386 -0.9785 0.9835
2.7704 -2.9589 -0.9785 0.9835
2.8134 -2.9181 -0.9785 0.9835
2.8974 -2.8346 -0.9785 0.9835
3.0921 -2.6901 -0.9894 0.9833
3.1482 -2.6591 -0.9948 0.9832
3.1867 -2.6129 -0.9948 0.9832
3.2246 -2.5660 -0.9948 0.9832
3.2617 -2.5186 -0.9948 0.9832
3.2982 -2.4707 -0.9948 0.9832
3.4369 -2.2738 -0.9948 0.9832
3.4698 -2.2234 -0.9948 0.9832
3.5019 -2.1724 -0.9948 0.9832
3.5639 -2.0692 -0.9948 0.9832
3.5937 -2.0168 -0.9948 0.9832
3.6511 -1.9110 -0.9948 0.9832
3.6786 -1.8575 -0.9948 0.9832
3.7314 -1.7492 -0.9948 0.9832
3.7565 -1.6945 -0.9948 0.9832
3.7809 -1.6394 -0.9948 0.9832
3.8044 -1.5840 -0.9948 0.9832
3.8491 -1.4722 -0.9948 0.9832
3.8905 -1.3590 -0.9948 0.9832
3.9099 -1.3021 -0.9948 0.9832
3.9463 -1.1872 -0.9948 0.9832
3.9793 -1.0714 -0.9948 0.9832
4.0090 -0.9547 -0.9948 0.9832
4.0351 -0.8371 -0.9948 0.9832
4.0579 -0.7189 -0.9948 0.9832
4.0771 -0.6000 -0.9948 0.9832
4.0855 -0.5404 -0.9948 0.9832
4.1101 -0.3008 -0.9948 0.9832
4.1140 -0.2407 -0.9948 0.9832
4.1171 -0.1806 -0.9948 0.9832
4.1193 -0.1204 -0.9948 0.9832
4.1206 -0.0602 -0.9948 0.9832
4.1211 0.0000 -0.9948 0.9832
4.1206 0.0602 -0.9948 0.9832
4.1193 0.1204 -0.9948 0.9832
4.1171 0.1806 -0.9948 0.9832
4.1052 0.3609 -0.9948 0.9832
4.0995 0.4208 -0.9948 0.9832
4.0930 0.4807 -0.9948 0.9832
4.0680 0.6596 -0.9948 0.9832
3.9946 1.0132 -0.9948 0.9832
3.9633 1.1295 -0.9948 0.9832
3.9286 1.2448 -0.9948 0.9832
3.9100 1.3021 -0.9948 0.9832
3.8703 1.4158 -0.9948 0.9832
3.8492 1.4722 -0.9948 0.9832
3.8045 1.5840 -0.9948 0.9832
3.7810 1.6395 -0.9948 0.9832
3.7315 1.7493 -0.9948 0.9832
3.5640 2.0693 -0.9948 0.9832
3.5333 2.1211 -0.9948 0.9832
3.4699 2.2235 -0.9948 0.9832
3.4370 2.2739 -0.9948 0.9832
3.4034 2.3239 -0.9948 0.9832
3.3691 2.3734 -0.9948 0.9832
3.3341 2.4224 -0.9948 0.9832
3.2619 2.5187 -0.9948 0.9832
3.2247 2.5662 -0.9948 0.9832
3.1483 2.6593 -0.9948 0.9832
2.9877 2.8386 -0.9948 0.9832
2.9458 2.8820 -0.9948 0.9832
2.8604 2.9669 -0.9948 0.9832
2.8167 3.0083 -0.9948 0.9832
2.7725 3.0492 -0.9948 0.9832
2.6822 3.1289 -0.9948 0.9832
2.5896 3.2059 -0.9948 0.9832
2.4467 3.3163 -0.9948 0.9832
2.2990 3.4204 -0.9948 0.9832
2.2487 3.4536 -0.9948 0.9832
2.0432 3.5791 -0.9948 0.9832
1.9906 3.6085 -0.9948 0.9832
1.9377 3.6372 -0.9948 0.9832
1.8844 3.6651 -0.9948 0.9832
1.7765 3.7186 -0.9948 0.9832
1.6671 3.7689 -0.9948 0.9832
1.6118 3.7929 -0.9948 0.9832
1.0424 3.9871 -0.9948 0.9832
0.9254 4.0159 -0.9948 0.9832
0.8666 4.0290 -0.9948 0.9832
0.7486 4.0527 -0.9948 0.9832
0.5105 4.0894 -0.9948 0.9832
0.4507 4.0965 -0.9948 0.9832
0.1505 4.1185 -0.9948 0.9832
0.0903 4.1202 -0.9948 0.9832
0.0301 4.1211 -0.9948 0.9832
-0.1505 4.1184 -0.9948 0.9832
-0.2107 4.1158 -0.9948 0.9832
-0.2708 4.1123 -0.9948 0.9832
-0.3309 4.1079 -0.9948 0.9832
-0.3908 4.1026 -0.9948 0.9832
-0.4508 4.0964 -0.9948 0.9832
-0.5703 4.0815 -0.9948 0.9832
-0.6893 4.0631 -0.9948 0.9832
-0.8077 4.0413 -0.9948 0.9832
-1.0424 3.9872 -0.9948 0.9832
-1.1584 3.9550 -0.9948 0.9832
-1.2161 3.9377 -0.9948 0.9832
-1.2735 3.9194 -0.9948 0.9832
-1.3875 3.8806 -0.9948 0.9832
-1.4440 3.8598 -0.9948 0.9832
-1.6671 3.7689 -0.9948 0.9832
-1.7219 3.7442 -0.9948 0.9832
-0.3560 0.7453 -0.1994 0.9966
-0.3388 0.6832 -0.1841 0.9969
-0.3237 0.6296 -0.1709 0.9971
-0.3105 0.5829 -0.1594 0.9973
-0.3143 0.5323 -0.1492 0.9975
-0.3197 0.5071 -0.1447 0.9975
-0.3222 0.4949 -0.1426 0.9976
-0.3269 0.4714 -0.1385 0.9976
-0.3332 0.4380 -0.1329 0.9977
-0.3352 0.4276 -0.1312 0.9978
-0.3377 0.4181 -0.1297 0.9978
-0.3424 0.3995 -0.1270 0.9978
-0.3490 0.3727 -0.1233 0.9979
-0.3548 0.3471 -0.1198 0.9980
-0.3562 0.3384 -0.1186 0.9980
-0.3575 0.3298 -0.1174 0.9980
-0.3587 0.3214 -0.1163 0.9980
-0.3648 0.2733 -0.1100 0.9981
-0.3657 0.2657 -0.1091 0.9981
-0.3664 0.2582 -0.1082 0.9982
-0.3679 0.2434 -0.1065 0.9982
-0.3685 0.2362 -0.1057 0.9982
-0.3691 0.2290 -0.1049 0.9982
-0.3697 0.2220 -0.1041 0.9982
-0.3707 0.2081 -0.1026 0.9983
-0.3716 0.1945 -0.1012 0.9983
-0.3738 0.1752 -0.0997 0.9983
-0.3744 0.1688 -0.0991 0.9983
-0.3754 0.1563 -0.0982 0.9983
-0.3766 0.1378 -0.0968 0.9984
-0.3770 0.1317 -0.0964 0.9984
-0.3776 0.1196 -0.0956 0.9984
-0.3778 0.1137 -0.0952 0.9984
-0.3783 0.1018 -0.0946 0.9984
-0.3787 0.0786 -0.0934 0.9984
-0.3787 0.0729 -0.0931 0.9984
-0.3785 0.0445 -0.0920 0.9984
-0.3775 0.0166 -0.0912 0.9984
-0.3704 -0.0054 -0.0938 0.9985
-0.3707 -0.0108 -0.0939 0.9985
-0.3710 -0.0163 -0.0940 0.9985
-0.3712 -0.0217 -0.0941 0.9985
-0.3715 -0.0272 -0.0943 0.9985
-0.3716 -0.0326 -0.0944 0.9985
-0.3718 -0.0382 -0.0946 0.9985
-0.3721 -0.0715 -0.0959 0.9984
-0.3720 -0.0771 -0.0962 0.9984
-0.3715 -0.1000 -0.0974 0.9984
-0.3705 -0.1234 -0.0989 0.9984
-0.3702 -0.1293 -0.0993 0.9984
-0.3698 -0.1353 -0.0997 0.9984
-0.3689 -0.1473 -0.1006 0.9984
-0.3685 -0.1534 -0.1010 0.9984
-0.3674 -0.1657 -0.1020 0.9983
-0.3668 -0.1720 -0.1025 0.9983
-0.3660 -0.1781 -0.1031 0.9983
-0.3652 -0.1844 -0.1036 0.9983
-0.3643 -0.1907 -0.1041 0.9983
-0.3638 -0.1972 -0.1047 0.9983
-0.3633 -0.2039 -0.1055 0.9983
-0.3622 -0.2174 -0.1069 0.9983
-0.3609 -0.2312 -0.1085 0.9982
-0.3602 -0.2383 -0.1093 0.9982
-0.3579 -0.2600 -0.1120 0.9982
-0.3570 -0.2674 -0.1129 0.9982
-0.3550 -0.2825 -0.1149 0.9981
-0.3529 -0.2980 -0.1169 0.9981
-0.3505 -0.3140 -0.1191 0.9981
-0.3479 -0.3305 -0.1215 0.9980
-0.3430 -0.3557 -0.1251 0.9980
-0.3409 -0.3640 -0.1262 0.9979
-0.3318 -0.3986 -0.1313 0.9979
-0.3293 -0.4077 -0.1327 0.9978
-0.3242 -0.4262 -0.1356 0.9978
-0.3169 -0.4569 -0.1408 0.9977
-0.3145 -0.4679 -0.1427 0.9977
-0.3121 -0.4792 -0.1448 0.9976
-0.3068 -0.5026 -0.1491 0.9976
-0.3002 -0.6053 -0.1710 0.9972
-1.5117 -3.5572 -0.9785 0.9842
-1.4595 -3.5789 -0.9785 0.9842
-1.4071 -3.5999 -0.9785 0.9842
-1.3543 -3.6200 -0.9785 0.9842
-1.2480 -3.6581 -0.9785 0.9842
-1.1944 -3.6759 -0.9785 0.9842
-1.0865 -3.7093 -0.9785 0.9842
-1.0322 -3.7247 -0.9785 0.9842
-0.9776 -3.7394 -0.9785 0.9842
-0.9229 -3.7532 -0.9785 0.9842
-0.7575 -3.7901 -0.9785 0.9842
-0.7021 -3.8008 -0.9785 0.9842
-0.5907 -3.8196 -0.9785 0.9842
-0.5348 -3.8279 -0.9785 0.9842
-0.4788 -3.8353 -0.9785 0.9842
-0.4227 -3.8419 -0.9785 0.9842
-0.3103 -3.8526 -0.9785 0.9842
-0.2540 -3.8567 -0.9785 0.9842
-0.1976 -3.8600 -0.9785 0.9842
-0.1412 -3.8625 -0.9785 0.9842
-0.0282 -3.8650 -0.9785 0.9842
0.0282 -3.8650 -0.9785 0.9842
0.0847 -3.8641 -0.9785 0.9842
0.1412 -3.8625 -0.9785 0.9842
0.3103 -3.8527 -0.9785 0.9842
0.3665 -3.8477 -0.9785 0.9842
0.4227 -3.8419 -0.9785 0.9842
0.5348 -3.8279 -0.9785 0.9842
0.5907 -3.8197 -0.9785 0.9842
0.6464 -3.8107 -0.9785 0.9842
0.8128 -3.7786 -0.9785 0.9842
0.8679 -3.7664 -0.9785 0.9842
0.9776 -3.7394 -0.9785 0.9842
1.4071 -3.5999 -0.9785 0.9842
1.4595 -3.5789 -0.9785 0.9842
1.5116 -3.5572 -0.9785 0.9842
1.5635 -3.5348 -0.9785 0.9842
1.6661 -3.4876 -0.9785 0.9842
1.7169 -3.4629 -0.9785 0.9842
1.8173 -3.4112 -0.9785 0.9842
1.8670 -3.3843 -0.9785 0.9842
1.9162 -3.3567 -0.9785 0.9842
2.1090 -3.2389 -0.9785 0.9842
2.1562 -3.2078 -0.9785 0.9842
2.2490 -3.1435 -0.9785 0.9842
2.2946 -3.1103 -0.9785 0.9842
2.4288 -3.0068 -0.9785 0.9842
2.4724 -2.9709 -0.9785 0.9842
2.5156 -2.9345 -0.9785 0.9842
2.5582 -2.8974 -0.9785 0.9842
2.6002 -2.8598 -0.9785 0.9842
2.6446 -2.8245 -0.9796 0.9842
2.6856 -2.7856 -0.9796 0.9842
2.7260 -2.7460 -0.9796 0.9842
2.7678 -2.7079 -0.9803 0.9841
2.8330 -2.6917 -0.9893 0.9840
2.8880 -2.6648 -0.9948 0.9839
2.9266 -2.6223 -0.9948 0.9839
2.9646 -2.5792 -0.9948 0.9839
3.0020 -2.5356 -0.9948 0.9839
3.0387 -2.4915 -0.9948 0.9839
3.1102 -2.4017 -0.9948 0.9839
3.1791 -2.3097 -0.9948 0.9839
3.3392 -2.0715 -0.9948 0.9839
3.4268 -1.9232 -0.9948 0.9839
3.4815 -1.8223 -0.9948 0.9839
3.5333 -1.7198 -0.9948 0.9839
3.5581 -1.6680 -0.9948 0.9839
3.6053 -1.5632 -0.9948 0.9839
3.6277 -1.5104 -0.9948 0.9839
3.6494 -1.4572 -0.9948 0.9839
3.6703 -1.4038 -0.9948 0.9839
3.7098 -1.2959 -0.9948 0.9839
3.7283 -1.2416 -0.9948 0.9839
3.7461 -1.1870 -0.9948 0.9839
3.7791 -1.0770 -0.9948 0.9839
3.7945 -1.0216 -0.9948 0.9839
3.8090 -0.9661 -0.9948 0.9839
3.8227 -0.9104 -0.9948 0.9839
3.8477 -0.7982 -0.9948 0.9839
3.8694 -0.6855 -0.9948 0.9839
3.8877 -0.5721 -0.9948 0.9839
3.8957 -0.5153 -0.9948 0.9839
3.9028 -0.4582 -0.9948 0.9839
3.9091 -0.4013 -0.9948 0.9839
3.9145 -0.3440 -0.9948 0.9839
3.9259 -0.1722 -0.9948 0.9839
3.9292 0.0575 -0.9948 0.9839
3.9280 0.1148 -0.9948 0.9839
3.9259 0.1722 -0.9948 0.9839
3.9145 0.3441 -0.9948 0.9839
3.9091 0.4013 -0.9948 0.9839
3.9029 0.4583 -0.9948 0.9839
3.8878 0.5722 -0.9948 0.9839
3.8694 0.6855 -0.9948 0.9839
3.8590 0.7420 -0.9948 0.9839
3.8477 0.7983 -0.9948 0.9839
3.8228 0.9104 -0.9948 0.9839
3.8091 0.9662 -0.9948 0.9839
3.7945 1.0217 -0.9948 0.9839
3.7792 1.0771 -0.9948 0.9839
3.7630 1.1321 -0.9948 0.9839
3.7461 1.1870 -0.9948 0.9839
3.7098 1.2960 -0.9948 0.9839
3.6704 1.4038 -0.9948 0.9839
3.6495 1.4573 -0.9948 0.9839
3.6278 1.5104 -0.9948 0.9839
3.6053 1.5633 -0.9948 0.9839
3.4269 1.9233 -0.9948 0.9839
3.3984 1.9732 -0.9948 0.9839
3.3393 2.0716 -0.9948 0.9839
3.2773 2.1683 -0.9948 0.9839
3.1451 2.3561 -0.9948 0.9839
3.1103 2.4018 -0.9948 0.9839
2.9647 2.5793 -0.9948 0.9839
2.9267 2.6224 -0.9948 0.9839
2.7685 2.7889 -0.9948 0.9839
2.6859 2.8686 -0.9948 0.9839
2.6437 2.9075 -0.9948 0.9839
2.6009 2.9458 -0.9948 0.9839
2.5137 3.0206 -0.9948 0.9839
2.4693 3.0570 -0.9948 0.9839
2.4244 3.0928 -0.9948 0.9839
2.3789 3.1279 -0.9948 0.9839
2.3330 3.1623 -0.9948 0.9839
2.2396 3.2291 -0.9948 0.9839
2.1922 3.2615 -0.9948 0.9839
2.0959 3.3241 -0.9948 0.9839
2.0471 3.3544 -0.9948 0.9839
1.9979 3.3840 -0.9948 0.9839
1.8982 3.4409 -0.9948 0.9839
1.8477 3.4682 -0.9948 0.9839
1.7968 3.4949 -0.9948 0.9839
1.7456 3.5207 -0.9948 0.9839
1.6419 3.5703 -0.9948 0.9839
1.5369 3.6167 -0.9948 0.9839
1.4839 3.6388 -0.9948 0.9839
1.3770 3.6807 -0.9948 0.9839
1.2688 3.7193 -0.9948 0.9839
1.1046 3.7713 -0.9948 0.9839
0.9940 3.8020 -0.9948 0.9839
0.8264 3.8419 -0.9948 0.9839
0.6572 3.8744 -0.9948 0.9839
0.5437 3.8919 -0.9948 0.9839
0.4868 3.8995 -0.9948 0.9839
0.4298 3.9062 -0.9948 0.9839
0.3155 3.9171 -0.9948 0.9839
0.2582 3.9213 -0.9948 0.9839
0.2009 3.9246 -0.9948 0.9839
0.0861 3.9288 -0.9948 0.9839
0.0287 3.9296 -0.9948 0.9839
-0.1435 3.9271 -0.9948 0.9839
-0.4868 3.8995 -0.9948 0.9839
-0.5438 3.8919 -0.9948 0.9839
-0.6006 3.8836 -0.9948 0.9839
-0.6573 3.8744 -0.9948 0.9839
-0.7138 3.8644 -0.9948 0.9839
-0.8264 3.8418 -0.9948 0.9839
-0.9383 3.8161 -0.9948 0.9839
-1.0494 3.7870 -0.9948 0.9839
-1.1046 3.7713 -0.9948 0.9839
-1.1596 3.7548 -0.9948 0.9839
-1.3770 3.6806 -0.9948 0.9839
-1.5369 3.6167 -0.9948 0.9839
-0.3430 0.7754 -0.2146 0.9965
-0.3125 0.6542 -0.1835 0.9970
-0.2945 0.5529 -0.1586 0.9974
-0.2978 0.5398 -0.1561 0.9975
-0.3039 0.5147 -0.1513 0.9975
-0.3068 0.5026 -0.1491 0.9976
-0.3146 0.4680 -0.1427 0.9977
-0.3169 0.4569 -0.1408 0.9977
-0.3192 0.4461 -0.1389 0.9977
-0.3242 0.4262 -0.1356 0.9978
-0.3268 0.4169 -0.1341 0.9978
-0.3318 0.3986 -0.1313 0.9979
-0.3364 0.3810 -0.1287 0.9979
-0.3387 0.3724 -0.1274 0.9979
-0.3408 0.3640 -0.1262 0.9979
-0.3430 0.3557 -0.1251 0.9980
-0.3479 0.3306 -0.1215 0.9980
-0.3493 0.3222 -0.1203 0.9980
-0.3505 0.3141 -0.1191 0.9981
-0.3517 0.3061 -0.1180 0.9981
-0.3540 0.2903 -0.1159 0.9981
-0.3551 0.2825 -0.1149 0.9981
-0.3560 0.2749 -0.1139 0.9981
-0.3570 0.2674 -0.1129 0.9982
-0.3579 0.2600 -0.1120 0.9982
-0.3595 0.2455 -0.1102 0.9982
-0.3609 0.2313 -0.1085 0.9982
-0.3622 0.2174 -0.1069 0.9983
-0.3633 0.2039 -0.1055 0.9983
-0.3643 0.1907 -0.1041 0.9983
-0.3660 0.1782 -0.1031 0.9983
-0.3668 0.1720 -0.1025 0.9983
-0.3679 0.1595 -0.1015 0.9983
-0.3685 0.1534 -0.1010 0.9984
-0.3689 0.1473 -0.1006 0.9984
-0.3698 0.1353 -0.0997 0.9984
-0.3701 0.1293 -0.0993 0.9984
-0.3705 0.1234 -0.0989 0.9984
-0.3708 0.1175 -0.0985 0.9984
-0.3713 0.1058 -0.0977 0.9984
-0.3715 0.1000 -0.0974 0.9984
-0.3721 0.0659 -0.0957 0.9984
-0.3721 0.0603 -0.0954 0.9984
-0.3721 0.0548 -0.0952 0.9984
-0.3720 0.0492 -0.0950 0.9985
-0.3719 0.0437 -0.0948 0.9985
-0.3714 0.0272 -0.0943 0.9985
-0.3712 0.0218 -0.0941 0.9985
-0.3710 0.0163 -0.0940 0.9985
-0.3638 0.0000 -0.0964 0.9985
-0.3642 -0.0053 -0.0965 0.9985
-0.3644 -0.0107 -0.0966 0.9985
-0.3647 -0.0160 -0.0967 0.9985
-0.3651 -0.0267 -0.0970 0.9985
-0.3655 -0.0429 -0.0975 0.9985
-0.3657 -0.0538 -0.0979 0.9985
-0.3657 -0.0647 -0.0984 0.9985
-0.3656 -0.0758 -0.0989 0.9985
-0.3655 -0.0814 -0.0992 0.9985
-0.3653 -0.0870 -0.0995 0.9984
-0.3650 -0.0982 -0.1002 0.9984
-0.3648 -0.1039 -0.1005 0.9984
-0.3642 -0.1154 -0.1012 0.9984
-0.3600 -0.1688 -0.1054 0.9984
-0.3566 -0.1933 -0.1075 0.9983
-0.3549 -0.2130 -0.1097 0.9983
-0.3536 -0.2265 -0.1113 0.9983
-0.3512 -0.2474 -0.1138 0.9982
-0.3504 -0.2545 -0.1147 0.9982
-0.3494 -0.2617 -0.1157 0.9982
-0.3484 -0.2690 -0.1166 0.9982
-0.3463 -0.2839 -0.1187 0.9981
-0.3452 -0.2915 -0.1197 0.9981
-0.3400 -0.3230 -0.1243 0.9981
-0.3370 -0.3395 -0.1268 0.9980
-0.3352 -0.3476 -0.1280 0.9980
-0.3330 -0.3557 -0.1291 0.9980
-0.3308 -0.3638 -0.1303 0.9980
-0.3213 -0.3977 -0.1355 0.9979
-0.3187 -0.4066 -0.1369 0.9979
-0.3161 -0.4156 -0.1384 0.9978
-0.3076 -0.4436 -0.1430 0.9978
-0.3050 -0.4537 -0.1449 0.9977
-0.3025 -0.4645 -0.1469 0.9977
-0.2970 -0.4867 -0.1511 0.9976
-0.2942 -0.4982 -0.1533 0.9976
-0.2911 -0.5099 -0.1556 0.9976
-0.2880 -0.5220 -0.1580 0.9975
-0.2812 -0.5468 -0.1629 0.9975
-0.2776 -0.5598 -0.1656 0.9974
-0.2783 -0.5825 -0.1711 0.9973
-0.2884 -0.6271 -0.1829 0.9971
-0.2999 -0.6779 -0.1964 0.9969
-1.3944 -3.4193 -0.9785 0.9848
-1.3443 -3.4392 -0.9785 0.9848
-1.2939 -3.4585 -0.9785 0.9848
-1.0897 -3.5282 -0.9785 0.9848
-1.0380 -3.5437 -0.9785 0.9848
-0.9861 -3.5586 -0.9785 0.9848
-0.8817 -3.5858 -0.9785 0.9848
-0.8292 -3.5983 -0.9785 0.9848
-0.6707 -3.6312 -0.9785 0.9848
-0.6176 -3.6406 -0.9785 0.9848
-0.5110 -3.6571 -0.9785 0.9848
-0.3502 -3.6760 -0.9785 0.9848
-0.2965 -3.6807 -0.9785 0.9848
-0.1349 -3.6902 -0.9785 0.9848
-0.0809 -3.6917 -0.9785 0.9848
-0.0270 -3.6925 -0.9785 0.9848
0.0270 -3.6925 -0.9785 0.9848
0.3502 -3.6760 -0.9785 0.9848
0.4039 -3.6705 -0.9785 0.9848
0.4574 -3.6642 -0.9785 0.9848
0.5110 -3.6571 -0.9785 0.9848
0.6707 -3.6312 -0.9785 0.9848
0.7237 -3.6210 -0.9785 0.9848
0.8292 -3.5984 -0.9785 0.9848
0.8817 -3.5858 -0.9785 0.9848
1.0380 -3.5437 -0.9785 0.9848
1.0896 -3.5282 -0.9785 0.9848
1.1411 -3.5119 -0.9785 0.9848
1.2432 -3.4770 -0.9785 0.9848
1.2939 -3.4585 -0.9785 0.9848
1.3944 -3.4192 -0.9785 0.9848
1.4442 -3.3985 -0.9785 0.9848
1.5917 -3.3320 -0.9785 0.9848
1.7362 -3.2590 -0.9785 0.9848
1.9695 -3.1236 -0.9785 0.9848
2.0599 -3.0647 -0.9785 0.9848
2.1486 -3.0032 -0.9785 0.9848
2.1923 -2.9714 -0.9785 0.9848
2.2355 -2.9391 -0.9785 0.9848
2.3646 -2.8414 -0.9796 0.9848
2.4059 -2.8066 -0.9796 0.9848
2.4869 -2.7351 -0.9796 0.9848
2.5334 -2.7058 -0.9822 0.9848
2.5944 -2.6910 -0.9905 0.9847
2.6449 -2.6643 -0.9948 0.9846
2.8323 -2.4641 -0.9948 0.9846
2.8680 -2.4225 -0.9948 0.9846
3.0046 -2.2508 -0.9948 0.9846
3.1902 -1.9791 -0.9948 0.9846
3.2467 -1.8850 -0.9948 0.9846
3.2738 -1.8373 -0.9948 0.9846
3.3261 -1.7409 -0.9948 0.9846
3.3993 -1.5936 -0.9948 0.9846
3.4222 -1.5436 -0.9948 0.9846
3.4658 -1.4430 -0.9948 0.9846
3.4865 -1.3922 -0.9948 0.9846
3.5619 -1.1861 -0.9948 0.9846
3.5951 -1.0816 -0.9948 0.9846
3.6105 -1.0290 -0.9948 0.9846
3.6390 -0.9230 -0.9948 0.9846
3.6644 -0.8162 -0.9948 0.9846
3.6760 -0.7627 -0.9948 0.9846
3.6867 -0.7088 -0.9948 0.9846
3.6967 -0.6549 -0.9948 0.9846
3.7059 -0.6008 -0.9948 0.9846
3.7218 -0.4923 -0.9948 0.9846
3.7442 -0.2740 -0.9948 0.9846
3.7507 -0.1645 -0.9948 0.9846
3.7539 -0.0548 -0.9948 0.9846
3.7539 0.0548 -0.9948 0.9846
3.7527 0.1097 -0.9948 0.9846
3.7507 0.1646 -0.9948 0.9846
3.7443 0.2741 -0.9948 0.9846
3.7347 0.3833 -0.9948 0.9846
3.7287 0.4379 -0.9948 0.9846
3.7059 0.6009 -0.9948 0.9846
3.6967 0.6550 -0.9948 0.9846
3.6868 0.7089 -0.9948 0.9846
3.6760 0.7627 -0.9948 0.9846
3.6645 0.8163 -0.9948 0.9846
3.6391 0.9231 -0.9948 0.9846
3.5620 1.1862 -0.9948 0.9846
3.5258 1.2898 -0.9948 0.9846
3.5066 1.3411 -0.9948 0.9846
3.4444 1.4936 -0.9948 0.9846
3.3757 1.6431 -0.9948 0.9846
3.3513 1.6922 -0.9948 0.9846
3.3262 1.7410 -0.9948 0.9846
3.3004 1.7895 -0.9948 0.9846
3.2739 1.8374 -0.9948 0.9846
3.2188 1.9323 -0.9948 0.9846
3.1610 2.0256 -0.9948 0.9846
3.0373 2.2068 -0.9948 0.9846
3.0047 2.2509 -0.9948 0.9846
2.8324 2.4643 -0.9948 0.9846
2.7961 2.5054 -0.9948 0.9846
2.7217 2.5860 -0.9948 0.9846
2.6450 2.6644 -0.9948 0.9846
2.5660 2.7406 -0.9948 0.9846
2.5257 2.7778 -0.9948 0.9846
2.4848 2.8144 -0.9948 0.9846
2.4435 2.8504 -0.9948 0.9846
2.3162 2.9547 -0.9948 0.9846
2.2728 2.9882 -0.9948 0.9846
2.2289 3.0211 -0.9948 0.9846
2.1845 3.0534 -0.9948 0.9846
2.1397 3.0850 -0.9948 0.9846
2.0943 3.1159 -0.9948 0.9846
2.0486 3.1462 -0.9948 0.9846
1.9558 3.2047 -0.9948 0.9846
1.9087 3.2330 -0.9948 0.9846
1.8613 3.2605 -0.9948 0.9846
1.8135 3.2873 -0.9948 0.9846
1.7652 3.3135 -0.9948 0.9846
1.6677 3.3636 -0.9948 0.9846
1.5687 3.4109 -0.9948 0.9846
1.3155 3.5163 -0.9948 0.9846
1.2640 3.5352 -0.9948 0.9846
1.2122 3.5533 -0.9948 0.9846
1.1602 3.5706 -0.9948 0.9846
1.1078 3.5872 -0.9948 0.9846
1.0553 3.6030 -0.9948 0.9846
1.0025 3.6180 -0.9948 0.9846
0.9496 3.6323 -0.9948 0.9846
0.7895 3.6704 -0.9948 0.9846
0.7358 3.6815 -0.9948 0.9846
0.6819 3.6919 -0.9948 0.9846
0.2467 3.7462 -0.9948 0.9846
0.1919 3.7495 -0.9948 0.9846
0.1371 3.7519 -0.9948 0.9846
0.0823 3.7535 -0.9948 0.9846
0.0274 3.7543 -0.9948 0.9846
-0.1371 3.7518 -0.9948 0.9846
-0.1919 3.7494 -0.9948 0.9846
-0.6279 3.7015 -0.9948 0.9846
-0.6819 3.6919 -0.9948 0.9846
-0.7358 3.6816 -0.9948 0.9846
-0.8431 3.6585 -0.9948 0.9846
-0.8964 3.6457 -0.9948 0.9846
-1.1079 3.5872 -0.9948 0.9846
-1.1601 3.5706 -0.9948 0.9846
-1.2122 3.5532 -0.9948 0.9846
-1.2640 3.5352 -0.9948 0.9846
-1.4177 3.4764 -0.9948 0.9846
-0.2999 0.6779 -0.1964 0.9969
-0.2884 0.6271 -0.1829 0.9971
-0.2812 0.5469 -0.1629 0.9975
-0.2880 0.5220 -0.1580 0.9975
-0.2941 0.4982 -0.1533 0.9976
-0.2971 0.4867 -0.1511 0.9976
-0.2998 0.4755 -0.1489 0.9977
-0.3025 0.4645 -0.1469 0.9977
-0.3076 0.4436 -0.1430 0.9978
-0.3106 0.4341 -0.1414 0.9978
-0.3134 0.4248 -0.1399 0.9978
-0.3161 0.4156 -0.1384 0.9978
-0.3187 0.4066 -0.1369 0.9979
-0.3213 0.3977 -0.1355 0.9979
-0.3261 0.3804 -0.1328 0.9979
-0.3308 0.3638 -0.1303 0.9980
-0.3330 0.3557 -0.1291 0.9980
-0.3352 0.3476 -0.1280 0.9980
-0.3371 0.3395 -0.1268 0.9980
-0.3386 0.3312 -0.1255 0.9980
-0.3400 0.3230 -0.1243 0.9981
-0.3440 0.2993 -0.1208 0.9981
-0.3452 0.2915 -0.1197 0.9981
-0.3463 0.2839 -0.1187 0.9981
-0.3474 0.2764 -0.1176 0.9982
-0.3484 0.2691 -0.1166 0.9982
-0.3494 0.2617 -0.1157 0.9982
-0.3503 0.2545 -0.1147 0.9982
-0.3512 0.2475 -0.1138 0.9982
-0.3521 0.2404 -0.1130 0.9982
-0.3528 0.2334 -0.1121 0.9983
-0.3555 0.2064 -0.1089 0.9983
-0.3566 0.1934 -0.1075 0.9983
-0.3575 0.1871 -0.1069 0.9983
-0.3592 0.1748 -0.1059 0.9983
-0.3600 0.1688 -0.1054 0.9984
-0.3606 0.1627 -0.1048 0.9984
-0.3612 0.1566 -0.1043 0.9984
-0.3622 0.1447 -0.1034 0.9984
-0.3627 0.1388 -0.1029 0.9984
-0.3631 0.1329 -0.1025 0.9984
-0.3639 0.1212 -0.1016 0.9984
-0.3642 0.1154 -0.1012 0.9984
-0.3645 0.1097 -0.1009 0.9984
-0.3648 0.1040 -0.1005 0.9984
-0.3650 0.0983 -0.1002 0.9984
-0.3652 0.0927 -0.0998 0.9984
-0.3656 0.0758 -0.0989 0.9985
-0.3654 0.0375 -0.0973 0.9985
-0.3649 0.0213 -0.0969 0.9985
-0.3644 0.0107 -0.0966 0.9985
-0.3642 0.0054 -0.0965 0.9985
-0.3578 0.0000 -0.0990 0.9985
-0.3583 -0.0105 -0.0993 0.9985
-0.3588 -0.0210 -0.0995 0.9985
-0.3593 -0.0369 -0.1000 0.9985
-0.3594 -0.0422 -0.1002 0.9985
-0.3594 -0.0475 -0.1004 0.9985
-0.3594 -0.0637 -0.1011 0.9985
-0.3594 -0.0691 -0.1013 0.9985
-0.3593 -0.0745 -0.1016 0.9985
-0.3581 -0.1077 -0.1035 0.9984
-0.3578 -0.1134 -0.1039 0.9984
-0.3575 -0.1190 -0.1043 0.9984
-0.3571 -0.1247 -0.1047 0.9984
-0.3557 -0.1421 -0.1061 0.9984
-0.3552 -0.1479 -0.1065 0.9984
-0.3526 -0.1716 -0.1086 0.9984
-0.3499 -0.1897 -0.1102 0.9983
-0.3485 -0.2023 -0.1116 0.9983
-0.3472 -0.2154 -0.1131 0.9983
-0.3440 -0.2423 -0.1165 0.9983
-0.3431 -0.2493 -0.1174 0.9982
-0.3421 -0.2562 -0.1183 0.9982
-0.3411 -0.2634 -0.1193 0.9982
-0.3365 -0.2927 -0.1235 0.9982
-0.3324 -0.3158 -0.1269 0.9981
-0.3309 -0.3237 -0.1282 0.9981
-0.3233 -0.3555 -0.1330 0.9980
-0.3161 -0.3798 -0.1368 0.9980
-0.3136 -0.3882 -0.1382 0.9979
-0.3110 -0.3968 -0.1396 0.9979
-0.3084 -0.4054 -0.1410 0.9979
-0.3028 -0.4232 -0.1441 0.9978
-0.2999 -0.4323 -0.1457 0.9978
-0.2968 -0.4415 -0.1473 0.9978
-0.2907 -0.4610 -0.1509 0.9977
-0.2879 -0.4716 -0.1530 0.9977
-0.2849 -0.4826 -0.1552 0.9977
-0.2819 -0.4937 -0.1574 0.9976
-0.2787 -0.5051 -0.1597 0.9976
-0.2753 -0.5168 -0.1621 0.9976
-0.2718 -0.5287 -0.1646 0.9975
-0.2604 -0.5662 -0.1726 0.9974
-0.2754 -0.6479 -0.1949 0.9971
-0.2857 -0.7005 -0.2095 0.9969
-1.2865 -3.2915 -0.9785 0.9854
-1.1411 -3.3447 -0.9785 0.9854
-1.0429 -3.3766 -0.9785 0.9854
-0.9934 -3.3915 -0.9785 0.9854
-0.8939 -3.4191 -0.9785 0.9854
-0.8438 -3.4318 -0.9785 0.9854
-0.7432 -3.4550 -0.9785 0.9854
-0.6419 -3.4752 -0.9785 0.9854
-0.5401 -3.4925 -0.9785 0.9854
-0.4890 -3.5000 -0.9785 0.9854
-0.2837 -3.5226 -0.9785 0.9854
-0.2322 -3.5263 -0.9785 0.9854
-0.1807 -3.5293 -0.9785 0.9854
-0.0775 -3.5331 -0.9785 0.9854
-0.0259 -3.5339 -0.9785 0.9854
0.0258 -3.5339 -0.9785 0.9854
0.2322 -3.5264 -0.9785 0.9854
0.3351 -3.5180 -0.9785 0.9854
0.3865 -3.5128 -0.9785 0.9854
0.4378 -3.5067 -0.9785 0.9854
0.5911 -3.4843 -0.9785 0.9854
0.7936 -3.4437 -0.9785 0.9854
1.0428 -3.3766 -0.9785 0.9854
1.0920 -3.3610 -0.9785 0.9854
1.1898 -3.3277 -0.9785 0.9854
1.2383 -3.3100 -0.9785 0.9854
1.3345 -3.2723 -0.9785 0.9854
1.5234 -3.1888 -0.9785 0.9854
1.6159 -3.1429 -0.9785 0.9854
1.6617 -3.1190 -0.9785 0.9854
1.7967 -3.0432 -0.9785 0.9854
1.9714 -2.9330 -0.9785 0.9854
2.0141 -2.9039 -0.9785 0.9854
2.1003 -2.8469 -0.9796 0.9854
2.1827 -2.7843 -0.9796 0.9854
2.2231 -2.7521 -0.9796 0.9854
2.2631 -2.7194 -0.9796 0.9854
2.3159 -2.7018 -0.9853 0.9853
2.5313 -2.5498 -0.9948 0.9852
2.6047 -2.4748 -0.9948 0.9852
2.7106 -2.3583 -0.9948 0.9852
2.8756 -2.1541 -0.9948 0.9852
2.9067 -2.1118 -0.9948 0.9852
2.9965 -1.9825 -0.9948 0.9852
3.0251 -1.9384 -0.9948 0.9852
3.0805 -1.8493 -0.9948 0.9852
3.1072 -1.8040 -0.9948 0.9852
3.1586 -1.7125 -0.9948 0.9852
3.4406 -1.0351 -0.9948 0.9852
3.4827 -0.8833 -0.9948 0.9852
3.5070 -0.7812 -0.9948 0.9852
3.5180 -0.7299 -0.9948 0.9852
3.5379 -0.6268 -0.9948 0.9852
3.5466 -0.5750 -0.9948 0.9852
3.5685 -0.4190 -0.9948 0.9852
3.5742 -0.3668 -0.9948 0.9852
3.5792 -0.3146 -0.9948 0.9852
3.5869 -0.2099 -0.9948 0.9852
3.5915 -0.1050 -0.9948 0.9852
3.5926 -0.0525 -0.9948 0.9852
3.5926 0.0525 -0.9948 0.9852
3.5914 0.1050 -0.9948 0.9852
3.5896 0.1575 -0.9948 0.9852
3.5834 0.2623 -0.9948 0.9852
3.5685 0.4191 -0.9948 0.9852
3.5620 0.4712 -0.9948 0.9852
3.5547 0.5232 -0.9948 0.9852
3.5467 0.5750 -0.9948 0.9852
3.5284 0.6784 -0.9948 0.9852
3.4953 0.8324 -0.9948 0.9852
3.4695 0.9342 -0.9948 0.9852
3.4554 0.9848 -0.9948 0.9852
3.4252 1.0854 -0.9948 0.9852
3.3920 1.1850 -0.9948 0.9852
3.3743 1.2344 -0.9948 0.9852
3.3170 1.3811 -0.9948 0.9852
3.2533 1.5251 -0.9948 0.9852
3.2306 1.5725 -0.9948 0.9852
3.1834 1.6662 -0.9948 0.9852
3.1587 1.7125 -0.9948 0.9852
3.0806 1.8493 -0.9948 0.9852
2.9673 2.0261 -0.9948 0.9852
2.9374 2.0693 -0.9948 0.9852
2.9068 2.1120 -0.9948 0.9852
2.8115 2.2373 -0.9948 0.9852
2.7785 2.2782 -0.9948 0.9852
2.7449 2.3185 -0.9948 0.9852
2.7108 2.3584 -0.9948 0.9852
2.6406 2.4366 -0.9948 0.9852
2.6048 2.4749 -0.9948 0.9852
2.4938 2.5866 -0.9948 0.9852
2.4172 2.6584 -0.9948 0.9852
2.3384 2.7279 -0.9948 0.9852
2.2578 2.7951 -0.9948 0.9852
2.1331 2.8914 -0.9948 0.9852
2.0477 2.9525 -0.9948 0.9852
1.9164 3.0393 -0.9948 0.9852
1.8267 3.0941 -0.9948 0.9852
1.6894 3.1711 -0.9948 0.9852
1.5960 3.2191 -0.9948 0.9852
1.4534 3.2860 -0.9948 0.9852
1.4053 3.3069 -0.9948 0.9852
1.3568 3.3270 -0.9948 0.9852
1.1601 3.4007 -0.9948 0.9852
1.0602 3.4331 -0.9948 0.9852
0.9595 3.4626 -0.9948 0.9852
0.8579 3.4891 -0.9948 0.9852
0.8068 3.5013 -0.9948 0.9852
0.7556 3.5127 -0.9948 0.9852
0.7042 3.5234 -0.9948 0.9852
0.6526 3.5333 -0.9948 0.9852
0.5491 3.5509 -0.9948 0.9852
0.4971 3.5586 -0.9948 0.9852
0.3930 3.5715 -0.9948 0.9852
0.3407 3.5768 -0.9948 0.9852
0.2361 3.5853 -0.9948 0.9852
0.1312 3.5907 -0.9948 0.9852
-0.0788 3.5923 -0.9948 0.9852
-0.1312 3.5907 -0.9948 0.9852
-0.2361 3.5853 -0.9948 0.9852
-0.3930 3.5715 -0.9948 0.9852
-0.5491 3.5509 -0.9948 0.9852
-0.6009 3.5425 -0.9948 0.9852
-0.6527 3.5333 -0.9948 0.9852
-0.7556 3.5127 -0.9948 0.9852
-0.8579 3.4891 -0.9948 0.9852
-0.9595 3.4625 -0.9948 0.9852
-1.1601 3.4006 -0.9948 0.9852
-1.2590 3.3653 -0.9948 0.9852
-1.3080 3.3465 -0.9948 0.9852
-0.2857 0.7006 -0.2095 0.9969
-0.2754 0.6480 -0.1949 0.9971
-0.2604 0.5662 -0.1726 0.9974
-0.2682 0.5410 -0.1672 0.9975
-0.2718 0.5287 -0.1646 0.9975
-0.2753 0.5168 -0.1621 0.9976
-0.2787 0.5052 -0.1597 0.9976
-0.2819 0.4937 -0.1574 0.9976
-0.2907 0.4610 -0.1509 0.9977
-0.2968 0.4416 -0.1473 0.9978
-0.3056 0.4143 -0.1425 0.9979
-0.3110 0.3968 -0.1396 0.9979
-0.3136 0.3882 -0.1382 0.9979
-0.3210 0.3636 -0.1343 0.9980
-0.3277 0.3399 -0.1307 0.9980
-0.3293 0.3318 -0.1294 0.9981
-0.3389 0.2779 -0.1213 0.9982
-0.3400 0.2706 -0.1203 0.9982
-0.3411 0.2634 -0.1193 0.9982
-0.3457 0.2287 -0.1148 0.9983
-0.3472 0.2154 -0.1131 0.9983
-0.3485 0.2023 -0.1116 0.9983
-0.3491 0.1959 -0.1108 0.9983
-0.3509 0.1837 -0.1096 0.9984
-0.3557 0.1420 -0.1061 0.9984
-0.3571 0.1248 -0.1047 0.9984
-0.3581 0.1078 -0.1035 0.9984
-0.3589 0.0910 -0.1025 0.9985
-0.3590 0.0855 -0.1022 0.9985
-0.3592 0.0800 -0.1019 0.9985
-0.3594 0.0691 -0.1013 0.9985
-0.3595 0.0583 -0.1008 0.9985
-0.3595 0.0529 -0.1006 0.9985
-0.3588 0.0210 -0.0995 0.9985
-0.3586 0.0157 -0.0994 0.9985
-0.3583 0.0105 -0.0993 0.9985
-0.3524 -0.0103 -0.1018 0.9985
-0.3528 -0.0206 -0.1021 0.9985
-0.3530 -0.0258 -0.1022 0.9985
-0.3533 -0.0415 -0.1028 0.9985
-0.3534 -0.0626 -0.1037 0.9985
-0.3532 -0.0732 -0.1042 0.9985
-0.3529 -0.0840 -0.1048 0.9985
-0.3527 -0.0895 -0.1051 0.9985
-0.3519 -0.1058 -0.1061 0.9985
-0.3516 -0.1114 -0.1065 0.9985
-0.3504 -0.1282 -0.1078 0.9984
-0.3500 -0.1338 -0.1082 0.9984
-0.3495 -0.1395 -0.1087 0.9984
-0.3477 -0.1568 -0.1102 0.9984
-0.3470 -0.1627 -0.1107 0.9984
-0.3453 -0.1743 -0.1117 0.9984
-0.3425 -0.1921 -0.1134 0.9984
-0.3351 -0.2510 -0.1209 0.9983
-0.3340 -0.2579 -0.1219 0.9982
-0.3292 -0.2864 -0.1261 0.9982
-0.3236 -0.3165 -0.1307 0.9981
-0.3220 -0.3243 -0.1320 0.9981
-0.3137 -0.3553 -0.1369 0.9980
-0.3088 -0.3711 -0.1394 0.9980
-0.3036 -0.3873 -0.1422 0.9980
-0.2954 -0.4129 -0.1466 0.9979
-0.2894 -0.4305 -0.1498 0.9978
-0.2862 -0.4395 -0.1515 0.9978
-0.2829 -0.4487 -0.1532 0.9978
-0.2796 -0.4581 -0.1550 0.9978
-0.2630 -0.5116 -0.1662 0.9976
-0.2594 -0.5232 -0.1687 0.9976
-0.2457 -0.5781 -0.1814 0.9974
-0.2609 -0.6675 -0.2070 0.9970
-1.1405 -3.1898 -0.9785 0.9860
-1.0938 -3.2061 -0.9785 0.9860
-0.9997 -3.2367 -0.9785 0.9860
-0.9047 -3.2645 -0.9785 0.9860
-0.8568 -3.2774 -0.9785 0.9860
-0.7124 -3.3118 -0.9785 0.9860
-0.6639 -3.3219 -0.9785 0.9860
-0.5666 -3.3398 -0.9785 0.9860
-0.5177 -3.3477 -0.9785 0.9860
-0.4197 -3.3615 -0.9785 0.9860
-0.3705 -3.3672 -0.9785 0.9860
-0.3213 -3.3723 -0.9785 0.9860
-0.2720 -3.3766 -0.9785 0.9860
-0.2226 -3.3802 -0.9785 0.9860
-0.0742 -3.3867 -0.9785 0.9860
-0.0248 -3.3875 -0.9785 0.9860
0.0742 -3.3868 -0.9785 0.9860
0.1237 -3.3853 -0.9785 0.9860
0.1731 -3.3831 -0.9785 0.9860
0.2226 -3.3803 -0.9785 0.9860
0.3212 -3.3723 -0.9785 0.9860
0.3705 -3.3672 -0.9785 0.9860
0.4196 -3.3615 -0.9785 0.9860
0.6639 -3.3219 -0.9785 0.9860
0.7124 -3.3118 -0.9785 0.9860
0.7607 -3.3010 -0.9785 0.9860
1.0468 -3.2218 -0.9785 0.9860
1.1870 -3.1728 -0.9785 0.9860
1.2332 -3.1551 -0.9785 0.9860
1.3703 -3.0980 -0.9785 0.9860
1.4602 -3.0567 -0.9785 0.9860
1.5047 -3.0350 -0.9785 0.9860
1.5928 -2.9898 -0.9785 0.9860
1.6363 -2.9661 -0.9785 0.9860
1.6795 -2.9420 -0.9785 0.9860
1.7223 -2.9171 -0.9785 0.9860
1.8505 -2.8419 -0.9796 0.9860
2.1132 -2.6957 -0.9894 0.9858
2.1641 -2.6791 -0.9948 0.9858
2.2031 -2.6472 -0.9948 0.9858
2.2794 -2.5817 -0.9948 0.9858
2.3170 -2.5482 -0.9948 0.9858
2.4264 -2.4442 -0.9948 0.9858
2.4618 -2.4085 -0.9948 0.9858
2.4968 -2.3722 -0.9948 0.9858
2.5312 -2.3355 -0.9948 0.9858
2.5650 -2.2983 -0.9948 0.9858
2.5983 -2.2605 -0.9948 0.9858
2.6633 -2.1837 -0.9948 0.9858
2.6949 -2.1445 -0.9948 0.9858
2.7863 -2.0243 -0.9948 0.9858
2.8723 -1.9003 -0.9948 0.9858
2.9266 -1.8156 -0.9948 0.9858
2.9529 -1.7726 -0.9948 0.9858
2.9785 -1.7293 -0.9948 0.9858
3.0034 -1.6856 -0.9948 0.9858
3.0744 -1.5523 -0.9948 0.9858
3.0967 -1.5072 -0.9948 0.9858
3.1395 -1.4161 -0.9948 0.9858
3.1598 -1.3701 -0.9948 0.9858
3.1795 -1.3238 -0.9948 0.9858
3.2168 -1.2303 -0.9948 0.9858
3.2345 -1.1832 -0.9948 0.9858
3.2514 -1.1358 -0.9948 0.9858
3.2677 -1.0882 -0.9948 0.9858
3.2832 -1.0403 -0.9948 0.9858
3.3257 -0.8955 -0.9948 0.9858
3.3822 -0.6503 -0.9948 0.9858
3.3913 -0.6008 -0.9948 0.9858
3.3997 -0.5512 -0.9948 0.9858
3.4349 -0.2514 -0.9948 0.9858
3.4382 -0.2012 -0.9948 0.9858
3.4426 -0.1006 -0.9948 0.9858
3.4437 -0.0503 -0.9948 0.9858
3.4427 0.1007 -0.9948 0.9858
3.4408 0.1510 -0.9948 0.9858
3.4382 0.2012 -0.9948 0.9858
3.4309 0.3016 -0.9948 0.9858
3.3997 0.5512 -0.9948 0.9858
3.3723 0.6997 -0.9948 0.9858
3.3384 0.8468 -0.9948 0.9858
3.3257 0.8955 -0.9948 0.9858
3.3122 0.9439 -0.9948 0.9858
3.2833 1.0404 -0.9948 0.9858
3.2169 1.2304 -0.9948 0.9858
3.1796 1.3238 -0.9948 0.9858
3.1599 1.3702 -0.9948 0.9858
3.1185 1.4619 -0.9948 0.9858
3.0968 1.5073 -0.9948 0.9858
3.0744 1.5524 -0.9948 0.9858
3.0515 1.5971 -0.9948 0.9858
3.0278 1.6415 -0.9948 0.9858
2.9785 1.7293 -0.9948 0.9858
2.9529 1.7727 -0.9948 0.9858
2.9267 1.8157 -0.9948 0.9858
2.8999 1.8582 -0.9948 0.9858
2.7864 2.0244 -0.9948 0.9858
2.7260 2.1050 -0.9948 0.9858
2.5984 2.2607 -0.9948 0.9858
2.5651 2.2984 -0.9948 0.9858
2.4619 2.4086 -0.9948 0.9858
2.4265 2.4443 -0.9948 0.9858
2.3905 2.4795 -0.9948 0.9858
2.3540 2.5141 -0.9948 0.9858
2.3170 2.5483 -0.9948 0.9858
2.2796 2.5819 -0.9948 0.9858
2.2416 2.6149 -0.9948 0.9858
2.2031 2.6474 -0.9948 0.9858
2.0447 2.7716 -0.9948 0.9858
1.9629 2.8301 -0.9948 0.9858
1.8370 2.9134 -0.9948 0.9858
1.7511 2.9659 -0.9948 0.9858
1.6637 3.0157 -0.9948 0.9858
1.4846 3.1078 -0.9948 0.9858
1.4391 3.1292 -0.9948 0.9858
1.3932 3.1498 -0.9948 0.9858
1.3006 3.1892 -0.9948 0.9858
1.2538 3.2079 -0.9948 0.9858
1.2068 3.2258 -0.9948 0.9858
1.1596 3.2431 -0.9948 0.9858
1.1121 3.2597 -0.9948 0.9858
1.0643 3.2756 -0.9948 0.9858
1.0163 3.2908 -0.9948 0.9858
0.9197 3.3191 -0.9948 0.9858
0.8224 3.3446 -0.9948 0.9858
0.7243 3.3672 -0.9948 0.9858
0.6256 3.3869 -0.9948 0.9858
0.5263 3.4037 -0.9948 0.9858
0.4765 3.4111 -0.9948 0.9858
0.3266 3.4287 -0.9948 0.9858
0.2765 3.4331 -0.9948 0.9858
0.1258 3.4419 -0.9948 0.9858
0.0251 3.4441 -0.9948 0.9858
-0.0252 3.4441 -0.9948 0.9858
-0.0755 3.4434 -0.9948 0.9858
-0.1258 3.4419 -0.9948 0.9858
-0.2263 3.4368 -0.9948 0.9858
-0.2765 3.4331 -0.9948 0.9858
-0.3266 3.4287 -0.9948 0.9858
-0.4267 3.4177 -0.9948 0.9858
-0.6750 3.3774 -0.9948 0.9858
-0.7734 3.3562 -0.9948 0.9858
-0.8711 3.3322 -0.9948 0.9858
-1.0163 3.2908 -0.9948 0.9858
-1.1120 3.2597 -0.9948 0.9858
-1.2069 3.2258 -0.9948 0.9858
-0.2609 0.6675 -0.2070 0.9970
-0.2529 0.6200 -0.1934 0.9972
-0.2516 0.5471 -0.1739 0.9975
-0.2556 0.5350 -0.1713 0.9975
-0.2594 0.5232 -0.1687 0.9976
-0.2631 0.5116 -0.1662 0.9976
-0.2666 0.5004 -0.1637 0.9976
-0.2762 0.4679 -0.1569 0.9977
-0.2954 0.4129 -0.1466 0.9979
-0.3036 0.3873 -0.1422 0.9980
-0.3160 0.3476 -0.1357 0.9980
-0.3183 0.3400 -0.1345 0.9981
-0.3220 0.3243 -0.1320 0.9981
-0.3236 0.3166 -0.1307 0.9981
-0.3266 0.3013 -0.1283 0.9982
-0.3279 0.2938 -0.1272 0.9982
-0.3293 0.2865 -0.1261 0.9982
-0.3305 0.2792 -0.1250 0.9982
-0.3318 0.2720 -0.1239 0.9982
-0.3329 0.2649 -0.1229 0.9982
-0.3340 0.2579 -0.1219 0.9982
-0.3351 0.2510 -0.1209 0.9983
-0.3361 0.2442 -0.1200 0.9983
-0.3371 0.2375 -0.1191 0.9983
-0.3379 0.2307 -0.1182 0.9983
-0.3388 0.2241 -0.1173 0.9983
-0.3396 0.2177 -0.1165 0.9983
-0.3418 0.1984 -0.1141 0.9984
-0.3444 0.1803 -0.1123 0.9984
-0.3453 0.1744 -0.1117 0.9984
-0.3471 0.1627 -0.1107 0.9984
-0.3495 0.1395 -0.1087 0.9984
-0.3504 0.1282 -0.1078 0.9984
-0.3522 0.1004 -0.1058 0.9985
-0.3525 0.0949 -0.1054 0.9985
-0.3527 0.0895 -0.1051 0.9985
-0.3531 0.0786 -0.1045 0.9985
-0.3532 0.0733 -0.1042 0.9985
-0.3533 0.0679 -0.1039 0.9985
-0.3534 0.0573 -0.1034 0.9985
-0.3534 0.0468 -0.1030 0.9985
-0.3533 0.0362 -0.1026 0.9985
-0.3531 0.0311 -0.1024 0.9985
-0.3530 0.0258 -0.1022 0.9985
-0.3528 0.0207 -0.1021 0.9985
-0.3526 0.0155 -0.1019 0.9985
-0.3524 0.0103 -0.1018 0.9985
-0.3466 -0.0101 -0.1043 0.9986
-0.3468 -0.0152 -0.1045 0.9986
-0.3470 -0.0203 -0.1046 0.9985
-0.3472 -0.0254 -0.1047 0.9985
-0.3473 -0.0305 -0.1049 0.9985
-0.3475 -0.0408 -0.1053 0.9985
-0.3473 -0.0721 -0.1067 0.9985
-0.3469 -0.0826 -0.1073 0.9985
-0.3468 -0.0879 -0.1076 0.9985
-0.3462 -0.0987 -0.1083 0.9985
-0.3459 -0.1040 -0.1087 0.9985
-0.3456 -0.1095 -0.1091 0.9985
-0.3452 -0.1150 -0.1095 0.9985
-0.3448 -0.1204 -0.1099 0.9985
-0.3443 -0.1259 -0.1103 0.9985
-0.3439 -0.1315 -0.1108 0.9985
-0.3400 -0.1655 -0.1138 0.9984
-0.3372 -0.1828 -0.1154 0.9984
-0.3352 -0.1946 -0.1166 0.9984
-0.3345 -0.2008 -0.1174 0.9984
-0.3338 -0.2070 -0.1182 0.9984
-0.3330 -0.2134 -0.1190 0.9983
-0.3283 -0.2459 -0.1234 0.9983
-0.3261 -0.2595 -0.1254 0.9983
-0.3249 -0.2663 -0.1264 0.9982
-0.3236 -0.2733 -0.1275 0.9982
-0.3210 -0.2876 -0.1297 0.9982
-0.3195 -0.2947 -0.1308 0.9982
-0.3131 -0.3248 -0.1358 0.9981
-0.3091 -0.3399 -0.1382 0.9981
-0.3043 -0.3550 -0.1407 0.9980
-0.2911 -0.3945 -0.1475 0.9980
-0.2883 -0.4029 -0.1491 0.9979
-0.2791 -0.4286 -0.1539 0.9979
-0.2758 -0.4374 -0.1556 0.9978
-0.2583 -0.4848 -0.1653 0.9977
-0.2511 -0.5064 -0.1701 0.9976
-0.2473 -0.5176 -0.1726 0.9976
-0.2392 -0.5407 -0.1779 0.9975
-0.2349 -0.5527 -0.1807 0.9975
-0.2383 -0.6369 -0.2046 0.9972
-0.2451 -0.6854 -0.2190 0.9970
-0.8684 -3.1339 -0.9785 0.9865
-0.8225 -3.1462 -0.9785 0.9865
-0.7303 -3.1689 -0.9785 0.9865
-0.6839 -3.1792 -0.9785 0.9865
-0.5907 -3.1979 -0.9785 0.9865
-0.4970 -3.2137 -0.9785 0.9865
-0.4029 -3.2269 -0.9785 0.9865
-0.3557 -3.2325 -0.9785 0.9865
-0.2611 -3.2414 -0.9785 0.9865
-0.2137 -3.2449 -0.9785 0.9865
-0.1662 -3.2477 -0.9785 0.9865
-0.1188 -3.2498 -0.9785 0.9865
-0.0238 -3.2518 -0.9785 0.9865
0.0238 -3.2518 -0.9785 0.9865
0.2137 -3.2449 -0.9785 0.9865
0.4029 -3.2269 -0.9785 0.9865
0.4500 -3.2207 -0.9785 0.9865
0.4970 -3.2137 -0.9785 0.9865
0.5439 -3.2061 -0.9785 0.9865
0.5907 -3.1979 -0.9785 0.9865
0.6839 -3.1793 -0.9785 0.9865
0.7302 -3.1689 -0.9785 0.9865
0.7765 -3.1579 -0.9785 0.9865
0.9141 -3.1208 -0.9785 0.9865
0.9596 -3.1071 -0.9785 0.9865
1.0500 -3.0778 -0.9785 0.9865
1.1395 -3.0457 -0.9785 0.9865
1.1839 -3.0288 -0.9785 0.9865
1.2718 -2.9929 -0.9785 0.9865
1.3154 -2.9741 -0.9785 0.9865
1.4445 -2.9135 -0.9785 0.9865
1.4869 -2.8921 -0.9785 0.9865
1.5290 -2.8701 -0.9785 0.9865
1.6140 -2.8272 -0.9796 0.9865
1.6551 -2.8033 -0.9796 0.9865
1.6959 -2.7789 -0.9796 0.9865
1.7764 -2.7281 -0.9796 0.9865
1.8719 -2.6989 -0.9883 0.9864
1.9230 -2.6879 -0.9944 0.9863
2.1518 -2.5101 -0.9948 0.9863
2.1882 -2.4784 -0.9948 0.9863
2.3968 -2.2773 -0.9948 0.9863
2.4623 -2.2062 -0.9948 0.9863
2.5258 -2.1334 -0.9948 0.9863
2.5870 -2.0587 -0.9948 0.9863
2.6168 -2.0206 -0.9948 0.9863
2.6461 -1.9822 -0.9948 0.9863
2.7029 -1.9040 -0.9948 0.9863
2.7304 -1.8643 -0.9948 0.9863
2.7574 -1.8243 -0.9948 0.9863
2.7837 -1.7838 -0.9948 0.9863
2.8095 -1.7429 -0.9948 0.9863
2.8592 -1.6600 -0.9948 0.9863
2.8832 -1.6181 -0.9948 0.9863
2.9292 -1.5332 -0.9948 0.9863
2.9728 -1.4469 -0.9948 0.9863
2.9936 -1.4033 -0.9948 0.9863
3.0138 -1.3594 -0.9948 0.9863
3.0522 -1.2708 -0.9948 0.9863
3.0880 -1.1811 -0.9948 0.9863
3.1050 -1.1358 -0.9948 0.9863
3.1212 -1.0904 -0.9948 0.9863
3.1368 -1.0446 -0.9948 0.9863
3.1518 -0.9987 -0.9948 0.9863
3.1660 -0.9525 -0.9948 0.9863
3.2163 -0.7659 -0.9948 0.9863
3.2373 -0.6716 -0.9948 0.9863
3.2468 -0.6243 -0.9948 0.9863
3.2710 -0.4814 -0.9948 0.9863
3.2777 -0.4335 -0.9948 0.9863
3.2837 -0.3856 -0.9948 0.9863
3.2890 -0.3376 -0.9948 0.9863
3.2935 -0.2895 -0.9948 0.9863
3.3059 -0.0483 -0.9948 0.9863
3.3062 0.0000 -0.9948 0.9863
3.3059 0.0483 -0.9948 0.9863
3.3048 0.0966 -0.9948 0.9863
3.3006 0.1932 -0.9948 0.9863
3.2936 0.2895 -0.9948 0.9863
3.2710 0.4814 -0.9948 0.9863
3.2636 0.5292 -0.9948 0.9863
3.2555 0.5768 -0.9948 0.9863
3.2373 0.6717 -0.9948 0.9863
3.2271 0.7189 -0.9948 0.9863
3.2163 0.7660 -0.9948 0.9863
3.2048 0.8129 -0.9948 0.9863
3.1661 0.9525 -0.9948 0.9863
3.1213 1.0904 -0.9948 0.9863
3.1050 1.1359 -0.9948 0.9863
3.0881 1.1811 -0.9948 0.9863
3.0334 1.3154 -0.9948 0.9863
2.9514 1.4903 -0.9948 0.9863
2.9066 1.5759 -0.9948 0.9863
2.8832 1.6182 -0.9948 0.9863
2.7574 1.8243 -0.9948 0.9863
2.7305 1.8644 -0.9948 0.9863
2.6748 1.9434 -0.9948 0.9863
2.5258 2.1335 -0.9948 0.9863
2.4624 2.2064 -0.9948 0.9863
2.4299 2.2421 -0.9948 0.9863
2.3294 2.3464 -0.9948 0.9863
2.2948 2.3802 -0.9948 0.9863
2.2598 2.4135 -0.9948 0.9863
2.1883 2.4785 -0.9948 0.9863
2.1518 2.5102 -0.9948 0.9863
2.1150 2.5414 -0.9948 0.9863
2.0776 2.5720 -0.9948 0.9863
2.0016 2.6316 -0.9948 0.9863
1.9629 2.6606 -0.9948 0.9863
1.8843 2.7168 -0.9948 0.9863
1.8041 2.7707 -0.9948 0.9863
1.7634 2.7968 -0.9948 0.9863
1.7224 2.8222 -0.9948 0.9863
1.6810 2.8471 -0.9948 0.9863
1.6392 2.8714 -0.9948 0.9863
1.4687 2.9622 -0.9948 0.9863
1.4252 2.9834 -0.9948 0.9863
1.3815 3.0039 -0.9948 0.9863
1.3374 3.0237 -0.9948 0.9863
1.2485 3.0615 -0.9948 0.9863
1.2036 3.0795 -0.9948 0.9863
1.1585 3.0967 -0.9948 0.9863
1.0675 3.1292 -0.9948 0.9863
1.0217 3.1445 -0.9948 0.9863
0.9756 3.1591 -0.9948 0.9863
0.8829 3.1863 -0.9948 0.9863
0.8363 3.1988 -0.9948 0.9863
0.6953 3.2324 -0.9948 0.9863
0.6005 3.2513 -0.9948 0.9863
0.5529 3.2597 -0.9948 0.9863
0.5053 3.2675 -0.9948 0.9863
0.4096 3.2809 -0.9948 0.9863
0.2654 3.2957 -0.9948 0.9863
0.0725 3.3055 -0.9948 0.9863
-0.0242 3.3062 -0.9948 0.9863
-0.0725 3.3055 -0.9948 0.9863
-0.1208 3.3041 -0.9948 0.9863
-0.2173 3.2992 -0.9948 0.9863
-0.3616 3.2864 -0.9948 0.9863
-0.6006 3.2513 -0.9948 0.9863
-0.6480 3.2421 -0.9948 0.9863
-0.7425 3.2218 -0.9948 0.9863
-0.7895 3.2107 -0.9948 0.9863
-0.8363 3.1988 -0.9948 0.9863
-0.8829 3.1862 -0.9948 0.9863
-0.2304 0.5650 -0.1836 0.9975
-0.2392 0.5407 -0.1779 0.9975
-0.2433 0.5290 -0.1752 0.9976
-0.2473 0.5176 -0.1726 0.9976
-0.2511 0.5064 -0.1701 0.9976
-0.2548 0.4955 -0.1676 0.9977
-0.2617 0.4743 -0.1630 0.9977
-0.2654 0.4648 -0.1610 0.9978
-0.2725 0.4464 -0.1574 0.9978
-0.2791 0.4286 -0.1539 0.9979
-0.2853 0.4114 -0.1506 0.9979
-0.2911 0.3946 -0.1475 0.9980
-0.2966 0.3783 -0.1446 0.9980
-0.2993 0.3705 -0.1433 0.9980
-0.3018 0.3627 -0.1420 0.9980
-0.3067 0.3474 -0.1394 0.9981
-0.3113 0.3325 -0.1371 0.9981
-0.3132 0.3248 -0.1358 0.9981
-0.3180 0.3022 -0.1320 0.9982
-0.3223 0.2804 -0.1285 0.9982
-0.3236 0.2733 -0.1275 0.9982
-0.3249 0.2664 -0.1264 0.9982
-0.3261 0.2595 -0.1254 0.9983
-0.3272 0.2527 -0.1244 0.9983
-0.3283 0.2459 -0.1234 0.9983
-0.3303 0.2327 -0.1216 0.9983
-0.3312 0.2261 -0.1207 0.9983
-0.3330 0.2134 -0.1190 0.9983
-0.3338 0.2070 -0.1182 0.9984
-0.3345 0.2008 -0.1174 0.9984
-0.3352 0.1946 -0.1166 0.9984
-0.3372 0.1828 -0.1154 0.9984
-0.3382 0.1770 -0.1148 0.9984
-0.3400 0.1655 -0.1138 0.9984
-0.3428 0.1427 -0.1117 0.9985
-0.3433 0.1371 -0.1112 0.9985
-0.3448 0.1204 -0.1099 0.9985
-0.3452 0.1150 -0.1095 0.9985
-0.3455 0.1095 -0.1091 0.9985
-0.3465 0.0933 -0.1080 0.9985
-0.3470 0.0827 -0.1073 0.9985
-0.3471 0.0773 -0.1070 0.9985
-0.3475 0.0616 -0.1062 0.9985
-0.3475 0.0564 -0.1059 0.9985
-0.3475 0.0460 -0.1055 0.9985
-0.3475 0.0408 -0.1053 0.9985
-0.3474 0.0357 -0.1051 0.9985
-0.3473 0.0305 -0.1049 0.9985
-0.3470 0.0204 -0.1046 0.9985
-0.3468 0.0152 -0.1045 0.9986
-0.3466 0.0102 -0.1043 0.9986
-0.3464 0.0051 -0.1042 0.9986
-0.3405 0.0000 -0.1066 0.9986
-0.3407 -0.0050 -0.1067 0.9986
-0.3415 -0.0250 -0.1072 0.9986
-0.3416 -0.0300 -0.1073 0.9986
-0.3417 -0.0350 -0.1075 0.9986
-0.3418 -0.0401 -0.1077 0.9986
-0.3418 -0.0554 -0.1084 0.9985
-0.3417 -0.0605 -0.1086 0.9985
-0.3413 -0.0761 -0.1095 0.9985
-0.3411 -0.0812 -0.1098 0.9985
-0.3409 -0.0864 -0.1101 0.9985
-0.3404 -0.0970 -0.1108 0.9985
-0.3393 -0.1129 -0.1119 0.9985
-0.3389 -0.1183 -0.1124 0.9985
-0.3384 -0.1238 -0.1128 0.9985
-0.3379 -0.1292 -0.1132 0.9985
-0.3368 -0.1402 -0.1142 0.9985
-0.3362 -0.1457 -0.1147 0.9985
-0.3356 -0.1513 -0.1152 0.9985
-0.3348 -0.1570 -0.1157 0.9985
-0.3340 -0.1625 -0.1163 0.9984
-0.3321 -0.1739 -0.1173 0.9984
-0.3312 -0.1795 -0.1179 0.9984
-0.3301 -0.1853 -0.1185 0.9984
-0.3281 -0.1970 -0.1198 0.9984
-0.3238 -0.2281 -0.1240 0.9983
-0.3228 -0.2345 -0.1249 0.9983
-0.3217 -0.2410 -0.1258 0.9983
-0.3206 -0.2475 -0.1268 0.9983
-0.3156 -0.2745 -0.1309 0.9982
-0.3142 -0.2815 -0.1321 0.9982
-0.3097 -0.3029 -0.1356 0.9982
-0.3080 -0.3103 -0.1368 0.9982
-0.3045 -0.3252 -0.1394 0.9981
-0.3024 -0.3325 -0.1407 0.9981
-0.3000 -0.3398 -0.1419 0.9981
-0.2925 -0.3621 -0.1457 0.9981
-0.2899 -0.3697 -0.1471 0.9980
-0.2871 -0.3775 -0.1484 0.9980
-0.2754 -0.4098 -0.1545 0.9979
-0.2723 -0.4181 -0.1562 0.9979
-0.2657 -0.4353 -0.1596 0.9979
-0.2622 -0.4440 -0.1614 0.9978
-0.2586 -0.4530 -0.1633 0.9978
-0.2549 -0.4620 -0.1652 0.9978
-0.2510 -0.4712 -0.1671 0.9978
-0.2395 -0.5012 -0.1739 0.9977
-0.2355 -0.5121 -0.1764 0.9976
-0.2180 -0.5578 -0.1875 0.9975
-0.2225 -0.6521 -0.2157 0.9971
-0.9660 -2.9730 -0.9785 0.9870
-0.9224 -2.9868 -0.9785 0.9870
-0.8787 -2.9999 -0.9785 0.9870
-0.8348 -3.0125 -0.9785 0.9870
-0.7464 -3.0355 -0.9785 0.9870
-0.7020 -3.0462 -0.9785 0.9870
-0.4777 -3.0893 -0.9785 0.9870
-0.3873 -3.1019 -0.9785 0.9870
-0.3419 -3.1072 -0.9785 0.9870
-0.2510 -3.1159 -0.9785 0.9870
-0.0229 -3.1259 -0.9785 0.9870
0.0228 -3.1259 -0.9785 0.9870
0.0685 -3.1253 -0.9785 0.9870
0.1142 -3.1239 -0.9785 0.9870
0.2054 -3.1192 -0.9785 0.9870
0.2509 -3.1159 -0.9785 0.9870
0.3419 -3.1072 -0.9785 0.9870
0.3872 -3.1019 -0.9785 0.9870
0.4325 -3.0959 -0.9785 0.9870
0.4777 -3.0893 -0.9785 0.9870
0.5228 -3.0819 -0.9785 0.9870
0.5678 -3.0739 -0.9785 0.9870
0.6126 -3.0654 -0.9785 0.9870
0.7020 -3.0461 -0.9785 0.9870
0.7906 -3.0244 -0.9785 0.9870
0.8787 -2.9999 -0.9785 0.9870
0.9225 -2.9868 -0.9785 0.9870
1.0093 -2.9586 -0.9785 0.9870
1.0524 -2.9435 -0.9785 0.9870
1.1804 -2.8945 -0.9785 0.9870
1.3076 -2.8432 -0.9796 0.9870
1.3901 -2.8037 -0.9796 0.9870
1.4309 -2.7831 -0.9796 0.9870
1.4714 -2.7620 -0.9796 0.9870
1.5116 -2.7401 -0.9796 0.9870
1.5521 -2.7187 -0.9799 0.9870
1.6467 -2.6982 -0.9895 0.9868
1.7729 -2.6376 -0.9948 0.9868
1.8867 -2.5574 -0.9948 0.9868
1.9607 -2.5012 -0.9948 0.9868
2.1034 -2.3824 -0.9948 0.9868
2.1380 -2.3514 -0.9948 0.9868
2.3977 -2.0860 -0.9948 0.9868
2.4279 -2.0507 -0.9948 0.9868
2.4868 -1.9789 -0.9948 0.9868
2.5154 -1.9424 -0.9948 0.9868
2.5711 -1.8680 -0.9948 0.9868
2.6247 -1.7921 -0.9948 0.9868
2.6505 -1.7536 -0.9948 0.9868
2.7006 -1.6754 -0.9948 0.9868
2.7485 -1.5957 -0.9948 0.9868
2.7715 -1.5554 -0.9948 0.9868
2.8776 -1.3489 -0.9948 0.9868
2.9684 -1.1353 -0.9948 0.9868
3.0153 -1.0041 -0.9948 0.9868
3.0297 -0.9600 -0.9948 0.9868
3.0688 -0.8263 -0.9948 0.9868
3.0917 -0.7362 -0.9948 0.9868
3.1021 -0.6910 -0.9948 0.9868
3.1210 -0.6001 -0.9948 0.9868
3.1294 -0.5544 -0.9948 0.9868
3.1372 -0.5086 -0.9948 0.9868
3.1507 -0.4167 -0.9948 0.9868
3.1565 -0.3706 -0.9948 0.9868
3.1659 -0.2782 -0.9948 0.9868
3.1727 -0.1857 -0.9948 0.9868
3.1751 -0.1393 -0.9948 0.9868
3.1778 -0.0464 -0.9948 0.9868
3.1782 0.0000 -0.9948 0.9868
3.1778 0.0464 -0.9948 0.9868
3.1768 0.0929 -0.9948 0.9868
3.1751 0.1393 -0.9948 0.9868
3.1727 0.1857 -0.9948 0.9868
3.1659 0.2783 -0.9948 0.9868
3.1616 0.3245 -0.9948 0.9868
3.1507 0.4168 -0.9948 0.9868
3.1443 0.4628 -0.9948 0.9868
3.1119 0.6456 -0.9948 0.9868
3.0917 0.7363 -0.9948 0.9868
3.0565 0.8711 -0.9948 0.9868
3.0434 0.9157 -0.9948 0.9868
3.0004 1.0481 -0.9948 0.9868
2.9847 1.0919 -0.9948 0.9868
2.9685 1.1354 -0.9948 0.9868
2.8971 1.3068 -0.9948 0.9868
2.8777 1.3490 -0.9948 0.9868
2.8158 1.4738 -0.9948 0.9868
2.7485 1.5958 -0.9948 0.9868
2.6506 1.7536 -0.9948 0.9868
2.5712 1.8681 -0.9948 0.9868
2.5436 1.9055 -0.9948 0.9868
2.5155 1.9425 -0.9948 0.9868
2.4280 2.0509 -0.9948 0.9868
2.3670 2.1209 -0.9948 0.9868
2.2718 2.2226 -0.9948 0.9868
2.1722 2.3200 -0.9948 0.9868
2.1381 2.3515 -0.9948 0.9868
2.1035 2.3825 -0.9948 0.9868
2.0685 2.4129 -0.9948 0.9868
2.0330 2.4430 -0.9948 0.9868
1.9971 2.4723 -0.9948 0.9868
1.9240 2.5297 -0.9948 0.9868
1.8868 2.5575 -0.9948 0.9868
1.8492 2.5848 -0.9948 0.9868
1.6951 2.6884 -0.9948 0.9868
1.6556 2.7129 -0.9948 0.9868
1.6158 2.7368 -0.9948 0.9868
1.5352 2.7829 -0.9948 0.9868
1.4532 2.8266 -0.9948 0.9868
1.3700 2.8678 -0.9948 0.9868
1.3279 2.8875 -0.9948 0.9868
1.2856 2.9066 -0.9948 0.9868
1.2430 2.9250 -0.9948 0.9868
1.1570 2.9601 -0.9948 0.9868
1.1136 2.9768 -0.9948 0.9868
1.0700 2.9927 -0.9948 0.9868
1.0262 3.0080 -0.9948 0.9868
0.9821 3.0227 -0.9948 0.9868
0.9378 3.0368 -0.9948 0.9868
0.6683 3.1072 -0.9948 0.9868
0.5773 3.1254 -0.9948 0.9868
0.5315 3.1335 -0.9948 0.9868
0.4398 3.1477 -0.9948 0.9868
0.3937 3.1537 -0.9948 0.9868
0.2552 3.1680 -0.9948 0.9868
0.2088 3.1713 -0.9948 0.9868
-0.1161 3.1761 -0.9948 0.9868
-0.4398 3.1477 -0.9948 0.9868
-0.4858 3.1409 -0.9948 0.9868
-0.7589 3.0863 -0.9948 0.9868
-0.8039 3.0749 -0.9948 0.9868
-0.8487 3.0628 -0.9948 0.9868
-0.9379 3.0367 -0.9948 0.9868
-0.2225 0.6521 -0.2157 0.9971
-0.2176 0.6084 -0.2023 0.9973
-0.2227 0.5460 -0.1846 0.9975
-0.2314 0.5232 -0.1791 0.9976
-0.2355 0.5121 -0.1764 0.9976
-0.2433 0.4906 -0.1714 0.9977
-0.2471 0.4806 -0.1691 0.9977
-0.2657 0.4353 -0.1596 0.9979
-0.2690 0.4267 -0.1579 0.9979
-0.2723 0.4182 -0.1562 0.9979
-0.2785 0.4015 -0.1529 0.9980
-0.2814 0.3934 -0.1514 0.9980
-0.2843 0.3854 -0.1499 0.9980
-0.2899 0.3698 -0.1471 0.9980
-0.2925 0.3621 -0.1457 0.9981
-0.2951 0.3546 -0.1444 0.9981
-0.2976 0.3471 -0.1431 0.9981
-0.3000 0.3398 -0.1419 0.9981
-0.3024 0.3325 -0.1407 0.9981
-0.3063 0.3177 -0.1381 0.9982
-0.3097 0.3029 -0.1356 0.9982
-0.3112 0.2957 -0.1344 0.9982
-0.3156 0.2746 -0.1309 0.9982
-0.3169 0.2677 -0.1299 0.9983
-0.3182 0.2609 -0.1288 0.9983
-0.3194 0.2542 -0.1278 0.9983
-0.3217 0.2410 -0.1258 0.9983
-0.3248 0.2218 -0.1231 0.9984
-0.3257 0.2154 -0.1222 0.9984
-0.3273 0.2031 -0.1206 0.9984
-0.3291 0.1911 -0.1191 0.9984
-0.3312 0.1795 -0.1179 0.9984
-0.3321 0.1739 -0.1173 0.9984
-0.3340 0.1625 -0.1163 0.9984
-0.3356 0.1514 -0.1152 0.9985
-0.3374 0.1348 -0.1137 0.9985
-0.3379 0.1293 -0.1132 0.9985
-0.3384 0.1238 -0.1128 0.9985
-0.3389 0.1184 -0.1124 0.9985
-0.3407 0.0918 -0.1104 0.9985
-0.3413 0.0761 -0.1095 0.9985
-0.3415 0.0709 -0.1092 0.9985
-0.3418 0.0503 -0.1081 0.9986
-0.3418 0.0402 -0.1077 0.9986
-0.3415 0.0250 -0.1072 0.9986
-0.3412 0.0150 -0.1069 0.9986
-0.3407 0.0050 -0.1067 0.9986
-0.3350 0.0000 -0.1089 0.9986
-0.3355 -0.0098 -0.1091 0.9986
-0.3357 -0.0147 -0.1093 0.9986
-0.3359 -0.0196 -0.1094 0.9986
-0.3361 -0.0295 -0.1097 0.9986
-0.3362 -0.0345 -0.1099 0.9986
-0.3362 -0.0445 -0.1103 0.9986
-0.3362 -0.0545 -0.1108 0.9986
-0.3361 -0.0595 -0.1110 0.9986
-0.3359 -0.0697 -0.1116 0.9986
-0.3357 -0.0748 -0.1119 0.9986
-0.3355 -0.0799 -0.1122 0.9986
-0.3353 -0.0850 -0.1125 0.9985
-0.3350 -0.0902 -0.1128 0.9985
-0.3344 -0.1006 -0.1136 0.9985
-0.3340 -0.1058 -0.1139 0.9985
-0.3336 -0.1111 -0.1143 0.9985
-0.3332 -0.1164 -0.1148 0.9985
