ply
format ascii 1.0
element vertex 1594
property float32 x
property float32 y
property float32 z
property float32 I
end_header
-0.0697 3.1795 -0.9955 0.9868
-0.1626 3.1760 -0.9954 0.9868
-0.2090 3.1732 -0.9954 0.9868
-0.3016 3.1657 -0.9954 0.9868
-0.3939 3.1554 -0.9954 0.9868
-0.4400 3.1492 -0.9953 0.9868
-0.6232 3.1180 -0.9953 0.9868
-0.9381 3.0377 -0.9952 0.9868
-0.9825 3.0236 -0.9952 0.9868
-0.2225 0.6522 -0.2157 0.9971
-0.2175 0.6085 -0.2023 0.9973
-0.2132 0.5698 -0.1904 0.9975
-0.2314 0.5232 -0.1791 0.9976
-0.2355 0.5121 -0.1764 0.9976
-0.2395 0.5012 -0.1739 0.9977
-0.2433 0.4906 -0.1714 0.9977
-0.2622 0.4441 -0.1614 0.9978
-0.2690 0.4266 -0.1579 0.9979
-0.2754 0.4098 -0.1545 0.9979
-0.2785 0.4015 -0.1529 0.9980
-0.2814 0.3934 -0.1514 0.9980
-0.2843 0.3854 -0.1499 0.9980
-0.2871 0.3775 -0.1484 0.9980
-0.2951 0.3546 -0.1444 0.9981
-0.2976 0.3472 -0.1431 0.9981
-0.3000 0.3398 -0.1419 0.9981
-0.3080 0.3102 -0.1368 0.9982
-0.3127 0.2886 -0.1332 0.9982
-0.3142 0.2815 -0.1321 0.9982
-0.3156 0.2746 -0.1309 0.9982
-0.3182 0.2609 -0.1288 0.9983
-0.3206 0.2475 -0.1268 0.9983
-0.3238 0.2281 -0.1240 0.9983
-0.3248 0.2217 -0.1231 0.9984
-0.3265 0.2093 -0.1214 0.9984
-0.3273 0.2030 -0.1206 0.9984
-0.3321 0.1739 -0.1173 0.9984
-0.3340 0.1625 -0.1163 0.9984
-0.3374 0.1347 -0.1137 0.9985
-0.3379 0.1292 -0.1132 0.9985
-0.3384 0.1238 -0.1128 0.9985
-0.3389 0.1184 -0.1124 0.9985
-0.3393 0.1130 -0.1119 0.9985
-0.3397 0.1077 -0.1115 0.9985
-0.3404 0.0970 -0.1108 0.9985
-0.3407 0.0917 -0.1104 0.9985
-0.3413 0.0760 -0.1095 0.9985
-0.3415 0.0708 -0.1092 0.9985
-0.3417 0.0605 -0.1086 0.9985
-0.3418 0.0401 -0.1077 0.9986
-0.3416 0.0300 -0.1073 0.9986
-0.3415 0.0250 -0.1072 0.9986
-0.3414 0.0200 -0.1070 0.9986
-0.3410 0.0100 -0.1068 0.9986
-0.3352 -0.0049 -0.1090 0.9986
-0.3357 -0.0148 -0.1093 0.9986
-0.3358 -0.0196 -0.1094 0.9986
-0.3361 -0.0295 -0.1097 0.9986
-0.3362 -0.0345 -0.1099 0.9986
-0.3362 -0.0395 -0.1101 0.9986
-0.3360 -0.0646 -0.1113 0.9986
-0.3347 -0.0954 -0.1132 0.9985
-0.3340 -0.1058 -0.1139 0.9985
-0.3336 -0.1111 -0.1143 0.9985
-0.3327 -0.1216 -0.1152 0.9985
-0.3321 -0.1271 -0.1157 0.9985
-0.3304 -0.1432 -0.1171 0.9985
-0.3297 -0.1487 -0.1176 0.9985
-0.3290 -0.1542 -0.1182 0.9985
-0.3263 -0.1708 -0.1198 0.9985
-0.3211 -0.1992 -0.1229 0.9984
-0.3194 -0.2113 -0.1246 0.9984
-0.3185 -0.2174 -0.1254 0.9984
-0.3175 -0.2236 -0.1263 0.9984
-0.3165 -0.2299 -0.1272 0.9984
-0.3154 -0.2362 -0.1281 0.9983
-0.3142 -0.2427 -0.1291 0.9983
-0.3118 -0.2557 -0.1311 0.9983
-0.3077 -0.2757 -0.1344 0.9983
-0.3062 -0.2826 -0.1355 0.9982
-0.3047 -0.2895 -0.1367 0.9982
-0.3014 -0.3036 -0.1391 0.9982
-0.2978 -0.3181 -0.1417 0.9982
-0.2959 -0.3255 -0.1430 0.9982
-0.2935 -0.3325 -0.1442 0.9981
-0.2886 -0.3468 -0.1467 0.9981
-0.2834 -0.3615 -0.1494 0.9981
-0.2806 -0.3689 -0.1508 0.9981
-0.2749 -0.3842 -0.1536 0.9980
-0.2719 -0.3921 -0.1552 0.9980
-0.2689 -0.4001 -0.1568 0.9980
-0.2625 -0.4163 -0.1601 0.9979
-0.2591 -0.4246 -0.1618 0.9979
-0.2406 -0.4681 -0.1712 0.9978
-0.2324 -0.4864 -0.1753 0.9977
-0.2240 -0.5065 -0.1801 0.9977
-0.2154 -0.5281 -0.1855 0.9976
-0.2060 -0.5506 -0.1912 0.9975
-0.2010 -0.5623 -0.1942 0.9975
-0.1985 -0.5819 -0.2000 0.9974
-0.8461 -2.8885 -0.9789 0.9874
-0.7613 -2.9121 -0.9789 0.9874
-0.7187 -2.9230 -0.9789 0.9874
-0.6330 -2.9428 -0.9790 0.9874
-0.5900 -2.9518 -0.9790 0.9874
-0.5468 -2.9601 -0.9790 0.9874
-0.3729 -2.9872 -0.9791 0.9874
-0.2855 -2.9969 -0.9791 0.9874
-0.1100 -3.0086 -0.9791 0.9874
-0.0660 -3.0100 -0.9792 0.9874
-0.0220 -3.0107 -0.9792 0.9874
0.1100 -3.0089 -0.9792 0.9874
0.1539 -3.0070 -0.9792 0.9874
0.1979 -3.0045 -0.9792 0.9874
0.4171 -2.9855 -0.9804 0.9874
0.4607 -2.9791 -0.9804 0.9874
0.5042 -2.9721 -0.9804 0.9874
0.6340 -2.9473 -0.9805 0.9874
0.7198 -2.9276 -0.9805 0.9874
0.8897 -2.8807 -0.9805 0.9874
1.0151 -2.8391 -0.9806 0.9874
1.0977 -2.8083 -0.9806 0.9874
1.1793 -2.7751 -0.9806 0.9874
1.2998 -2.7209 -0.9807 0.9874
1.3807 -2.6854 -0.9820 0.9874
1.4263 -2.6772 -0.9866 0.9873
1.5570 -2.6372 -0.9960 0.9872
1.5954 -2.6142 -0.9960 0.9872
1.6712 -2.5665 -0.9961 0.9872
1.7085 -2.5419 -0.9961 0.9872
1.7821 -2.4909 -0.9961 0.9872
1.8542 -2.4378 -0.9961 0.9872
1.8896 -2.4105 -0.9961 0.9872
1.9247 -2.3827 -0.9961 0.9872
1.9593 -2.3544 -0.9962 0.9872
1.9935 -2.3255 -0.9962 0.9872
2.0273 -2.2961 -0.9962 0.9872
2.0607 -2.2663 -0.9962 0.9872
2.1580 -2.1739 -0.9962 0.9872
2.1896 -2.1421 -0.9962 0.9872
2.2207 -2.1100 -0.9962 0.9872
2.2513 -2.0773 -0.9963 0.9872
2.3403 -1.9767 -0.9963 0.9872
2.3689 -1.9423 -0.9963 0.9872
2.3971 -1.9075 -0.9963 0.9872
2.4247 -1.8723 -0.9963 0.9872
2.4518 -1.8366 -0.9963 0.9872
2.4784 -1.8007 -0.9963 0.9872
2.5045 -1.7643 -0.9963 0.9872
2.5550 -1.6904 -0.9964 0.9872
2.5795 -1.6529 -0.9964 0.9872
2.6034 -1.6150 -0.9964 0.9872
2.6267 -1.5768 -0.9964 0.9872
2.6495 -1.5383 -0.9964 0.9872
2.6717 -1.4994 -0.9964 0.9872
2.7144 -1.4207 -0.9964 0.9872
2.7742 -1.3004 -0.9964 0.9872
2.8285 -1.1777 -0.9965 0.9872
2.8618 -1.0945 -0.9965 0.9872
2.8774 -1.0526 -0.9965 0.9872
2.8926 -1.0104 -0.9965 0.9872
2.9070 -0.9680 -0.9965 0.9872
2.9341 -0.8827 -0.9965 0.9872
2.9586 -0.7966 -0.9965 0.9872
2.9807 -0.7098 -0.9965 0.9872
3.0002 -0.6225 -0.9965 0.9872
3.0090 -0.5785 -0.9965 0.9872
3.0171 -0.5345 -0.9965 0.9872
3.0246 -0.4904 -0.9965 0.9872
3.0315 -0.4461 -0.9965 0.9872
3.0377 -0.4018 -0.9965 0.9872
3.0432 -0.3573 -0.9965 0.9872
3.0524 -0.2683 -0.9965 0.9872
3.0559 -0.2237 -0.9965 0.9872
3.0612 -0.1343 -0.9965 0.9872
3.0638 0.0448 -0.9965 0.9872
3.0560 0.2237 -0.9965 0.9872
3.0376 0.4018 -0.9965 0.9872
3.0246 0.4904 -0.9965 0.9872
3.0090 0.5786 -0.9965 0.9872
3.0002 0.6224 -0.9965 0.9872
2.9700 0.7533 -0.9965 0.9872
2.9586 0.7966 -0.9965 0.9872
2.9467 0.8398 -0.9965 0.9872
2.9341 0.8828 -0.9965 0.9872
2.9208 0.9255 -0.9965 0.9872
2.8774 1.0526 -0.9965 0.9872
2.8618 1.0945 -0.9965 0.9872
2.8110 1.2188 -0.9964 0.9872
2.7929 1.2598 -0.9964 0.9872
2.7741 1.3005 -0.9964 0.9872
2.7548 1.3409 -0.9964 0.9872
2.7349 1.3810 -0.9964 0.9872
2.6495 1.5383 -0.9964 0.9872
2.6034 1.6150 -0.9964 0.9872
2.4784 1.8007 -0.9963 0.9872
2.3971 1.9075 -0.9963 0.9872
2.3689 1.9423 -0.9963 0.9872
2.3403 1.9767 -0.9963 0.9872
2.2815 2.0442 -0.9963 0.9872
2.2514 2.0773 -0.9963 0.9872
2.1896 2.1422 -0.9962 0.9872
2.1581 2.1739 -0.9962 0.9872
2.1261 2.2052 -0.9962 0.9872
2.0606 2.2663 -0.9962 0.9872
1.9935 2.3255 -0.9962 0.9872
1.8183 2.4647 -0.9961 0.9872
1.7455 2.5167 -0.9961 0.9872
1.7085 2.5419 -0.9961 0.9872
1.6712 2.5666 -0.9961 0.9872
1.5183 2.6597 -0.9960 0.9872
1.4399 2.7028 -0.9960 0.9872
1.3200 2.7632 -0.9959 0.9872
1.2387 2.8005 -0.9959 0.9872
1.1147 2.8520 -0.9959 0.9872
1.0729 2.8679 -0.9959 0.9872
0.9887 2.8980 -0.9958 0.9872
0.9462 2.9120 -0.9958 0.9872
0.9035 2.9255 -0.9958 0.9872
0.8607 2.9384 -0.9958 0.9872
0.6000 3.0022 -0.9957 0.9872
0.5561 3.0106 -0.9957 0.9872
0.5120 3.0183 -0.9957 0.9872
0.4679 3.0255 -0.9956 0.9872
0.4236 3.0320 -0.9956 0.9872
0.3793 3.0377 -0.9956 0.9872
0.2457 3.0513 -0.9956 0.9872
0.2011 3.0545 -0.9956 0.9872
0.1118 3.0590 -0.9955 0.9872
0.0223 3.0608 -0.9955 0.9872
-0.1564 3.0568 -0.9954 0.9872
-0.2011 3.0541 -0.9954 0.9872
-0.2457 3.0507 -0.9954 0.9872
-0.2903 3.0468 -0.9954 0.9872
-0.3791 3.0370 -0.9954 0.9872
-0.4235 3.0311 -0.9953 0.9872
-0.5559 3.0094 -0.9953 0.9872
-0.6872 2.9820 -0.9953 0.9872
-0.8171 2.9489 -0.9952 0.9872
-0.2055 0.6655 -0.2265 0.9971
-0.1985 0.5820 -0.2000 0.9974
-0.2108 0.5393 -0.1883 0.9976
-0.2154 0.5281 -0.1855 0.9976
-0.2240 0.5065 -0.1801 0.9977
-0.2281 0.4961 -0.1776 0.9977
-0.2366 0.4772 -0.1732 0.9978
-0.2406 0.4681 -0.1712 0.9978
-0.2446 0.4591 -0.1692 0.9978
-0.2484 0.4503 -0.1673 0.9978
-0.2521 0.4416 -0.1654 0.9979
-0.2625 0.4163 -0.1601 0.9979
-0.2657 0.4081 -0.1584 0.9980
-0.2689 0.4001 -0.1568 0.9980
-0.2749 0.3842 -0.1536 0.9980
-0.2778 0.3765 -0.1522 0.9980
-0.2806 0.3689 -0.1508 0.9981
-0.2834 0.3615 -0.1494 0.9981
-0.2886 0.3468 -0.1467 0.9981
-0.2959 0.3254 -0.1430 0.9982
-0.2979 0.3180 -0.1417 0.9982
-0.2996 0.3108 -0.1404 0.9982
-0.3014 0.3036 -0.1391 0.9982
-0.3077 0.2757 -0.1344 0.9983
-0.3091 0.2689 -0.1333 0.9983
-0.3118 0.2557 -0.1311 0.9983
-0.3154 0.2362 -0.1281 0.9983
-0.3185 0.2175 -0.1254 0.9984
-0.3211 0.1993 -0.1229 0.9984
-0.3231 0.1876 -0.1215 0.9984
-0.3242 0.1820 -0.1209 0.9984
-0.3253 0.1763 -0.1203 0.9984
-0.3272 0.1652 -0.1192 0.9985
-0.3290 0.1542 -0.1182 0.9985
-0.3297 0.1487 -0.1176 0.9985
-0.3304 0.1433 -0.1171 0.9985
-0.3310 0.1379 -0.1166 0.9985
-0.3316 0.1324 -0.1161 0.9985
-0.3321 0.1270 -0.1157 0.9985
-0.3326 0.1217 -0.1152 0.9985
-0.3336 0.1111 -0.1143 0.9985
-0.3344 0.1006 -0.1136 0.9985
-0.3350 0.0902 -0.1128 0.9985
-0.3355 0.0799 -0.1122 0.9986
-0.3357 0.0748 -0.1119 0.9986
-0.3360 0.0646 -0.1113 0.9986
-0.3361 0.0595 -0.1110 0.9986
-0.3362 0.0545 -0.1108 0.9986
-0.3362 0.0495 -0.1105 0.9986
-0.3362 0.0395 -0.1101 0.9986
-0.3362 0.0345 -0.1099 0.9986
-0.3361 0.0296 -0.1097 0.9986
-0.3358 0.0196 -0.1094 0.9986
-0.3357 0.0147 -0.1093 0.9986
-0.3352 0.0049 -0.1090 0.9986
-0.3303 -0.0145 -0.1116 0.9986
-0.3306 -0.0242 -0.1119 0.9986
-0.3307 -0.0291 -0.1120 0.9986
-0.3308 -0.0339 -0.1122 0.9986
-0.3308 -0.0388 -0.1124 0.9986
-0.3308 -0.0437 -0.1126 0.9986
-0.3307 -0.0536 -0.1131 0.9986
-0.3304 -0.0685 -0.1139 0.9986
-0.3297 -0.0837 -0.1148 0.9986
-0.3294 -0.0887 -0.1152 0.9986
-0.3280 -0.1092 -0.1167 0.9985
-0.3260 -0.1302 -0.1185 0.9985
-0.3254 -0.1355 -0.1190 0.9985
-0.3247 -0.1408 -0.1195 0.9985
-0.3241 -0.1462 -0.1200 0.9985
-0.3233 -0.1516 -0.1205 0.9985
-0.3224 -0.1569 -0.1210 0.9985
-0.3215 -0.1623 -0.1216 0.9985
-0.3185 -0.1787 -0.1233 0.9985
-0.3174 -0.1843 -0.1239 0.9985
-0.3134 -0.2073 -0.1268 0.9984
-0.3124 -0.2133 -0.1277 0.9984
-0.3103 -0.2255 -0.1295 0.9984
-0.3092 -0.2316 -0.1304 0.9984
-0.3056 -0.2505 -0.1334 0.9983
-0.3042 -0.2570 -0.1344 0.9983
-0.3028 -0.2634 -0.1355 0.9983
-0.2999 -0.2767 -0.1377 0.9983
-0.2967 -0.2902 -0.1401 0.9982
-0.2914 -0.3113 -0.1439 0.9982
-0.2873 -0.3254 -0.1465 0.9982
-0.2849 -0.3323 -0.1477 0.9982
-0.2798 -0.3463 -0.1503 0.9981
-0.2772 -0.3536 -0.1516 0.9981
-0.2744 -0.3608 -0.1530 0.9981
-0.2562 -0.4064 -0.1622 0.9980
-0.2529 -0.4144 -0.1639 0.9980
-0.2495 -0.4225 -0.1656 0.9979
-0.2459 -0.4307 -0.1674 0.9979
-0.2422 -0.4391 -0.1693 0.9979
-0.2384 -0.4476 -0.1712 0.9979
-0.2345 -0.4562 -0.1731 0.9978
-0.2305 -0.4649 -0.1751 0.9978
-0.2220 -0.4828 -0.1794 0.9978
-0.2085 -0.5112 -0.1864 0.9977
-0.2039 -0.5218 -0.1891 0.9976
-0.1943 -0.5435 -0.1948 0.9976
-0.1852 -0.6322 -0.2224 0.9972
-0.7753 -2.7980 -0.9800 0.9878
-0.6933 -2.8195 -0.9800 0.9878
-0.6513 -2.8263 -0.9790 0.9878
-0.5268 -2.8523 -0.9790 0.9878
-0.4851 -2.8598 -0.9790 0.9878
-0.4014 -2.8727 -0.9790 0.9878
-0.2751 -2.8877 -0.9791 0.9878
-0.2329 -2.8915 -0.9791 0.9878
-0.1483 -2.8971 -0.9791 0.9878
-0.0212 -2.9010 -0.9792 0.9878
0.0212 -2.9010 -0.9792 0.9878
0.0636 -2.9004 -0.9792 0.9878
0.2754 -2.8914 -0.9803 0.9878
0.3177 -2.8871 -0.9804 0.9878
0.3598 -2.8822 -0.9804 0.9878
0.4019 -2.8767 -0.9804 0.9878
0.4439 -2.8705 -0.9804 0.9878
0.4858 -2.8637 -0.9804 0.9878
0.5276 -2.8564 -0.9804 0.9878
0.5693 -2.8484 -0.9804 0.9878
0.6936 -2.8209 -0.9805 0.9878
0.7348 -2.8105 -0.9805 0.9878
1.2276 -2.6693 -0.9917 0.9877
1.3874 -2.6042 -0.9960 0.9876
1.5373 -2.5189 -0.9960 0.9876
1.5739 -2.4962 -0.9960 0.9876
1.6819 -2.4249 -0.9961 0.9876
1.7171 -2.4001 -0.9961 0.9876
1.7520 -2.3748 -0.9961 0.9876
1.8207 -2.3227 -0.9961 0.9876
1.8879 -2.2685 -0.9961 0.9876
1.9208 -2.2407 -0.9961 0.9876
1.9534 -2.2124 -0.9962 0.9876
2.0172 -2.1545 -0.9962 0.9876
2.0485 -2.1248 -0.9962 0.9876
2.1098 -2.0640 -0.9962 0.9876
2.2268 -1.9373 -0.9962 0.9876
2.2549 -1.9046 -0.9963 0.9876
2.2826 -1.8715 -0.9963 0.9876
2.3097 -1.8380 -0.9963 0.9876
2.3881 -1.7350 -0.9963 0.9876
2.4132 -1.7000 -0.9963 0.9876
2.4378 -1.6645 -0.9963 0.9876
2.4618 -1.6287 -0.9963 0.9876
2.5529 -1.4822 -0.9964 0.9876
2.5743 -1.4448 -0.9964 0.9876
2.5952 -1.4070 -0.9964 0.9876
2.6154 -1.3689 -0.9964 0.9876
2.6352 -1.3306 -0.9964 0.9876
2.6910 -1.2138 -0.9964 0.9876
2.7085 -1.1744 -0.9964 0.9876
2.7254 -1.1347 -0.9964 0.9876
2.7417 -1.0948 -0.9964 0.9876
2.7725 -1.0142 -0.9964 0.9876
2.7870 -0.9736 -0.9964 0.9876
2.8010 -0.9328 -0.9964 0.9876
2.8617 -0.7258 -0.9965 0.9876
2.8908 -0.5997 -0.9965 0.9876
2.9143 -0.4725 -0.9965 0.9876
2.9495 -0.1294 -0.9965 0.9876
2.9511 -0.0862 -0.9965 0.9876
2.9521 -0.0432 -0.9965 0.9876
2.9521 0.0432 -0.9965 0.9876
2.9511 0.0862 -0.9965 0.9876
2.9495 0.1294 -0.9965 0.9876
2.9473 0.1725 -0.9965 0.9876
2.9445 0.2155 -0.9965 0.9876
2.9369 0.3015 -0.9965 0.9876
2.9269 0.3871 -0.9965 0.9876
2.9209 0.4298 -0.9965 0.9876
2.9143 0.4725 -0.9965 0.9876
2.9071 0.5150 -0.9965 0.9876
2.8992 0.5574 -0.9965 0.9876
2.8817 0.6419 -0.9965 0.9876
2.8720 0.6840 -0.9965 0.9876
2.8508 0.7676 -0.9965 0.9876
2.8271 0.8505 -0.9965 0.9876
2.8143 0.8918 -0.9965 0.9876
2.8010 0.9328 -0.9964 0.9876
2.7725 1.0142 -0.9964 0.9876
2.7574 1.0546 -0.9964 0.9876
2.6910 1.2139 -0.9964 0.9876
2.6544 1.2919 -0.9964 0.9876
2.5952 1.4070 -0.9964 0.9876
2.5743 1.4448 -0.9964 0.9876
2.5529 1.4822 -0.9964 0.9876
2.5309 1.5193 -0.9964 0.9876
2.5085 1.5562 -0.9963 0.9876
2.4854 1.5926 -0.9963 0.9876
2.4378 1.6645 -0.9963 0.9876
2.3624 1.7697 -0.9963 0.9876
2.2825 1.8715 -0.9963 0.9876
2.2549 1.9046 -0.9963 0.9876
2.2269 1.9373 -0.9962 0.9876
2.1692 2.0016 -0.9962 0.9876
2.1098 2.0640 -0.9962 0.9876
1.9855 2.1837 -0.9962 0.9876
1.9534 2.2125 -0.9962 0.9876
1.9208 2.2407 -0.9961 0.9876
1.8879 2.2685 -0.9961 0.9876
1.8207 2.3227 -0.9961 0.9876
1.7866 2.3490 -0.9961 0.9876
1.7521 2.3748 -0.9961 0.9876
1.7171 2.4001 -0.9961 0.9876
1.6819 2.4249 -0.9961 0.9876
1.6102 2.4729 -0.9960 0.9876
1.5739 2.4962 -0.9960 0.9876
1.5003 2.5411 -0.9960 0.9876
1.4254 2.5838 -0.9960 0.9876
1.3492 2.6243 -0.9959 0.9876
1.3107 2.6436 -0.9959 0.9876
1.2719 2.6624 -0.9959 0.9876
1.2329 2.6807 -0.9959 0.9876
1.1540 2.7155 -0.9959 0.9876
1.1142 2.7321 -0.9959 0.9876
1.0338 2.7634 -0.9958 0.9876
0.9933 2.7781 -0.9958 0.9876
0.8706 2.8189 -0.9958 0.9876
0.7878 2.8430 -0.9958 0.9876
0.6625 2.8747 -0.9957 0.9876
0.5782 2.8927 -0.9957 0.9876
0.4934 2.9083 -0.9957 0.9876
0.3226 2.9320 -0.9956 0.9876
0.2798 2.9364 -0.9956 0.9876
0.1938 2.9432 -0.9956 0.9876
0.1077 2.9475 -0.9955 0.9876
0.0646 2.9488 -0.9955 0.9876
0.0216 2.9494 -0.9955 0.9876
-0.0216 2.9493 -0.9955 0.9876
-0.0646 2.9486 -0.9955 0.9876
-0.1508 2.9454 -0.9954 0.9876
-0.1938 2.9428 -0.9954 0.9876
-0.2368 2.9396 -0.9954 0.9876
-0.2797 2.9358 -0.9954 0.9876
-0.3225 2.9314 -0.9954 0.9876
-0.4080 2.9206 -0.9953 0.9876
-0.5779 2.8916 -0.9953 0.9876
-0.6201 2.8828 -0.9953 0.9876
-0.7040 2.8634 -0.9952 0.9876
-0.7874 2.8415 -0.9952 0.9876
-0.1943 0.5435 -0.1948 0.9976
-0.1992 0.5325 -0.1919 0.9976
-0.2039 0.5218 -0.1891 0.9976
-0.2176 0.4920 -0.1816 0.9977
-0.2305 0.4649 -0.1751 0.9978
-0.2345 0.4562 -0.1731 0.9978
-0.2422 0.4391 -0.1693 0.9979
-0.2495 0.4225 -0.1656 0.9979
-0.2716 0.3681 -0.1544 0.9981
-0.2744 0.3608 -0.1530 0.9981
-0.2798 0.3464 -0.1503 0.9981
-0.2849 0.3323 -0.1477 0.9982
-0.2895 0.3184 -0.1453 0.9982
-0.2914 0.3113 -0.1439 0.9982
-0.2932 0.3041 -0.1426 0.9982
-0.2950 0.2972 -0.1413 0.9982
-0.2967 0.2903 -0.1401 0.9982
-0.2983 0.2835 -0.1389 0.9983
-0.3014 0.2700 -0.1366 0.9983
-0.3029 0.2635 -0.1355 0.9983
-0.3043 0.2570 -0.1344 0.9983
-0.3092 0.2316 -0.1304 0.9984
-0.3103 0.2254 -0.1295 0.9984
-0.3114 0.2193 -0.1286 0.9984
-0.3133 0.2073 -0.1268 0.9984
-0.3143 0.2014 -0.1260 0.9984
-0.3151 0.1955 -0.1252 0.9984
-0.3163 0.1899 -0.1245 0.9984
-0.3205 0.1678 -0.1221 0.9985
-0.3233 0.1515 -0.1205 0.9985
-0.3241 0.1461 -0.1200 0.9985
-0.3247 0.1408 -0.1195 0.9985
-0.3254 0.1355 -0.1190 0.9985
-0.3260 0.1302 -0.1185 0.9985
-0.3275 0.1144 -0.1171 0.9985
-0.3284 0.1041 -0.1163 0.9985
-0.3291 0.0938 -0.1155 0.9986
-0.3295 0.0887 -0.1152 0.9986
-0.3297 0.0836 -0.1148 0.9986
-0.3302 0.0736 -0.1142 0.9986
-0.3305 0.0636 -0.1136 0.9986
-0.3306 0.0586 -0.1133 0.9986
-0.3308 0.0487 -0.1129 0.9986
-0.3308 0.0437 -0.1126 0.9986
-0.3305 0.0193 -0.1117 0.9986
-0.3303 0.0145 -0.1116 0.9986
-0.3301 0.0096 -0.1115 0.9986
-0.3244 0.0000 -0.1135 0.9986
-0.3247 -0.0047 -0.1136 0.9986
-0.3249 -0.0095 -0.1137 0.9986
-0.3253 -0.0238 -0.1141 0.9986
-0.3255 -0.0479 -0.1151 0.9986
-0.3252 -0.0625 -0.1159 0.9986
-0.3250 -0.0674 -0.1162 0.9986
-0.3246 -0.0773 -0.1168 0.9986
-0.3241 -0.0873 -0.1174 0.9986
-0.3238 -0.0923 -0.1178 0.9986
-0.3234 -0.0973 -0.1182 0.9986
-0.3216 -0.1177 -0.1198 0.9985
-0.3211 -0.1228 -0.1203 0.9985
-0.3205 -0.1280 -0.1208 0.9985
-0.3192 -0.1384 -0.1218 0.9985
-0.3178 -0.1489 -0.1228 0.9985
-0.3169 -0.1542 -0.1233 0.9985
-0.3129 -0.1756 -0.1256 0.9985
-0.3065 -0.2093 -0.1299 0.9984
-0.3033 -0.2271 -0.1326 0.9984
-0.3021 -0.2332 -0.1335 0.9984
-0.2995 -0.2456 -0.1355 0.9984
-0.2982 -0.2519 -0.1366 0.9983
-0.2968 -0.2582 -0.1377 0.9983
-0.2938 -0.2711 -0.1399 0.9983
-0.2922 -0.2777 -0.1411 0.9983
-0.2906 -0.2843 -0.1422 0.9983
-0.2889 -0.2910 -0.1435 0.9983
-0.2871 -0.2978 -0.1447 0.9982
-0.2852 -0.3046 -0.1460 0.9982
-0.2833 -0.3116 -0.1474 0.9982
-0.2813 -0.3186 -0.1487 0.9982
-0.2656 -0.3599 -0.1565 0.9981
-0.2627 -0.3672 -0.1580 0.9981
-0.2469 -0.4046 -0.1658 0.9980
-0.2399 -0.4204 -0.1694 0.9980
-0.2363 -0.4284 -0.1712 0.9979
-0.2325 -0.4365 -0.1731 0.9979
-0.2247 -0.4531 -0.1770 0.9979
-0.2119 -0.4790 -0.1833 0.9978
-0.1978 -0.5061 -0.1902 0.9977
-0.1880 -0.5259 -0.1954 0.9976
-0.1830 -0.5364 -0.1983 0.9976
-0.1724 -0.5582 -0.2044 0.9975
-0.1668 -0.5694 -0.2076 0.9975
-0.1667 -0.6015 -0.2184 0.9974
-0.7084 -2.7096 -0.9800 0.9882
-0.6289 -2.7293 -0.9800 0.9882
-0.5087 -2.7543 -0.9801 0.9882
-0.4280 -2.7680 -0.9801 0.9882
-0.3876 -2.7740 -0.9801 0.9882
-0.3470 -2.7794 -0.9801 0.9882
-0.2657 -2.7885 -0.9802 0.9882
-0.2249 -2.7921 -0.9802 0.9882
-0.1023 -2.7994 -0.9802 0.9882
-0.0205 -2.8012 -0.9802 0.9882
0.1023 -2.7996 -0.9803 0.9882
0.1432 -2.7978 -0.9803 0.9882
0.1841 -2.7955 -0.9803 0.9882
0.2657 -2.7890 -0.9803 0.9882
0.3471 -2.7801 -0.9804 0.9882
0.3877 -2.7748 -0.9804 0.9882
0.5089 -2.7553 -0.9804 0.9882
0.5892 -2.7393 -0.9804 0.9882
0.6690 -2.7210 -0.9805 0.9882
0.7087 -2.7109 -0.9805 0.9882
0.7483 -2.7003 -0.9805 0.9882
0.7880 -2.6904 -0.9810 0.9882
0.8294 -2.6856 -0.9836 0.9882
0.8710 -2.6807 -0.9863 0.9881
0.9967 -2.6641 -0.9953 0.9880
1.0361 -2.6507 -0.9958 0.9880
1.0747 -2.6353 -0.9959 0.9880
1.1513 -2.6028 -0.9959 0.9880
1.3014 -2.5312 -0.9959 0.9880
1.3383 -2.5120 -0.9959 0.9880
1.3748 -2.4922 -0.9960 0.9880
1.4111 -2.4719 -0.9960 0.9880
1.4828 -2.4296 -0.9960 0.9880
1.6223 -2.3390 -0.9960 0.9880
1.6563 -2.3150 -0.9961 0.9880
1.6900 -2.2907 -0.9961 0.9880
1.7233 -2.2657 -0.9961 0.9880
1.7562 -2.2404 -0.9961 0.9880
1.7888 -2.2145 -0.9961 0.9880
1.8842 -2.1340 -0.9961 0.9880
1.9152 -2.1063 -0.9961 0.9880
1.9457 -2.0781 -0.9962 0.9880
1.9759 -2.0495 -0.9962 0.9880
2.0350 -1.9909 -0.9962 0.9880
2.0639 -1.9609 -0.9962 0.9880
2.0924 -1.9306 -0.9962 0.9880
2.1204 -1.8998 -0.9962 0.9880
2.1480 -1.8687 -0.9962 0.9880
2.2278 -1.7729 -0.9962 0.9880
2.2787 -1.7070 -0.9963 0.9880
2.3746 -1.5710 -0.9963 0.9880
2.3973 -1.5362 -0.9963 0.9880
2.4412 -1.4655 -0.9963 0.9880
2.4831 -1.3935 -0.9963 0.9880
2.5418 -1.2834 -0.9964 0.9880
2.5603 -1.2462 -0.9964 0.9880
2.5782 -1.2086 -0.9964 0.9880
2.6125 -1.1328 -0.9964 0.9880
2.6288 -1.0945 -0.9964 0.9880
2.6445 -1.0560 -0.9964 0.9880
2.7146 -0.8602 -0.9964 0.9880
2.7269 -0.8204 -0.9964 0.9880
2.7386 -0.7805 -0.9964 0.9880
2.7883 -0.5784 -0.9964 0.9880
2.7965 -0.5377 -0.9964 0.9880
2.8040 -0.4967 -0.9964 0.9880
2.8110 -0.4557 -0.9964 0.9880
2.8174 -0.4146 -0.9965 0.9880
2.8231 -0.3734 -0.9965 0.9880
2.8283 -0.3321 -0.9965 0.9880
2.8328 -0.2908 -0.9965 0.9880
2.8401 -0.2079 -0.9965 0.9880
2.8429 -0.1663 -0.9965 0.9880
2.8465 -0.0832 -0.9965 0.9880
2.8474 -0.0416 -0.9965 0.9880
2.8474 0.0416 -0.9965 0.9880
2.8450 0.1248 -0.9965 0.9880
2.8401 0.2079 -0.9965 0.9880
2.8283 0.3321 -0.9965 0.9880
2.7964 0.5377 -0.9964 0.9880
2.7795 0.6192 -0.9964 0.9880
2.7602 0.7002 -0.9964 0.9880
2.7269 0.8204 -0.9964 0.9880
2.7146 0.8601 -0.9964 0.9880
2.7017 0.8997 -0.9964 0.9880
2.6882 0.9391 -0.9964 0.9880
2.6597 1.0173 -0.9964 0.9880
2.6445 1.0560 -0.9964 0.9880
2.6287 1.0945 -0.9964 0.9880
2.6125 1.1328 -0.9964 0.9880
2.5782 1.2086 -0.9964 0.9880
2.5418 1.2834 -0.9964 0.9880
2.5227 1.3204 -0.9964 0.9880
2.5032 1.3571 -0.9963 0.9880
2.4830 1.3936 -0.9963 0.9880
2.4624 1.4297 -0.9963 0.9880
2.4413 1.4655 -0.9963 0.9880
2.3973 1.5362 -0.9963 0.9880
2.3277 1.6397 -0.9963 0.9880
2.3034 1.6735 -0.9963 0.9880
2.2787 1.7070 -0.9963 0.9880
2.2278 1.7728 -0.9963 0.9880
2.1204 1.8999 -0.9962 0.9880
2.0924 1.9306 -0.9962 0.9880
2.0350 1.9909 -0.9962 0.9880
1.8842 2.1341 -0.9961 0.9880
1.8210 2.1882 -0.9961 0.9880
1.7562 2.2404 -0.9961 0.9880
1.7233 2.2658 -0.9961 0.9880
1.6563 2.3150 -0.9961 0.9880
1.5182 2.4078 -0.9960 0.9880
1.4828 2.4297 -0.9960 0.9880
1.3749 2.4922 -0.9960 0.9880
1.3383 2.5120 -0.9959 0.9880
1.3014 2.5312 -0.9959 0.9880
1.1892 2.5858 -0.9959 0.9880
1.1513 2.6029 -0.9959 0.9880
1.1131 2.6193 -0.9959 0.9880
1.0747 2.6353 -0.9959 0.9880
1.0361 2.6507 -0.9958 0.9880
0.9972 2.6655 -0.9958 0.9880
0.9189 2.6934 -0.9958 0.9880
0.8397 2.7191 -0.9958 0.9880
0.7599 2.7423 -0.9957 0.9880
0.6794 2.7633 -0.9957 0.9880
0.5984 2.7819 -0.9957 0.9880
0.4759 2.8054 -0.9957 0.9880
0.4349 2.8120 -0.9956 0.9880
0.3937 2.8180 -0.9956 0.9880
0.1870 2.8390 -0.9956 0.9880
0.1454 2.8413 -0.9955 0.9880
-0.0208 2.8448 -0.9955 0.9880
-0.0623 2.8442 -0.9955 0.9880
-0.1454 2.8411 -0.9954 0.9880
-0.1869 2.8386 -0.9954 0.9880
-0.2698 2.8318 -0.9954 0.9880
-0.3111 2.8276 -0.9954 0.9880
-0.3524 2.8227 -0.9954 0.9880
-0.3936 2.8172 -0.9954 0.9880
-0.4347 2.8111 -0.9953 0.9880
-0.4757 2.8044 -0.9953 0.9880
-0.5166 2.7971 -0.9953 0.9880
-0.5575 2.7893 -0.9953 0.9880
-0.5981 2.7807 -0.9953 0.9880
-0.6791 2.7620 -0.9953 0.9880
-0.1667 0.6015 -0.2184 0.9974
-0.1724 0.5582 -0.2044 0.9975
-0.1778 0.5472 -0.2013 0.9976
-0.1880 0.5259 -0.1954 0.9976
-0.1928 0.5155 -0.1926 0.9977
-0.1978 0.5062 -0.1902 0.9977
-0.2027 0.4970 -0.1878 0.9977
-0.2074 0.4880 -0.1855 0.9978
-0.2119 0.4791 -0.1833 0.9978
-0.2247 0.4531 -0.1770 0.9979
-0.2287 0.4448 -0.1750 0.9979
-0.2325 0.4366 -0.1731 0.9979
-0.2399 0.4204 -0.1694 0.9980
-0.2469 0.4046 -0.1658 0.9980
-0.2534 0.3892 -0.1625 0.9980
-0.2566 0.3817 -0.1609 0.9981
-0.2597 0.3744 -0.1594 0.9981
-0.2627 0.3671 -0.1580 0.9981
-0.2656 0.3600 -0.1565 0.9981
-0.2711 0.3459 -0.1538 0.9981
-0.2889 0.2910 -0.1435 0.9983
-0.2906 0.2843 -0.1422 0.9983
-0.2922 0.2777 -0.1411 0.9983
-0.2968 0.2582 -0.1377 0.9983
-0.2982 0.2519 -0.1366 0.9983
-0.3044 0.2211 -0.1317 0.9984
-0.3054 0.2152 -0.1307 0.9984
-0.3065 0.2093 -0.1299 0.9984
-0.3084 0.1976 -0.1282 0.9984
-0.3095 0.1920 -0.1274 0.9985
-0.3106 0.1865 -0.1268 0.9985
-0.3118 0.1810 -0.1262 0.9985
-0.3129 0.1756 -0.1256 0.9985
-0.3139 0.1702 -0.1250 0.9985
-0.3178 0.1490 -0.1228 0.9985
-0.3185 0.1437 -0.1223 0.9985
-0.3192 0.1384 -0.1218 0.9985
-0.3199 0.1332 -0.1212 0.9985
-0.3205 0.1280 -0.1208 0.9985
-0.3221 0.1125 -0.1194 0.9986
-0.3230 0.1023 -0.1186 0.9986
-0.3237 0.0923 -0.1178 0.9986
-0.3244 0.0823 -0.1171 0.9986
-0.3252 0.0625 -0.1159 0.9986
-0.3253 0.0577 -0.1156 0.9986
-0.3254 0.0527 -0.1154 0.9986
-0.3255 0.0334 -0.1145 0.9986
-0.3254 0.0286 -0.1143 0.9986
-0.3252 0.0191 -0.1140 0.9986
-0.3251 0.0142 -0.1139 0.9986
-0.3249 0.0095 -0.1137 0.9986
-0.3247 0.0047 -0.1136 0.9986
-0.3196 -0.0046 -0.1158 0.9986
-0.3200 -0.0141 -0.1161 0.9986
-0.3201 -0.0187 -0.1162 0.9986
-0.3202 -0.0234 -0.1164 0.9986
-0.3203 -0.0282 -0.1165 0.9986
-0.3204 -0.0377 -0.1169 0.9986
-0.3204 -0.0424 -0.1171 0.9986
-0.3203 -0.0519 -0.1176 0.9986
-0.3194 -0.0761 -0.1190 0.9986
-0.3191 -0.0809 -0.1193 0.9986
-0.3181 -0.0957 -0.1204 0.9986
-0.3168 -0.1107 -0.1216 0.9986
-0.3163 -0.1157 -0.1220 0.9986
-0.3157 -0.1208 -0.1225 0.9986
-0.3152 -0.1258 -0.1230 0.9986
-0.3123 -0.1464 -0.1250 0.9985
-0.3105 -0.1568 -0.1261 0.9985
-0.3096 -0.1620 -0.1266 0.9985
-0.3075 -0.1726 -0.1278 0.9985
-0.3064 -0.1779 -0.1284 0.9985
-0.2997 -0.2112 -0.1329 0.9984
-0.2986 -0.2170 -0.1338 0.9984
-0.2975 -0.2229 -0.1347 0.9984
-0.2963 -0.2288 -0.1357 0.9984
-0.2937 -0.2408 -0.1376 0.9984
-0.2863 -0.2720 -0.1431 0.9983
-0.2846 -0.2785 -0.1443 0.9983
-0.2811 -0.2916 -0.1468 0.9983
-0.2793 -0.2983 -0.1481 0.9983
-0.2680 -0.3317 -0.1546 0.9982
-0.2598 -0.3521 -0.1586 0.9981
-0.2569 -0.3591 -0.1600 0.9981
-0.2508 -0.3732 -0.1630 0.9981
-0.2477 -0.3804 -0.1645 0.9981
-0.2342 -0.4103 -0.1712 0.9980
-0.2191 -0.4419 -0.1787 0.9979
-0.2150 -0.4500 -0.1808 0.9979
-0.2108 -0.4584 -0.1828 0.9979
-0.2064 -0.4667 -0.1849 0.9978
-0.2019 -0.4752 -0.1871 0.9978
-0.1926 -0.4927 -0.1917 0.9978
-0.1826 -0.5106 -0.1965 0.9977
-0.1773 -0.5198 -0.1991 0.9977
-0.1554 -0.5610 -0.2110 0.9975
-0.6162 -2.6739 -0.9944 0.9884
-0.4157 -2.6881 -0.9858 0.9885
-0.3361 -2.6921 -0.9832 0.9885
-0.2964 -2.6938 -0.9821 0.9885
-0.2568 -2.6953 -0.9812 0.9885
-0.0593 -2.7041 -0.9802 0.9886
0.0198 -2.7048 -0.9803 0.9886
0.0593 -2.7042 -0.9803 0.9886
0.0988 -2.7031 -0.9803 0.9886
0.2173 -2.6973 -0.9807 0.9886
0.2567 -2.6946 -0.9809 0.9885
0.2962 -2.6920 -0.9815 0.9885
0.3359 -2.6901 -0.9825 0.9885
0.3756 -2.6879 -0.9836 0.9885
0.4551 -2.6829 -0.9862 0.9885
0.5751 -2.6737 -0.9911 0.9884
0.6556 -2.6663 -0.9951 0.9884
0.7337 -2.6478 -0.9957 0.9884
0.7724 -2.6369 -0.9957 0.9884
0.8108 -2.6253 -0.9958 0.9884
0.8491 -2.6132 -0.9958 0.9884
0.9251 -2.5874 -0.9958 0.9884
1.0004 -2.5593 -0.9958 0.9884
1.0747 -2.5291 -0.9959 0.9884
1.1116 -2.5131 -0.9959 0.9884
1.1482 -2.4966 -0.9959 0.9884
1.2207 -2.4620 -0.9959 0.9884
1.2922 -2.4254 -0.9959 0.9884
1.3625 -2.3867 -0.9960 0.9884
1.4317 -2.3459 -0.9960 0.9884
1.4997 -2.3031 -0.9960 0.9884
1.6957 -2.1631 -0.9961 0.9884
1.7271 -2.1381 -0.9961 0.9884
1.7889 -2.0868 -0.9961 0.9884
1.8192 -2.0604 -0.9961 0.9884
1.8491 -2.0337 -0.9961 0.9884
1.8787 -2.0064 -0.9961 0.9884
1.9078 -1.9788 -0.9961 0.9884
1.9365 -1.9507 -0.9961 0.9884
1.9649 -1.9222 -0.9962 0.9884
2.0202 -1.8640 -0.9962 0.9884
2.1510 -1.7117 -0.9962 0.9884
2.1758 -1.6801 -0.9962 0.9884
2.2001 -1.6481 -0.9962 0.9884
2.2474 -1.5831 -0.9963 0.9884
2.3571 -1.4150 -0.9963 0.9884
2.3775 -1.3804 -0.9963 0.9884
2.3974 -1.3455 -0.9963 0.9884
2.4169 -1.3103 -0.9963 0.9884
2.4720 -1.2032 -0.9963 0.9884
2.5061 -1.1305 -0.9963 0.9884
2.5533 -1.0195 -0.9964 0.9884
2.5820 -0.9445 -0.9964 0.9884
2.5956 -0.9067 -0.9964 0.9884
2.6210 -0.8305 -0.9964 0.9884
2.6328 -0.7921 -0.9964 0.9884
2.6441 -0.7535 -0.9964 0.9884
2.6549 -0.7148 -0.9964 0.9884
2.6650 -0.6759 -0.9964 0.9884
2.6837 -0.5978 -0.9964 0.9884
2.7140 -0.4400 -0.9964 0.9884
2.7202 -0.4003 -0.9964 0.9884
2.7492 -0.0402 -0.9964 0.9884
2.7492 0.0402 -0.9964 0.9884
2.7484 0.0804 -0.9964 0.9884
2.7448 0.1606 -0.9964 0.9884
2.7422 0.2007 -0.9964 0.9884
2.7390 0.2407 -0.9964 0.9884
2.7351 0.2807 -0.9964 0.9884
2.7307 0.3207 -0.9964 0.9884
2.7140 0.4400 -0.9964 0.9884
2.6921 0.5586 -0.9964 0.9884
2.6837 0.5978 -0.9964 0.9884
2.6747 0.6370 -0.9964 0.9884
2.6549 0.7148 -0.9964 0.9884
2.6328 0.7921 -0.9964 0.9884
2.6085 0.8687 -0.9964 0.9884
2.5820 0.9445 -0.9964 0.9884
2.5533 1.0196 -0.9964 0.9884
2.5381 1.0568 -0.9964 0.9884
2.5061 1.1305 -0.9963 0.9884
2.4893 1.1670 -0.9963 0.9884
2.4720 1.2032 -0.9963 0.9884
2.4358 1.2749 -0.9963 0.9884
2.4169 1.3104 -0.9963 0.9884
2.2927 1.5169 -0.9963 0.9884
2.2703 1.5502 -0.9963 0.9884
2.2474 1.5832 -0.9963 0.9884
2.1758 1.6801 -0.9962 0.9884
2.1510 1.7117 -0.9962 0.9884
2.1000 1.7738 -0.9962 0.9884
2.0739 1.8043 -0.9962 0.9884
2.0473 1.8344 -0.9962 0.9884
2.0202 1.8641 -0.9962 0.9884
1.8787 2.0065 -0.9961 0.9884
1.8491 2.0337 -0.9961 0.9884
1.8192 2.0604 -0.9961 0.9884
1.7889 2.0868 -0.9961 0.9884
1.6639 2.1876 -0.9961 0.9884
1.5332 2.2811 -0.9960 0.9884
1.4658 2.3247 -0.9960 0.9884
1.3972 2.3666 -0.9960 0.9884
1.3275 2.4063 -0.9959 0.9884
1.2207 2.4621 -0.9959 0.9884
1.1846 2.4796 -0.9959 0.9884
1.1116 2.5131 -0.9959 0.9884
1.0377 2.5445 -0.9958 0.9884
1.0004 2.5593 -0.9958 0.9884
0.8491 2.6132 -0.9958 0.9884
0.8108 2.6254 -0.9958 0.9884
0.5778 2.6860 -0.9957 0.9884
0.5385 2.6941 -0.9957 0.9884
0.4990 2.7017 -0.9957 0.9884
0.3403 2.7261 -0.9956 0.9884
0.3005 2.7307 -0.9956 0.9884
0.2206 2.7383 -0.9956 0.9884
0.0602 2.7463 -0.9955 0.9884
-0.1404 2.7432 -0.9954 0.9884
-0.1805 2.7409 -0.9954 0.9884
-0.3004 2.7302 -0.9954 0.9884
-0.3800 2.7202 -0.9954 0.9884
-0.4197 2.7143 -0.9953 0.9884
-0.4593 2.7078 -0.9953 0.9884
-0.4989 2.7007 -0.9953 0.9884
-0.5775 2.6850 -0.9953 0.9884
-0.1554 0.5610 -0.2110 0.9975
-0.1667 0.5397 -0.2047 0.9976
-0.1773 0.5198 -0.1991 0.9977
-0.1826 0.5106 -0.1965 0.9977
-0.2020 0.4752 -0.1871 0.9978
-0.2191 0.4419 -0.1787 0.9979
-0.2306 0.4180 -0.1730 0.9980
-0.2411 0.3952 -0.1678 0.9980
-0.2444 0.3877 -0.1661 0.9981
-0.2477 0.3804 -0.1645 0.9981
-0.2508 0.3732 -0.1630 0.9981
-0.2569 0.3591 -0.1600 0.9981
-0.2598 0.3522 -0.1586 0.9981
-0.2626 0.3453 -0.1572 0.9982
-0.2705 0.3251 -0.1533 0.9982
-0.2731 0.3186 -0.1520 0.9982
-0.2753 0.3119 -0.1508 0.9982
-0.2829 0.2850 -0.1455 0.9983
-0.2846 0.2785 -0.1443 0.9983
-0.2863 0.2720 -0.1431 0.9983
-0.2879 0.2657 -0.1420 0.9983
-0.2894 0.2593 -0.1408 0.9983
-0.2923 0.2470 -0.1387 0.9984
-0.2963 0.2288 -0.1357 0.9984
-0.3018 0.1997 -0.1311 0.9985
-0.3040 0.1886 -0.1297 0.9985
-0.3052 0.1832 -0.1290 0.9985
-0.3075 0.1726 -0.1278 0.9985
-0.3096 0.1620 -0.1266 0.9985
-0.3105 0.1568 -0.1261 0.9985
-0.3114 0.1516 -0.1255 0.9985
-0.3163 0.1157 -0.1220 0.9986
-0.3168 0.1107 -0.1216 0.9986
-0.3173 0.1057 -0.1212 0.9986
-0.3181 0.0957 -0.1204 0.9986
-0.3191 0.0809 -0.1193 0.9986
-0.3194 0.0761 -0.1190 0.9986
-0.3196 0.0712 -0.1187 0.9986
-0.3198 0.0663 -0.1184 0.9986
-0.3201 0.0567 -0.1178 0.9986
-0.3203 0.0471 -0.1173 0.9986
-0.3204 0.0376 -0.1169 0.9986
-0.3202 0.0234 -0.1164 0.9986
-0.3201 0.0187 -0.1162 0.9986
-0.3200 0.0141 -0.1161 0.9986
-0.3198 0.0093 -0.1159 0.9986
-0.3196 0.0047 -0.1158 0.9986
-0.3146 -0.0046 -0.1180 0.9987
-0.3151 -0.0184 -0.1184 0.9987
-0.3152 -0.0230 -0.1185 0.9987
-0.3153 -0.0277 -0.1187 0.9986
-0.3153 -0.0323 -0.1189 0.9986
-0.3153 -0.0464 -0.1195 0.9986
-0.3152 -0.0511 -0.1197 0.9986
-0.3147 -0.0653 -0.1205 0.9986
-0.3145 -0.0701 -0.1208 0.9986
-0.3143 -0.0748 -0.1211 0.9986
-0.3137 -0.0845 -0.1218 0.9986
-0.3133 -0.0893 -0.1222 0.9986
-0.3130 -0.0941 -0.1226 0.9986
-0.3126 -0.0990 -0.1229 0.9986
-0.3116 -0.1088 -0.1238 0.9986
-0.3111 -0.1138 -0.1242 0.9986
-0.3105 -0.1187 -0.1247 0.9986
-0.3100 -0.1238 -0.1251 0.9986
-0.3093 -0.1287 -0.1256 0.9986
-0.3071 -0.1440 -0.1272 0.9986
-0.3052 -0.1541 -0.1282 0.9985
-0.3032 -0.1644 -0.1294 0.9985
-0.3022 -0.1696 -0.1299 0.9985
-0.2975 -0.1906 -0.1325 0.9985
-0.2941 -0.2072 -0.1349 0.9985
-0.2930 -0.2129 -0.1358 0.9985
-0.2906 -0.2245 -0.1377 0.9984
-0.2867 -0.2421 -0.1407 0.9984
-0.2852 -0.2482 -0.1418 0.9984
-0.2838 -0.2542 -0.1429 0.9984
-0.2822 -0.2604 -0.1440 0.9984
-0.2789 -0.2729 -0.1463 0.9983
-0.2771 -0.2792 -0.1475 0.9983
-0.2735 -0.2921 -0.1501 0.9983
-0.2649 -0.3183 -0.1553 0.9982
-0.2624 -0.3248 -0.1566 0.9982
-0.2597 -0.3313 -0.1579 0.9982
-0.2513 -0.3513 -0.1620 0.9982
-0.2422 -0.3719 -0.1664 0.9981
-0.2389 -0.3789 -0.1680 0.9981
-0.2322 -0.3933 -0.1713 0.9981
-0.2287 -0.4007 -0.1730 0.9980
-0.2177 -0.4234 -0.1785 0.9980
-0.2137 -0.4311 -0.1804 0.9979
-0.2012 -0.4549 -0.1865 0.9979
-0.1922 -0.4714 -0.1909 0.9978
-0.1777 -0.4970 -0.1979 0.9977
-0.1725 -0.5057 -0.2004 0.9977
-0.1672 -0.5146 -0.2029 0.9977
-0.1617 -0.5237 -0.2055 0.9977
-0.1503 -0.5423 -0.2110 0.9976
-0.1445 -0.5527 -0.2142 0.9976
-0.1332 -0.5781 -0.2225 0.9975
-0.5202 -2.6027 -0.9953 0.9887
-0.4821 -2.6101 -0.9953 0.9887
-0.4057 -2.6231 -0.9953 0.9887
-0.3673 -2.6288 -0.9954 0.9887
-0.3288 -2.6339 -0.9954 0.9887
-0.2517 -2.6425 -0.9954 0.9887
-0.1744 -2.6487 -0.9954 0.9887
-0.1357 -2.6511 -0.9954 0.9887
-0.0970 -2.6528 -0.9955 0.9887
-0.0582 -2.6540 -0.9955 0.9887
0.0194 -2.6546 -0.9955 0.9887
0.2132 -2.6463 -0.9956 0.9887
0.2518 -2.6430 -0.9956 0.9887
0.2904 -2.6390 -0.9956 0.9887
0.3674 -2.6295 -0.9956 0.9887
0.4441 -2.6177 -0.9956 0.9887
0.4823 -2.6109 -0.9956 0.9887
0.5204 -2.6037 -0.9957 0.9887
0.5584 -2.5959 -0.9957 0.9887
0.5963 -2.5874 -0.9957 0.9887
0.6340 -2.5784 -0.9957 0.9887
0.7091 -2.5589 -0.9957 0.9887
0.7464 -2.5483 -0.9957 0.9887
0.7836 -2.5372 -0.9958 0.9887
0.8574 -2.5132 -0.9958 0.9887
0.9305 -2.4871 -0.9958 0.9887
1.0386 -2.4441 -0.9958 0.9887
1.1096 -2.4128 -0.9959 0.9887
1.2487 -2.3440 -0.9959 0.9887
1.3836 -2.2671 -0.9960 0.9887
1.5137 -2.1825 -0.9960 0.9887
1.6691 -2.0663 -0.9961 0.9887
1.6991 -2.0417 -0.9961 0.9887
1.7870 -1.9654 -0.9961 0.9887
1.8437 -1.9123 -0.9961 0.9887
1.8715 -1.8852 -0.9961 0.9887
1.8989 -1.8577 -0.9961 0.9887
1.9258 -1.8298 -0.9961 0.9887
1.9785 -1.7727 -0.9962 0.9887
2.0295 -1.7142 -0.9962 0.9887
2.0787 -1.6542 -0.9962 0.9887
2.1940 -1.4981 -0.9962 0.9887
2.2157 -1.4659 -0.9962 0.9887
2.2576 -1.4005 -0.9963 0.9887
2.2976 -1.3340 -0.9963 0.9887
2.3169 -1.3003 -0.9963 0.9887
2.3539 -1.2320 -0.9963 0.9887
2.3889 -1.1628 -0.9963 0.9887
2.4528 -1.0212 -0.9963 0.9887
2.4675 -0.9853 -0.9963 0.9887
2.4816 -0.9491 -0.9963 0.9887
2.4953 -0.9128 -0.9963 0.9887
2.5209 -0.8395 -0.9963 0.9887
2.5329 -0.8026 -0.9964 0.9887
2.5444 -0.7655 -0.9964 0.9887
2.5553 -0.7282 -0.9964 0.9887
2.5657 -0.6908 -0.9964 0.9887
2.5848 -0.6155 -0.9964 0.9887
2.5935 -0.5777 -0.9964 0.9887
2.6017 -0.5398 -0.9964 0.9887
2.6164 -0.4635 -0.9964 0.9887
2.6229 -0.4253 -0.9964 0.9887
2.6432 -0.2712 -0.9964 0.9887
2.6469 -0.2327 -0.9964 0.9887
2.6500 -0.1939 -0.9964 0.9887
2.6560 -0.0777 -0.9964 0.9887
2.6571 0.0000 -0.9964 0.9887
2.6569 0.0388 -0.9964 0.9887
2.6546 0.1165 -0.9964 0.9887
2.6526 0.1552 -0.9964 0.9887
2.6500 0.1939 -0.9964 0.9887
2.6469 0.2327 -0.9964 0.9887
2.6432 0.2713 -0.9964 0.9887
2.6390 0.3099 -0.9964 0.9887
2.6288 0.3868 -0.9964 0.9887
2.5935 0.5777 -0.9964 0.9887
2.5848 0.6155 -0.9964 0.9887
2.5553 0.7282 -0.9964 0.9887
2.5443 0.7655 -0.9964 0.9887
2.5329 0.8026 -0.9964 0.9887
2.5209 0.8395 -0.9964 0.9887
2.4953 0.9128 -0.9963 0.9887
2.4817 0.9492 -0.9963 0.9887
2.4675 0.9853 -0.9963 0.9887
2.4376 1.0570 -0.9963 0.9887
2.4219 1.0925 -0.9963 0.9887
2.3889 1.1628 -0.9963 0.9887
2.3539 1.2321 -0.9963 0.9887
2.3357 1.2663 -0.9963 0.9887
2.3169 1.3003 -0.9963 0.9887
2.2779 1.3674 -0.9963 0.9887
2.1940 1.4982 -0.9962 0.9887
2.0788 1.6542 -0.9962 0.9887
2.0543 1.6844 -0.9962 0.9887
1.9524 1.8014 -0.9962 0.9887
1.8988 1.8577 -0.9961 0.9887
1.8715 1.8852 -0.9961 0.9887
1.8437 1.9123 -0.9961 0.9887
1.7581 1.9912 -0.9961 0.9887
1.6992 2.0418 -0.9961 0.9887
1.6387 2.0905 -0.9960 0.9887
1.6080 2.1141 -0.9960 0.9887
1.5769 2.1373 -0.9960 0.9887
1.5455 2.1602 -0.9960 0.9887
1.5137 2.1825 -0.9960 0.9887
1.4817 2.2044 -0.9960 0.9887
1.3167 2.3066 -0.9959 0.9887
1.1797 2.3794 -0.9959 0.9887
1.1448 2.3964 -0.9959 0.9887
1.1097 2.4128 -0.9959 0.9887
1.0743 2.4287 -0.9959 0.9887
0.9305 2.4872 -0.9958 0.9887
0.7836 2.5372 -0.9958 0.9887
0.7464 2.5484 -0.9957 0.9887
0.7091 2.5589 -0.9957 0.9887
0.5584 2.5959 -0.9957 0.9887
0.4441 2.6177 -0.9956 0.9887
0.3289 2.6346 -0.9956 0.9887
0.2904 2.6391 -0.9956 0.9887
0.1745 2.6491 -0.9955 0.9887
0.1357 2.6513 -0.9955 0.9887
0.0969 2.6530 -0.9955 0.9887
-0.0194 2.6546 -0.9955 0.9887
-0.1744 2.6488 -0.9954 0.9887
-0.2131 2.6459 -0.9954 0.9887
-0.2517 2.6425 -0.9954 0.9887
-0.2903 2.6386 -0.9954 0.9887
-0.4056 2.6232 -0.9953 0.9887
-0.4821 2.6102 -0.9953 0.9887
-0.1332 0.5782 -0.2225 0.9975
-0.1561 0.5329 -0.2082 0.9976
-0.1777 0.4970 -0.1979 0.9977
-0.1875 0.4798 -0.1932 0.9978
-0.1922 0.4713 -0.1909 0.9978
-0.1968 0.4631 -0.1887 0.9979
-0.2097 0.4389 -0.1824 0.9979
-0.2137 0.4311 -0.1804 0.9979
-0.2176 0.4234 -0.1785 0.9980
-0.2215 0.4157 -0.1766 0.9980
-0.2251 0.4082 -0.1748 0.9980
-0.2287 0.4007 -0.1730 0.9980
-0.2322 0.3934 -0.1713 0.9981
-0.2389 0.3789 -0.1680 0.9981
-0.2422 0.3719 -0.1664 0.9981
-0.2513 0.3513 -0.1620 0.9982
-0.2542 0.3446 -0.1606 0.9982
-0.2570 0.3379 -0.1592 0.9982
-0.2624 0.3248 -0.1566 0.9982
-0.2696 0.3053 -0.1527 0.9983
-0.2735 0.2921 -0.1501 0.9983
-0.2806 0.2666 -0.1451 0.9983
-0.2837 0.2542 -0.1429 0.9984
-0.2880 0.2362 -0.1397 0.9984
-0.2906 0.2245 -0.1377 0.9984
-0.2919 0.2186 -0.1368 0.9984
-0.2930 0.2129 -0.1358 0.9985
-0.2942 0.2072 -0.1349 0.9985
-0.2962 0.1960 -0.1332 0.9985
-0.2975 0.1906 -0.1325 0.9985
-0.2987 0.1853 -0.1318 0.9985
-0.3011 0.1748 -0.1306 0.9985
-0.3043 0.1592 -0.1288 0.9985
-0.3086 0.1338 -0.1261 0.9986
-0.3093 0.1287 -0.1256 0.9986
-0.3099 0.1237 -0.1251 0.9986
-0.3116 0.1089 -0.1238 0.9986
-0.3133 0.0893 -0.1222 0.9986
-0.3137 0.0845 -0.1218 0.9986
-0.3149 0.0605 -0.1203 0.9986
-0.3151 0.0558 -0.1200 0.9986
-0.3152 0.0511 -0.1197 0.9986
-0.3153 0.0323 -0.1189 0.9986
-0.3152 0.0231 -0.1185 0.9987
-0.3148 0.0092 -0.1181 0.9987
-0.3146 0.0046 -0.1180 0.9987
-0.3101 -0.0136 -0.1203 0.9987
-0.3102 -0.0181 -0.1205 0.9987
-0.3103 -0.0227 -0.1206 0.9987
-0.3104 -0.0273 -0.1208 0.9987
-0.3104 -0.0319 -0.1210 0.9987
-0.3104 -0.0411 -0.1214 0.9987
-0.3102 -0.0503 -0.1218 0.9987
-0.3101 -0.0550 -0.1221 0.9986
-0.3100 -0.0596 -0.1224 0.9986
-0.3083 -0.0879 -0.1243 0.9986
-0.3079 -0.0927 -0.1247 0.9986
-0.3075 -0.0974 -0.1251 0.9986
-0.3055 -0.1168 -0.1268 0.9986
-0.3042 -0.1266 -0.1278 0.9986
-0.3028 -0.1366 -0.1288 0.9986
-0.3011 -0.1465 -0.1298 0.9986
-0.3001 -0.1516 -0.1304 0.9986
-0.2991 -0.1566 -0.1309 0.9986
-0.2981 -0.1616 -0.1315 0.9985
-0.2970 -0.1667 -0.1321 0.9985
-0.2959 -0.1718 -0.1327 0.9985
-0.2948 -0.1770 -0.1333 0.9985
-0.2936 -0.1821 -0.1339 0.9985
-0.2910 -0.1926 -0.1353 0.9985
-0.2876 -0.2090 -0.1378 0.9985
-0.2864 -0.2146 -0.1387 0.9985
-0.2839 -0.2259 -0.1407 0.9984
-0.2812 -0.2375 -0.1427 0.9984
-0.2797 -0.2434 -0.1437 0.9984
-0.2767 -0.2553 -0.1459 0.9984
-0.2750 -0.2613 -0.1471 0.9984
-0.2716 -0.2736 -0.1495 0.9983
-0.2698 -0.2799 -0.1507 0.9983
-0.2619 -0.3054 -0.1560 0.9983
-0.2570 -0.3181 -0.1585 0.9982
-0.2516 -0.3308 -0.1611 0.9982
-0.2488 -0.3373 -0.1625 0.9982
-0.2400 -0.3570 -0.1668 0.9982
-0.2336 -0.3705 -0.1698 0.9981
-0.2303 -0.3774 -0.1714 0.9981
-0.1962 -0.4436 -0.1881 0.9979
-0.1918 -0.4514 -0.1902 0.9979
-0.1827 -0.4674 -0.1946 0.9978
-0.1779 -0.4756 -0.1969 0.9978
-0.1730 -0.4838 -0.1992 0.9978
-0.1679 -0.4922 -0.2016 0.9978
-0.1518 -0.5181 -0.2093 0.9977
-0.1460 -0.5270 -0.2120 0.9977
-0.1278 -0.5545 -0.2206 0.9976
-0.1215 -0.5647 -0.2239 0.9975
-0.4663 -2.5246 -0.9953 0.9890
-0.4294 -2.5312 -0.9953 0.9890
-0.3180 -2.5477 -0.9954 0.9890
-0.2808 -2.5521 -0.9954 0.9890
-0.1687 -2.5621 -0.9954 0.9890
-0.1312 -2.5643 -0.9954 0.9890
-0.0937 -2.5660 -0.9955 0.9890
-0.0187 -2.5677 -0.9955 0.9890
0.1687 -2.5623 -0.9955 0.9890
0.2809 -2.5527 -0.9956 0.9890
0.3181 -2.5483 -0.9956 0.9890
0.3925 -2.5379 -0.9956 0.9890
0.5401 -2.5109 -0.9957 0.9890
0.5767 -2.5027 -0.9957 0.9890
0.7937 -2.4428 -0.9958 0.9890
0.9000 -2.4057 -0.9958 0.9890
0.9351 -2.3923 -0.9958 0.9890
1.0391 -2.3491 -0.9958 0.9890
1.1411 -2.3015 -0.9959 0.9890
1.2078 -2.2671 -0.9959 0.9890
1.3383 -2.1929 -0.9959 0.9890
1.4949 -2.0895 -0.9960 0.9890
1.5253 -2.0673 -0.9960 0.9890
1.6435 -1.9748 -0.9960 0.9890
1.6722 -1.9506 -0.9961 0.9890
1.7561 -1.8755 -0.9961 0.9890
1.8366 -1.7968 -0.9961 0.9890
1.8627 -1.7698 -0.9961 0.9890
1.9385 -1.6865 -0.9961 0.9890
2.0566 -1.5406 -0.9962 0.9890
2.0789 -1.5104 -0.9962 0.9890
2.1007 -1.4798 -0.9962 0.9890
2.1636 -1.3864 -0.9962 0.9890
2.1837 -1.3546 -0.9962 0.9890
2.2768 -1.1916 -0.9963 0.9890
2.2940 -1.1583 -0.9963 0.9890
2.3269 -1.0907 -0.9963 0.9890
2.3426 -1.0566 -0.9963 0.9890
2.3578 -1.0223 -0.9963 0.9890
2.3725 -0.9877 -0.9963 0.9890
2.3867 -0.9530 -0.9963 0.9890
2.4383 -0.8120 -0.9963 0.9890
2.4499 -0.7763 -0.9963 0.9890
2.4610 -0.7404 -0.9963 0.9890
2.4911 -0.6318 -0.9963 0.9890
2.5085 -0.5588 -0.9963 0.9890
2.5238 -0.4852 -0.9964 0.9890
2.5306 -0.4483 -0.9964 0.9890
2.5369 -0.4113 -0.9964 0.9890
2.5426 -0.3742 -0.9964 0.9890
2.5525 -0.2998 -0.9964 0.9890
2.5632 -0.1876 -0.9964 0.9890
2.5676 -0.1126 -0.9964 0.9890
2.5689 -0.0751 -0.9964 0.9890
2.5698 -0.0375 -0.9964 0.9890
2.5700 0.0000 -0.9964 0.9890
2.5676 0.1127 -0.9964 0.9890
2.5657 0.1502 -0.9964 0.9890
2.5602 0.2250 -0.9964 0.9890
2.5085 0.5588 -0.9963 0.9890
2.5001 0.5954 -0.9963 0.9890
2.4911 0.6319 -0.9963 0.9890
2.4716 0.7043 -0.9963 0.9890
2.4610 0.7404 -0.9963 0.9890
2.4499 0.7763 -0.9963 0.9890
2.4261 0.8476 -0.9963 0.9890
2.4135 0.8829 -0.9963 0.9890
2.4003 0.9181 -0.9963 0.9890
2.3867 0.9530 -0.9963 0.9890
2.3725 0.9879 -0.9963 0.9890
2.3578 1.0223 -0.9963 0.9890
2.3426 1.0567 -0.9963 0.9890
2.3269 1.0908 -0.9963 0.9890
2.3107 1.1246 -0.9963 0.9890
2.2940 1.1583 -0.9963 0.9890
2.2591 1.2248 -0.9963 0.9890
2.2410 1.2577 -0.9963 0.9890
2.2032 1.3226 -0.9962 0.9890
2.1837 1.3547 -0.9962 0.9890
2.1636 1.3864 -0.9962 0.9890
2.1007 1.4799 -0.9962 0.9890
2.0566 1.5406 -0.9962 0.9890
1.9630 1.6580 -0.9962 0.9890
1.9137 1.7147 -0.9961 0.9890
1.8884 1.7424 -0.9961 0.9890
1.8627 1.7698 -0.9961 0.9890
1.8102 1.8234 -0.9961 0.9890
1.7561 1.8755 -0.9961 0.9890
1.7285 1.9010 -0.9961 0.9890
1.6435 1.9749 -0.9960 0.9890
1.5553 2.0449 -0.9960 0.9890
1.4949 2.0895 -0.9960 0.9890
1.4641 2.1111 -0.9960 0.9890
1.4018 2.1529 -0.9960 0.9890
1.3383 2.1929 -0.9959 0.9890
1.2736 2.2310 -0.9959 0.9890
1.2409 2.2493 -0.9959 0.9890
1.2078 2.2672 -0.9959 0.9890
1.0733 2.3338 -0.9959 0.9890
1.0391 2.3492 -0.9958 0.9890
0.9700 2.3785 -0.9958 0.9890
0.9000 2.4057 -0.9958 0.9890
0.8648 2.4186 -0.9958 0.9890
0.8293 2.4309 -0.9958 0.9890
0.7937 2.4428 -0.9958 0.9890
0.7220 2.4649 -0.9957 0.9890
0.5768 2.5027 -0.9957 0.9890
0.5033 2.5184 -0.9957 0.9890
0.3181 2.5483 -0.9956 0.9890
0.2062 2.5597 -0.9956 0.9890
0.0938 2.5661 -0.9955 0.9890
0.0563 2.5672 -0.9955 0.9890
0.0188 2.5677 -0.9955 0.9890
-0.0563 2.5672 -0.9955 0.9890
-0.0938 2.5660 -0.9955 0.9890
-0.2435 2.5560 -0.9954 0.9890
-0.3181 2.5477 -0.9954 0.9890
-0.4294 2.5312 -0.9953 0.9890
-0.1162 0.5812 -0.2298 0.9975
-0.1215 0.5648 -0.2239 0.9975
-0.1278 0.5545 -0.2206 0.9976
-0.1460 0.5270 -0.2120 0.9977
-0.1573 0.5094 -0.2067 0.9977
-0.1679 0.4923 -0.2016 0.9978
-0.1779 0.4756 -0.1969 0.9978
-0.1827 0.4675 -0.1946 0.9978
-0.1962 0.4436 -0.1881 0.9979
-0.2005 0.4359 -0.1860 0.9979
-0.2046 0.4283 -0.1840 0.9980
-0.2162 0.4059 -0.1783 0.9980
-0.2199 0.3987 -0.1765 0.9980
-0.2234 0.3914 -0.1747 0.9981
-0.2269 0.3843 -0.1730 0.9981
-0.2303 0.3774 -0.1714 0.9981
-0.2336 0.3705 -0.1698 0.9981
-0.2488 0.3373 -0.1625 0.9982
-0.2516 0.3308 -0.1611 0.9982
-0.2543 0.3244 -0.1598 0.9982
-0.2660 0.2925 -0.1533 0.9983
-0.2679 0.2862 -0.1520 0.9983
-0.2767 0.2553 -0.1459 0.9984
-0.2782 0.2493 -0.1448 0.9984
-0.2797 0.2434 -0.1437 0.9984
-0.2826 0.2317 -0.1417 0.9984
-0.2839 0.2259 -0.1407 0.9984
-0.2876 0.2089 -0.1378 0.9985
-0.2887 0.2034 -0.1369 0.9985
-0.2898 0.1979 -0.1361 0.9985
-0.2959 0.1718 -0.1327 0.9985
-0.2970 0.1667 -0.1321 0.9985
-0.2991 0.1566 -0.1309 0.9986
-0.3035 0.1316 -0.1283 0.9986
-0.3042 0.1267 -0.1278 0.9986
-0.3049 0.1217 -0.1273 0.9986
-0.3065 0.1071 -0.1259 0.9986
-0.3071 0.1023 -0.1255 0.9986
-0.3083 0.0879 -0.1243 0.9986
-0.3087 0.0831 -0.1239 0.9986
-0.3093 0.0736 -0.1233 0.9986
-0.3098 0.0642 -0.1227 0.9986
-0.3101 0.0549 -0.1221 0.9986
-0.3102 0.0503 -0.1218 0.9987
-0.3104 0.0411 -0.1214 0.9987
-0.3104 0.0318 -0.1210 0.9987
-0.3101 0.0136 -0.1203 0.9987
-0.3099 0.0091 -0.1202 0.9987
-0.3048 0.0000 -0.1221 0.9987
-0.3051 -0.0089 -0.1223 0.9987
-0.3056 -0.0269 -0.1229 0.9987
-0.3056 -0.0404 -0.1234 0.9987
-0.3055 -0.0450 -0.1237 0.9987
-0.3049 -0.0632 -0.1247 0.9987
-0.3044 -0.0725 -0.1253 0.9987
-0.3041 -0.0771 -0.1257 0.9986
-0.3038 -0.0818 -0.1260 0.9986
-0.3034 -0.0865 -0.1264 0.9986
-0.3030 -0.0912 -0.1267 0.9986
-0.3026 -0.0959 -0.1271 0.9986
-0.3021 -0.1006 -0.1275 0.9986
-0.3005 -0.1149 -0.1289 0.9986
-0.2978 -0.1344 -0.1309 0.9986
-0.2970 -0.1392 -0.1314 0.9986
-0.2951 -0.1490 -0.1324 0.9986
-0.2941 -0.1539 -0.1330 0.9986
-0.2920 -0.1639 -0.1341 0.9986
-0.2909 -0.1689 -0.1347 0.9986
-0.2873 -0.1841 -0.1367 0.9985
-0.2860 -0.1892 -0.1373 0.9985
-0.2847 -0.1944 -0.1380 0.9985
-0.2823 -0.2051 -0.1398 0.9985
-0.2811 -0.2106 -0.1407 0.9985
-0.2786 -0.2217 -0.1426 0.9985
-0.2729 -0.2445 -0.1467 0.9984
-0.2696 -0.2562 -0.1490 0.9984
-0.2680 -0.2621 -0.1501 0.9984
-0.2662 -0.2682 -0.1513 0.9984
-0.2644 -0.2742 -0.1526 0.9984
-0.2606 -0.2866 -0.1551 0.9983
-0.2585 -0.2928 -0.1564 0.9983
-0.2564 -0.2991 -0.1578 0.9983
-0.2543 -0.3055 -0.1592 0.9983
-0.2517 -0.3116 -0.1604 0.9983
-0.2491 -0.3177 -0.1617 0.9983
-0.2464 -0.3239 -0.1630 0.9982
-0.2436 -0.3302 -0.1643 0.9982
-0.2408 -0.3365 -0.1657 0.9982
-0.2378 -0.3430 -0.1671 0.9982
-0.2285 -0.3624 -0.1716 0.9982
-0.2252 -0.3691 -0.1732 0.9981
-0.2219 -0.3758 -0.1748 0.9981
-0.2184 -0.3825 -0.1764 0.9981
-0.2148 -0.3895 -0.1781 0.9981
-0.2112 -0.3965 -0.1799 0.9981
-0.2075 -0.4036 -0.1817 0.9980
-0.2036 -0.4107 -0.1836 0.9980
-0.1997 -0.4180 -0.1855 0.9980
-0.1956 -0.4254 -0.1875 0.9980
-0.1781 -0.4556 -0.1959 0.9979
-0.1685 -0.4713 -0.2005 0.9978
-0.1635 -0.4794 -0.2028 0.9978
-0.1584 -0.4875 -0.2053 0.9978
-0.1531 -0.4957 -0.2078 0.9978
-0.1420 -0.5125 -0.2130 0.9977
-0.1362 -0.5211 -0.2157 0.9977
-0.1303 -0.5298 -0.2185 0.9977
-0.1241 -0.5387 -0.2214 0.9976
-0.1178 -0.5477 -0.2243 0.9976
-0.1113 -0.5567 -0.2274 0.9976
-0.4157 -2.4503 -0.9953 0.9893
-0.3439 -2.4615 -0.9954 0.9893
-0.3079 -2.4663 -0.9954 0.9893
-0.2357 -2.4743 -0.9954 0.9893
-0.1633 -2.4802 -0.9954 0.9893
0.0181 -2.4856 -0.9955 0.9893
0.0545 -2.4852 -0.9955 0.9893
0.1271 -2.4825 -0.9955 0.9893
0.1633 -2.4805 -0.9955 0.9893
0.2719 -2.4710 -0.9956 0.9893
0.3080 -2.4668 -0.9956 0.9893
0.3440 -2.4620 -0.9956 0.9893
0.3799 -2.4568 -0.9956 0.9893
0.4158 -2.4511 -0.9956 0.9893
0.4872 -2.4379 -0.9957 0.9893
0.6289 -2.4054 -0.9957 0.9893
0.6639 -2.3960 -0.9957 0.9893
0.9052 -2.3159 -0.9958 0.9893
0.9389 -2.3024 -0.9958 0.9893
0.9725 -2.2884 -0.9958 0.9893
1.0390 -2.2591 -0.9958 0.9893
1.1046 -2.2279 -0.9959 0.9893
1.1370 -2.2115 -0.9959 0.9893
1.1692 -2.1946 -0.9959 0.9893
1.2012 -2.1774 -0.9959 0.9893
1.2643 -2.1414 -0.9959 0.9893
1.3264 -2.1036 -0.9959 0.9893
1.3873 -2.0640 -0.9960 0.9893
1.4173 -2.0435 -0.9960 0.9893
1.5056 -1.9795 -0.9960 0.9893
1.5343 -1.9573 -0.9960 0.9893
1.5628 -1.9346 -0.9960 0.9893
1.5909 -1.9116 -0.9960 0.9893
1.6187 -1.8882 -0.9960 0.9893
1.6999 -1.8155 -0.9961 0.9893
1.7263 -1.7905 -0.9961 0.9893
1.7779 -1.7393 -0.9961 0.9893
1.8765 -1.6326 -0.9961 0.9893
1.9463 -1.5488 -0.9962 0.9893
1.9688 -1.5202 -0.9962 0.9893
1.9908 -1.4913 -0.9962 0.9893
2.0124 -1.4620 -0.9962 0.9893
2.0335 -1.4325 -0.9962 0.9893
2.0543 -1.4027 -0.9962 0.9893
2.0745 -1.3725 -0.9962 0.9893
2.1138 -1.3113 -0.9962 0.9893
2.1327 -1.2803 -0.9962 0.9893
2.1512 -1.2489 -0.9962 0.9893
2.1693 -1.2175 -0.9962 0.9893
2.2206 -1.1212 -0.9962 0.9893
2.2676 -1.0229 -0.9963 0.9893
2.2966 -0.9562 -0.9963 0.9893
2.3235 -0.8887 -0.9963 0.9893
2.3363 -0.8546 -0.9963 0.9893
2.3485 -0.8204 -0.9963 0.9893
2.3603 -0.7860 -0.9963 0.9893
2.3925 -0.6818 -0.9963 0.9893
2.4022 -0.6468 -0.9963 0.9893
2.4114 -0.6116 -0.9963 0.9893
2.4431 -0.4697 -0.9963 0.9893
2.4496 -0.4340 -0.9963 0.9893
2.4613 -0.3622 -0.9963 0.9893
2.4663 -0.3262 -0.9963 0.9893
2.4708 -0.2901 -0.9963 0.9893
2.4783 -0.2178 -0.9963 0.9893
2.4854 -0.1090 -0.9963 0.9893
2.4854 0.1091 -0.9963 0.9893
2.4812 0.1816 -0.9963 0.9893
2.4783 0.2179 -0.9963 0.9893
2.4708 0.2902 -0.9963 0.9893
2.4664 0.3262 -0.9963 0.9893
2.4497 0.4340 -0.9963 0.9893
2.4282 0.5409 -0.9963 0.9893
2.4201 0.5763 -0.9963 0.9893
2.3925 0.6818 -0.9963 0.9893
2.3485 0.8204 -0.9963 0.9893
2.3236 0.8887 -0.9963 0.9893
2.3103 0.9226 -0.9963 0.9893
2.2524 1.0559 -0.9963 0.9893
2.2367 1.0887 -0.9963 0.9893
2.2039 1.1536 -0.9962 0.9893
2.1868 1.1857 -0.9962 0.9893
2.1693 1.2175 -0.9962 0.9893
2.1513 1.2491 -0.9962 0.9893
2.0746 1.3725 -0.9962 0.9893
2.0335 1.4325 -0.9962 0.9893
1.9463 1.5488 -0.9962 0.9893
1.9002 1.6050 -0.9961 0.9893
1.8525 1.6598 -0.9961 0.9893
1.8280 1.6867 -0.9961 0.9893
1.8031 1.7132 -0.9961 0.9893
1.7263 1.7905 -0.9961 0.9893
1.6999 1.8155 -0.9961 0.9893
1.6732 1.8402 -0.9961 0.9893
1.5909 1.9117 -0.9960 0.9893
1.5056 1.9795 -0.9960 0.9893
1.4173 2.0435 -0.9960 0.9893
1.3570 2.0840 -0.9960 0.9893
1.3264 2.1036 -0.9959 0.9893
1.2012 2.1773 -0.9959 0.9893
