ply
format ascii 1.0
element vertex 1566
property float32 x
property float32 y
property float32 z
property float32 I
end_header
-0.9477 0.1254 0.0384 0.9962
-0.9379 0.0963 0.0379 0.9962
-0.9331 0.0820 0.0376 0.9963
-0.9219 0.0405 0.0371 0.9963
-0.9184 0.0269 0.0369 0.9963
-0.9149 0.0134 0.0368 0.9963
-0.8733 -0.0511 0.0255 0.9965
-0.8911 -0.1178 0.0262 0.9964
-0.8999 -0.1459 0.0265 0.9964
-0.9092 -0.1748 0.0269 0.9963
-0.9140 -0.1896 0.0272 0.9963
-0.9197 -0.2333 0.0276 0.9962
-0.9213 -0.2481 0.0278 0.9962
-0.9230 -0.2630 0.0279 0.9962
-0.9403 -0.3284 0.0290 0.9960
-0.9539 -0.3648 0.0297 0.9959
-0.9719 -0.4214 0.0308 0.9958
-0.9758 -0.4574 0.0314 0.9957
-0.9769 -0.4755 0.0316 0.9957
-0.9780 -0.4938 0.0319 0.9956
-0.9792 -0.5125 0.0322 0.9956
-1.1001 -0.6174 0.0367 0.9950
-1.4147 -0.8214 0.0476 0.9935
-5.1989 -3.3313 0.1797 0.9756
18.7680 -76.3295 2.2871 0.7301
18.6599 -71.3752 2.1466 0.7444
18.5643 -66.9934 2.0228 0.7572
18.4791 -63.0890 1.9128 0.7687
18.3337 -56.4253 1.7263 0.7887
18.2140 -50.9415 1.5741 0.8053
18.0693 -44.3083 1.3923 0.8257
18.0282 -42.4239 1.3412 0.8316
17.9900 -40.6724 1.2940 0.8370
17.9210 -37.5135 1.2097 0.8467
17.8898 -36.0829 1.1719 0.8512
17.3424 -33.7312 1.1036 0.8592
6.5759 -10.0989 0.3507 0.9529
6.5320 -9.7180 0.3407 0.9542
6.5467 -9.4391 0.3342 0.9551
6.8549 -9.2914 0.3360 0.9548
7.0652 -9.2893 0.3396 0.9544
7.2802 -9.2871 0.3434 0.9539
7.5002 -9.2850 0.3473 0.9534
7.7253 -9.2829 0.3514 0.9528
7.9559 -9.2807 0.3557 0.9523
8.2017 -9.2893 0.3606 0.9516
31.8459 -31.1555 1.2963 0.8367
32.7697 -31.1353 1.3153 0.8345
33.7225 -31.1157 1.3351 0.8323
35.7166 -31.0734 1.3775 0.8274
36.7617 -31.0507 1.4002 0.8248
37.8418 -31.0271 1.4239 0.8222
38.9595 -31.0027 1.4487 0.8194
12.8640 -9.6365 0.4677 0.9377
6.1995 -4.1016 0.2163 0.9707
6.2901 -4.0306 0.2174 0.9705
6.4741 -3.8864 0.2197 0.9702
6.5676 -3.8131 0.2210 0.9701
6.7579 -3.6639 0.2237 0.9697
6.7969 -3.5575 0.2232 0.9698
6.8214 -3.4443 0.2224 0.9699
6.7762 -3.1765 0.2178 0.9705
79.0972 -30.2521 2.4641 0.7126
82.1730 -30.0597 2.5459 0.7046
95.0644 -30.1222 2.9016 0.6710
13.5433 -3.6466 0.4081 0.9454
13.4503 -3.4116 0.4038 0.9460
13.3593 -3.1814 0.3996 0.9465
13.5798 -3.0250 0.4048 0.9458
14.2242 -2.9511 0.4227 0.9435
73.0539 -11.8443 2.1534 0.7437
78.0551 -11.4873 2.2956 0.7293
93.8956 -11.0263 2.7508 0.6850
61.0386 -3.5716 1.7791 0.7830
95.8867 8.4282 2.8008 0.6803
74.9906 8.8063 2.1970 0.7392
61.4740 9.0471 1.8080 0.7799
56.8304 10.0684 1.6793 0.7938
10.5667 3.3482 0.3225 0.9566
10.0968 3.3625 0.3096 0.9583
8.0590 3.3554 0.2540 0.9657
7.7792 3.3731 0.2467 0.9666
7.3233 3.4330 0.2353 0.9682
7.1182 3.4647 0.2304 0.9688
6.9412 3.5049 0.2263 0.9694
6.9278 3.6261 0.2275 0.9692
6.9491 3.7676 0.2300 0.9689
6.9776 3.9161 0.2328 0.9685
6.9935 4.0605 0.2353 0.9682
7.0193 4.2137 0.2382 0.9678
7.0509 4.3741 0.2414 0.9673
7.1674 5.0491 0.2551 0.9655
-1.1002 0.6175 0.0367 0.9950
-0.9792 0.5125 0.0322 0.9956
-0.9780 0.4938 0.0319 0.9956
-0.9769 0.4755 0.0316 0.9957
-0.9758 0.4575 0.0314 0.9957
-0.9719 0.4214 0.0308 0.9958
-0.9539 0.3648 0.0297 0.9959
-0.9470 0.3464 0.0293 0.9960
-0.9403 0.3285 0.0290 0.9960
-0.9338 0.3110 0.0286 0.9961
-0.9275 0.2939 0.0283 0.9961
-0.9247 0.2782 0.0281 0.9961
-0.9230 0.2631 0.0279 0.9962
-0.9181 0.2187 0.0275 0.9962
-0.9166 0.2042 0.0273 0.9962
-0.9045 0.1603 0.0267 0.9963
-0.8910 0.1179 0.0262 0.9964
-0.8867 0.1042 0.0260 0.9964
-0.8832 0.0907 0.0258 0.9965
-0.8798 0.0773 0.0257 0.9965
-0.8766 0.0641 0.0256 0.9965
-0.8733 0.0511 0.0255 0.9965
-0.8701 0.0382 0.0253 0.9965
-0.8640 0.0127 0.0251 0.9965
-0.8157 0.0000 0.0147 0.9967
-0.8211 -0.0240 0.0148 0.9967
-0.8296 -0.0607 0.0150 0.9967
-0.8414 -0.1113 0.0153 0.9966
-0.8446 -0.1243 0.0154 0.9966
-0.8525 -0.1511 0.0156 0.9965
-0.8606 -0.1786 0.0158 0.9965
-0.8648 -0.1927 0.0160 0.9965
-0.8675 -0.2200 0.0161 0.9964
-0.8714 -0.2622 0.0164 0.9964
-0.9037 -0.3609 0.0175 0.9961
-0.9090 -0.3784 0.0177 0.9961
-0.9299 -0.4526 0.0186 0.9959
-0.9306 -0.4699 0.0188 0.9958
-0.9313 -0.4875 0.0189 0.9958
-0.9321 -0.5054 0.0191 0.9958
-1.1483 -0.6893 0.0241 0.9947
-5.1940 -3.3283 0.1111 0.9756
-4.1475 -4.0576 0.1045 0.9771
18.8913 -81.9789 1.5151 0.7142
18.7680 -76.3294 1.4156 0.7302
18.4791 -63.0889 1.1839 0.7687
18.3337 -56.4252 1.0685 0.7887
18.2711 -53.5569 1.0191 0.7974
18.2140 -50.9414 0.9743 0.8054
18.1617 -48.5457 0.9334 0.8127
18.1136 -46.3424 0.8961 0.8195
18.0693 -44.3082 0.8618 0.8258
18.0282 -42.4238 0.8301 0.8316
17.9210 -37.5134 0.7487 0.8468
17.8898 -36.0829 0.7253 0.8512
17.4244 -33.8908 0.6863 0.8586
17.8329 -33.4731 0.6830 0.8592
17.8068 -32.2786 0.6639 0.8629
18.5664 -31.4466 0.6577 0.8641
6.2180 -10.1885 0.2150 0.9534
6.1817 -9.8040 0.2087 0.9547
6.2514 -9.3007 0.2018 0.9562
6.6021 -9.2280 0.2043 0.9556
6.8060 -9.2252 0.2065 0.9552
7.0143 -9.2224 0.2087 0.9547
7.2272 -9.2195 0.2110 0.9542
7.8959 -9.2108 0.2185 0.9526
8.3695 -9.2046 0.2240 0.9514
31.8465 -31.1560 0.8024 0.8367
34.7048 -31.0956 0.8392 0.8299
11.7705 -9.6508 0.2741 0.9409
12.1916 -9.1327 0.2743 0.9409
12.5688 -9.1317 0.2798 0.9397
12.9614 -9.1306 0.2855 0.9385
13.3735 -9.1315 0.2916 0.9373
46.6084 -30.8358 1.0065 0.7997
6.3059 -4.0407 0.1349 0.9705
6.4905 -3.8963 0.1363 0.9702
6.5843 -3.8229 0.1371 0.9700
6.8284 -3.5740 0.1388 0.9696
23.0186 -9.1916 0.4464 0.9056
31.7004 -12.1243 0.6112 0.8730
13.5120 -4.0651 0.2541 0.9451
13.6134 -3.8796 0.2549 0.9449
13.2722 -3.1607 0.2457 0.9469
13.9328 -2.6789 0.2555 0.9448
21.8668 -3.2181 0.3980 0.9154
99.2069 -11.6500 1.7989 0.6706
29.5540 -3.0334 0.5350 0.8879
33.3709 -2.9332 0.6033 0.8746
90.6676 9.3064 1.6414 0.6944
12.5277 2.9835 0.2319 0.9498
12.4249 3.3455 0.2317 0.9498
12.4425 3.5460 0.2330 0.9496
9.6018 3.3543 0.1832 0.9601
9.5828 3.5055 0.1838 0.9600
9.6062 3.6741 0.1852 0.9597
9.6301 3.8455 0.1867 0.9594
7.8848 3.2829 0.1538 0.9664
7.4277 3.3505 0.1467 0.9679
6.8367 3.4521 0.1379 0.9698
6.8615 3.5914 0.1395 0.9695
6.8855 3.7331 0.1411 0.9692
6.9201 3.8837 0.1429 0.9688
6.9711 4.1848 0.1464 0.9680
7.0000 4.3426 0.1484 0.9676
7.0676 4.6759 0.1526 0.9667
7.0927 4.8429 0.1547 0.9662
7.1558 5.1990 0.1593 0.9652
-1.1484 0.6894 0.0241 0.9947
-0.9306 0.4699 0.0188 0.9958
-0.9248 0.4335 0.0184 0.9959
-0.9141 0.3964 0.0179 0.9960
-0.9090 0.3785 0.0177 0.9961
-0.8977 0.3433 0.0173 0.9962
-0.8919 0.3262 0.0171 0.9962
-0.8714 0.2622 0.0164 0.9964
-0.8701 0.2480 0.0163 0.9964
-0.8675 0.2201 0.0161 0.9964
-0.8663 0.2063 0.0160 0.9964
-0.8485 0.1376 0.0155 0.9966
-0.8414 0.1113 0.0153 0.9966
-0.8354 0.0858 0.0151 0.9966
-0.8296 0.0608 0.0150 0.9967
-0.8267 0.0484 0.0149 0.9967
-0.8184 0.0120 0.0147 0.9967
-0.7774 -0.0114 0.0054 0.9969
-0.7799 -0.0228 0.0054 0.9969
-0.7824 -0.0343 0.0054 0.9969
-0.7849 -0.0459 0.0054 0.9969
-0.7874 -0.0576 0.0055 0.9968
-0.7926 -0.0813 0.0055 0.9968
-0.8033 -0.1302 0.0056 0.9968
-0.8061 -0.1428 0.0057 0.9967
-0.8096 -0.1557 0.0057 0.9967
-0.8131 -0.1687 0.0058 0.9967
-0.8167 -0.1819 0.0058 0.9967
-0.8219 -0.2213 0.0059 0.9966
-0.8229 -0.2345 0.0059 0.9966
-0.8381 -0.2927 0.0061 0.9965
-0.8429 -0.3083 0.0062 0.9964
-0.8478 -0.3243 0.0063 0.9964
-0.8580 -0.3572 0.0064 0.9963
-0.8629 -0.3741 0.0065 0.9962
-0.8717 -0.4086 0.0067 0.9962
-0.8763 -0.4265 0.0068 0.9961
-0.8810 -0.4448 0.0068 0.9961
-0.8883 -0.4816 0.0070 0.9960
-0.8891 -0.5162 0.0071 0.9959
-5.1893 -3.3252 0.0427 0.9756
-3.8351 -3.1444 0.0343 0.9804
-4.0947 -4.1247 0.0403 0.9770
18.8912 -81.9788 0.5827 0.7143
18.5643 -66.9932 0.4815 0.7572
18.4026 -59.5862 0.4319 0.7792
18.3337 -56.4252 0.4109 0.7887
18.2140 -50.9414 0.3747 0.8054
18.1617 -48.5457 0.3590 0.8127
18.1136 -46.3424 0.3446 0.8195
5.6617 -12.3107 0.0938 0.9472
17.9210 -37.5133 0.2879 0.8468
17.8898 -36.0829 0.2789 0.8512
17.8604 -34.7388 0.2705 0.8553
17.8328 -33.4731 0.2627 0.8592
5.8380 -9.5659 0.0776 0.9562
5.8816 -9.3280 0.0764 0.9568
6.7663 -9.1712 0.0789 0.9554
7.1881 -9.1695 0.0807 0.9545
8.0928 -9.1660 0.0847 0.9523
30.6903 -31.8324 0.3063 0.8379
30.9493 -31.1762 0.3043 0.8389
33.7226 -31.1158 0.3178 0.8323
11.4048 -10.2187 0.1061 0.9406
11.3262 -9.8537 0.1040 0.9417
11.3233 -9.5642 0.1027 0.9424
11.4356 -9.1000 0.1012 0.9432
12.4446 -9.0415 0.1065 0.9403
12.8308 -9.0386 0.1087 0.9391
13.6526 -9.0325 0.1134 0.9366
6.3217 -4.0509 0.0520 0.9704
6.4139 -3.9789 0.0523 0.9703
6.5070 -3.9062 0.0526 0.9701
6.6012 -3.8327 0.0529 0.9699
6.6609 -3.7382 0.0529 0.9699
6.8863 -3.4771 0.0534 0.9696
6.9382 -3.2525 0.0531 0.9698
6.9380 -3.1296 0.0527 0.9700
22.6970 -9.0631 0.1693 0.9069
25.7839 -9.4320 0.1902 0.8960
13.2205 -4.6183 0.0970 0.9455
13.2855 -4.4242 0.0970 0.9455
12.8610 -4.0751 0.0934 0.9475
13.4406 -3.8304 0.0968 0.9456
13.3575 -3.3880 0.0954 0.9464
13.2173 -3.1477 0.0941 0.9471
12.9697 -2.8891 0.0920 0.9482
12.9515 -2.6870 0.0916 0.9485
21.1506 -2.7976 0.1478 0.9182
21.8940 -2.5711 0.1527 0.9156
32.5457 -2.8607 0.2263 0.8775
42.2649 -2.4731 0.2932 0.8442
61.6634 -2.7048 0.4275 0.7812
74.1472 3.2525 0.5140 0.7431
73.4209 4.2963 0.5094 0.7451
50.4563 3.6930 0.3504 0.8168
36.8392 3.7812 0.2565 0.8623
23.2036 3.4148 0.1624 0.9104
22.1060 3.5841 0.1551 0.9143
13.2867 2.5548 0.0937 0.9473
12.3650 3.5239 0.0891 0.9499
10.0358 3.1800 0.0729 0.9588
9.7693 3.2534 0.0713 0.9596
9.5273 3.3283 0.0699 0.9604
9.5732 3.6615 0.0710 0.9598
8.0160 3.2009 0.0598 0.9661
6.8046 3.5616 0.0532 0.9697
6.8287 3.7023 0.0538 0.9694
6.8570 3.8483 0.0545 0.9690
6.9475 4.3100 0.0566 0.9678
7.0149 4.6411 0.0583 0.9669
7.1111 5.1665 0.0609 0.9655
6.9510 5.5314 0.0615 0.9651
11.4739 9.4077 0.1028 0.9424
6.0958 9.3618 0.0774 0.9563
-0.8895 0.5339 0.0072 0.9959
-0.8891 0.5163 0.0071 0.9959
-0.8887 0.4988 0.0071 0.9959
-0.8884 0.4816 0.0070 0.9960
-0.8859 0.4637 0.0069 0.9960
-0.8811 0.4448 0.0068 0.9961
-0.8717 0.4086 0.0067 0.9962
-0.8629 0.3742 0.0065 0.9962
-0.8478 0.3243 0.0063 0.9964
-0.8287 0.2626 0.0060 0.9965
-0.8229 0.2345 0.0059 0.9966
-0.8219 0.2213 0.0059 0.9966
-0.8210 0.2082 0.0059 0.9966
-0.8200 0.1953 0.0058 0.9966
-0.8132 0.1687 0.0058 0.9967
-0.8096 0.1557 0.0057 0.9967
-0.8061 0.1428 0.0057 0.9967
-0.8033 0.1302 0.0056 0.9968
-0.7978 0.1055 0.0056 0.9968
-0.7925 0.0814 0.0055 0.9968
-0.7900 0.0695 0.0055 0.9968
-0.7874 0.0577 0.0055 0.9968
-0.7824 0.0343 0.0054 0.9969
-0.7774 0.0114 0.0054 0.9969
-0.7382 0.0000 -0.0031 0.9971
-0.7404 -0.0108 -0.0031 0.9970
-0.7516 -0.0661 -0.0031 0.9970
-0.7562 -0.0888 -0.0032 0.9970
-0.7632 -0.1237 -0.0032 0.9969
-0.7656 -0.1357 -0.0032 0.9969
-0.7681 -0.1477 -0.0032 0.9969
-0.7737 -0.1723 -0.0033 0.9968
-0.7792 -0.1977 -0.0033 0.9968
-0.7799 -0.2100 -0.0034 0.9968
-0.7806 -0.2225 -0.0034 0.9968
-0.7869 -0.2493 -0.0034 0.9967
-0.7908 -0.2633 -0.0035 0.9967
-0.7948 -0.2777 -0.0035 0.9966
-0.7990 -0.2923 -0.0035 0.9966
-0.8032 -0.3072 -0.0036 0.9966
-0.8163 -0.3539 -0.0037 0.9964
-0.8244 -0.3864 -0.0038 0.9964
-0.8282 -0.4030 -0.0038 0.9963
-0.8486 -0.5094 -0.0041 0.9960
-0.8486 -0.5264 -0.0041 0.9960
-0.8487 -0.5438 -0.0042 0.9960
-3.8395 -3.1481 -0.0206 0.9803
-4.1440 -4.0541 -0.0241 0.9771
-3.9677 -4.2376 -0.0241 0.9770
19.1985 -96.0587 -0.4071 0.6758
18.8912 -81.9787 -0.3496 0.7143
18.7680 -76.3291 -0.3266 0.7302
18.5642 -66.9932 -0.2889 0.7572
18.3336 -56.4251 -0.2465 0.7887
18.2710 -53.5569 -0.2352 0.7974
18.1136 -46.3424 -0.2068 0.8195
18.0692 -44.3082 -0.1988 0.8258
5.6865 -12.3647 -0.0566 0.9470
17.9210 -37.5133 -0.1728 0.8468
5.5261 -10.3728 -0.0488 0.9541
5.5080 -9.9845 -0.0474 0.9554
5.5094 -9.6507 -0.0462 0.9565
5.5231 -9.3547 -0.0451 0.9575
5.6307 -9.2262 -0.0449 0.9577
5.9630 -9.1577 -0.0454 0.9572
6.3443 -9.1473 -0.0463 0.9564
6.7416 -9.1377 -0.0472 0.9556
7.6002 -9.1327 -0.0494 0.9536
7.8278 -9.1313 -0.0500 0.9530
8.3002 -9.1285 -0.0513 0.9518
8.7982 -9.1255 -0.0527 0.9506
30.9498 -31.1768 -0.1826 0.8389
32.7716 -31.1371 -0.1879 0.8346
10.9178 -10.0738 -0.0617 0.9423
10.9315 -9.2332 -0.0595 0.9444
11.6204 -8.9729 -0.0610 0.9430
12.3229 -8.9531 -0.0633 0.9409
13.0983 -8.9436 -0.0659 0.9385
6.3377 -4.0611 -0.0313 0.9703
6.4301 -3.9890 -0.0314 0.9702
6.5236 -3.9161 -0.0316 0.9700
6.6181 -3.8424 -0.0318 0.9699
6.8105 -3.6924 -0.0322 0.9695
6.9184 -3.4933 -0.0322 0.9695
7.2167 -3.0047 -0.0325 0.9692
22.5206 -8.9927 -0.1008 0.9076
25.4265 -8.8821 -0.1119 0.8979
12.8741 -4.0793 -0.0561 0.9474
13.0780 -3.9345 -0.0568 0.9468
13.4716 -3.8393 -0.0582 0.9455
13.3757 -3.1854 -0.0571 0.9465
13.0872 -2.5163 -0.0554 0.9481
14.0883 -2.2841 -0.0593 0.9445
21.5078 -3.1653 -0.0903 0.9167
21.5635 -2.8522 -0.0904 0.9167
26.7884 -2.3546 -0.1117 0.8980
32.9677 -2.4129 -0.1374 0.8761
42.5861 -2.4919 -0.1773 0.8431
73.7004 -2.1545 -0.3064 0.7446
70.1304 3.0763 -0.2917 0.7552
35.9162 3.6865 -0.1500 0.8655
12.6460 2.6237 -0.0537 0.9497
10.7806 3.0725 -0.0466 0.9562
10.2516 3.0843 -0.0445 0.9581
9.9411 3.1500 -0.0433 0.9591
9.4952 3.3170 -0.0418 0.9606
9.5176 3.4817 -0.0421 0.9603
9.5404 3.6489 -0.0424 0.9600
7.7074 3.2090 -0.0347 0.9672
7.2658 3.2774 -0.0331 0.9686
6.7711 3.5441 -0.0318 0.9699
6.7901 3.6814 -0.0321 0.9696
6.8297 3.9654 -0.0328 0.9689
6.8588 4.1174 -0.0332 0.9685
6.9723 4.7608 -0.0351 0.9668
7.0935 5.4774 -0.0372 0.9648
6.9494 5.5302 -0.0369 0.9651
7.1921 5.8969 -0.0386 0.9635
7.2358 6.1117 -0.0394 0.9628
-0.8486 0.5265 -0.0041 0.9960
-0.8486 0.5095 -0.0041 0.9960
-0.8443 0.4739 -0.0040 0.9961
-0.8401 0.4555 -0.0040 0.9962
-0.8361 0.4376 -0.0039 0.9962
-0.8321 0.4201 -0.0039 0.9963
-0.8244 0.3865 -0.0038 0.9964
-0.8207 0.3702 -0.0037 0.9964
-0.8118 0.3380 -0.0037 0.9965
-0.8075 0.3225 -0.0036 0.9965
-0.8032 0.3072 -0.0036 0.9966
-0.7990 0.2923 -0.0035 0.9966
-0.7949 0.2777 -0.0035 0.9966
-0.7908 0.2634 -0.0035 0.9967
-0.7869 0.2493 -0.0034 0.9967
-0.7830 0.2356 -0.0034 0.9967
-0.7806 0.2224 -0.0034 0.9968
-0.7769 0.1850 -0.0033 0.9968
-0.7707 0.1599 -0.0033 0.9969
-0.7609 0.1120 -0.0032 0.9969
-0.7539 0.0774 -0.0031 0.9970
-0.7493 0.0548 -0.0031 0.9970
-0.7471 0.0437 -0.0031 0.9970
-0.7448 0.0327 -0.0031 0.9970
-0.7404 0.0109 -0.0031 0.9970
-0.7047 0.0000 -0.0107 0.9972
-0.7067 -0.0103 -0.0108 0.9972
-0.7127 -0.0417 -0.0109 0.9971
-0.7147 -0.0523 -0.0109 0.9971
-0.7168 -0.0630 -0.0110 0.9971
-0.7188 -0.0737 -0.0110 0.9971
-0.7229 -0.0956 -0.0111 0.9971
-0.7250 -0.1067 -0.0112 0.9971
-0.7270 -0.1179 -0.0112 0.9971
-0.7291 -0.1291 -0.0113 0.9970
-0.7378 -0.1757 -0.0116 0.9970
-0.7419 -0.1998 -0.0117 0.9969
-0.7424 -0.2116 -0.0118 0.9969
-0.7456 -0.2243 -0.0119 0.9969
-0.7666 -0.3061 -0.0126 0.9967
-0.7851 -0.3821 -0.0133 0.9965
-0.7883 -0.3980 -0.0135 0.9965
-0.7949 -0.4309 -0.0138 0.9964
-0.7982 -0.4480 -0.0139 0.9963
-0.8017 -0.4655 -0.0141 0.9963
-0.8052 -0.4834 -0.0143 0.9962
-0.8107 -0.5195 -0.0147 0.9962
-0.8104 -0.5361 -0.0148 0.9961
-5.6301 -3.9661 -0.1049 0.9728
-4.0768 -3.1480 -0.0785 0.9796
-47.6664 -42.7093 -0.9753 0.7741
-4.1422 -4.0524 -0.0883 0.9771
-4.0864 -4.1163 -0.0884 0.9771
-4.0541 -4.2050 -0.0890 0.9769
-3.9461 -4.2144 -0.0880 0.9772
-43.0372 -47.3320 -0.9748 0.7742
-42.3383 -47.9527 -0.9748 0.7742
-41.6307 -48.5634 -0.9747 0.7742
-40.1887 -49.7526 -0.9746 0.7743
-39.4552 -50.3317 -0.9745 0.7743
-38.7133 -50.8999 -0.9745 0.7743
-37.9632 -51.4571 -0.9744 0.7743
-36.4394 -52.5386 -0.9743 0.7743
-35.6663 -53.0631 -0.9743 0.7743
-31.6892 -55.5099 -0.9740 0.7744
-30.8731 -55.9640 -0.9739 0.7744
-30.0507 -56.4065 -0.9739 0.7744
-28.8346 -58.1580 -0.9892 0.7713
-27.1225 -58.9748 -0.9892 0.7713
-25.3875 -59.7416 -0.9891 0.7713
-24.5119 -60.1062 -0.9891 0.7713
-20.0590 -61.7351 -0.9891 0.7713
-19.1549 -62.0221 -0.9891 0.7713
-17.3346 -62.5558 -0.9892 0.7713
-15.4997 -63.0371 -0.9892 0.7713
-14.5771 -63.2573 -0.9892 0.7713
-13.6514 -63.4641 -0.9892 0.7713
-10.6912 -63.0236 -0.9741 0.7744
-9.7694 -63.1740 -0.9741 0.7744
-6.0628 -63.6413 -0.9742 0.7743
-4.2008 -63.7942 -0.9742 0.7743
-3.2683 -63.8503 -0.9742 0.7743
-2.3351 -63.8927 -0.9743 0.7743
-0.4672 -63.9371 -0.9743 0.7743
0.4671 -63.9387 -0.9743 0.7743
1.4014 -63.9270 -0.9744 0.7743
3.2690 -63.8628 -0.9744 0.7743
4.2019 -63.8106 -0.9745 0.7743
5.1340 -63.7444 -0.9745 0.7743
9.7751 -63.2114 -0.9747 0.7742
10.6981 -63.0643 -0.9747 0.7742
18.4026 -59.5860 -0.9503 0.7792
18.1617 -48.5456 -0.7898 0.8127
18.1136 -46.3423 -0.7582 0.8195
18.0281 -42.4237 -0.7024 0.8316
5.7156 -12.4280 -0.2084 0.9467
17.8897 -36.0828 -0.6137 0.8512
5.3296 -10.0038 -0.1727 0.9557
5.3339 -9.3434 -0.1639 0.9579
5.9474 -9.1338 -0.1661 0.9573
6.3284 -9.1243 -0.1692 0.9566
6.7243 -9.1144 -0.1726 0.9557
7.1367 -9.1041 -0.1763 0.9548
7.5712 -9.0977 -0.1804 0.9538
7.7975 -9.0960 -0.1826 0.9532
8.0294 -9.0942 -0.1849 0.9526
8.5114 -9.0904 -0.1898 0.9514
8.7623 -9.0884 -0.1924 0.9508
30.9504 -31.1774 -0.6694 0.8388
10.4710 -9.9487 -0.2201 0.9439
10.4591 -9.6505 -0.2169 0.9447
10.5310 -9.1620 -0.2127 0.9457
11.2020 -8.9141 -0.2182 0.9443
11.5394 -8.9104 -0.2222 0.9433
11.8930 -8.9091 -0.2264 0.9423
13.0511 -8.9114 -0.2408 0.9387
13.4712 -8.9124 -0.2461 0.9374
6.4464 -3.9991 -0.1156 0.9701
6.5402 -3.9261 -0.1162 0.9699
6.7166 -3.7695 -0.1174 0.9697
6.7792 -3.2996 -0.1149 0.9703
6.9985 -3.2807 -0.1178 0.9696
6.9782 -3.1477 -0.1167 0.9698
23.3191 -8.9188 -0.3804 0.9049
10.9976 -4.0230 -0.1784 0.9542
11.0838 -3.8719 -0.1789 0.9541
11.0958 -3.6951 -0.1782 0.9543
11.2773 -3.3928 -0.1795 0.9540
12.6491 -3.6048 -0.2004 0.9487
12.8550 -3.4612 -0.2029 0.9481
13.2268 -3.3549 -0.2079 0.9469
13.5380 -3.2241 -0.2121 0.9458
13.2843 -2.9592 -0.2074 0.9470
14.1156 -2.5008 -0.2184 0.9443
14.3354 -2.3242 -0.2213 0.9436
21.4057 -3.1502 -0.3297 0.9171
21.5751 -2.8537 -0.3316 0.9166
42.8727 -2.5087 -0.6544 0.8421
64.3144 -2.8211 -0.9810 0.7730
65.3549 -1.9105 -0.9963 0.7698
65.3445 2.8663 -0.9967 0.7698
40.3564 3.5473 -0.6173 0.8504
33.2660 3.4146 -0.5096 0.8748
28.3764 3.3324 -0.4354 0.8920
19.3470 2.8473 -0.2980 0.9248
16.4963 2.9227 -0.2553 0.9352
13.1070 2.5202 -0.2034 0.9480
12.2638 2.7320 -0.1915 0.9510
9.8594 3.1241 -0.1576 0.9595
7.4167 3.2159 -0.1232 0.9682
6.7301 3.3983 -0.1149 0.9703
6.7453 3.5306 -0.1160 0.9700
6.8015 3.9490 -0.1198 0.9690
6.8231 4.0960 -0.1213 0.9687
6.8451 4.2465 -0.1227 0.9683
6.8902 4.5586 -0.1259 0.9675
6.9392 4.8883 -0.1293 0.9666
7.0271 5.4262 -0.1353 0.9651
7.0982 5.6485 -0.1382 0.9644
7.1374 5.8521 -0.1406 0.9638
7.2432 6.3016 -0.1463 0.9623
48.1739 43.1640 -0.9856 0.7720
44.9102 46.5816 -0.9860 0.7719
44.2277 47.2359 -0.9861 0.7719
43.5357 47.8804 -0.9861 0.7719
38.4352 52.0969 -0.9865 0.7718
37.6717 52.6554 -0.9866 0.7718
36.9003 53.2031 -0.9866 0.7718
33.7359 55.2781 -0.9868 0.7718
32.9257 55.7679 -0.9869 0.7718
31.2849 56.7104 -0.9869 0.7717
29.6161 57.6037 -0.9870 0.7717
28.7724 58.0325 -0.9870 0.7717
26.2040 59.2430 -0.9871 0.7717
24.4628 59.9859 -0.9872 0.7717
21.8117 61.0037 -0.9872 0.7717
20.0207 61.6174 -0.9873 0.7717
17.3019 62.4380 -0.9873 0.7717
16.3878 62.6842 -0.9873 0.7717
14.5493 63.1370 -0.9873 0.7717
9.9016 64.0301 -0.9873 0.7717
8.9650 64.1675 -0.9873 0.7717
7.0861 64.4007 -0.9873 0.7717
5.2011 64.5779 -0.9872 0.7717
1.4198 64.7663 -0.9872 0.7717
0.4733 64.7787 -0.9871 0.7717
-3.3113 64.6891 -0.9870 0.7717
-4.2559 64.6314 -0.9870 0.7717
-6.1422 64.4748 -0.9869 0.7717
-8.0229 64.2629 -0.9868 0.7718
-8.9605 64.1361 -0.9868 0.7718
-9.8964 63.9957 -0.9868 0.7718
-11.7611 63.6738 -0.9867 0.7718
-13.6153 63.2968 -0.9866 0.7718
-14.5380 63.0877 -0.9865 0.7718
-15.4573 62.8648 -0.9865 0.7718
-16.3734 62.6290 -0.9864 0.7718
-17.2858 62.3796 -0.9864 0.7719
-18.1942 62.1164 -0.9863 0.7719
-19.0990 61.8409 -0.9863 0.7719
-20.8950 61.2482 -0.9861 0.7719
-22.6727 60.6034 -0.9860 0.7719
-23.5542 60.2615 -0.9859 0.7720
-24.4307 59.9072 -0.9859 0.7720
-27.0263 58.7658 -0.9856 0.7720
-27.8803 58.3609 -0.9856 0.7720
-31.2315 56.6139 -0.9853 0.7721
-32.0514 56.1446 -0.9851 0.7721
-33.6739 55.1770 -0.9850 0.7721
-34.4737 54.6744 -0.9849 0.7722
-36.0538 53.6395 -0.9848 0.7722
-36.8311 53.1034 -0.9848 0.7722
-40.5955 50.2562 -0.9844 0.7723
-41.3224 49.6541 -0.9844 0.7723
-43.4490 47.7848 -0.9842 0.7723
-44.1395 47.1416 -0.9841 0.7723
-45.4908 45.8244 -0.9839 0.7724
-46.8026 44.4682 -0.9838 0.7724
-49.9026 40.9159 -0.9833 0.7725
-50.4909 40.1789 -0.9833 0.7725
-0.8551 0.5839 -0.0158 0.9959
-0.8104 0.5362 -0.0148 0.9961
-0.8088 0.5018 -0.0145 0.9962
-0.8052 0.4834 -0.0143 0.9962
-0.8017 0.4655 -0.0141 0.9963
-0.7982 0.4480 -0.0139 0.9963
-0.7915 0.4143 -0.0136 0.9964
-0.7851 0.3821 -0.0133 0.9965
-0.7819 0.3666 -0.0132 0.9966
-0.7741 0.3357 -0.0129 0.9966
-0.7703 0.3207 -0.0127 0.9967
-0.7594 0.2778 -0.0123 0.9968
-0.7559 0.2641 -0.0122 0.9968
-0.7490 0.2373 -0.0120 0.9969
-0.7456 0.2243 -0.0119 0.9969
-0.7405 0.1879 -0.0116 0.9969
-0.7333 0.1521 -0.0114 0.9970
-0.7291 0.1292 -0.0113 0.9970
-0.7270 0.1179 -0.0112 0.9971
-0.7209 0.0846 -0.0111 0.9971
-0.7147 0.0523 -0.0109 0.9971
-0.7127 0.0417 -0.0109 0.9971
-0.7087 0.0207 -0.0108 0.9972
-0.7067 0.0103 -0.0108 0.9972
-0.6743 0.0000 -0.0177 0.9973
-0.6758 -0.0099 -0.0178 0.9973
-0.6849 -0.0602 -0.0181 0.9973
-0.6886 -0.0808 -0.0183 0.9972
-0.6904 -0.0913 -0.0183 0.9972
-0.6959 -0.1233 -0.0186 0.9972
-0.6978 -0.1341 -0.0187 0.9972
-0.6996 -0.1451 -0.0188 0.9971
-0.7051 -0.1788 -0.0191 0.9971
-0.7071 -0.1904 -0.0193 0.9971
-0.7117 -0.2141 -0.0196 0.9970
-0.7146 -0.2264 -0.0197 0.9970
-0.7266 -0.2779 -0.0205 0.9969
-0.7393 -0.3335 -0.0214 0.9968
-0.7426 -0.3481 -0.0216 0.9967
-0.7460 -0.3631 -0.0218 0.9967
-0.7489 -0.3781 -0.0221 0.9966
-0.7515 -0.3934 -0.0223 0.9966
-0.7569 -0.4248 -0.0228 0.9965
-0.7654 -0.4748 -0.0237 0.9964
-0.7713 -0.5103 -0.0243 0.9963
-0.7743 -0.5287 -0.0247 0.9963
-0.7740 -0.5452 -0.0249 0.9962
-4.0732 -3.1452 -0.1355 0.9796
-3.7927 -3.2034 -0.1307 0.9803
-27.9794 -24.3421 -0.9763 0.8621
-27.6197 -24.7473 -0.9762 0.8621
-27.2541 -25.1472 -0.9762 0.8621
-26.8828 -25.5419 -0.9762 0.8621
-4.1405 -4.0507 -0.1525 0.9771
-3.9246 -4.1915 -0.1512 0.9773
-24.5156 -28.5981 -0.9916 0.8601
-24.0947 -28.9528 -0.9916 0.8601
-23.2378 -29.6437 -0.9915 0.8601
-22.8019 -29.9797 -0.9915 0.8601
-21.9155 -30.6323 -0.9915 0.8601
-21.4655 -30.9491 -0.9915 0.8601
-21.0107 -31.2590 -0.9915 0.8601
-20.5515 -31.5624 -0.9915 0.8601
-20.0879 -31.8589 -0.9915 0.8601
-19.1481 -32.4317 -0.9914 0.8601
-18.1921 -32.9770 -0.9914 0.8601
-16.7292 -33.7419 -0.9914 0.8601
-16.2343 -33.9826 -0.9914 0.8601
-13.5002 -34.5390 -0.9762 0.8621
-12.9940 -34.7326 -0.9762 0.8621
-12.4851 -34.9188 -0.9762 0.8621
-10.9430 -35.4326 -0.9762 0.8621
-9.9031 -35.7376 -0.9762 0.8621
-9.3799 -35.8786 -0.9762 0.8621
-7.7988 -36.2559 -0.9762 0.8621
-7.2682 -36.3661 -0.9763 0.8621
-6.2026 -36.5637 -0.9763 0.8621
-5.6677 -36.6505 -0.9763 0.8621
-4.5945 -36.8013 -0.9763 0.8621
-3.5173 -36.9207 -0.9763 0.8621
-2.9775 -36.9686 -0.9763 0.8621
-1.8960 -37.0409 -0.9764 0.8621
-0.8129 -37.0816 -0.9764 0.8621
-0.2710 -37.0900 -0.9764 0.8621
0.2710 -37.0907 -0.9764 0.8621
0.8129 -37.0833 -0.9764 0.8621
2.4373 -37.0140 -0.9765 0.8621
2.9780 -36.9752 -0.9765 0.8621
3.5180 -36.9285 -0.9765 0.8621
4.5957 -36.8114 -0.9766 0.8621
6.2049 -36.5772 -0.9766 0.8620
7.2714 -36.3820 -0.9767 0.8620
9.3852 -35.8989 -0.9768 0.8620
9.9090 -35.7589 -0.9768 0.8620
10.4307 -35.6112 -0.9768 0.8620
10.9503 -35.4560 -0.9769 0.8620
11.4674 -35.2930 -0.9769 0.8620
11.9823 -35.1230 -0.9769 0.8620
13.0042 -34.7599 -0.9770 0.8620
13.5111 -34.5671 -0.9770 0.8620
14.0152 -34.3671 -0.9770 0.8620
15.0144 -33.9452 -0.9771 0.8620
15.5093 -33.7232 -0.9771 0.8620
5.8808 -12.3101 -0.3591 0.9469
5.2489 -9.8526 -0.2939 0.9563
5.3985 -9.1436 -0.2795 0.9584
5.5710 -9.1283 -0.2815 0.9581
5.9328 -9.1114 -0.2862 0.9574
6.1210 -9.1066 -0.2888 0.9570
6.3126 -9.1016 -0.2916 0.9566
6.7072 -9.0912 -0.2974 0.9558
6.9105 -9.0859 -0.3005 0.9554
7.5473 -9.0690 -0.3106 0.9539
7.7693 -9.0631 -0.3142 0.9534
8.2346 -9.0563 -0.3222 0.9522
8.7267 -9.0514 -0.3310 0.9509
26.1745 -26.3664 -0.9780 0.8619
10.3666 -9.5652 -0.3713 0.9451
10.4110 -9.3282 -0.3680 0.9456
10.5882 -8.9433 -0.3649 0.9461
11.0797 -8.8169 -0.3727 0.9449
11.5287 -8.9021 -0.3834 0.9434
12.2545 -8.9034 -0.3987 0.9412
13.0413 -8.9047 -0.4157 0.9388
13.4605 -8.9053 -0.4249 0.9375
6.3698 -4.0816 -0.1992 0.9702
6.6997 -3.7600 -0.2022 0.9697
6.8279 -3.7019 -0.2045 0.9694
6.6474 -3.4793 -0.1975 0.9704
6.9834 -3.5261 -0.2059 0.9692
7.0190 -3.2904 -0.2041 0.9695
7.4928 -3.1196 -0.2137 0.9680
10.5962 -4.0527 -0.2986 0.9556
10.7742 -3.9413 -0.3020 0.9551
10.5693 -3.5197 -0.2933 0.9564
10.6964 -3.3893 -0.2954 0.9561
11.2483 -2.8530 -0.3055 0.9546
13.7779 -3.0691 -0.3716 0.9451
13.8562 -2.8747 -0.3725 0.9449
18.1032 -2.9351 -0.4828 0.9292
22.5106 -2.6434 -0.5967 0.9133
25.8719 -2.6555 -0.6846 0.9012
37.0897 -3.2601 -0.9801 0.8616
37.8165 -0.5526 -0.9956 0.8596
37.7907 1.6577 -0.9958 0.8595
37.7639 2.2098 -0.9958 0.8595
37.6355 3.8630 -0.9959 0.8595
27.4037 3.6247 -0.7277 0.8953
18.4356 2.9890 -0.4916 0.9280
12.5633 2.6066 -0.3378 0.9500
12.2157 3.0985 -0.3318 0.9508
12.2008 3.2852 -0.3326 0.9507
9.7852 3.1006 -0.2702 0.9598
9.5362 3.1758 -0.2646 0.9606
8.0897 3.0941 -0.2280 0.9659
7.5724 3.1528 -0.2159 0.9677
7.3543 3.1889 -0.2110 0.9684
7.1575 3.2286 -0.2067 0.9691
6.7925 3.3062 -0.1989 0.9702
6.7287 3.3975 -0.1984 0.9703
6.8130 4.0899 -0.2092 0.9687
6.9047 4.7146 -0.2201 0.9671
6.9304 4.8821 -0.2232 0.9666
6.9568 5.0545 -0.2264 0.9662
6.9839 5.2317 -0.2297 0.9657
7.0403 5.6025 -0.2369 0.9646
7.0764 5.8021 -0.2409 0.9640
7.1024 5.9991 -0.2447 0.9635
27.8020 24.9108 -0.9827 0.8613
27.0647 25.7147 -0.9828 0.8612
26.6872 26.1086 -0.9828 0.8612
26.3039 26.4966 -0.9828 0.8612
25.9149 26.8793 -0.9829 0.8612
25.5204 27.2561 -0.9829 0.8612
24.7149 27.9924 -0.9830 0.8612
24.3042 28.3515 -0.9830 0.8612
23.8883 28.7047 -0.9831 0.8612
23.4670 29.0517 -0.9831 0.8612
23.0408 29.3922 -0.9831 0.8612
22.6096 29.7269 -0.9832 0.8612
22.1736 30.0550 -0.9832 0.8612
21.7327 30.3767 -0.9832 0.8612
21.2871 30.6920 -0.9833 0.8612
6.1254 9.4072 -0.2955 0.9561
5.9798 9.4838 -0.2951 0.9561
18.9925 32.1683 -0.9834 0.8612
18.5208 32.4430 -0.9834 0.8612
16.5955 33.4722 -0.9835 0.8611
16.1048 33.7121 -0.9835 0.8611
15.6108 33.9444 -0.9835 0.8611
15.1137 34.1691 -0.9835 0.8611
14.6129 34.3869 -0.9836 0.8611
13.6021 34.8002 -0.9836 0.8611
12.5798 35.1836 -0.9836 0.8611
11.5466 35.5369 -0.9836 0.8611
10.5035 35.8598 -0.9836 0.8611
9.9785 36.0096 -0.9837 0.8611
9.4512 36.1515 -0.9837 0.8611
8.9220 36.2859 -0.9837 0.8611
6.7872 36.7452 -0.9837 0.8611
5.7106 36.9276 -0.9837 0.8611
4.0867 37.1417 -0.9836 0.8611
2.9996 37.2446 -0.9836 0.8611
2.4551 37.2841 -0.9836 0.8611
0.8189 37.3546 -0.9836 0.8611
0.2730 37.3620 -0.9836 0.8611
-0.2730 37.3614 -0.9835 0.8611
-0.8188 37.3529 -0.9835 0.8611
-1.9099 37.3115 -0.9835 0.8611
-2.4548 37.2788 -0.9835 0.8611
-2.9992 37.2383 -0.9835 0.8611
-4.0856 37.1329 -0.9834 0.8612
-6.7846 36.7313 -0.9833 0.8612
-9.9729 35.9894 -0.9831 0.8612
-10.4973 35.8385 -0.9831 0.8612
-11.0193 35.6798 -0.9830 0.8612
-11.5391 35.5137 -0.9830 0.8612
-12.0564 35.3402 -0.9830 0.8612
-12.5710 35.1589 -0.9829 0.8612
-14.6009 34.3587 -0.9828 0.8612
-15.5972 33.9145 -0.9827 0.8613
-16.5802 33.4414 -0.9826 0.8613
-17.0662 33.1941 -0.9825 0.8613
-18.0272 32.6781 -0.9824 0.8613
-18.9724 32.1342 -0.9824 0.8613
-19.9012 31.5629 -0.9823 0.8613
-20.3593 31.2671 -0.9822 0.8613
-20.8128 30.9646 -0.9822 0.8613
-21.2621 30.6559 -0.9821 0.8613
-21.7065 30.3402 -0.9820 0.8613
-23.0114 29.3548 -0.9819 0.8614
-23.4366 29.0141 -0.9818 0.8614
-24.2715 28.3134 -0.9817 0.8614
-26.2657 26.4583 -0.9814 0.8614
-27.0244 25.6765 -0.9813 0.8614
-28.4714 24.0483 -0.9811 0.8615
-28.8182 23.6285 -0.9810 0.8615
-29.4932 22.7739 -0.9809 0.8615
-29.8212 22.3394 -0.9809 0.8615
-0.7740 0.5453 -0.0249 0.9962
-0.7743 0.5288 -0.0247 0.9963
-0.7713 0.5103 -0.0243 0.9963
-0.7683 0.4923 -0.0240 0.9964
-0.7625 0.4578 -0.0234 0.9964
-0.7569 0.4248 -0.0228 0.9965
-0.7542 0.4089 -0.0226 0.9966
-0.7515 0.3933 -0.0223 0.9966
-0.7426 0.3482 -0.0216 0.9967
-0.7361 0.3191 -0.0211 0.9968
-0.7297 0.2914 -0.0207 0.9969
-0.7266 0.2779 -0.0205 0.9969
-0.7205 0.2517 -0.0201 0.9970
-0.7175 0.2390 -0.0199 0.9970
-0.7117 0.2141 -0.0196 0.9970
-0.7071 0.1904 -0.0193 0.9971
-0.7014 0.1562 -0.0189 0.9971
-0.6996 0.1452 -0.0188 0.9971
-0.6978 0.1342 -0.0187 0.9972
-0.6959 0.1233 -0.0186 0.9972
-0.6941 0.1126 -0.0185 0.9972
-0.6923 0.1019 -0.0184 0.9972
-0.6904 0.0913 -0.0183 0.9972
-0.6886 0.0809 -0.0183 0.9972
-0.6867 0.0705 -0.0182 0.9972
-0.6849 0.0602 -0.0181 0.9973
-0.6831 0.0500 -0.0180 0.9973
-0.6813 0.0399 -0.0180 0.9973
-0.6758 0.0099 -0.0178 0.9973
-0.6492 -0.0190 -0.0243 0.9974
-0.6506 -0.0286 -0.0244 0.9974
-0.6539 -0.0479 -0.0245 0.9974
-0.6556 -0.0576 -0.0246 0.9974
-0.6588 -0.0773 -0.0248 0.9973
-0.6621 -0.0974 -0.0250 0.9973
-0.6669 -0.1282 -0.0254 0.9973
-0.6733 -0.1708 -0.0260 0.9972
-0.6749 -0.1817 -0.0262 0.9972
-0.6786 -0.2041 -0.0265 0.9972
-0.6814 -0.2159 -0.0267 0.9971
-0.6929 -0.2650 -0.0278 0.9970
-0.7043 -0.3177 -0.0289 0.9969
-0.7099 -0.3455 -0.0295 0.9968
-0.7127 -0.3598 -0.0299 0.9968
-0.7175 -0.3890 -0.0305 0.9967
-0.7219 -0.4191 -0.0312 0.9967
-0.7264 -0.4506 -0.0320 0.9966
-0.7287 -0.4669 -0.0324 0.9965
-0.7357 -0.5182 -0.0337 0.9964
-0.7381 -0.5362 -0.0341 0.9964
-0.7541 -0.5648 -0.0353 0.9962
-4.0537 -3.2258 -0.1938 0.9795
-3.8528 -3.1589 -0.1864 0.9803
-3.7971 -3.2072 -0.1860 0.9803
-19.7568 -17.7021 -0.9926 0.8993
-4.0781 -4.1080 -0.2166 0.9771
-17.8443 -19.6250 -0.9925 0.8993
-16.9666 -20.3875 -0.9925 0.8993
-15.8103 -20.7872 -0.9772 0.9007
-15.5048 -21.0158 -0.9772 0.9007
-15.1959 -21.2400 -0.9772 0.9007
-14.8838 -21.4595 -0.9772 0.9007
-14.5686 -21.6746 -0.9772 0.9007
-14.2502 -21.8850 -0.9772 0.9007
-13.9288 -22.0907 -0.9772 0.9007
-13.2772 -22.4880 -0.9772 0.9007
-12.9472 -22.6795 -0.9772 0.9007
-12.6143 -22.8661 -0.9771 0.9007
-12.2788 -23.0479 -0.9771 0.9007
-11.2569 -23.5636 -0.9771 0.9007
-10.9113 -23.7254 -0.9771 0.9007
-10.5635 -23.8823 -0.9771 0.9007
-9.5068 -24.3223 -0.9771 0.9007
-9.1504 -24.4586 -0.9771 0.9007
-8.0697 -24.8361 -0.9771 0.9007
-6.9737 -25.1661 -0.9771 0.9007
-6.6053 -25.2654 -0.9771 0.9007
-6.2354 -25.3592 -0.9771 0.9007
-5.8642 -25.4478 -0.9771 0.9007
-5.4918 -25.5309 -0.9771 0.9007
-4.7435 -25.6807 -0.9772 0.9007
-4.3678 -25.7475 -0.9772 0.9007
-3.9911 -25.8087 -0.9772 0.9007
-3.2353 -25.9146 -0.9772 0.9007
-2.4768 -25.9986 -0.9772 0.9007
-2.0967 -26.0322 -0.9772 0.9007
-1.7161 -26.0603 -0.9772 0.9007
-1.3351 -26.0828 -0.9772 0.9007
-0.5724 -26.1112 -0.9772 0.9007
-0.1908 -26.1171 -0.9773 0.9007
0.9539 -26.1012 -0.9773 0.9007
3.6144 -25.8700 -0.9774 0.9007
3.9920 -25.8148 -0.9774 0.9007
5.1197 -25.6163 -0.9775 0.9007
5.4936 -25.5393 -0.9775 0.9007
6.9766 -25.1767 -0.9775 0.9007
7.3438 -25.0725 -0.9776 0.9007
7.7096 -24.9629 -0.9776 0.9007
8.7966 -24.6027 -0.9776 0.9007
9.1554 -24.4720 -0.9777 0.9007
9.5122 -24.3361 -0.9777 0.9007
10.5702 -23.8976 -0.9777 0.9007
10.9185 -23.7410 -0.9778 0.9007
11.6081 -23.4130 -0.9778 0.9007
5.1746 -10.0646 -0.4234 0.9557
5.1755 -9.7146 -0.4119 0.9569
5.2648 -9.2223 -0.3973 0.9584
5.3811 -9.1140 -0.3960 0.9585
5.8336 -8.9590 -0.4000 0.9581
6.1059 -9.0841 -0.4095 0.9571
6.2969 -9.0788 -0.4134 0.9567
6.4916 -9.0735 -0.4175 0.9563
7.0997 -9.0568 -0.4306 0.9550
7.7484 -9.0388 -0.4455 0.9535
7.9750 -9.0325 -0.4509 0.9529
8.5211 -8.8382 -0.4594 0.9520
18.4218 -18.5570 -0.9784 0.9006
10.3562 -10.1316 -0.5421 0.9437
10.3578 -9.2805 -0.5204 0.9459
10.4009 -9.0487 -0.5158 0.9463
10.5413 -8.9037 -0.5163 0.9463
10.9308 -8.6984 -0.5227 0.9456
11.5207 -8.8959 -0.5446 0.9434
11.8760 -8.8964 -0.5552 0.9423
12.2456 -8.8969 -0.5664 0.9412
13.0335 -8.8993 -0.5905 0.9388
13.4242 -8.8813 -0.6023 0.9376
13.5437 -8.6786 -0.6019 0.9376
6.4794 -4.0195 -0.2853 0.9699
6.6693 -3.8722 -0.2886 0.9696
6.7660 -3.7972 -0.2903 0.9694
6.7043 -3.5091 -0.2831 0.9702
7.0424 -3.4277 -0.2931 0.9691
7.0397 -3.3001 -0.2909 0.9694
7.0189 -3.1661 -0.2881 0.9696
7.1196 -3.0870 -0.2904 0.9694
11.0294 -4.4041 -0.4444 0.9536
10.6337 -3.8899 -0.4237 0.9557
10.7537 -3.7566 -0.4262 0.9554
10.6182 -3.5360 -0.4188 0.9562
10.5522 -3.3436 -0.4142 0.9567
10.5439 -3.1722 -0.4120 0.9569
10.7596 -3.0664 -0.4186 0.9562
10.8557 -2.9229 -0.4207 0.9560
10.9504 -2.7775 -0.4227 0.9558
14.7960 -3.0697 -0.5654 0.9413
18.0690 -3.2012 -0.6866 0.9292
18.0089 -2.9198 -0.6826 0.9296
23.1989 -3.0686 -0.8756 0.9106
26.0503 -2.6738 -0.9799 0.9005
26.5517 -1.5537 -0.9952 0.8990
26.5725 -1.1655 -0.9952 0.8990
26.5875 -0.7772 -0.9953 0.8990
26.5968 -0.3886 -0.9953 0.8990
26.5984 0.3887 -0.9953 0.8990
26.5773 1.1658 -0.9954 0.8990
26.5582 1.5541 -0.9954 0.8990
26.4670 2.7167 -0.9955 0.8990
26.3778 3.4891 -0.9956 0.8990
19.1268 3.1011 -0.7250 0.9254
16.4968 2.9227 -0.6269 0.9351
12.2726 2.7339 -0.4705 0.9509
12.2071 2.9071 -0.4695 0.9510
12.2101 3.0971 -0.4713 0.9508
10.3934 2.9621 -0.4044 0.9577
10.0267 3.0166 -0.3918 0.9590
9.4664 3.1525 -0.3733 0.9608
9.4214 3.4466 -0.3754 0.9606
8.0219 3.0681 -0.3214 0.9662
7.5015 3.1234 -0.3040 0.9680
7.2929 3.1623 -0.2974 0.9687
7.0968 3.2012 -0.2913 0.9693
6.9200 3.2440 -0.2860 0.9699
6.7241 3.3952 -0.2819 0.9703
6.7048 3.5094 -0.2832 0.9702
6.7466 3.7864 -0.2895 0.9695
6.8030 4.0839 -0.2969 0.9687
6.8477 4.3879 -0.3043 0.9680
6.9217 4.8760 -0.3168 0.9667
7.0024 5.4071 -0.3310 0.9652
7.0587 5.7876 -0.3415 0.9641
7.0888 5.9876 -0.3472 0.9635
7.1053 6.1816 -0.3524 0.9630
7.2501 6.4961 -0.3643 0.9618
19.2781 17.7878 -0.9815 0.9003
19.0167 18.0681 -0.9815 0.9003
18.2083 18.8859 -0.9816 0.9003
17.9307 19.1505 -0.9816 0.9003
17.6498 19.4108 -0.9817 0.9003
17.3645 19.6673 -0.9817 0.9003
17.0758 19.9192 -0.9817 0.9003
16.7834 20.1671 -0.9817 0.9003
16.4873 20.4109 -0.9818 0.9003
15.5781 21.1153 -0.9818 0.9003
15.2680 21.3413 -0.9818 0.9003
13.6711 22.4008 -0.9819 0.9003
5.0227 8.5072 -0.3697 0.9612
4.8877 8.5618 -0.3689 0.9613
12.6770 22.9795 -0.9820 0.9003
12.3400 23.1627 -0.9820 0.9003
10.9665 23.8452 -0.9821 0.9003
10.6171 24.0031 -0.9821 0.9003
10.2652 24.1560 -0.9821 0.9003
9.9112 24.3037 -0.9821 0.9003
9.1970 24.5833 -0.9821 0.9003
8.8369 24.7153 -0.9821 0.9003
8.4749 24.8420 -0.9821 0.9003
7.7455 25.0794 -0.9821 0.9003
7.0095 25.2950 -0.9821 0.9003
6.6390 25.3949 -0.9821 0.9003
6.2673 25.4893 -0.9821 0.9003
4.7677 25.8118 -0.9821 0.9003
3.6319 25.9956 -0.9821 0.9003
2.8708 26.0905 -0.9821 0.9003
2.4892 26.1297 -0.9821 0.9003
1.7247 26.1908 -0.9821 0.9003
1.3418 26.2129 -0.9821 0.9003
0.9586 26.2296 -0.9821 0.9003
0.5752 26.2405 -0.9821 0.9003
-0.1918 26.2456 -0.9821 0.9003
-1.7245 26.1883 -0.9820 0.9003
-2.1069 26.1598 -0.9820 0.9003
-3.2511 26.0411 -0.9820 0.9003
-4.3889 25.8720 -0.9819 0.9003
-4.7664 25.8046 -0.9819 0.9003
-5.1428 25.7317 -0.9819 0.9003
-6.2651 25.4800 -0.9818 0.9003
-6.6366 25.3853 -0.9818 0.9003
-7.3751 25.1792 -0.9817 0.9003
-8.4708 24.8300 -0.9816 0.9003
-8.8325 24.7030 -0.9816 0.9003
-9.5499 24.4328 -0.9816 0.9003
-10.6105 23.9886 -0.9815 0.9003
-12.3313 23.1466 -0.9813 0.9003
-13.0015 22.7747 -0.9813 0.9004
-13.9855 22.1806 -0.9811 0.9004
-14.6267 21.7611 -0.9811 0.9004
-15.5644 21.0968 -0.9810 0.9004
-15.8704 20.8662 -0.9809 0.9004
-16.1730 20.6314 -0.9809 0.9004
-17.3478 19.6483 -0.9807 0.9004
-18.1899 18.8668 -0.9806 0.9004
-18.7319 18.3257 -0.9805 0.9004
-19.7670 17.1973 -0.9804 0.9004
-20.0153 16.9059 -0.9803 0.9004
-20.4989 16.3123 -0.9802 0.9004
-0.7541 0.5649 -0.0353 0.9962
-0.7381 0.5363 -0.0341 0.9964
-0.7333 0.5007 -0.0332 0.9965
-0.7310 0.4837 -0.0328 0.9965
-0.7286 0.4669 -0.0324 0.9965
-0.7264 0.4506 -0.0320 0.9966
-0.7241 0.4347 -0.0316 0.9966
-0.7219 0.4191 -0.0312 0.9967
-0.7175 0.3890 -0.0305 0.9967
-0.7127 0.3599 -0.0299 0.9968
-0.7099 0.3455 -0.0295 0.9968
-0.7071 0.3315 -0.0292 0.9969
-0.6842 0.2279 -0.0270 0.9971
-0.6786 0.2042 -0.0265 0.9972
-0.6765 0.1928 -0.0263 0.9972
-0.6749 0.1817 -0.0262 0.9972
-0.6701 0.1493 -0.0257 0.9973
-0.6685 0.1387 -0.0255 0.9973
-0.6637 0.1077 -0.0252 0.9973
-0.6621 0.0974 -0.0250 0.9973
-0.6588 0.0773 -0.0248 0.9973
-0.6572 0.0675 -0.0247 0.9974
-0.6539 0.0479 -0.0245 0.9974
-0.6478 0.0095 -0.0242 0.9974
-0.6234 -0.0182 -0.0303 0.9975
-0.6258 -0.0366 -0.0304 0.9975
-0.6271 -0.0459 -0.0305 0.9975
-0.6286 -0.0552 -0.0306 0.9975
-0.6301 -0.0647 -0.0307 0.9975
-0.6344 -0.0934 -0.0311 0.9974
-0.6358 -0.1031 -0.0313 0.9974
-0.6372 -0.1129 -0.0314 0.9974
-0.6386 -0.1228 -0.0316 0.9974
-0.6400 -0.1327 -0.0317 0.9974
-0.6414 -0.1429 -0.0319 0.9974
-0.6428 -0.1530 -0.0321 0.9974
-0.6441 -0.1634 -0.0322 0.9973
-0.6455 -0.1738 -0.0324 0.9973
-0.6468 -0.1843 -0.0326 0.9973
-0.6518 -0.2170 -0.0333 0.9973
-0.6564 -0.2401 -0.0339 0.9972
-0.6589 -0.2520 -0.0342 0.9972
-0.6613 -0.2641 -0.0346 0.9972
-0.6689 -0.3017 -0.0356 0.9971
-0.6715 -0.3148 -0.0360 0.9970
-0.6741 -0.3280 -0.0364 0.9970
-0.6767 -0.3416 -0.0368 0.9970
-0.6793 -0.3555 -0.0372 0.9969
-0.6820 -0.3697 -0.0376 0.9969
-0.6846 -0.3842 -0.0381 0.9969
-0.6863 -0.3984 -0.0385 0.9968
-0.6879 -0.4129 -0.0389 0.9968
-0.6930 -0.4585 -0.0403 0.9967
-0.8411 -0.6896 -0.0528 0.9957
-15.4410 -13.4337 -0.9930 0.9213
-4.1375 -4.0478 -0.2808 0.9771
-13.9876 -14.9390 -0.9930 0.9213
-13.7678 -15.1416 -0.9930 0.9213
-13.3374 -15.1059 -0.9777 0.9225
-12.4317 -15.8587 -0.9777 0.9225
-12.1986 -16.0385 -0.9777 0.9225
-11.9629 -16.2150 -0.9777 0.9225
-10.9950 -16.8857 -0.9777 0.9225
-10.7470 -17.0445 -0.9777 0.9225
-9.9896 -17.4988 -0.9776 0.9225
-9.7329 -17.6429 -0.9776 0.9225
-9.4740 -17.7831 -0.9776 0.9225
-8.4189 -18.3059 -0.9776 0.9225
-8.1506 -18.4270 -0.9776 0.9225
-7.8804 -18.5441 -0.9776 0.9225
-7.3352 -18.7665 -0.9776 0.9225
-7.0602 -18.8716 -0.9776 0.9225
-6.2264 -19.1630 -0.9776 0.9225
-5.9458 -19.2519 -0.9776 0.9225
-5.3807 -19.4174 -0.9776 0.9225
-5.0964 -19.4940 -0.9776 0.9225
-4.8111 -19.5665 -0.9776 0.9225
-3.6599 -19.8144 -0.9776 0.9225
-2.7881 -19.9561 -0.9777 0.9225
-2.4963 -19.9948 -0.9777 0.9225
-1.6177 -20.0854 -0.9777 0.9225
-1.3240 -20.1070 -0.9777 0.9225
-0.7360 -20.1374 -0.9777 0.9225
0.4416 -20.1467 -0.9777 0.9225
0.7360 -20.1383 -0.9778 0.9225
1.6178 -20.0873 -0.9778 0.9225
2.2041 -20.0319 -0.9778 0.9225
2.4966 -19.9978 -0.9778 0.9225
2.7886 -19.9594 -0.9778 0.9225
3.3707 -19.8699 -0.9778 0.9225
4.2384 -19.7039 -0.9779 0.9225
4.8124 -19.5721 -0.9779 0.9225
5.3824 -19.4237 -0.9779 0.9225
5.6657 -19.3434 -0.9780 0.9225
6.7864 -18.9805 -0.9780 0.9224
7.3384 -18.7747 -0.9781 0.9224
8.1545 -18.4361 -0.9781 0.9224
5.8392 -12.2230 -0.6572 0.9472
5.1250 -9.6198 -0.5289 0.9573
5.1551 -9.3448 -0.5178 0.9582
5.2455 -9.1885 -0.5134 0.9585
5.3637 -9.0846 -0.5119 0.9586
5.6154 -8.9058 -0.5108 0.9587
5.7662 -8.8555 -0.5127 0.9586
6.2812 -9.0562 -0.5347 0.9568
6.4752 -9.0507 -0.5400 0.9564
6.8751 -9.0393 -0.5510 0.9555
7.0818 -9.0340 -0.5570 0.9551
8.1552 -8.9689 -0.5882 0.9526
8.2678 -8.8302 -0.5869 0.9527
14.1695 -14.2734 -0.9758 0.9226
10.3744 -10.1495 -0.7042 0.9435
10.2897 -9.7765 -0.6887 0.9447
10.3251 -9.5270 -0.6816 0.9453
10.3670 -9.2887 -0.6754 0.9458
10.4081 -9.0549 -0.6694 0.9463
10.5412 -8.9036 -0.6695 0.9462
10.7406 -8.8064 -0.6739 0.9459
10.9068 -8.6793 -0.6763 0.9457
11.5151 -8.8916 -0.7059 0.9434
11.8676 -8.8901 -0.7195 0.9423
12.6335 -8.8996 -0.7498 0.9400
16.6147 -11.3447 -0.9761 0.9226
13.4433 -8.8940 -0.7821 0.9375
6.8799 -3.7300 -0.3797 0.9691
6.7623 -3.5394 -0.3703 0.9699
7.1785 -2.9888 -0.3773 0.9693
10.7424 -4.2896 -0.5612 0.9547
11.0667 -3.1538 -0.5583 0.9550
11.4332 -2.8999 -0.5723 0.9539
11.4374 -2.7238 -0.5705 0.9540
14.2852 -3.1821 -0.7101 0.9431
14.4654 -3.0011 -0.7168 0.9426
19.9758 -2.9398 -0.9797 0.9223
20.0172 -2.6477 -0.9797 0.9223
20.3662 -2.3916 -0.9949 0.9212
20.3995 -2.0938 -0.9950 0.9212
20.4530 -1.4970 -0.9950 0.9212
20.4731 -1.1980 -0.9950 0.9212
20.4889 -0.8987 -0.9951 0.9212
20.5074 -0.2996 -0.9951 0.9211
20.5101 0.0000 -0.9951 0.9211
20.5084 0.2997 -0.9952 0.9211
20.5024 0.5994 -0.9952 0.9211
20.4918 0.8989 -0.9952 0.9211
20.4770 1.1983 -0.9952 0.9211
20.4578 1.4973 -0.9953 0.9211
20.4062 2.0946 -0.9953 0.9211
20.3739 2.3926 -0.9953 0.9211
20.2961 2.9870 -0.9954 0.9211
20.2508 3.2833 -0.9954 0.9211
19.6992 3.4900 -0.9707 0.9230
13.3123 2.5596 -0.6577 0.9472
12.6783 2.6305 -0.6282 0.9495
12.3077 2.7417 -0.6118 0.9508
12.1751 3.0882 -0.6094 0.9509
10.7427 2.8926 -0.5398 0.9564
10.3268 2.9431 -0.5210 0.9579
9.4242 3.1385 -0.4819 0.9610
9.3385 3.4161 -0.4825 0.9610
8.0148 3.0654 -0.4163 0.9662
7.4845 3.1163 -0.3934 0.9681
6.7360 3.7804 -0.3748 0.9695
6.8158 4.2283 -0.3892 0.9684
6.8875 4.7029 -0.4047 0.9672
6.9130 4.8699 -0.4103 0.9667
7.0210 5.5871 -0.4354 0.9647
7.0743 5.9753 -0.4493 0.9636
7.1086 6.1845 -0.4572 0.9630
14.8565 13.7081 -0.9808 0.9222
14.6550 13.9241 -0.9808 0.9222
13.8179 14.7577 -0.9809 0.9222
13.3813 15.1558 -0.9810 0.9222
13.1587 15.3500 -0.9810 0.9222
12.2405 16.0937 -0.9810 0.9222
12.0042 16.2712 -0.9811 0.9222
11.5241 16.6156 -0.9811 0.9222
11.2802 16.7824 -0.9811 0.9222
10.5345 17.2613 -0.9812 0.9222
5.0199 8.5025 -0.4791 0.9612
4.8832 8.5540 -0.4779 0.9613
9.7683 17.7071 -0.9812 0.9222
9.5086 17.8481 -0.9812 0.9222
9.2469 17.9854 -0.9812 0.9222
8.7176 18.2482 -0.9812 0.9222
8.4501 18.3739 -0.9812 0.9222
8.1808 18.4956 -0.9813 0.9222
7.6370 18.7270 -0.9813 0.9222
6.8092 19.0441 -0.9813 0.9222
6.5302 19.1416 -0.9813 0.9222
6.2498 19.2351 -0.9813 0.9222
5.9681 19.3245 -0.9813 0.9222
5.6852 19.4096 -0.9813 0.9222
4.8292 19.6402 -0.9813 0.9222
4.2532 19.7730 -0.9813 0.9222
3.6736 19.8888 -0.9813 0.9222
3.3826 19.9403 -0.9813 0.9222
3.0909 19.9875 -0.9813 0.9222
2.7985 20.0305 -0.9813 0.9222
2.5055 20.0693 -0.9813 0.9222
2.2120 20.1036 -0.9813 0.9222
1.9180 20.1337 -0.9813 0.9222
1.3289 20.1809 -0.9813 0.9222
1.0339 20.1980 -0.9813 0.9222
0.7386 20.2108 -0.9813 0.9222
0.1478 20.2235 -0.9813 0.9222
-1.0338 20.1969 -0.9812 0.9222
-1.6235 20.1576 -0.9812 0.9222
-2.2117 20.1011 -0.9812 0.9222
-2.5052 20.0663 -0.9812 0.9222
-3.6729 19.8846 -0.9811 0.9222
-3.9629 19.8285 -0.9811 0.9222
-4.5405 19.7036 -0.9811 0.9222
-4.8278 19.6348 -0.9810 0.9222
-6.2476 19.2282 -0.9810 0.9222
-6.5278 19.1345 -0.9809 0.9222
-6.8065 19.0366 -0.9809 0.9222
-7.3595 18.8288 -0.9809 0.9222
-7.9062 18.6048 -0.9808 0.9222
-8.4461 18.3651 -0.9808 0.9222
-8.7132 18.2391 -0.9807 0.9222
-9.2421 17.9760 -0.9807 0.9222
-10.2752 17.4034 -0.9806 0.9223
-10.5281 17.2510 -0.9806 0.9223
-11.2731 16.7717 -0.9805 0.9223
-12.2321 16.0827 -0.9804 0.9223
-12.9240 15.5299 -0.9803 0.9223
-13.1492 15.3389 -0.9803 0.9223
-13.3715 15.1447 -0.9802 0.9223
-13.5910 14.9472 -0.9802 0.9223
-13.8075 14.7466 -0.9802 0.9223
-14.2316 14.3360 -0.9801 0.9223
-14.4391 14.1261 -0.9801 0.9223
-15.0428 13.4784 -0.9800 0.9223
-0.8412 0.6897 -0.0528 0.9957
-0.7000 0.5244 -0.0424 0.9965
-0.6982 0.5073 -0.0419 0.9965
-0.6965 0.4907 -0.0413 0.9966
-0.6948 0.4744 -0.0408 0.9966
-0.6931 0.4586 -0.0403 0.9967
-0.6913 0.4430 -0.0398 0.9967
-0.6863 0.3984 -0.0385 0.9968
-0.6846 0.3842 -0.0381 0.9969
-0.6767 0.3417 -0.0368 0.9970
-0.6639 0.2764 -0.0349 0.9971
-0.6589 0.2520 -0.0342 0.9972
-0.6564 0.2402 -0.0339 0.9972
-0.6518 0.2171 -0.0333 0.9973
-0.6468 0.1844 -0.0326 0.9973
-0.6455 0.1738 -0.0324 0.9973
-0.6428 0.1531 -0.0321 0.9974
-0.6414 0.1429 -0.0319 0.9974
-0.6358 0.1031 -0.0313 0.9974
-0.6344 0.0934 -0.0311 0.9974
-0.6330 0.0837 -0.0310 0.9974
-0.6300 0.0647 -0.0307 0.9975
-0.6258 0.0366 -0.0304 0.9975
-0.6221 0.0091 -0.0302 0.9975
-0.5972 0.0000 -0.0356 0.9976
-0.5984 -0.0087 -0.0357 0.9976
-0.5995 -0.0175 -0.0358 0.9976
-0.6017 -0.0352 -0.0359 0.9976
-0.6028 -0.0441 -0.0360 0.9976
-0.6050 -0.0621 -0.0363 0.9976
-0.6064 -0.0712 -0.0364 0.9976
-0.6102 -0.0989 -0.0369 0.9975
-0.6114 -0.1083 -0.0370 0.9975
-0.6126 -0.1177 -0.0372 0.9975
-0.6150 -0.1370 -0.0376 0.9975
-0.6162 -0.1468 -0.0378 0.9975
-0.6185 -0.1665 -0.0382 0.9974
-0.6196 -0.1766 -0.0384 0.9974
-0.6220 -0.1971 -0.0389 0.9974
-0.6301 -0.2516 -0.0405 0.9973
-0.6322 -0.2632 -0.0408 0.9973
-0.6364 -0.2870 -0.0416 0.9972
-0.6385 -0.2993 -0.0420 0.9972
-0.6427 -0.3245 -0.0429 0.9971
-0.6448 -0.3375 -0.0434 0.9971
-0.6470 -0.3508 -0.0439 0.9971
-0.6513 -0.3782 -0.0449 0.9970
-0.6536 -0.3924 -0.0455 0.9969
-0.6594 -0.4502 -0.0476 0.9968
-0.6606 -0.4654 -0.0482 0.9968
-0.6630 -0.4966 -0.0494 0.9967
-0.6642 -0.5129 -0.0500 0.9966
-0.6653 -0.5295 -0.0507 0.9966
-0.6665 -0.5465 -0.0514 0.9966
-0.7163 -0.6050 -0.0559 0.9962
-12.4056 -11.1154 -0.9933 0.9354
-12.2417 -11.2954 -0.9933 0.9354
-12.0753 -11.4730 -0.9933 0.9354
-4.1380 -4.0482 -0.3452 0.9771
-11.3841 -12.1584 -0.9933 0.9354
-11.2051 -12.3233 -0.9932 0.9354
-11.0238 -12.4856 -0.9932 0.9354
-9.7363 -13.1970 -0.9780 0.9364
-9.5424 -13.3378 -0.9780 0.9364
-9.3464 -13.4757 -0.9780 0.9364
-8.9233 -13.7041 -0.9752 0.9366
-8.5190 -13.9589 -0.9752 0.9366
-8.3141 -14.0818 -0.9752 0.9366
-8.1074 -14.2018 -0.9752 0.9366
-7.4772 -14.5433 -0.9752 0.9366
-7.0490 -14.7555 -0.9752 0.9366
-6.8327 -14.8569 -0.9752 0.9366
-5.9531 -15.2306 -0.9752 0.9366
-5.2950 -15.5207 -0.9779 0.9364
-5.0676 -15.5965 -0.9779 0.9364
-4.8392 -15.6688 -0.9779 0.9364
-4.3793 -15.8036 -0.9779 0.9364
-3.9156 -15.9248 -0.9779 0.9364
-3.2140 -16.0813 -0.9780 0.9364
-2.9788 -16.1266 -0.9780 0.9364
-2.7428 -16.1685 -0.9780 0.9364
-2.0317 -16.2734 -0.9780 0.9364
-1.5553 -16.3259 -0.9780 0.9364
-0.8384 -16.3787 -0.9780 0.9364
0.5990 -16.3899 -0.9780 0.9364
0.8384 -16.3796 -0.9780 0.9364
1.3167 -16.3484 -0.9781 0.9364
2.0319 -16.2754 -0.9781 0.9364
2.2695 -16.2441 -0.9781 0.9364
2.7432 -16.1712 -0.9781 0.9364
3.2147 -16.0845 -0.9781 0.9364
3.9165 -15.9287 -0.9782 0.9364
4.1489 -15.8699 -0.9782 0.9364
4.6110 -15.7423 -0.9782 0.9364
4.8406 -15.6734 -0.9782 0.9364
5.2966 -15.5257 -0.9782 0.9364
6.1773 -15.1477 -0.9755 0.9366
6.3981 -15.0560 -0.9755 0.9366
6.6175 -14.9611 -0.9756 0.9365
5.6609 -12.3090 -0.8079 0.9472
5.1870 -10.4620 -0.6964 0.9543
5.1133 -9.9454 -0.6669 0.9562
5.1299 -9.6290 -0.6506 0.9572
5.1550 -9.3445 -0.6364 0.9581
5.2401 -9.1791 -0.6303 0.9585
5.3559 -9.0714 -0.6282 0.9587
5.5941 -8.8721 -0.6255 0.9588
5.7421 -8.8184 -0.6275 0.9587
5.9555 -8.8603 -0.6366 0.9581
6.2777 -9.0512 -0.6569 0.9568
6.4725 -9.0469 -0.6634 0.9564
6.8742 -9.0381 -0.6772 0.9555
7.0814 -9.0335 -0.6845 0.9550
7.2933 -9.0289 -0.6921 0.9546
8.1475 -8.9606 -0.7222 0.9526
8.4426 -8.7568 -0.7254 0.9524
11.5302 -11.6148 -0.9760 0.9365
10.8644 -10.3226 -0.8937 0.9417
11.1045 -10.2461 -0.9010 0.9413
12.1898 -10.9222 -0.9760 0.9365
12.5761 -10.9412 -0.9941 0.9354
13.1948 -10.1887 -0.9941 0.9354
13.4874 -9.7991 -0.9942 0.9354
13.7686 -9.4012 -0.9942 0.9354
13.9047 -9.1993 -0.9942 0.9354
13.7827 -8.8318 -0.9762 0.9365
6.5127 -4.0402 -0.4570 0.9698
6.7040 -3.8923 -0.4623 0.9694
6.9059 -3.4870 -0.4613 0.9695
7.1047 -3.4580 -0.4712 0.9688
7.0817 -3.3197 -0.4664 0.9691
7.3730 -3.1970 -0.4792 0.9683
7.4396 -3.0975 -0.4806 0.9682
10.6578 -4.0763 -0.6805 0.9553
10.7195 -3.9213 -0.6807 0.9553
10.6353 -3.7152 -0.6718 0.9559
11.1293 -3.3483 -0.6931 0.9545
11.2951 -2.8649 -0.6949 0.9544
13.9154 -3.3139 -0.8530 0.9443
16.0830 -3.3368 -0.9795 0.9363
16.1304 -3.1015 -0.9795 0.9363
16.5047 -2.4290 -0.9948 0.9353
16.5693 -1.9457 -0.9949 0.9353
16.6396 -1.2178 -0.9949 0.9353
16.6559 -0.9746 -0.9949 0.9353
16.6687 -0.7311 -0.9950 0.9353
16.6780 -0.4875 -0.9950 0.9353
16.6843 0.2438 -0.9950 0.9353
16.6792 0.4876 -0.9951 0.9353
16.6585 0.9748 -0.9951 0.9353
16.5743 1.9464 -0.9952 0.9353
16.5110 2.4300 -0.9952 0.9353
16.3894 3.1513 -0.9953 0.9353
16.3420 3.3905 -0.9953 0.9353
13.4613 3.2058 -0.8252 0.9461
12.1877 3.0914 -0.7498 0.9509
11.9894 3.2282 -0.7404 0.9515
9.4259 3.1391 -0.5924 0.9610
7.7030 3.0759 -0.4946 0.9673
7.4736 3.1116 -0.4828 0.9681
6.8997 3.2345 -0.4544 0.9699
6.7469 3.2839 -0.4475 0.9704
6.6937 3.5036 -0.4505 0.9702
6.7385 3.7819 -0.4608 0.9695
6.7854 4.0734 -0.4719 0.9688
6.8304 4.3769 -0.4838 0.9680
6.8546 4.5350 -0.4901 0.9676
6.9302 5.0351 -0.5108 0.9663
6.9567 5.2113 -0.5183 0.9658
6.9840 5.3929 -0.5262 0.9653
7.1119 6.1873 -0.5621 0.9629
12.0842 11.1501 -0.9805 0.9362
11.5843 11.6693 -0.9805 0.9362
11.4127 11.8374 -0.9806 0.9362
11.2386 12.0030 -0.9806 0.9362
10.8832 12.3264 -0.9806 0.9362
10.5185 12.6393 -0.9806 0.9362
10.3322 12.7911 -0.9805 0.9362
9.9543 13.0879 -0.9806 0.9362
9.7622 13.2321 -0.9806 0.9362
9.5679 13.3735 -0.9806 0.9362
9.3716 13.5121 -0.9806 0.9362
9.1733 13.6478 -0.9806 0.9362
6.0287 9.2587 -0.6589 0.9567
8.7708 13.9104 -0.9806 0.9362
8.5667 14.0371 -0.9807 0.9362
5.0171 8.4977 -0.5885 0.9612
7.7324 14.5142 -0.9807 0.9362
6.2104 15.2288 -0.9808 0.9362
5.9873 15.3179 -0.9808 0.9362
5.0823 15.6418 -0.9808 0.9362
4.8532 15.7145 -0.9808 0.9362
