ply
format ascii 1.0
element vertex 1585
property float32 x
property float32 y
property float32 z
property float32 I
end_header
-1.2513 0.2596 0.1368 0.9949
-1.2497 0.2403 0.1363 0.9949
-1.2465 0.2021 0.1352 0.9949
-1.2442 0.1831 0.1347 0.9950
-1.2421 0.1643 0.1341 0.9950
-1.2400 0.1456 0.1337 0.9950
-1.2381 0.1271 0.1332 0.9950
-1.2362 0.1087 0.1329 0.9950
-1.2344 0.0904 0.1325 0.9950
-1.2318 0.0721 0.1321 0.9950
-1.2281 0.0539 0.1316 0.9951
-1.2245 0.0358 0.1312 0.9951
-1.2211 0.0179 0.1307 0.9951
-1.1772 0.0000 0.1129 0.9953
-1.1836 -0.0346 0.1135 0.9953
-1.1903 -0.0696 0.1143 0.9952
-1.1938 -0.0874 0.1148 0.9952
-1.1974 -0.1052 0.1152 0.9952
-1.2035 -0.1591 0.1164 0.9951
-1.2075 -0.1957 0.1173 0.9951
-1.2118 -0.2514 0.1186 0.9950
-1.2132 -0.2703 0.1192 0.9950
-1.2164 -0.3086 0.1203 0.9950
-1.2182 -0.3280 0.1209 0.9949
-1.2300 -0.4296 0.1249 0.9948
-1.2418 -0.5384 0.1298 0.9946
19.2148 -96.1407 9.3993 0.6744
18.9052 -82.0394 8.0712 0.7130
18.6721 -71.4218 7.0773 0.7433
18.5758 -67.0349 6.6688 0.7561
18.4899 -63.1261 6.3061 0.7677
18.3435 -56.4556 5.6909 0.7878
18.2805 -53.5845 5.4278 0.7965
18.0359 -42.4421 4.4211 0.8308
17.9281 -37.5282 3.9873 0.8461
17.8966 -36.0967 3.8626 0.8505
17.8131 -32.2902 3.5354 0.8623
17.9511 -31.4449 3.4713 0.8646
18.5570 -31.4307 3.4993 0.8636
19.1730 -31.4162 3.5285 0.8625
20.4370 -31.3866 3.5907 0.8603
21.0861 -31.3713 3.6238 0.8591
24.7613 -35.7011 4.1653 0.8398
25.5297 -35.6841 4.2064 0.8384
26.3136 -35.6666 4.2492 0.8369
27.1137 -35.6489 4.2938 0.8353
28.7664 -35.6121 4.3888 0.8320
29.5990 -35.5670 4.4361 0.8303
10.3929 -12.1236 1.5309 0.9378
10.8030 -11.8811 1.5395 0.9375
30.7178 -32.8071 4.3087 0.8348
30.6966 -31.8389 4.2400 0.8372
32.7498 -31.1163 4.3309 0.8340
33.7019 -31.0966 4.3962 0.8317
16.0868 -13.9955 2.0442 0.9179
16.1175 -12.8258 1.9747 0.9206
16.0497 -12.3932 1.9440 0.9217
6.0287 -4.1164 0.6998 0.9711
6.1166 -4.0468 0.7031 0.9710
6.2952 -3.9053 0.7102 0.9707
6.3628 -3.5710 0.6995 0.9711
6.5393 -3.5454 0.7131 0.9706
6.9149 -2.8791 0.7181 0.9703
7.2312 -2.8875 0.7465 0.9692
7.4265 -2.8404 0.7623 0.9686
30.5655 -11.1812 3.1202 0.8774
36.1316 -12.6218 3.6692 0.8574
36.1573 -11.4569 3.6362 0.8586
36.5052 -10.9828 3.6547 0.8580
42.1526 -10.6918 4.1691 0.8397
31.2449 8.4128 3.1021 0.8781
30.7729 8.7700 3.0677 0.8793
30.6866 9.7234 3.0861 0.8787
23.6222 8.6412 2.4114 0.9039
22.6915 9.8392 2.3711 0.9054
17.7200 9.6072 1.9324 0.9222
17.2265 9.6680 1.8938 0.9237
11.6254 8.9768 1.4081 0.9427
6.1516 9.4474 1.0808 0.9557
-1.2442 0.5613 0.1309 0.9945
-1.2395 0.5161 0.1287 0.9946
-1.2373 0.4940 0.1277 0.9947
-1.2352 0.4724 0.1268 0.9947
-1.2331 0.4511 0.1259 0.9947
-1.2300 0.4297 0.1249 0.9948
-1.2270 0.4086 0.1240 0.9948
-1.2148 0.2893 0.1197 0.9950
-1.2133 0.2702 0.1192 0.9950
-1.2118 0.2514 0.1186 0.9950
-1.2075 0.1957 0.1173 0.9951
-1.2054 0.1774 0.1168 0.9951
-1.2035 0.1592 0.1164 0.9951
-1.1938 0.0873 0.1148 0.9952
-1.1869 0.0521 0.1139 0.9952
-1.1836 0.0346 0.1135 0.9953
-1.1804 0.0172 0.1132 0.9953
-1.1395 0.0000 0.0965 0.9954
-1.1424 -0.0167 0.0968 0.9954
-1.1484 -0.0504 0.0974 0.9954
-1.1516 -0.0674 0.0977 0.9954
-1.1582 -0.1018 0.0985 0.9953
-1.1651 -0.1368 0.0994 0.9953
-1.1725 -0.2077 0.1009 0.9952
-1.1760 -0.2620 0.1021 0.9952
-1.1802 -0.3177 0.1035 0.9951
-1.1876 -0.3955 0.1060 0.9950
-1.1902 -0.4158 0.1068 0.9950
-1.1929 -0.4364 0.1076 0.9949
-1.1958 -0.4573 0.1084 0.9949
-1.2298 -0.5765 0.1150 0.9946
-4.1524 -4.0623 0.4920 0.9770
19.0466 -88.5464 7.6712 0.6952
18.9037 -82.0329 7.1301 0.7132
18.7796 -76.3766 6.6616 0.7293
18.4119 -59.6162 5.2847 0.7784
18.3425 -56.4524 5.0274 0.7880
18.2795 -53.5817 4.7951 0.7967
18.1695 -48.5665 4.3919 0.8121
18.1211 -46.3615 4.2160 0.8189
18.0765 -44.3260 4.0545 0.8252
5.6582 -12.3033 1.1470 0.9471
17.9273 -37.5267 3.5225 0.8462
17.5760 -32.9911 3.1661 0.8607
17.8125 -32.2890 3.1234 0.8624
18.5579 -31.4322 3.0916 0.8637
19.1739 -31.4178 3.1174 0.8626
21.0875 -31.3733 3.2017 0.8592
25.5320 -35.6873 3.7166 0.8385
26.3160 -35.6699 3.7544 0.8370
28.7691 -35.6155 3.8778 0.8321
29.6237 -35.5966 3.9224 0.8304
10.5633 -12.3225 1.3747 0.9369
10.6544 -12.0673 1.3634 0.9374
30.7391 -33.8066 3.8700 0.8324
30.9291 -31.1560 3.7183 0.8384
32.7517 -31.1180 3.8264 0.8341
33.7038 -31.0985 3.8842 0.8319
42.5370 -30.9050 4.4533 0.8097
6.1319 -4.0569 0.6227 0.9709
6.2211 -3.9864 0.6258 0.9708
6.5800 -3.5675 0.6340 0.9704
6.6658 -3.4889 0.6372 0.9702
6.5759 -3.3204 0.6239 0.9709
6.7177 -3.2697 0.6328 0.9705
6.7433 -3.1611 0.6308 0.9705
6.7687 -3.0533 0.6289 0.9706
6.7991 -2.9482 0.6277 0.9707
7.2003 -2.9979 0.6606 0.9692
7.2504 -2.8952 0.6612 0.9691
30.6909 -11.2271 2.7679 0.8771
32.0867 -11.2089 2.8787 0.8725
36.6217 -12.1957 3.2692 0.8565
36.4703 -11.5561 3.2403 0.8576
41.9368 -11.9515 3.6934 0.8394
42.0157 -11.3129 3.6854 0.8397
66.1893 -12.7266 5.7088 0.7629
61.5180 -2.6985 5.2155 0.7810
41.4093 8.5912 3.5820 0.8439
35.8181 8.5300 3.1186 0.8626
30.9778 8.3409 2.7172 0.8792
30.8966 8.8052 2.7211 0.8790
31.1824 10.3843 2.7837 0.8764
24.4541 9.3529 2.2175 0.9002
23.2553 9.2862 2.1209 0.9044
22.1571 9.2253 2.0328 0.9081
11.6797 9.0188 1.2498 0.9425
11.5085 9.1581 1.2457 0.9427
6.1345 9.4211 0.9522 0.9559
-1.2044 0.5433 0.1119 0.9947
-1.2005 0.4998 0.1101 0.9948
-1.1958 0.4573 0.1084 0.9949
-1.1876 0.3955 0.1060 0.9950
-1.1852 0.3755 0.1053 0.9950
-1.1802 0.3178 0.1035 0.9951
-1.1725 0.2077 0.1009 0.9952
-1.1708 0.1898 0.1005 0.9952
-1.1690 0.1720 0.1001 0.9953
-1.1651 0.1368 0.0994 0.9953
-1.1549 0.0845 0.0981 0.9954
-1.1454 0.0335 0.0971 0.9954
-1.1041 0.0000 0.0812 0.9956
-1.1068 -0.0162 0.0814 0.9956
-1.1096 -0.0324 0.0816 0.9956
-1.1215 -0.0986 0.0828 0.9955
-1.1247 -0.1154 0.0832 0.9955
-1.1346 -0.1670 0.0843 0.9954
-1.1381 -0.2016 0.0850 0.9954
-1.1411 -0.2542 0.0860 0.9953
-1.1447 -0.3082 0.0872 0.9953
-1.1474 -0.3452 0.0881 0.9952
-1.1488 -0.3640 0.0886 0.9952
-1.1508 -0.3832 0.0892 0.9951
-1.1530 -0.4028 0.0898 0.9951
-1.1578 -0.4428 0.0912 0.9950
-1.1603 -0.4634 0.0919 0.9950
-1.1630 -0.4842 0.0926 0.9950
-1.1690 -0.5480 0.0950 0.9948
-1.2434 -0.6052 0.1017 0.9945
-1.4718 -0.7704 0.1222 0.9934
-1.4753 -0.7998 0.1234 0.9933
-5.0991 -4.1808 0.4850 0.9739
19.2112 -96.1228 7.2093 0.6749
18.9022 -82.0263 6.1909 0.7135
18.7782 -76.3709 5.7841 0.7295
18.6695 -71.4118 5.4286 0.7438
18.4108 -59.6127 4.5887 0.7786
18.3414 -56.4492 4.3653 0.7882
18.2785 -53.5788 4.1635 0.7969
18.2211 -50.9614 3.9804 0.8049
18.1686 -48.5641 3.8135 0.8122
18.1203 -46.3593 3.6608 0.8190
18.0343 -42.4384 3.3913 0.8312
17.9959 -40.6859 3.2720 0.8366
5.6441 -12.2725 0.9935 0.9473
17.9266 -37.5252 3.0586 0.8464
17.8952 -36.0939 2.9630 0.8508
17.5761 -32.9912 2.7493 0.8608
18.5588 -31.4337 2.6847 0.8638
20.4390 -31.3896 2.7549 0.8605
21.0888 -31.3752 2.7804 0.8593
25.5344 -35.6905 3.2275 0.8386
26.3184 -35.6732 3.2604 0.8371
27.1187 -35.6555 3.2947 0.8355
27.9363 -35.6374 3.3303 0.8339
28.7719 -35.6189 3.3676 0.8322
29.6262 -35.5996 3.4063 0.8305
30.5000 -35.5791 3.4466 0.8286
30.7166 -32.8058 3.3053 0.8351
30.6954 -31.8377 3.2526 0.8375
32.7536 -31.1199 3.3229 0.8343
33.7059 -31.1003 3.3730 0.8320
34.6874 -31.0801 3.4254 0.8296
36.7428 -31.0347 3.5373 0.8246
37.8222 -31.0110 3.5972 0.8219
15.9755 -12.3358 1.4845 0.9222
41.2950 -30.9345 3.7948 0.8131
42.5399 -30.9070 3.8673 0.8099
45.1794 -30.8489 4.0235 0.8030
6.1473 -4.0670 0.5421 0.9709
6.2367 -3.9964 0.5448 0.9707
6.5105 -3.7800 0.5537 0.9703
6.4411 -3.6149 0.5432 0.9708
6.6325 -3.3490 0.5465 0.9706
6.7480 -3.2845 0.5520 0.9703
6.7736 -3.1754 0.5502 0.9704
7.1956 -2.9959 0.5732 0.9692
31.1037 -11.8961 2.4492 0.8750
31.6992 -11.0735 2.4695 0.8740
42.5107 -12.1152 3.2510 0.8375
41.9694 -11.3005 3.1967 0.8400
41.7348 -10.5858 3.1667 0.8414
57.0963 -12.7188 4.3022 0.7909
66.1877 -12.7263 4.9572 0.7631
61.1859 -3.5803 4.5077 0.7821
51.6491 9.1503 3.8578 0.8103
41.5393 8.6182 3.1201 0.8435
35.9342 8.5577 2.7168 0.8623
31.3046 8.4289 2.3844 0.8781
31.2866 9.9135 2.4138 0.8767
31.7038 10.5579 2.4576 0.8746
24.1510 9.6438 1.9126 0.9010
6.1174 9.3950 0.8245 0.9560
-1.4753 0.7998 0.1234 0.9933
-1.4718 0.7704 0.1222 0.9934
-1.2434 0.6052 0.1017 0.9945
-1.1690 0.5480 0.0950 0.9948
-1.1672 0.5265 0.0942 0.9949
-1.1655 0.5054 0.0934 0.9949
-1.1629 0.4842 0.0926 0.9950
-1.1603 0.4633 0.0919 0.9950
-1.1578 0.4428 0.0912 0.9950
-1.1508 0.3832 0.0892 0.9951
-1.1474 0.3452 0.0881 0.9952
-1.1434 0.2900 0.0868 0.9953
-1.1423 0.2720 0.0864 0.9953
-1.1401 0.2365 0.0856 0.9953
-1.1391 0.2191 0.0853 0.9954
-1.1381 0.2016 0.0850 0.9954
-1.1365 0.1842 0.0847 0.9954
-1.1312 0.1496 0.0839 0.9954
-1.1185 0.0819 0.0825 0.9955
-1.1096 0.0325 0.0816 0.9956
-1.0331 0.0000 0.0645 0.9959
-1.0422 -0.0305 0.0651 0.9958
-1.0538 -0.0616 0.0659 0.9958
-1.0792 -0.1267 0.0678 0.9957
-1.0860 -0.1436 0.0684 0.9956
-1.0930 -0.1609 0.0690 0.9956
-1.1083 -0.2469 0.0709 0.9955
-1.1093 -0.2641 0.0712 0.9954
-1.1102 -0.2816 0.0715 0.9954
-1.1113 -0.2992 0.0718 0.9954
-1.1124 -0.3170 0.0722 0.9954
-1.1147 -0.3532 0.0730 0.9953
-1.1202 -0.4097 0.0744 0.9952
-1.1223 -0.4292 0.0750 0.9952
-1.1315 -0.5104 0.0775 0.9950
-1.1716 -0.5703 0.0813 0.9948
-1.4422 -0.7549 0.1016 0.9935
-1.4447 -0.8108 0.1034 0.9934
-1.4517 -0.8428 0.1048 0.9933
-5.1989 -3.3313 0.3854 0.9756
19.2094 -96.1139 6.1175 0.6751
19.0433 -88.5312 5.6520 0.6956
18.9007 -82.0197 5.2533 0.7137
18.7768 -76.3652 4.9082 0.7297
18.4865 -63.1143 4.1047 0.7683
18.4097 -59.6092 3.8938 0.7788
18.3404 -56.4460 3.7043 0.7883
18.2776 -53.5759 3.5331 0.7970
18.2202 -50.9588 3.3777 0.8050
18.1677 -48.5617 3.2361 0.8124
18.0335 -42.4365 2.8779 0.8313
17.9951 -40.6842 2.7766 0.8367
17.9259 -37.5238 2.5955 0.8465
17.8946 -36.0926 2.5144 0.8509
17.5999 -34.2321 2.4024 0.8570
17.5762 -32.9914 2.3331 0.8609
17.8112 -32.2868 2.3014 0.8626
17.9536 -31.4493 2.2602 0.8649
18.5597 -31.4351 2.2784 0.8639
19.8023 -31.4060 2.3173 0.8617
20.4402 -31.3916 2.3380 0.8606
24.7680 -35.7107 2.7125 0.8401
26.3208 -35.6765 2.7671 0.8372
28.7743 -35.6219 2.8580 0.8323
30.7605 -34.8396 2.9007 0.8301
30.7378 -33.8053 2.8517 0.8327
30.7160 -32.8051 2.8049 0.8352
30.6948 -31.8371 2.7602 0.8376
30.9337 -31.1606 2.7404 0.8386
32.7555 -31.1217 2.8200 0.8344
33.7078 -31.1022 2.8626 0.8321
34.6895 -31.0819 2.9071 0.8297
36.7451 -31.0367 3.0020 0.8247
37.8246 -31.0130 3.0529 0.8220
41.2978 -30.9365 3.2206 0.8132
43.8365 -30.8807 3.3467 0.8066
6.2524 -4.0064 0.4635 0.9707
6.4346 -3.8627 0.4684 0.9704
6.4808 -3.6373 0.4638 0.9707
6.5509 -3.5516 0.4651 0.9706
6.6900 -3.3780 0.4678 0.9704
6.8297 -3.0807 0.4676 0.9704
6.8373 -2.9647 0.4651 0.9706
7.2384 -3.0138 0.4894 0.9691
31.9226 -11.1515 2.1105 0.8733
36.6022 -11.5978 2.3964 0.8574
36.6495 -11.0262 2.3887 0.8578
52.0090 -11.5855 3.3257 0.8077
56.6579 -11.7549 3.6116 0.7930
57.1793 -10.9942 3.6342 0.7919
61.2091 -3.5816 3.8268 0.7821
46.5523 8.9509 2.9587 0.8270
36.0510 8.5855 2.3130 0.8620
31.0008 8.8349 2.0119 0.8788
23.3837 10.1394 1.5908 0.9029
7.1762 3.7561 0.5055 0.9681
11.4777 9.4107 0.9264 0.9422
6.1041 9.3745 0.6982 0.9562
-1.4517 0.8428 0.1048 0.9933
-1.4418 0.7817 0.1024 0.9934
-1.4422 0.7548 0.1016 0.9935
-1.2578 0.6351 0.0879 0.9944
-1.1716 0.5703 0.0813 0.9948
-1.1337 0.5315 0.0781 0.9950
-1.1267 0.4691 0.0762 0.9951
-1.1244 0.4490 0.0756 0.9952
-1.1182 0.3906 0.0739 0.9953
-1.1147 0.3532 0.0730 0.9953
-1.1102 0.2816 0.0715 0.9954
-1.1083 0.2469 0.0709 0.9955
-1.1074 0.2298 0.0706 0.9955
-1.1065 0.2127 0.0703 0.9955
-1.1057 0.1959 0.0701 0.9955
-1.0930 0.1609 0.0690 0.9956
-1.0860 0.1437 0.0684 0.9956
-1.0661 0.0937 0.0668 0.9957
-1.0538 0.0616 0.0659 0.9958
-0.9685 -0.0000 0.0497 0.9961
-0.9723 -0.0142 0.0499 0.9961
-0.9803 -0.0430 0.0503 0.9961
-0.9845 -0.0576 0.0506 0.9961
-0.9951 -0.0875 0.0512 0.9960
-1.0181 -0.1498 0.0528 0.9959
-1.0361 -0.1992 0.0541 0.9958
-1.0384 -0.2154 0.0544 0.9958
-1.0407 -0.2318 0.0547 0.9957
-1.0457 -0.2652 0.0553 0.9957
-1.0483 -0.2823 0.0557 0.9957
-1.0511 -0.2996 0.0561 0.9956
-1.0621 -0.3536 0.0574 0.9955
-1.0750 -0.4111 0.0590 0.9954
-1.0785 -0.4490 0.0599 0.9953
-1.0824 -0.4883 0.0609 0.9953
-1.0845 -0.5084 0.0614 0.9952
-1.1839 -0.5978 0.0680 0.9947
-1.4187 -0.7691 0.0828 0.9936
-1.4172 -0.7954 0.0834 0.9935
-1.4171 -0.8228 0.0841 0.9935
-1.4186 -0.8516 0.0849 0.9934
-5.1950 -3.3289 0.3165 0.9756
-3.8202 -3.1323 0.2534 0.9804
19.2077 -96.1051 5.0274 0.6753
18.8992 -82.0133 4.3173 0.7138
18.7754 -76.3596 4.0336 0.7298
18.5709 -67.0174 3.5673 0.7569
18.4086 -59.6057 3.2001 0.7789
18.3394 -56.4429 3.0443 0.7884
18.1668 -48.5594 2.6595 0.8125
18.0740 -44.3200 2.4552 0.8255
17.9944 -40.6825 2.2819 0.8368
5.6212 -12.2226 0.6901 0.9475
17.6005 -34.2332 1.9746 0.8571
17.5377 -32.9191 1.9133 0.8612
17.8106 -32.2856 1.8914 0.8627
18.5605 -31.4366 1.8727 0.8640
20.4415 -31.3936 1.9217 0.8607
24.7696 -35.7130 2.2295 0.8402
7.0550 -9.8611 0.6220 0.9526
27.9410 -35.6434 2.3232 0.8341
29.6302 -35.6044 2.3761 0.8307
30.5042 -35.5840 2.4042 0.8288
30.7372 -33.8046 2.3437 0.8328
30.7154 -32.8045 2.3052 0.8353
30.6942 -31.8364 2.2685 0.8377
35.7030 -31.0616 2.4275 0.8273
36.7474 -31.0386 2.4675 0.8248
37.8269 -31.0149 2.5092 0.8221
40.1009 -30.9649 2.5989 0.8163
43.0050 -31.2450 2.7268 0.8082
45.4785 -31.0531 2.8248 0.8021
6.2682 -4.0166 0.3819 0.9706
6.5439 -3.7994 0.3882 0.9701
6.7048 -3.6351 0.3912 0.9699
6.7484 -3.4075 0.3878 0.9702
6.8093 -3.3143 0.3885 0.9701
6.8350 -3.2041 0.3872 0.9702
7.2576 -3.0218 0.4033 0.9690
31.1182 -11.9017 1.7090 0.8751
30.8842 -11.2977 1.6869 0.8766
36.6901 -12.2184 1.9837 0.8565
41.7878 -12.5721 2.2385 0.8396
41.8874 -11.2784 2.2252 0.8405
13.3087 -3.1694 0.7018 0.9467
52.1989 -11.6278 2.7433 0.8072
51.7103 -10.7284 2.7090 0.8093
57.9883 -11.1497 3.0291 0.7894
63.0943 -11.1780 3.2869 0.7736
61.0093 -3.5700 3.1349 0.7829
61.2069 -2.6848 3.1427 0.7824
62.6588 -1.8317 3.2156 0.7780
51.8093 7.6248 2.6863 0.8108
51.5409 8.3564 2.6784 0.8113
47.6076 8.4343 2.4801 0.8239
46.2458 8.8919 2.4157 0.8281
46.1132 9.5671 2.4158 0.8281
36.5187 10.4074 1.9479 0.8589
32.8644 10.4135 1.7684 0.8710
7.7802 3.5095 0.4378 0.9664
7.5392 3.5342 0.4271 0.9672
7.3188 3.5623 0.4175 0.9679
7.0567 3.8259 0.4118 0.9684
7.0552 3.9596 0.4150 0.9681
7.0742 4.1073 0.4196 0.9678
7.1377 4.4280 0.4309 0.9669
7.1760 4.5983 0.4372 0.9664
7.2030 4.7655 0.4430 0.9660
6.0937 9.3585 0.5729 0.9563
-1.4171 0.8228 0.0841 0.9935
-1.4171 0.7954 0.0834 0.9935
-1.4204 0.7434 0.0822 0.9936
-1.1840 0.5978 0.0680 0.9947
-1.0845 0.5084 0.0614 0.9952
-1.0824 0.4882 0.0609 0.9953
-1.0805 0.4685 0.0604 0.9953
-1.0750 0.4112 0.0590 0.9954
-1.0734 0.3927 0.0586 0.9954
-1.0621 0.3537 0.0574 0.9955
-1.0539 0.3171 0.0565 0.9956
-1.0511 0.2995 0.0561 0.9956
-1.0483 0.2823 0.0557 0.9957
-1.0431 0.2484 0.0550 0.9957
-1.0384 0.2154 0.0544 0.9958
-1.0361 0.1992 0.0541 0.9958
-1.0181 0.1498 0.0528 0.9959
-1.0121 0.1339 0.0524 0.9959
-1.0063 0.1182 0.0520 0.9959
-1.0007 0.1027 0.0516 0.9960
-0.9951 0.0875 0.0512 0.9960
-0.9898 0.0725 0.0509 0.9960
-0.9803 0.0430 0.0503 0.9961
-0.9763 0.0286 0.0501 0.9961
-0.9723 0.0142 0.0499 0.9961
-0.9115 0.0000 0.0366 0.9964
-0.9149 -0.0134 0.0368 0.9963
-0.9184 -0.0269 0.0369 0.9963
-0.9292 -0.0680 0.0374 0.9963
-0.9427 -0.1107 0.0382 0.9962
-0.9580 -0.1553 0.0390 0.9961
-0.9689 -0.1863 0.0397 0.9961
-0.9728 -0.2018 0.0399 0.9960
-0.9747 -0.2171 0.0401 0.9960
-0.9767 -0.2326 0.0404 0.9960
-0.9807 -0.2641 0.0408 0.9959
-0.9874 -0.3129 0.0416 0.9959
-1.0091 -0.3691 0.0432 0.9957
-1.0216 -0.4079 0.0442 0.9956
-1.0229 -0.4259 0.0445 0.9956
-1.0243 -0.4441 0.0449 0.9955
-1.2465 -0.6758 0.0570 0.9943
-1.4124 -0.8200 0.0656 0.9935
-1.4127 -0.8480 0.0662 0.9934
-1.4222 -0.8823 0.0673 0.9933
-4.1460 -4.0561 0.2331 0.9770
-4.1003 -4.1303 0.2339 0.9770
19.2059 -96.0961 3.9387 0.6755
18.5697 -67.0128 2.7949 0.7570
18.2184 -50.9536 2.1749 0.8052
18.1660 -48.5570 2.0837 0.8126
17.9936 -40.6808 1.7878 0.8369
5.6207 -12.2217 0.5407 0.9476
17.8932 -36.0898 1.6190 0.8511
18.4096 -31.1811 1.4554 0.8651
19.1776 -31.4237 1.4796 0.8630
19.8045 -31.4095 1.4924 0.8619
20.4428 -31.3955 1.5058 0.8607
6.8689 -9.3105 0.4650 0.9547
7.2965 -9.3080 0.4754 0.9538
7.5177 -9.3068 0.4808 0.9532
7.9890 -9.3195 0.4934 0.9520
8.2418 -9.3348 0.5005 0.9514
30.7147 -32.8038 1.8062 0.8354
30.6936 -31.8358 1.7774 0.8378
32.7593 -31.1254 1.8162 0.8345
33.7118 -31.1059 1.8436 0.8322
35.7051 -31.0634 1.9021 0.8274
37.8293 -31.0169 1.9662 0.8221
38.9465 -30.9923 2.0005 0.8193
40.1036 -30.9670 2.0364 0.8164
41.7491 -31.2747 2.0966 0.8115
44.3159 -31.2183 2.1787 0.8049
45.4817 -31.0552 2.2135 0.8021
6.3752 -3.9549 0.3015 0.9704
6.4674 -3.8825 0.3032 0.9703
6.5616 -3.6826 0.3024 0.9703
6.8078 -3.4375 0.3065 0.9699
6.8555 -3.0923 0.3023 0.9703
7.2946 -3.0371 0.3176 0.9689
7.3011 -2.9154 0.3160 0.9690
31.4144 -12.0150 1.3518 0.8740
89.7182 -29.8776 3.8006 0.6849
14.1065 -3.7982 0.5872 0.9432
14.2900 -3.1832 0.5884 0.9431
14.2321 -2.9528 0.5842 0.9435
62.8921 -11.1423 2.5671 0.7744
78.5027 -11.5532 3.1891 0.7279
93.2484 -12.3341 3.7805 0.6862
62.7899 -1.8355 2.5247 0.7777
97.1370 8.5381 3.9192 0.6768
61.7752 8.1711 2.5045 0.7792
51.7692 7.6188 2.1031 0.8110
51.7005 8.3823 2.1051 0.8109
47.3545 8.3895 1.9329 0.8249
41.9707 9.3493 1.7282 0.8419
41.1798 9.8069 1.7014 0.8441
10.5025 3.4975 0.4449 0.9567
10.0671 3.5168 0.4286 0.9582
9.8107 3.5889 0.4199 0.9590
9.7675 3.9003 0.4227 0.9588
9.7874 4.0751 0.4261 0.9584
7.8821 3.4177 0.3453 0.9662
6.9691 3.6477 0.3161 0.9690
6.9891 3.7893 0.3195 0.9687
7.0510 4.2328 0.3305 0.9676
7.0852 4.3955 0.3351 0.9672
7.1219 4.5636 0.3400 0.9667
7.1731 4.8979 0.3491 0.9658
7.1996 5.0718 0.3540 0.9654
11.4994 9.4285 0.5977 0.9422
-1.4222 0.8823 0.0673 0.9933
-1.4124 0.8200 0.0656 0.9935
-1.0305 0.5203 0.0464 0.9954
-1.0288 0.5007 0.0460 0.9954
-1.0257 0.4627 0.0452 0.9955
-1.0243 0.4441 0.0449 0.9955
-1.0229 0.4259 0.0445 0.9956
-1.0216 0.4080 0.0442 0.9956
-1.0158 0.3885 0.0437 0.9957
-0.9938 0.3310 0.0421 0.9958
-0.9874 0.3129 0.0416 0.9959
-0.9851 0.2964 0.0413 0.9959
-0.9829 0.2801 0.0411 0.9959
-0.9747 0.2171 0.0401 0.9960
-0.9634 0.1707 0.0393 0.9961
-0.9528 0.1402 0.0387 0.9962
-0.9477 0.1254 0.0384 0.9962
-0.9427 0.1107 0.0382 0.9962
-0.9379 0.0962 0.0379 0.9962
-0.9331 0.0820 0.0376 0.9963
-0.9255 0.0541 0.0373 0.9963
-0.9219 0.0404 0.0371 0.9963
-0.9149 0.0134 0.0368 0.9963
-0.8609 0.0000 0.0251 0.9966
-0.8702 -0.0382 0.0253 0.9965
-0.8733 -0.0511 0.0255 0.9965
-0.8766 -0.0642 0.0256 0.9965
-0.8799 -0.0773 0.0257 0.9965
-0.8832 -0.0907 0.0258 0.9965
-0.8868 -0.1041 0.0260 0.9964
-0.8999 -0.1459 0.0265 0.9964
-0.9167 -0.2042 0.0273 0.9962
-0.9213 -0.2480 0.0278 0.9962
-0.9275 -0.2939 0.0283 0.9961
-0.9339 -0.3110 0.0286 0.9961
-0.9597 -0.3832 0.0301 0.9959
-0.9719 -0.4214 0.0308 0.9958
-0.9748 -0.4397 0.0311 0.9957
-0.9758 -0.4574 0.0314 0.9957
-0.9792 -0.5125 0.0322 0.9956
-0.9804 -0.5315 0.0324 0.9955
-1.4148 -0.8214 0.0476 0.9935
-1.4151 -0.8495 0.0480 0.9934
-3.8293 -3.1397 0.1441 0.9804
19.2041 -96.0874 2.8511 0.6756
18.7726 -76.3483 2.2877 0.7301
18.5684 -67.0085 2.0232 0.7571
18.4065 -59.5987 1.8150 0.7791
18.3374 -56.4366 1.7266 0.7886
18.2746 -53.5674 1.6469 0.7973
18.2174 -50.9510 1.5744 0.8053
18.0724 -44.3160 1.3926 0.8257
18.0312 -42.4310 1.3415 0.8315
17.9929 -40.6791 1.2943 0.8369
5.6332 -12.2487 0.3923 0.9475
17.3387 -33.7240 1.1034 0.8592
17.4505 -32.7554 1.0799 0.8620
17.6469 -31.9889 1.0630 0.8640
17.9561 -31.4537 1.0538 0.8651
18.4105 -31.1825 1.0537 0.8651
19.1784 -31.4252 1.0712 0.8630
6.3266 -10.0339 0.3451 0.9536
6.2990 -9.6738 0.3359 0.9549
6.4302 -9.2711 0.3283 0.9559
6.6151 -9.2462 0.3308 0.9555
6.8200 -9.2442 0.3343 0.9551
7.6865 -9.2363 0.3496 0.9531
7.9160 -9.2343 0.3539 0.9525
8.3927 -9.2303 0.3630 0.9513
30.7141 -32.8032 1.3076 0.8354
30.6930 -31.8352 1.2867 0.8378
31.8380 -31.1478 1.2960 0.8367
35.7073 -31.0654 1.3771 0.8275
12.0470 -9.5865 0.4480 0.9403
12.0912 -9.3365 0.4445 0.9407
12.2523 -9.1783 0.4454 0.9406
12.6342 -9.1792 0.4544 0.9394
13.0333 -9.1812 0.4639 0.9382
45.4848 -31.0574 1.6026 0.8022
46.5948 -30.8268 1.6256 0.7997
6.2998 -4.0368 0.2177 0.9705
6.3914 -3.9650 0.2188 0.9704
6.6027 -3.7056 0.2203 0.9702
6.7679 -3.6694 0.2240 0.9697
6.8196 -3.5694 0.2240 0.9697
6.8716 -3.3446 0.2224 0.9699
6.7495 -3.1640 0.2169 0.9706
6.9142 -3.1188 0.2207 0.9701
7.2712 -3.0274 0.2292 0.9690
76.4233 -30.5168 2.3944 0.7194
79.1018 -30.2539 2.4642 0.7126
85.7863 -29.9677 2.6440 0.6951
36.9915 -12.3188 1.1345 0.8555
95.0227 -30.1090 2.9004 0.6711
13.7437 -3.9168 0.4158 0.9444
13.4654 -3.4154 0.4042 0.9459
13.5997 -3.0295 0.4054 0.9458
21.6765 -3.5145 0.6390 0.9159
93.8653 -11.0227 2.7500 0.6851
61.0298 -3.5712 1.7788 0.7830
61.9483 -1.8110 1.8033 0.7804
61.8805 8.1850 1.8162 0.7790
61.4993 9.0508 1.8087 0.7798
46.4721 9.6416 1.3810 0.8270
41.5587 9.8971 1.2431 0.8429
12.8836 3.4690 0.3882 0.9480
12.5474 3.5759 0.3796 0.9491
10.4135 3.2997 0.3178 0.9572
9.7537 3.4073 0.3006 0.9595
9.6272 3.5218 0.2983 0.9598
8.0061 3.3334 0.2523 0.9659
7.2828 3.4141 0.2340 0.9683
7.0847 3.4483 0.2293 0.9690
6.9243 3.7541 0.2292 0.9690
6.9603 3.9063 0.2322 0.9686
6.9759 4.0502 0.2347 0.9682
7.0028 4.2038 0.2377 0.9678
7.0335 4.3633 0.2408 0.9674
7.0686 4.5295 0.2443 0.9670
7.1041 4.7001 0.2479 0.9665
7.1851 5.2203 0.2584 0.9651
7.2168 5.4062 0.2624 0.9646
11.5018 9.4305 0.4328 0.9422
-1.4151 0.8495 0.0480 0.9934
-1.4147 0.8214 0.0476 0.9935
-1.1001 0.6174 0.0367 0.9950
-0.9804 0.5315 0.0325 0.9955
-0.9792 0.5125 0.0322 0.9956
-0.9780 0.4938 0.0319 0.9956
-0.9758 0.4574 0.0314 0.9957
-0.9747 0.4397 0.0311 0.9957
-0.9597 0.3833 0.0301 0.9959
-0.9403 0.3285 0.0290 0.9960
-0.9275 0.2939 0.0283 0.9961
-0.9214 0.2481 0.0278 0.9962
-0.9197 0.2333 0.0276 0.9962
-0.9182 0.2186 0.0275 0.9962
-0.9167 0.2042 0.0273 0.9962
-0.9140 0.1896 0.0272 0.9963
-0.9092 0.1748 0.0269 0.9963
-0.8999 0.1459 0.0265 0.9964
-0.8954 0.1318 0.0263 0.9964
-0.8911 0.1179 0.0262 0.9964
-0.8867 0.1041 0.0260 0.9964
-0.8733 0.0511 0.0255 0.9965
-0.8702 0.0382 0.0253 0.9965
-0.8640 0.0126 0.0251 0.9965
-0.8184 -0.0120 0.0147 0.9967
-0.8239 -0.0361 0.0149 0.9967
-0.8296 -0.0607 0.0150 0.9967
-0.8325 -0.0732 0.0151 0.9967
-0.8354 -0.0857 0.0151 0.9966
-0.8384 -0.0985 0.0152 0.9966
-0.8446 -0.1243 0.0154 0.9966
-0.8525 -0.1510 0.0156 0.9965
-0.8565 -0.1647 0.0157 0.9965
-0.8606 -0.1786 0.0158 0.9965
-0.8648 -0.1927 0.0160 0.9965
-0.8663 -0.2063 0.0160 0.9964
-0.8688 -0.2339 0.0162 0.9964
-0.8701 -0.2480 0.0163 0.9964
-0.8714 -0.2621 0.0164 0.9964
-0.8807 -0.2933 0.0167 0.9963
-0.8863 -0.3096 0.0169 0.9963
-0.8919 -0.3262 0.0171 0.9962
-0.8977 -0.3434 0.0173 0.9962
-0.9037 -0.3609 0.0175 0.9961
-0.9141 -0.3963 0.0179 0.9960
-0.9194 -0.4147 0.0182 0.9960
-0.9248 -0.4335 0.0184 0.9959
-0.9337 -0.5421 0.0194 0.9957
-1.1483 -0.6893 0.0241 0.9947
-4.9585 -4.1882 0.1169 0.9744
18.7712 -76.3427 1.4158 0.7301
18.3363 -56.4334 1.0686 0.7887
18.2165 -50.9484 0.9744 0.8054
17.9922 -40.6774 0.8010 0.8370
5.6510 -12.2875 0.2436 0.9473
17.8919 -36.0871 0.7254 0.8512
17.4774 -33.9938 0.6884 0.8582
17.8349 -33.4770 0.6831 0.8592
17.9569 -31.4552 0.6523 0.8651
5.9756 -10.1212 0.2117 0.9541
5.9515 -9.7520 0.2057 0.9553
5.9547 -9.4440 0.2011 0.9563
6.3699 -9.1841 0.2013 0.9563
6.5688 -9.1815 0.2033 0.9558
6.7720 -9.1791 0.2054 0.9554
6.9811 -9.1788 0.2077 0.9549
7.1949 -9.1783 0.2100 0.9544
7.4136 -9.1779 0.2125 0.9539
7.6376 -9.1775 0.2150 0.9534
7.8670 -9.1771 0.2177 0.9528
8.1023 -9.1767 0.2205 0.9522
32.7640 -31.1298 0.8139 0.8346
33.7158 -31.1096 0.8262 0.8323
11.6455 -10.1316 0.2780 0.9401
11.6207 -9.2473 0.2675 0.9423
11.7840 -9.0993 0.2681 0.9422
13.7402 -9.0904 0.2967 0.9362
6.3158 -4.0471 0.1351 0.9704
6.5005 -3.9023 0.1365 0.9701
6.5944 -3.8287 0.1373 0.9700
6.6441 -3.7289 0.1372 0.9700
6.7161 -3.6413 0.1376 0.9699
6.8772 -3.4725 0.1387 0.9696
6.9032 -3.3600 0.1383 0.9698
6.9339 -3.1277 0.1370 0.9700
6.9146 -2.9982 0.1357 0.9703
7.2479 -3.0177 0.1414 0.9691
22.9312 -9.1568 0.4447 0.9059
13.3008 -4.4294 0.2525 0.9455
12.8493 -4.0715 0.2427 0.9475
13.5020 -4.0621 0.2539 0.9452
13.3591 -3.8073 0.2502 0.9459
13.2909 -3.5787 0.2479 0.9464
13.2975 -3.3728 0.2471 0.9466
13.1094 -3.1220 0.2427 0.9475
12.8714 -2.8673 0.2375 0.9486
13.7586 -2.8545 0.2531 0.9453
13.9849 -2.4777 0.2558 0.9448
21.7154 -3.5207 0.3962 0.9158
22.0704 -2.9193 0.4009 0.9148
99.2159 -11.6511 1.7991 0.6706
60.8301 -3.5595 1.0974 0.7837
61.2186 -2.6854 1.1036 0.7826
90.8140 9.3214 1.6441 0.6940
18.7541 3.6059 0.3439 0.9264
13.4270 2.7857 0.2470 0.9466
12.6512 2.8182 0.2334 0.9495
12.4283 3.5420 0.2327 0.9496
10.1163 3.2055 0.1911 0.9584
9.8430 3.2779 0.1868 0.9593
9.5742 3.5024 0.1836 0.9600
9.5978 3.6709 0.1851 0.9597
8.1217 3.2431 0.1575 0.9656
7.1605 3.3568 0.1424 0.9689
6.9752 3.3950 0.1397 0.9694
6.8085 3.4379 0.1374 0.9699
6.8607 3.7196 0.1405 0.9693
6.8956 3.8700 0.1424 0.9689
6.9283 4.0226 0.1443 0.9685
6.9826 4.3317 0.1480 0.9677
7.0161 4.4958 0.1501 0.9672
7.0787 4.8334 0.1544 0.9663
7.1100 5.0087 0.1566 0.9658
7.1431 5.1898 0.1590 0.9653
11.4931 9.4234 0.2677 0.9423
6.0846 9.3445 0.2008 0.9564
-0.9337 0.5421 0.0194 0.9957
-0.9306 0.4699 0.0188 0.9958
-0.9248 0.4336 0.0184 0.9959
-0.9194 0.4147 0.0182 0.9960
-0.9141 0.3963 0.0179 0.9960
-0.9037 0.3609 0.0175 0.9961
-0.8977 0.3434 0.0173 0.9962
-0.8862 0.3096 0.0169 0.9963
-0.8714 0.2622 0.0164 0.9964
-0.8701 0.2480 0.0163 0.9964
-0.8675 0.2200 0.0161 0.9964
-0.8663 0.2063 0.0160 0.9964
-0.8648 0.1927 0.0160 0.9965
-0.8606 0.1786 0.0158 0.9965
-0.8525 0.1511 0.0156 0.9965
-0.8447 0.1243 0.0154 0.9966
-0.8384 0.0985 0.0152 0.9966
-0.8354 0.0858 0.0151 0.9966
-0.8296 0.0607 0.0150 0.9967
-0.8239 0.0361 0.0149 0.9967
-0.8184 0.0120 0.0147 0.9967
-0.7750 0.0000 0.0054 0.9969
-0.7774 -0.0114 0.0054 0.9969
-0.7799 -0.0228 0.0054 0.9969
-0.7824 -0.0343 0.0054 0.9969
-0.7849 -0.0459 0.0054 0.9969
-0.7874 -0.0576 0.0055 0.9968
-0.7925 -0.0813 0.0055 0.9968
-0.7952 -0.0934 0.0055 0.9968
-0.7978 -0.1055 0.0056 0.9968
-0.8005 -0.1178 0.0056 0.9968
-0.8032 -0.1302 0.0056 0.9968
-0.8096 -0.1557 0.0057 0.9967
-0.8132 -0.1687 0.0058 0.9967
-0.8210 -0.2082 0.0059 0.9966
-0.8219 -0.2213 0.0059 0.9966
-0.8243 -0.2480 0.0060 0.9966
-0.8288 -0.2626 0.0060 0.9965
-0.8334 -0.2775 0.0061 0.9965
-0.8429 -0.3083 0.0062 0.9964
-0.8478 -0.3243 0.0063 0.9964
-0.8580 -0.3572 0.0064 0.9963
-0.8629 -0.3741 0.0065 0.9962
-0.8717 -0.4086 0.0067 0.9962
-0.8810 -0.4448 0.0068 0.9961
-0.8891 -0.5162 0.0071 0.9959
-0.8895 -0.5340 0.0072 0.9959
-5.0807 -3.3613 0.0422 0.9759
-4.0778 -3.1487 0.0357 0.9796
-4.1412 -4.0514 0.0401 0.9771
-3.9522 -4.2210 0.0400 0.9771
19.2006 -96.0697 0.6785 0.6758
18.7699 -76.3370 0.5445 0.7302
18.4043 -59.5917 0.4320 0.7792
18.2727 -53.5616 0.3920 0.7974
18.2156 -50.9458 0.3747 0.8054
18.1633 -48.5499 0.3590 0.8127
18.0708 -44.3120 0.3314 0.8258
18.0296 -42.4273 0.3193 0.8316
17.9914 -40.6757 0.3080 0.8370
5.6783 -12.3467 0.0941 0.9471
17.8912 -36.0858 0.2790 0.8512
5.6114 -9.8296 0.0784 0.9557
5.6730 -9.2957 0.0754 0.9574
6.3471 -9.1514 0.0771 0.9564
6.7474 -9.1459 0.0787 0.9556
6.9555 -9.1451 0.0796 0.9551
7.3858 -9.1434 0.0814 0.9541
7.6085 -9.1427 0.0824 0.9535
7.8368 -9.1418 0.0834 0.9530
8.3107 -9.1401 0.0856 0.9518
30.6918 -31.8340 0.3063 0.8379
30.9451 -31.1721 0.3042 0.8389
32.7665 -31.1322 0.3130 0.8346
11.2162 -10.3492 0.1057 0.9408
11.1364 -9.9783 0.1036 0.9419
11.1031 -9.6596 0.1019 0.9428
11.1348 -9.4049 0.1009 0.9434
11.3424 -9.0259 0.1004 0.9437
11.6747 -9.0148 0.1022 0.9427
12.0189 -9.0034 0.1040 0.9417
12.3866 -8.9993 0.1060 0.9406
13.1720 -8.9939 0.1105 0.9382
13.5901 -8.9911 0.1129 0.9369
6.4240 -3.9852 0.0524 0.9702
6.5172 -3.9123 0.0526 0.9701
6.6114 -3.8387 0.0529 0.9699
6.7068 -3.7641 0.0533 0.9697
6.8033 -3.6886 0.0536 0.9695
6.7071 -3.5106 0.0524 0.9702
6.7821 -3.4245 0.0526 0.9701
6.9607 -3.2631 0.0532 0.9697
7.2248 -3.0081 0.0542 0.9692
22.6296 -9.0363 0.1688 0.9071
23.7188 -9.0717 0.1759 0.9034
25.7322 -8.9890 0.1888 0.8967
13.2755 -4.4209 0.0969 0.9456
13.2652 -3.1591 0.0944 0.9469
13.0236 -2.9011 0.0924 0.9480
12.9858 -2.4969 0.0916 0.9485
21.1652 -3.1149 0.1482 0.9180
21.2178 -2.8066 0.1482 0.9179
21.7175 -2.5504 0.1514 0.9162
42.3060 -2.4755 0.2935 0.8441
61.6573 -2.7046 0.4274 0.7812
41.1933 3.6208 0.2864 0.8475
36.8949 3.7870 0.2569 0.8621
28.1905 3.7289 0.1969 0.8925
13.2844 2.5543 0.0937 0.9473
12.6927 2.6334 0.0898 0.9495
12.3092 2.7420 0.0873 0.9508
12.3044 2.9302 0.0876 0.9507
12.3160 3.1238 0.0880 0.9504
12.3332 3.3207 0.0885 0.9502
10.0152 3.1735 0.0728 0.9588
9.7518 3.2476 0.0712 0.9597
9.5647 3.6582 0.0709 0.9599
7.7417 3.2233 0.0581 0.9670
7.5119 3.2572 0.0567 0.9678
7.0890 3.3232 0.0542 0.9692
6.9075 3.3621 0.0532 0.9697
6.7723 3.4196 0.0525 0.9701
6.9549 4.4566 0.0572 0.9675
7.0566 4.9710 0.0598 0.9661
7.1286 5.3401 0.0617 0.9650
7.1460 5.5180 0.0625 0.9645
6.9424 5.5246 0.0615 0.9651
-0.8891 0.5162 0.0071 0.9959
-0.8887 0.4988 0.0071 0.9959
-0.8859 0.4637 0.0069 0.9960
-0.8811 0.4448 0.0068 0.9961
-0.8673 0.3912 0.0066 0.9962
-0.8580 0.3572 0.0064 0.9963
-0.8478 0.3243 0.0063 0.9964
-0.8429 0.3083 0.0062 0.9964
-0.8333 0.2775 0.0061 0.9965
-0.8288 0.2626 0.0060 0.9965
-0.8096 0.1557 0.0057 0.9967
-0.8061 0.1428 0.0057 0.9967
-0.8032 0.1302 0.0056 0.9968
-0.7979 0.1055 0.0056 0.9968
-0.7900 0.0694 0.0055 0.9968
-0.7874 0.0576 0.0055 0.9968
-0.7849 0.0459 0.0054 0.9969
-0.7824 0.0343 0.0054 0.9969
-0.7404 -0.0108 -0.0031 0.9970
-0.7426 -0.0217 -0.0031 0.9970
-0.7471 -0.0437 -0.0031 0.9970
-0.7493 -0.0548 -0.0031 0.9970
-0.7539 -0.0774 -0.0031 0.9970
-0.7562 -0.0887 -0.0032 0.9970
-0.7609 -0.1120 -0.0032 0.9969
-0.7656 -0.1356 -0.0032 0.9969
-0.7681 -0.1477 -0.0032 0.9969
-0.7706 -0.1598 -0.0033 0.9969
-0.7799 -0.2100 -0.0034 0.9968
-0.7806 -0.2224 -0.0034 0.9968
-0.7908 -0.2633 -0.0035 0.9967
-0.7949 -0.2777 -0.0035 0.9966
-0.8119 -0.3380 -0.0037 0.9965
-0.8163 -0.3539 -0.0037 0.9964
-0.8244 -0.3864 -0.0038 0.9964
-0.8282 -0.4031 -0.0038 0.9963
-0.8486 -0.4927 -0.0041 0.9961
-0.8486 -0.5094 -0.0041 0.9960
-0.8486 -0.5264 -0.0041 0.9960
-0.8487 -0.5438 -0.0042 0.9960
-5.6279 -3.9646 -0.0286 0.9728
-3.8430 -3.1509 -0.0207 0.9803
-4.9479 -4.1792 -0.0269 0.9744
-4.1396 -4.0499 -0.0241 0.9771
-3.9312 -4.1985 -0.0239 0.9773
19.0336 -88.4860 -0.3761 0.6963
18.8917 -81.9809 -0.3496 0.7143
18.7685 -76.3314 -0.3266 0.7302
18.6604 -71.3771 -0.3066 0.7445
18.4797 -63.0909 -0.2732 0.7688
18.4032 -59.5882 -0.2592 0.7792
18.3343 -56.4272 -0.2466 0.7887
18.2717 -53.5588 -0.2352 0.7974
18.0289 -42.4255 -0.1916 0.8316
5.7035 -12.4016 -0.0567 0.9469
17.9217 -37.5150 -0.1728 0.8468
5.3566 -10.0547 -0.0473 0.9555
5.3494 -9.3706 -0.0448 0.9578
5.4275 -9.1928 -0.0444 0.9582
5.5929 -9.1644 -0.0446 0.9580
5.7688 -9.1492 -0.0449 0.9577
5.9500 -9.1379 -0.0453 0.9573
6.1390 -9.1334 -0.0457 0.9569
6.3315 -9.1288 -0.0462 0.9565
6.5278 -9.1242 -0.0466 0.9561
6.9324 -9.1147 -0.0476 0.9552
7.1417 -9.1105 -0.0481 0.9548
7.5798 -9.1080 -0.0492 0.9537
7.8067 -9.1069 -0.0498 0.9532
8.0394 -9.1056 -0.0505 0.9526
8.2781 -9.1042 -0.0511 0.9520
8.7749 -9.1015 -0.0525 0.9507
30.9474 -31.1743 -0.1825 0.8389
31.8451 -31.1547 -0.1851 0.8368
10.7246 -10.1896 -0.0615 0.9425
10.6731 -9.8480 -0.0604 0.9436
10.6819 -9.5709 -0.0596 0.9442
10.7542 -9.0834 -0.0585 0.9452
11.2400 -8.9443 -0.0597 0.9442
11.5674 -8.9320 -0.0607 0.9432
12.2663 -8.9120 -0.0630 0.9412
12.6503 -8.9115 -0.0643 0.9400
6.3480 -4.0677 -0.0313 0.9703
6.4404 -3.9955 -0.0315 0.9701
6.9412 -3.5048 -0.0323 0.9694
6.9736 -3.1456 -0.0318 0.9699
6.9539 -3.0152 -0.0315 0.9701
22.4991 -8.9842 -0.1007 0.9076
11.1824 -4.0906 -0.0495 0.9535
11.3965 -3.6111 -0.0497 0.9533
11.4964 -3.4588 -0.0499 0.9531
12.9947 -3.2960 -0.0557 0.9478
13.1793 -2.9358 -0.0561 0.9474
13.1201 -2.3244 -0.0554 0.9481
26.7640 -2.7471 -0.1118 0.8980
33.0130 -2.4162 -0.1376 0.8760
42.6122 -2.4934 -0.1774 0.8430
57.4071 -2.5181 -0.2388 0.7947
73.6201 -2.1521 -0.3061 0.7448
41.3654 3.0276 -0.1724 0.8471
35.9337 3.6884 -0.1501 0.8655
18.6207 3.0190 -0.0784 0.9273
16.6672 2.9529 -0.0703 0.9345
12.2825 2.7360 -0.0523 0.9509
10.2161 3.0736 -0.0443 0.9582
9.9224 3.1441 -0.0433 0.9592
8.2088 3.1396 -0.0365 0.9655
7.6934 3.2032 -0.0346 0.9672
7.0525 3.3061 -0.0324 0.9693
6.7438 3.4052 -0.0314 0.9702
6.7596 3.5380 -0.0317 0.9699
6.7758 3.6736 -0.0320 0.9696
6.7933 3.8126 -0.0324 0.9693
6.8102 3.9540 -0.0327 0.9690
6.8364 4.1040 -0.0331 0.9686
6.8672 4.2602 -0.0336 0.9682
6.8925 4.4166 -0.0340 0.9678
6.9175 4.5766 -0.0345 0.9674
6.9473 4.7436 -0.0350 0.9669
6.9764 4.9145 -0.0355 0.9664
7.0357 5.2705 -0.0365 0.9654
7.1222 5.6677 -0.0378 0.9642
7.2123 6.0919 -0.0392 0.9629
7.3360 6.3823 -0.0404 0.9619
-0.8486 0.5438 -0.0042 0.9960
-0.8486 0.5265 -0.0041 0.9960
-0.8486 0.5095 -0.0041 0.9960
-0.8486 0.4927 -0.0041 0.9961
-0.8361 0.4376 -0.0039 0.9962
-0.8321 0.4202 -0.0039 0.9963
-0.8282 0.4031 -0.0038 0.9963
-0.8163 0.3539 -0.0037 0.9964
-0.8075 0.3224 -0.0036 0.9965
-0.8032 0.3071 -0.0036 0.9966
-0.7990 0.2922 -0.0035 0.9966
-0.7908 0.2634 -0.0035 0.9967
-0.7869 0.2493 -0.0034 0.9967
-0.7830 0.2356 -0.0034 0.9967
-0.7806 0.2225 -0.0034 0.9968
-0.7798 0.2100 -0.0034 0.9968
-0.7791 0.1977 -0.0033 0.9968
-0.7737 0.1723 -0.0033 0.9968
-0.7632 0.1237 -0.0032 0.9969
-0.7585 0.1004 -0.0032 0.9969
-0.7562 0.0888 -0.0032 0.9970
-0.7539 0.0774 -0.0031 0.9970
-0.7516 0.0661 -0.0031 0.9970
-0.7493 0.0549 -0.0031 0.9970
-0.7448 0.0327 -0.0031 0.9970
-0.7426 0.0217 -0.0031 0.9970
-0.7047 0.0000 -0.0107 0.9972
-0.7067 -0.0103 -0.0108 0.9972
-0.7087 -0.0207 -0.0108 0.9972
-0.7127 -0.0417 -0.0109 0.9971
-0.7147 -0.0523 -0.0109 0.9971
-0.7209 -0.0846 -0.0111 0.9971
-0.7229 -0.0956 -0.0111 0.9971
-0.7250 -0.1066 -0.0112 0.9971
-0.7312 -0.1405 -0.0113 0.9970
-0.7334 -0.1521 -0.0114 0.9970
-0.7378 -0.1757 -0.0116 0.9970
-0.7490 -0.2373 -0.0120 0.9969
-0.7559 -0.2640 -0.0122 0.9968
-0.7630 -0.2918 -0.0124 0.9967
-0.7666 -0.3061 -0.0126 0.9967
-0.7703 -0.3207 -0.0127 0.9967
-0.7741 -0.3357 -0.0129 0.9966
-0.7780 -0.3509 -0.0130 0.9966
-0.7819 -0.3666 -0.0132 0.9966
-0.7883 -0.3980 -0.0135 0.9965
-0.7949 -0.4309 -0.0138 0.9964
-0.8052 -0.4834 -0.0143 0.9963
-0.8088 -0.5017 -0.0145 0.9962
-0.8107 -0.5195 -0.0147 0.9962
-0.8104 -0.5361 -0.0148 0.9961
-0.8550 -0.5838 -0.0158 0.9959
-5.6346 -3.9693 -0.1050 0.9728
-40.2752 -29.2617 -0.7586 0.8194
-39.7744 -29.7953 -0.7573 0.8197
-4.0549 -3.2268 -0.0790 0.9795
-3.8476 -3.1547 -0.0758 0.9803
-3.7920 -3.2029 -0.0756 0.9803
-37.1916 -32.3566 -0.7512 0.8210
-36.6599 -32.8474 -0.7501 0.8213
-4.1380 -4.0483 -0.0882 0.9771
-4.0800 -4.1099 -0.0882 0.9771
-32.8086 -36.0827 -0.7431 0.8228
-32.2408 -36.5162 -0.7423 0.8229
-31.0949 -37.3644 -0.7407 0.8233
-30.6237 -37.9114 -0.7426 0.8229
-29.8282 -39.2177 -0.7508 0.8211
-28.6211 -40.0049 -0.7495 0.8214
-28.0118 -40.3875 -0.7490 0.8215
-26.1600 -41.4891 -0.7474 0.8218
-25.5357 -41.8418 -0.7469 0.8219
-24.9073 -42.1863 -0.7465 0.8220
-23.0019 -43.1757 -0.7455 0.8223
-22.3600 -43.4904 -0.7452 0.8223
-21.7146 -43.7972 -0.7449 0.8224
-21.0659 -44.0964 -0.7447 0.8224
-19.1010 -44.9484 -0.7442 0.8225
-18.4399 -45.2170 -0.7441 0.8225
-17.7758 -45.4780 -0.7441 0.8226
-17.1088 -45.7312 -0.7440 0.8226
-16.4389 -45.9766 -0.7440 0.8226
-14.4124 -46.6661 -0.7442 0.8225
-12.8359 -46.3211 -0.7324 0.8251
-12.1609 -46.5161 -0.7326 0.8250
-10.8039 -46.8833 -0.7331 0.8249
-10.1217 -47.0549 -0.7334 0.8249
-9.4372 -47.2186 -0.7338 0.8248
-8.7507 -47.3751 -0.7341 0.8247
-6.6777 -47.7958 -0.7354 0.8244
-5.9826 -47.9200 -0.7359 0.8243
-5.2855 -48.0364 -0.7364 0.8242
-4.5866 -48.1449 -0.7370 0.8241
-3.1830 -48.3373 -0.7382 0.8238
-1.7724 -48.4971 -0.7395 0.8235
1.0680 -48.7189 -0.7426 0.8229
1.7818 -48.7537 -0.7434 0.8227
2.4969 -48.7803 -0.7443 0.8225
3.9310 -48.8079 -0.7461 0.8221
8.2593 -48.6884 -0.7525 0.8207
11.8888 -48.3520 -0.7587 0.8194
12.6163 -48.2582 -0.7601 0.8191
13.3442 -48.1556 -0.7615 0.8188
14.0724 -48.0442 -0.7629 0.8185
14.8009 -47.9240 -0.7643 0.8182
15.5294 -47.7947 -0.7658 0.8179
16.9869 -47.5095 -0.7688 0.8172
17.9387 -43.9880 -0.7239 0.8269
17.9899 -40.6723 -0.6777 0.8370
17.9543 -39.0397 -0.6548 0.8421
5.2736 -9.8989 -0.1709 0.9561
5.3067 -9.2957 -0.1631 0.9581
5.4021 -9.1497 -0.1619 0.9584
5.5748 -9.1347 -0.1631 0.9581
6.1240 -9.1112 -0.1673 0.9570
6.5116 -9.1016 -0.1705 0.9562
6.7112 -9.0967 -0.1723 0.9558
7.3354 -9.0812 -0.1779 0.9544
7.5529 -9.0757 -0.1799 0.9539
8.0084 -9.0704 -0.1844 0.9527
8.7396 -9.0648 -0.1919 0.9509
30.9496 -31.1766 -0.6694 0.8388
10.4746 -10.2475 -0.2233 0.9431
10.4838 -9.1208 -0.2117 0.9459
10.6106 -8.9621 -0.2116 0.9460
11.1914 -8.9057 -0.2179 0.9444
11.5297 -8.9029 -0.2220 0.9434
12.2559 -8.9044 -0.2308 0.9412
13.0433 -8.9060 -0.2407 0.9388
13.4629 -8.9069 -0.2460 0.9375
6.3641 -4.0780 -0.1152 0.9702
6.4570 -4.0057 -0.1158 0.9701
6.6457 -3.8585 -0.1171 0.9697
6.8302 -3.7031 -0.1184 0.9694
6.6201 -3.4650 -0.1139 0.9706
6.9736 -3.5212 -0.1190 0.9692
7.0140 -3.2880 -0.1180 0.9695
6.9737 -3.0238 -0.1158 0.9701
22.4415 -8.9612 -0.3682 0.9079
10.8244 -4.1400 -0.1766 0.9547
10.8759 -3.9785 -0.1765 0.9547
10.6379 -3.5426 -0.1709 0.9561
10.6451 -3.3730 -0.1702 0.9563
11.5524 -2.9302 -0.1816 0.9534
13.5883 -3.2360 -0.2129 0.9457
13.3388 -2.9713 -0.2082 0.9468
13.3179 -2.7631 -0.2073 0.9470
13.8898 -2.6706 -0.2155 0.9450
21.1793 -3.1170 -0.3262 0.9179
21.5503 -2.8505 -0.3312 0.9167
22.2403 -2.6117 -0.3412 0.9143
26.8113 -2.7520 -0.4107 0.8978
25.8787 -2.2747 -0.3959 0.9013
41.1538 -3.0121 -0.6288 0.8478
42.8820 -2.5092 -0.6546 0.8421
65.6420 -2.8793 -1.0012 0.7689
67.8397 0.9913 -1.0339 0.7623
68.3123 2.9965 -1.0420 0.7607
41.2716 3.0207 -0.6306 0.8474
28.3828 3.3331 -0.4355 0.8920
27.4926 3.6366 -0.4226 0.8950
18.4550 2.9921 -0.2849 0.9279
16.4817 2.9200 -0.2551 0.9352
13.1001 2.5188 -0.2033 0.9480
12.5944 2.6130 -0.1960 0.9498
12.2225 3.1002 -0.1921 0.9508
12.2283 3.2925 -0.1930 0.9506
9.4542 3.3027 -0.1526 0.9607
9.4765 3.4666 -0.1538 0.9604
8.1390 3.1129 -0.1328 0.9657
7.8761 3.1450 -0.1292 0.9666
7.6239 3.1743 -0.1258 0.9675
7.3971 3.2074 -0.1229 0.9683
6.7305 3.3984 -0.1149 0.9703
6.7360 3.5257 -0.1159 0.9700
6.8195 4.0938 -0.1212 0.9687
6.8417 4.2444 -0.1227 0.9683
6.9107 4.7188 -0.1275 0.9671
6.9367 4.8866 -0.1293 0.9666
6.9906 5.2367 -0.1331 0.9657
7.0815 5.6352 -0.1379 0.9644
7.1183 5.8364 -0.1403 0.9638
58.6258 52.5300 -1.1995 0.7299
57.9876 53.5049 -1.2023 0.7293
56.6532 55.4248 -1.2077 0.7283
53.7592 59.1240 -1.2177 0.7264
49.7365 63.4472 -1.2285 0.7243
46.2139 66.6315 -1.2356 0.7230
45.2927 67.3848 -1.2372 0.7227
41.4614 70.2243 -1.2427 0.7216
40.4672 70.8875 -1.2438 0.7214
39.4612 71.5313 -1.2449 0.7212
36.3642 73.3455 -1.2475 0.7207
35.3074 73.9081 -1.2481 0.7206
34.2402 74.4513 -1.2487 0.7205
32.0731 75.4741 -1.2496 0.7203
28.7494 76.8442 -1.2502 0.7202
27.6233 77.2576 -1.2503 0.7202
26.4899 77.6481 -1.2502 0.7202
25.3490 78.0164 -1.2500 0.7202
21.8870 78.9841 -1.2489 0.7204
19.5508 79.5135 -1.2477 0.7207
18.3758 79.7431 -1.2470 0.7208
17.1974 79.9494 -1.2462 0.7210
14.8312 80.2934 -1.2442 0.7213
11.2656 80.6332 -1.2406 0.7220
8.8842 80.7423 -1.2378 0.7226
7.6939 80.7628 -1.2362 0.7229
6.5044 80.7600 -1.2346 0.7232
2.9461 80.6123 -1.2292 0.7242
1.7651 80.5166 -1.2272 0.7246
0.5875 80.4002 -1.2252 0.7250
-0.5864 80.2605 -1.2231 0.7254
-1.7559 80.0984 -1.2208 0.7258
-2.9206 79.9155 -1.2186 0.7262
-6.3814 79.2332 -1.2113 0.7276
-14.2068 76.9146 -1.1919 0.7313
-15.2904 76.5048 -1.1888 0.7319
-16.3641 76.0755 -1.1858 0.7325
-21.5745 73.6567 -1.1695 0.7356
-22.5826 73.1208 -1.1662 0.7363
-23.5790 72.5687 -1.1627 0.7369
-24.5628 71.9994 -1.1592 0.7376
-29.2902 68.9256 -1.1412 0.7411
-31.0870 67.5954 -1.1337 0.7426
-33.6743 65.4984 -1.1223 0.7448
-34.5094 64.7765 -1.1184 0.7456
-36.9278 62.5458 -1.1068 0.7478
-38.4646 61.0040 -1.0989 0.7494
-39.2103 60.2181 -1.0950 0.7502
-39.9406 59.4223 -1.0910 0.7509
-40.6559 58.6180 -1.0870 0.7517
-41.3561 57.8054 -1.0831 0.7525
-42.0401 56.9831 -1.0791 0.7533
-42.7089 56.1533 -1.0750 0.7541
-43.3616 55.3152 -1.0710 0.7549
-43.9995 54.4704 -1.0670 0.7557
-44.6211 53.6179 -1.0630 0.7565
-45.2277 52.7594 -1.0589 0.7573
-46.3932 51.0229 -1.0508 0.7589
-47.4960 49.2636 -1.0428 0.7605
-48.5357 47.4834 -1.0347 0.7621
-49.0329 46.5873 -1.0306 0.7629
-49.5137 45.6862 -1.0266 0.7638
-49.9793 44.7816 -1.0226 0.7646
-50.4297 43.8738 -1.0186 0.7654
-51.6882 41.1318 -1.0066 0.7678
-52.4511 39.2916 -0.9986 0.7694
-52.8100 38.3687 -0.9947 0.7702
-0.8551 0.5839 -0.0158 0.9959
-0.8107 0.5195 -0.0147 0.9962
-0.8052 0.4834 -0.0143 0.9962
-0.7949 0.4310 -0.0138 0.9964
-0.7916 0.4143 -0.0136 0.9964
-0.7851 0.3822 -0.0133 0.9965
-0.7780 0.3509 -0.0130 0.9966
-0.7704 0.3208 -0.0127 0.9967
-0.7666 0.3062 -0.0126 0.9967
-0.7630 0.2918 -0.0124 0.9967
-0.7559 0.2641 -0.0122 0.9968
-0.7524 0.2506 -0.0121 0.9968
-0.7456 0.2243 -0.0119 0.9969
-0.7424 0.2116 -0.0118 0.9969
-0.7419 0.1998 -0.0117 0.9969
-0.7377 0.1757 -0.0116 0.9970
-0.7312 0.1406 -0.0113 0.9970
-0.7291 0.1292 -0.0113 0.9970
-0.7270 0.1179 -0.0112 0.9971
-0.7250 0.1067 -0.0112 0.9971
-0.7229 0.0956 -0.0111 0.9971
-0.7208 0.0846 -0.0111 0.9971
-0.7147 0.0523 -0.0109 0.9971
-0.7127 0.0417 -0.0109 0.9971
-0.7107 0.0312 -0.0108 0.9972
-0.7087 0.0207 -0.0108 0.9972
-0.7067 0.0103 -0.0108 0.9972
-0.6757 -0.0098 -0.0178 0.9973
-0.6794 -0.0298 -0.0179 0.9973
-0.6812 -0.0398 -0.0180 0.9973
-0.6831 -0.0500 -0.0180 0.9973
-0.6867 -0.0705 -0.0182 0.9972
-0.6886 -0.0809 -0.0183 0.9972
-0.6904 -0.0913 -0.0183 0.9972
-0.6941 -0.1125 -0.0185 0.9972
-0.6959 -0.1233 -0.0186 0.9972
-0.6996 -0.1452 -0.0188 0.9971
-0.7033 -0.1675 -0.0190 0.9971
-0.7071 -0.1904 -0.0193 0.9971
-0.7117 -0.2141 -0.0196 0.9970
-0.7176 -0.2389 -0.0199 0.9970
-0.7205 -0.2517 -0.0201 0.9970
-0.7236 -0.2646 -0.0203 0.9969
-0.7266 -0.2779 -0.0205 0.9969
-0.7329 -0.3052 -0.0209 0.9968
-0.7460 -0.3630 -0.0218 0.9967
-0.7489 -0.3781 -0.0221 0.9966
-0.7515 -0.3934 -0.0223 0.9966
-0.7597 -0.4411 -0.0231 0.9965
-0.7743 -0.5287 -0.0247 0.9963
-4.0679 -3.1412 -0.1353 0.9796
-4.0516 -3.2241 -0.1363 0.9795
-23.7342 -20.6487 -0.8281 0.8817
-4.2047 -3.9950 -0.1527 0.9771
-4.1364 -4.0467 -0.1523 0.9771
-20.6691 -23.4100 -0.8221 0.8825
-20.3109 -23.6932 -0.8215 0.8826
-18.4715 -25.0371 -0.8190 0.8829
-18.0942 -25.2910 -0.8186 0.8830
-17.7139 -25.5401 -0.8182 0.8831
-17.3308 -25.7841 -0.8178 0.8831
-16.5559 -26.2572 -0.8171 0.8832
-15.9014 -26.0554 -0.8035 0.8850
-15.1229 -26.4907 -0.8030 0.8851
-14.3341 -26.9058 -0.8025 0.8852
-14.1663 -27.5536 -0.8156 0.8834
-13.5356 -27.3005 -0.8022 0.8852
-12.7275 -27.6745 -0.8019 0.8852
-11.4988 -28.1965 -0.8016 0.8853
-9.8317 -28.8191 -0.8016 0.8853
-8.9868 -29.0984 -0.8017 0.8853
-8.5616 -29.2300 -0.8018 0.8853
-8.1348 -29.3561 -0.8019 0.8852
-7.7063 -29.4768 -0.8020 0.8852
-7.2762 -29.5922 -0.8022 0.8852
-6.8446 -29.7021 -0.8024 0.8852
-6.4115 -29.8066 -0.8026 0.8852
-5.5411 -29.9990 -0.8031 0.8851
-5.1039 -30.0869 -0.8033 0.8851
-4.6655 -30.1694 -0.8036 0.8850
-3.7850 -30.3174 -0.8043 0.8849
-2.0114 -30.5464 -0.8059 0.8847
-1.5658 -30.5897 -0.8063 0.8847
-1.1193 -30.6273 -0.8068 0.8846
-0.6721 -30.6591 -0.8073 0.8845
0.2243 -30.7057 -0.8083 0.8844
0.6734 -30.7202 -0.8089 0.8843
1.1230 -30.7293 -0.8095 0.8842
2.0235 -30.7299 -0.8107 0.8841
2.9253 -30.7075 -0.8120 0.8839
3.3766 -30.6875 -0.8127 0.8838
4.2795 -30.6303 -0.8142 0.8836
4.7309 -30.5929 -0.8149 0.8835
6.5358 -30.3846 -0.8182 0.8831
7.4368 -30.2455 -0.8199 0.8828
8.3360 -30.0825 -0.8217 0.8826
8.7848 -29.9921 -0.8227 0.8825
9.2330 -29.8956 -0.8237 0.8823
10.1272 -29.6854 -0.8257 0.8821
11.0181 -29.4509 -0.8278 0.8818
11.4621 -29.3250 -0.8288 0.8816
11.9051 -29.1929 -0.8299 0.8815
12.3470 -29.0550 -0.8311 0.8813
12.7877 -28.9109 -0.8322 0.8812
14.1020 -28.4431 -0.8357 0.8807
5.2009 -10.1159 -0.2994 0.9555
5.2199 -9.4622 -0.2845 0.9577
5.2698 -9.2311 -0.2798 0.9584
5.3848 -9.1204 -0.2788 0.9585
5.5568 -9.1053 -0.2808 0.9582
6.1092 -9.0891 -0.2883 0.9571
6.3005 -9.0841 -0.2910 0.9567
6.4955 -9.0791 -0.2939 0.9563
6.6944 -9.0739 -0.2968 0.9559
7.3165 -9.0577 -0.3065 0.9545
7.5331 -9.0520 -0.3100 0.9540
7.7548 -9.0462 -0.3137 0.9534
8.7046 -9.0286 -0.3301 0.9511
23.2038 -23.3739 -0.8670 0.8765
10.3402 -9.5409 -0.3704 0.9453
10.3840 -9.3041 -0.3670 0.9457
10.5638 -8.9226 -0.3640 0.9462
10.7967 -8.8524 -0.3675 0.9457
11.8780 -8.8979 -0.3907 0.9423
13.0344 -8.9000 -0.4155 0.9388
13.5741 -8.6981 -0.4244 0.9375
6.4735 -4.0159 -0.2005 0.9700
6.6630 -3.8686 -0.2028 0.9696
6.6776 -3.4951 -0.1984 0.9703
7.0323 -3.4228 -0.2059 0.9692
7.1092 -3.0826 -0.2040 0.9695
7.1345 -2.9705 -0.2034 0.9695
10.6371 -4.2475 -0.3015 0.9552
10.7528 -3.7562 -0.2998 0.9554
10.5254 -3.5051 -0.2920 0.9566
10.8212 -2.9137 -0.2950 0.9561
13.1850 -3.1400 -0.3568 0.9472
13.7978 -3.0736 -0.3721 0.9450
14.4572 -2.7798 -0.3876 0.9428
14.6830 -2.6013 -0.3925 0.9421
29.5657 -3.0347 -0.7824 0.8879
37.1687 -2.1750 -0.9801 0.8616
37.2783 -1.6352 -0.9823 0.8613
37.6372 0.5500 -0.9909 0.8602
37.7065 1.1023 -0.9930 0.8599
37.9290 3.8931 -1.0037 0.8585
28.3200 3.3257 -0.7506 0.8922
27.4073 3.6252 -0.7278 0.8953
18.4469 2.9908 -0.4919 0.9280
16.4203 2.9091 -0.4390 0.9355
12.5656 2.6070 -0.3378 0.9499
12.2118 2.9082 -0.3305 0.9510
12.2150 3.0982 -0.3317 0.9508
12.1482 3.2709 -0.3312 0.9509
10.4487 2.9778 -0.2860 0.9575
10.0707 3.0298 -0.2768 0.9588
9.7682 3.0952 -0.2697 0.9598
9.5197 3.1702 -0.2641 0.9606
9.4444 3.4549 -0.2647 0.9606
7.5494 3.1432 -0.2153 0.9678
6.7772 3.2986 -0.1984 0.9703
6.7300 3.6487 -0.2015 0.9698
6.8094 4.0877 -0.2091 0.9687
6.8319 4.2382 -0.2116 0.9683
6.8542 4.3921 -0.2143 0.9680
6.8769 4.5497 -0.2171 0.9675
6.9020 4.7128 -0.2200 0.9671
7.0092 5.4123 -0.2331 0.9652
7.0379 5.6006 -0.2368 0.9646
7.0671 5.7944 -0.2406 0.9641
7.0993 5.9965 -0.2446 0.9635
7.1335 6.2061 -0.2489 0.9629
30.1103 26.9791 -1.0643 0.8506
29.7487 27.4491 -1.0656 0.8505
29.0005 28.3717 -1.0680 0.8502
28.6145 28.8243 -1.0692 0.8500
27.8184 29.7105 -1.0714 0.8497
26.5667 30.9908 -1.0745 0.8493
26.1346 31.4040 -1.0755 0.8492
25.2484 32.2086 -1.0773 0.8489
23.8669 33.3598 -1.0798 0.8486
21.4336 35.1204 -1.0831 0.8482
20.9286 35.4475 -1.0836 0.8481
19.9017 36.0762 -1.0846 0.8480
19.3801 36.3773 -1.0850 0.8480
18.8531 36.6694 -1.0854 0.8479
18.3209 36.9524 -1.0858 0.8479
17.7840 37.2266 -1.0861 0.8478
17.2423 37.4914 -1.0863 0.8478
16.6959 37.7468 -1.0865 0.8478
16.1450 37.9926 -1.0867 0.8477
15.0312 38.4559 -1.0869 0.8477
14.4684 38.6734 -1.0870 0.8477
12.1821 39.4445 -1.0868 0.8477
11.6027 39.6126 -1.0866 0.8478
11.0206 39.7705 -1.0864 0.8478
10.4360 39.9184 -1.0861 0.8478
9.2601 40.1838 -1.0855 0.8479
8.0763 40.4084 -1.0848 0.8480
6.8860 40.5926 -1.0838 0.8481
6.2892 40.6690 -1.0833 0.8482
2.0944 40.9166 -1.0785 0.8488
1.4952 40.9110 -1.0777 0.8489
0.8965 40.8949 -1.0768 0.8490
0.2986 40.8688 -1.0759 0.8491
-1.4885 40.7302 -1.0729 0.8495
-3.2620 40.5017 -1.0696 0.8499
-3.8492 40.4054 -1.0685 0.8501
-4.4342 40.2996 -1.0673 0.8502
-5.5968 40.0590 -1.0648 0.8506
-6.1739 39.9243 -1.0635 0.8507
-6.7482 39.7800 -1.0622 0.8509
-8.4517 39.2913 -1.0580 0.8514
-9.0125 39.1100 -1.0565 0.8516
-9.5696 38.9197 -1.0551 0.8518
-10.6719 38.5118 -1.0520 0.8522
-11.2168 38.2949 -1.0504 0.8524
-13.8730 37.0822 -1.0422 0.8535
-14.3897 36.8151 -1.0405 0.8537
-14.9013 36.5400 -1.0388 0.8539
-15.4074 36.2566 -1.0370 0.8542
-17.8548 34.7279 -1.0279 0.8553
-18.3265 34.3999 -1.0261 0.8556
-19.2523 33.7242 -1.0222 0.8561
-21.0273 32.2931 -1.0144 0.8571
-21.4548 31.9198 -1.0124 0.8574
-22.2895 31.1550 -1.0084 0.8579
-22.6966 30.7639 -1.0064 0.8582
-23.0966 30.3672 -1.0043 0.8584
-24.2550 29.1454 -0.9982 0.8592
-26.0415 27.0106 -0.9877 0.8606
-26.7045 26.1255 -0.9834 0.8611
-27.0247 25.6768 -0.9813 0.8614
-27.3376 25.2244 -0.9792 0.8617
-27.6428 24.7681 -0.9771 0.8620
-28.5136 23.3787 -0.9707 0.8628
-28.7886 22.9090 -0.9685 0.8631
-29.3160 21.9609 -0.9642 0.8637
-0.8870 0.6444 -0.0289 0.9956
-0.7740 0.5453 -0.0249 0.9962
-0.7743 0.5288 -0.0247 0.9963
-0.7713 0.5103 -0.0243 0.9963
-0.7683 0.4923 -0.0240 0.9964
-0.7597 0.4411 -0.0231 0.9965
-0.7569 0.4248 -0.0228 0.9965
-0.7542 0.4089 -0.0226 0.9966
-0.7393 0.3335 -0.0213 0.9968
-0.7297 0.2914 -0.0207 0.9969
-0.7146 0.2264 -0.0197 0.9970
-0.7117 0.2141 -0.0196 0.9970
-0.7088 0.2020 -0.0194 0.9971
-0.7071 0.1904 -0.0193 0.9971
-0.7033 0.1675 -0.0190 0.9971
-0.7014 0.1562 -0.0189 0.9971
-0.6978 0.1341 -0.0187 0.9972
-0.6959 0.1233 -0.0186 0.9972
-0.6941 0.1125 -0.0185 0.9972
