ply
format ascii 1.0
element vertex 1588
property float32 x
property float32 y
property float32 z
property float32 I
end_header
3.2283 -11.0218 -3.7351 0.9528
3.3890 -10.9734 -3.7351 0.9528
3.5490 -10.9227 -3.7351 0.9528
3.8667 -10.8143 -3.7351 0.9528
4.0436 -10.8085 -3.7532 0.9526
4.3577 -10.6858 -3.7532 0.9526
4.5134 -10.6209 -3.7532 0.9526
4.9745 -10.4129 -3.7532 0.9526
5.1261 -10.3391 -3.7532 0.9526
6.5769 -9.4826 -3.7532 0.9526
6.8511 -9.2864 -3.7532 0.9526
7.1196 -9.0822 -3.7532 0.9526
7.2515 -8.9772 -3.7532 0.9526
7.5107 -8.7615 -3.7532 0.9526
7.7635 -8.5383 -3.7532 0.9526
7.8874 -8.4239 -3.7532 0.9526
8.2491 -8.0702 -3.7532 0.9526
8.7064 -7.5745 -3.7532 0.9526
8.9240 -7.3169 -3.7532 0.9526
9.0299 -7.1857 -3.7532 0.9526
9.3362 -6.7831 -3.7532 0.9526
9.4343 -6.6460 -3.7532 0.9526
6.1745 -4.0850 -2.4078 0.9693
6.2675 -4.0161 -2.4209 0.9692
6.4568 -3.8760 -2.4492 0.9688
6.5275 -3.6634 -2.4344 0.9690
6.8233 -3.3211 -2.4680 0.9686
6.8276 -3.2007 -2.4524 0.9688
6.8673 -3.0976 -2.4501 0.9688
6.8530 -2.9714 -2.4293 0.9691
7.2767 -3.0297 -2.5635 0.9674
10.6738 -4.2621 -3.7379 0.9528
10.7349 -4.1057 -3.7379 0.9528
10.7938 -3.9484 -3.7379 0.9528
11.1405 -2.8257 -3.7379 0.9528
11.1812 -2.6629 -3.7383 0.9528
11.2640 -2.5092 -3.7532 0.9526
11.2995 -2.3443 -3.7532 0.9526
11.3326 -2.1790 -3.7532 0.9526
11.3632 -2.0132 -3.7532 0.9526
11.3914 -1.8469 -3.7532 0.9526
11.4172 -1.6803 -3.7532 0.9526
11.4405 -1.5133 -3.7532 0.9526
11.4798 -1.1783 -3.7532 0.9526
11.4958 -1.0105 -3.7532 0.9526
11.5094 -0.8423 -3.7532 0.9526
11.5204 -0.6741 -3.7532 0.9526
11.5291 -0.5057 -3.7532 0.9526
11.5291 0.5058 -3.7532 0.9526
11.5204 0.6741 -3.7532 0.9526
11.5094 0.8424 -3.7532 0.9526
11.4798 1.1783 -3.7532 0.9526
11.4614 1.3460 -3.7532 0.9526
11.4171 1.6803 -3.7532 0.9526
11.3914 1.8469 -3.7532 0.9526
11.3632 2.0132 -3.7532 0.9526
11.3325 2.1789 -3.7532 0.9526
11.1859 2.8372 -3.7532 0.9526
10.0860 3.0345 -3.4254 0.9567
9.3719 3.2739 -3.2286 0.9591
9.3426 3.4177 -3.2354 0.9590
7.9544 3.1763 -2.7856 0.9646
7.7384 3.2220 -2.7261 0.9654
7.2262 3.3875 -2.5956 0.9670
7.0810 3.4466 -2.5612 0.9674
6.9432 3.5058 -2.5296 0.9678
6.9206 3.6223 -2.5404 0.9677
6.9250 3.7546 -2.5619 0.9674
6.9397 3.8948 -2.5881 0.9671
6.9686 4.3231 -2.6671 0.9661
6.9928 4.6264 -2.7269 0.9653
7.0056 4.9351 -2.7870 0.9646
7.0301 5.4285 -2.8887 0.9633
7.0722 5.6278 -2.9394 0.9627
7.0848 5.8089 -2.9796 0.9622
7.1248 6.1986 -3.0714 0.9611
8.4407 7.7880 -3.7351 0.9528
8.0912 8.1504 -3.7351 0.9528
7.9713 8.2679 -3.7351 0.9528
7.6013 8.6092 -3.7351 0.9528
6.8183 9.2417 -3.7351 0.9528
6.1300 9.7221 -3.7379 0.9528
5.0203 8.5030 -3.2114 0.9593
4.8845 8.5562 -3.2042 0.9594
5.4040 10.1436 -3.7379 0.9528
5.2552 10.2214 -3.7379 0.9528
5.1053 10.2971 -3.7379 0.9528
4.9543 10.3707 -3.7379 0.9528
4.3400 10.6423 -3.7379 0.9528
4.1841 10.7046 -3.7379 0.9528
4.0272 10.7646 -3.7379 0.9528
3.8695 10.8223 -3.7379 0.9528
3.5516 10.9308 -3.7379 0.9528
3.3915 10.9815 -3.7379 0.9528
3.2307 11.0299 -3.7379 0.9528
3.0692 11.0759 -3.7379 0.9528
2.9070 11.1196 -3.7379 0.9528
2.7442 11.1609 -3.7379 0.9528
2.5809 11.1998 -3.7379 0.9528
2.4170 11.2363 -3.7379 0.9528
1.7565 11.3583 -3.7379 0.9528
0.9227 11.4562 -3.7379 0.9528
0.5875 11.4782 -3.7379 0.9528
0.2519 11.4905 -3.7379 0.9528
0.0840 11.4930 -3.7379 0.9528
-0.0840 11.4930 -3.7379 0.9528
-0.2519 11.4905 -3.7379 0.9528
-0.5875 11.4783 -3.7379 0.9528
-1.5903 11.3827 -3.7379 0.9528
-1.9222 11.3314 -3.7379 0.9528
-2.2525 11.2704 -3.7379 0.9528
-2.9070 11.1196 -3.7379 0.9528
-3.2307 11.0298 -3.7379 0.9528
-0.2055 0.6654 -0.2265 0.9971
-0.2010 0.5623 -0.1942 0.9975
-0.2060 0.5506 -0.1912 0.9975
-0.2154 0.5282 -0.1855 0.9976
-0.2198 0.5172 -0.1828 0.9976
-0.2241 0.5065 -0.1801 0.9977
-0.2446 0.4591 -0.1692 0.9978
-0.2484 0.4504 -0.1673 0.9978
-0.2557 0.4331 -0.1636 0.9979
-0.2591 0.4246 -0.1618 0.9979
-0.2625 0.4163 -0.1601 0.9979
-0.2657 0.4081 -0.1584 0.9980
-0.2689 0.4000 -0.1568 0.9980
-0.2719 0.3921 -0.1552 0.9980
-0.2749 0.3842 -0.1536 0.9980
-0.2778 0.3766 -0.1522 0.9980
-0.2806 0.3690 -0.1508 0.9981
-0.2834 0.3615 -0.1494 0.9981
-0.2860 0.3541 -0.1480 0.9981
-0.2911 0.3396 -0.1455 0.9981
-0.3014 0.3036 -0.1391 0.9982
-0.3031 0.2965 -0.1379 0.9982
-0.3118 0.2556 -0.1311 0.9983
-0.3154 0.2363 -0.1281 0.9983
-0.3165 0.2299 -0.1272 0.9984
-0.3203 0.2052 -0.1237 0.9984
-0.3211 0.1992 -0.1229 0.9984
-0.3220 0.1933 -0.1221 0.9984
-0.3231 0.1876 -0.1215 0.9984
-0.3253 0.1764 -0.1203 0.9984
-0.3272 0.1652 -0.1192 0.9985
-0.3290 0.1543 -0.1182 0.9985
-0.3297 0.1487 -0.1176 0.9985
-0.3304 0.1433 -0.1171 0.9985
-0.3321 0.1271 -0.1157 0.9985
-0.3326 0.1217 -0.1152 0.9985
-0.3336 0.1111 -0.1143 0.9985
-0.3340 0.1058 -0.1139 0.9985
-0.3347 0.0954 -0.1132 0.9985
-0.3350 0.0902 -0.1128 0.9985
-0.3353 0.0850 -0.1125 0.9985
-0.3359 0.0697 -0.1116 0.9986
-0.3360 0.0646 -0.1113 0.9986
-0.3362 0.0545 -0.1108 0.9986
-0.3362 0.0495 -0.1105 0.9986
-0.3363 0.0445 -0.1103 0.9986
-0.3362 0.0395 -0.1101 0.9986
-0.3362 0.0345 -0.1099 0.9986
-0.3360 0.0246 -0.1096 0.9986
-0.3357 0.0147 -0.1093 0.9986
-0.3355 0.0098 -0.1091 0.9986
-0.3296 0.0000 -0.1113 0.9986
-0.3299 -0.0048 -0.1114 0.9986
-0.3303 -0.0145 -0.1116 0.9986
-0.3305 -0.0193 -0.1117 0.9986
-0.3306 -0.0242 -0.1119 0.9986
-0.3308 -0.0339 -0.1122 0.9986
-0.3308 -0.0437 -0.1126 0.9986
-0.3308 -0.0487 -0.1129 0.9986
-0.3308 -0.0536 -0.1131 0.9986
-0.3305 -0.0635 -0.1136 0.9986
-0.3304 -0.0685 -0.1139 0.9986
-0.3302 -0.0736 -0.1142 0.9986
-0.3297 -0.0836 -0.1148 0.9986
-0.3291 -0.0938 -0.1155 0.9986
-0.3276 -0.1144 -0.1171 0.9985
-0.3260 -0.1302 -0.1185 0.9985
-0.3247 -0.1408 -0.1195 0.9985
-0.3224 -0.1569 -0.1210 0.9985
-0.3215 -0.1623 -0.1216 0.9985
-0.3174 -0.1842 -0.1239 0.9985
-0.3163 -0.1898 -0.1245 0.9984
-0.3134 -0.2073 -0.1268 0.9984
-0.3124 -0.2133 -0.1277 0.9984
-0.3114 -0.2193 -0.1286 0.9984
-0.3103 -0.2254 -0.1295 0.9984
-0.3092 -0.2316 -0.1304 0.9984
-0.3081 -0.2379 -0.1314 0.9984
-0.3056 -0.2505 -0.1334 0.9983
-0.3042 -0.2570 -0.1344 0.9983
-0.3029 -0.2635 -0.1355 0.9983
-0.3014 -0.2701 -0.1366 0.9983
-0.2999 -0.2767 -0.1377 0.9983
-0.2984 -0.2835 -0.1389 0.9983
-0.2950 -0.2971 -0.1413 0.9982
-0.2933 -0.3042 -0.1426 0.9982
-0.2914 -0.3113 -0.1439 0.9982
-0.2896 -0.3184 -0.1453 0.9982
-0.2873 -0.3254 -0.1465 0.9982
-0.2849 -0.3323 -0.1477 0.9982
-0.2824 -0.3393 -0.1490 0.9981
-0.2798 -0.3463 -0.1503 0.9981
-0.2744 -0.3607 -0.1530 0.9981
-0.2687 -0.3755 -0.1558 0.9981
-0.2626 -0.3907 -0.1589 0.9980
-0.2595 -0.3984 -0.1605 0.9980
-0.2562 -0.4063 -0.1622 0.9980
-0.2494 -0.4225 -0.1656 0.9979
-0.2422 -0.4391 -0.1693 0.9979
-0.2345 -0.4561 -0.1731 0.9978
-0.2305 -0.4649 -0.1751 0.9978
-0.2263 -0.4738 -0.1772 0.9978
-0.2220 -0.4828 -0.1794 0.9978
-0.2176 -0.4919 -0.1816 0.9977
-0.2085 -0.5112 -0.1864 0.9977
-0.2039 -0.5218 -0.1891 0.9976
-0.1943 -0.5435 -0.1948 0.9976
-0.1892 -0.5547 -0.1978 0.9975
-0.1840 -0.5661 -0.2009 0.9975
-0.1831 -0.5926 -0.2094 0.9974
-0.1852 -0.6322 -0.2224 0.9972
-2.9694 -10.7158 -3.7532 0.9541
-2.4970 -10.8357 -3.7532 0.9541
-2.0101 -10.8823 -3.7351 0.9544
-1.5312 -10.9599 -3.7351 0.9544
-0.7271 -11.0424 -3.7351 0.9544
-0.2425 -11.0637 -3.7351 0.9544
-0.0809 -11.0661 -3.7351 0.9544
0.7271 -11.0424 -3.7351 0.9544
1.0495 -11.0164 -3.7351 0.9544
1.6912 -10.9364 -3.7351 0.9544
2.0100 -10.8823 -3.7351 0.9544
2.4970 -10.8357 -3.7532 0.9541
2.6550 -10.7980 -3.7532 0.9541
3.2813 -10.6245 -3.7532 0.9541
3.5903 -10.5241 -3.7532 0.9541
3.7437 -10.4705 -3.7532 0.9541
4.1990 -10.2964 -3.7532 0.9541
4.3489 -10.2339 -3.7532 0.9541
4.4980 -10.1693 -3.7532 0.9541
5.2283 -9.8138 -3.7532 0.9541
5.3712 -9.7364 -3.7532 0.9541
5.5129 -9.6568 -3.7532 0.9541
5.6533 -9.5753 -3.7532 0.9541
5.4940 -9.0023 -3.5596 0.9565
5.7521 -8.8338 -3.5580 0.9565
6.2031 -9.2287 -3.7532 0.9541
6.4701 -9.0435 -3.7532 0.9541
6.7315 -8.8505 -3.7532 0.9541
7.1129 -8.5471 -3.7532 0.9541
7.4806 -8.2271 -3.7532 0.9541
7.8340 -7.8914 -3.7532 0.9541
8.0613 -7.6592 -3.7532 0.9541
8.2816 -7.4204 -3.7532 0.9541
8.3891 -7.2986 -3.7532 0.9541
8.4949 -7.1752 -3.7532 0.9541
8.5988 -7.0503 -3.7532 0.9541
8.8011 -6.7961 -3.7532 0.9541
8.8995 -6.6667 -3.7532 0.9541
8.9960 -6.5359 -3.7532 0.9541
9.0905 -6.4038 -3.7532 0.9541
9.1831 -6.2704 -3.7532 0.9541
6.2864 -4.0282 -2.5201 0.9690
6.5735 -3.8166 -2.5656 0.9684
6.8205 -3.5699 -2.5983 0.9680
6.8423 -3.4548 -2.5871 0.9682
6.8641 -3.3409 -2.5767 0.9683
6.8459 -3.0880 -2.5349 0.9688
6.8768 -2.9818 -2.5299 0.9689
10.2848 -4.1069 -3.7379 0.9543
10.3438 -3.9562 -3.7379 0.9543
10.4005 -3.8046 -3.7379 0.9543
10.4550 -3.6522 -3.7379 0.9543
10.5572 -3.3451 -3.7379 0.9543
10.7346 -2.7227 -3.7379 0.9543
10.8171 -2.5761 -3.7532 0.9541
10.8878 -2.2589 -3.7532 0.9541
10.9763 -1.7796 -3.7532 0.9541
11.0236 -1.4581 -3.7532 0.9541
11.0437 -1.2968 -3.7532 0.9541
11.0615 -1.1354 -3.7532 0.9541
11.1007 -0.6496 -3.7532 0.9541
11.1184 -0.1625 -3.7532 0.9541
11.1196 0.0000 -3.7532 0.9541
11.1007 0.6496 -3.7532 0.9541
11.0900 0.8117 -3.7532 0.9541
11.0769 0.9737 -3.7532 0.9541
11.0438 1.2969 -3.7532 0.9541
11.0236 1.4581 -3.7532 0.9541
11.0011 1.6190 -3.7532 0.9541
10.9492 1.9398 -3.7532 0.9541
10.9196 2.0996 -3.7532 0.9541
10.7372 2.8911 -3.7532 0.9541
10.6939 3.0477 -3.7532 0.9541
9.7808 3.0992 -3.4630 0.9576
9.2827 3.3957 -3.3362 0.9591
8.1247 3.1074 -2.9360 0.9639
7.9075 3.1576 -2.8739 0.9647
7.6958 3.2043 -2.8137 0.9654
7.3042 3.2948 -2.7046 0.9667
7.1394 3.3468 -2.6614 0.9673
7.0003 3.4073 -2.6278 0.9677
6.8643 3.5928 -2.6150 0.9678
6.8707 3.7251 -2.6379 0.9675
6.8847 3.8639 -2.6647 0.9672
6.9081 4.1470 -2.7195 0.9666
6.9237 4.4366 -2.7755 0.9659
6.9375 4.7370 -2.8354 0.9652
6.9643 5.0599 -2.9055 0.9643
7.0366 5.5995 -3.0352 0.9627
7.1076 6.1836 -3.1798 0.9610
7.1384 6.3961 -3.2351 0.9603
8.0226 7.6223 -3.7351 0.9544
7.9104 7.7387 -3.7351 0.9544
7.7964 7.8535 -3.7351 0.9544
7.5636 8.0780 -3.7351 0.9544
7.4448 8.1876 -3.7351 0.9544
6.8273 8.7092 -3.7351 0.9544
6.6993 8.8080 -3.7351 0.9544
6.4390 9.0000 -3.7351 0.9544
5.9867 9.1942 -3.7032 0.9547
5.0173 8.4979 -3.3309 0.9592
4.8797 8.5478 -3.3221 0.9593
5.3494 9.6969 -3.7379 0.9543
5.2071 9.7740 -3.7379 0.9543
4.9193 9.9220 -3.7379 0.9543
4.7738 9.9928 -3.7379 0.9543
4.6273 10.0615 -3.7379 0.9543
4.1819 10.2546 -3.7379 0.9543
3.7285 10.4280 -3.7379 0.9543
3.5757 10.4814 -3.7379 0.9543
3.4222 10.5325 -3.7379 0.9543
3.2679 10.5814 -3.7379 0.9543
2.9574 10.6723 -3.7379 0.9543
2.6442 10.7542 -3.7379 0.9543
2.4868 10.7917 -3.7379 0.9543
2.3289 10.8268 -3.7379 0.9543
2.1704 10.8597 -3.7379 0.9543
1.8522 10.9186 -3.7379 0.9543
1.6925 10.9444 -3.7379 0.9543
1.5324 10.9680 -3.7379 0.9543
1.3719 10.9892 -3.7379 0.9543
0.4045 11.0671 -3.7379 0.9543
0.0809 11.0742 -3.7379 0.9543
-0.4045 11.0671 -3.7379 0.9543
-0.5661 11.0601 -3.7379 0.9543
-1.0502 11.0246 -3.7379 0.9543
-1.3720 10.9892 -3.7379 0.9543
-1.5324 10.9680 -3.7379 0.9543
-2.0115 10.8903 -3.7379 0.9543
-2.3289 10.8269 -3.7379 0.9543
-2.4869 10.7917 -3.7379 0.9543
-2.9574 10.6723 -3.7379 0.9543
-0.1893 0.5547 -0.1978 0.9975
-0.1943 0.5436 -0.1948 0.9976
-0.1992 0.5325 -0.1919 0.9976
-0.2085 0.5113 -0.1864 0.9977
-0.2130 0.5012 -0.1838 0.9977
-0.2176 0.4919 -0.1816 0.9977
-0.2220 0.4828 -0.1794 0.9978
-0.2305 0.4649 -0.1751 0.9978
-0.2346 0.4562 -0.1731 0.9978
-0.2385 0.4475 -0.1712 0.9979
-0.2422 0.4391 -0.1693 0.9979
-0.2529 0.4144 -0.1639 0.9980
-0.2656 0.3830 -0.1573 0.9980
-0.2716 0.3681 -0.1544 0.9981
-0.2914 0.3113 -0.1439 0.9982
-0.2933 0.3042 -0.1426 0.9982
-0.2967 0.2903 -0.1401 0.9982
-0.3014 0.2701 -0.1366 0.9983
-0.3029 0.2635 -0.1355 0.9983
-0.3068 0.2442 -0.1324 0.9983
-0.3080 0.2379 -0.1314 0.9984
-0.3092 0.2317 -0.1304 0.9984
-0.3114 0.2194 -0.1286 0.9984
-0.3124 0.2133 -0.1277 0.9984
-0.3185 0.1787 -0.1233 0.9985
-0.3195 0.1732 -0.1227 0.9985
-0.3215 0.1623 -0.1216 0.9985
-0.3247 0.1408 -0.1195 0.9985
-0.3260 0.1302 -0.1185 0.9985
-0.3265 0.1249 -0.1180 0.9985
-0.3284 0.1041 -0.1163 0.9985
-0.3291 0.0938 -0.1155 0.9986
-0.3294 0.0887 -0.1152 0.9986
-0.3300 0.0786 -0.1145 0.9986
-0.3304 0.0686 -0.1139 0.9986
-0.3307 0.0536 -0.1131 0.9986
-0.3308 0.0487 -0.1129 0.9986
-0.3308 0.0438 -0.1126 0.9986
-0.3308 0.0389 -0.1124 0.9986
-0.3308 0.0340 -0.1122 0.9986
-0.3306 0.0242 -0.1119 0.9986
-0.3305 0.0193 -0.1117 0.9986
-0.3251 -0.0143 -0.1139 0.9986
-0.3252 -0.0190 -0.1140 0.9986
-0.3255 -0.0334 -0.1145 0.9986
-0.3255 -0.0382 -0.1147 0.9986
-0.3253 -0.0576 -0.1156 0.9986
-0.3250 -0.0674 -0.1162 0.9986
-0.3244 -0.0822 -0.1171 0.9986
-0.3234 -0.0973 -0.1182 0.9986
-0.3169 -0.1542 -0.1233 0.9985
-0.3159 -0.1595 -0.1238 0.9985
-0.3150 -0.1648 -0.1244 0.9985
-0.3140 -0.1702 -0.1250 0.9985
-0.3129 -0.1756 -0.1256 0.9985
-0.3075 -0.2034 -0.1290 0.9984
-0.3065 -0.2093 -0.1299 0.9984
-0.3055 -0.2152 -0.1307 0.9984
-0.3021 -0.2332 -0.1335 0.9984
-0.3008 -0.2393 -0.1345 0.9984
-0.2968 -0.2582 -0.1377 0.9983
-0.2953 -0.2646 -0.1388 0.9983
-0.2938 -0.2711 -0.1399 0.9983
-0.2906 -0.2843 -0.1422 0.9983
-0.2852 -0.3046 -0.1460 0.9982
-0.2813 -0.3186 -0.1487 0.9982
-0.2789 -0.3253 -0.1499 0.9982
-0.2764 -0.3321 -0.1512 0.9982
-0.2738 -0.3389 -0.1525 0.9982
-0.2711 -0.3459 -0.1538 0.9981
-0.2656 -0.3600 -0.1565 0.9981
-0.2597 -0.3743 -0.1594 0.9981
-0.2566 -0.3817 -0.1609 0.9981
-0.2534 -0.3892 -0.1625 0.9980
-0.2435 -0.4124 -0.1676 0.9980
-0.2119 -0.4790 -0.1833 0.9978
-0.1978 -0.5061 -0.1902 0.9977
-0.1830 -0.5364 -0.1983 0.9976
-0.1724 -0.5582 -0.2044 0.9975
-0.1667 -0.6014 -0.2184 0.9974
-2.7130 -10.3771 -3.7532 0.9556
-2.2556 -10.4861 -3.7532 0.9556
-2.1021 -10.5179 -3.7532 0.9556
-1.7939 -10.5748 -3.7532 0.9556
-1.1731 -10.6615 -3.7532 0.9556
-0.7048 -10.7027 -3.7532 0.9556
-0.3917 -10.7187 -3.7532 0.9556
-0.2351 -10.7233 -3.7532 0.9556
-0.0784 -10.7256 -3.7532 0.9556
0.0784 -10.7255 -3.7532 0.9556
0.2351 -10.7233 -3.7532 0.9556
0.3917 -10.7187 -3.7532 0.9556
1.1731 -10.6615 -3.7532 0.9556
1.7939 -10.5748 -3.7532 0.9556
2.1021 -10.5179 -3.7532 0.9556
2.2556 -10.4860 -3.7532 0.9556
2.4086 -10.4520 -3.7532 0.9556
2.7129 -10.3771 -3.7532 0.9556
3.0150 -10.2934 -3.7532 0.9556
3.3145 -10.2009 -3.7532 0.9556
3.7583 -10.0459 -3.7532 0.9556
3.9047 -9.9899 -3.7532 0.9556
4.0502 -9.9318 -3.7532 0.9556
4.4816 -9.7447 -3.7532 0.9556
4.7644 -9.6096 -3.7532 0.9556
4.9043 -9.5389 -3.7532 0.9556
5.4531 -9.2362 -3.7532 0.9556
5.8527 -8.9884 -3.7532 0.9556
6.1128 -8.8135 -3.7532 0.9556
6.2409 -8.7232 -3.7532 0.9556
6.3677 -8.6311 -3.7532 0.9556
6.4932 -8.5371 -3.7532 0.9556
6.7399 -8.3438 -3.7532 0.9556
6.8610 -8.2444 -3.7532 0.9556
7.0990 -8.0405 -3.7532 0.9556
7.4445 -7.7216 -3.7532 0.9556
7.5566 -7.6120 -3.7532 0.9556
7.6670 -7.5007 -3.7532 0.9556
7.8829 -7.2736 -3.7532 0.9556
7.9884 -7.1576 -3.7532 0.9556
8.2944 -6.8007 -3.7532 0.9556
8.3928 -6.6787 -3.7532 0.9556
8.7686 -6.1770 -3.7532 0.9556
8.8579 -6.0483 -3.7532 0.9556
6.3056 -4.0405 -2.6206 0.9688
6.4005 -3.9706 -2.6356 0.9686
6.7398 -3.6541 -2.6827 0.9680
6.8622 -3.5917 -2.7102 0.9677
6.8839 -3.4759 -2.6984 0.9678
6.9268 -3.1245 -2.6590 0.9683
6.9009 -2.9923 -2.6320 0.9686
7.2301 -3.0102 -2.7404 0.9674
9.9775 -3.8161 -3.7379 0.9557
10.0322 -3.6698 -3.7379 0.9557
10.1834 -3.2267 -3.7379 0.9557
10.2294 -3.0775 -3.7379 0.9557
10.3150 -2.7773 -3.7379 0.9557
10.4341 -2.4849 -3.7532 0.9556
10.5022 -2.1789 -3.7532 0.9556
10.5329 -2.0252 -3.7532 0.9556
10.5614 -1.8711 -3.7532 0.9556
10.5876 -1.7166 -3.7532 0.9556
10.6333 -1.4065 -3.7532 0.9556
10.6527 -1.2510 -3.7532 0.9556
10.6698 -1.0952 -3.7532 0.9556
10.7247 -0.1567 -3.7532 0.9556
10.7213 0.3134 -3.7532 0.9556
10.7076 0.6265 -3.7532 0.9556
10.6973 0.7829 -3.7532 0.9556
10.6527 1.2510 -3.7532 0.9556
10.6116 1.5618 -3.7532 0.9556
10.5330 2.0252 -3.7532 0.9556
10.5022 2.1789 -3.7532 0.9556
10.4341 2.4848 -3.7532 0.9556
10.3967 2.6371 -3.7532 0.9556
10.3570 2.7887 -3.7532 0.9556
10.2711 3.0901 -3.7532 0.9556
10.1764 3.3890 -3.7532 0.9556
9.2620 3.3881 -3.4510 0.9591
7.8396 3.1305 -2.9538 0.9649
7.6381 3.1802 -2.8951 0.9655
7.4413 3.2266 -2.8381 0.9662
7.0833 3.3205 -2.7374 0.9674
6.9276 3.3719 -2.6960 0.9679
6.8114 3.5651 -2.6901 0.9679
6.8653 4.2589 -2.8270 0.9663
6.8715 4.4032 -2.8558 0.9660
6.9095 4.7179 -2.9276 0.9652
6.9547 5.0529 -3.0080 0.9642
6.9780 5.2273 -3.0508 0.9637
7.0019 5.4067 -3.0955 0.9632
7.0263 5.5913 -3.1421 0.9627
7.1113 6.1868 -3.2983 0.9608
7.8451 7.2386 -3.7351 0.9558
7.6302 7.4647 -3.7351 0.9558
7.5204 7.5754 -3.7351 0.9558
7.2958 7.7919 -3.7351 0.9558
7.1812 7.8977 -3.7351 0.9558
6.9473 8.1041 -3.7351 0.9558
6.5855 8.4008 -3.7351 0.9558
6.3372 8.5896 -3.7351 0.9558
6.2110 8.6813 -3.7351 0.9558
5.8246 8.9451 -3.7351 0.9558
5.5607 9.1115 -3.7351 0.9558
5.0142 8.4927 -3.4510 0.9591
5.1561 9.3464 -3.7351 0.9558
5.0190 9.4208 -3.7351 0.9558
4.6048 9.6389 -3.7379 0.9557
4.1779 9.8315 -3.7379 0.9557
3.7431 10.0051 -3.7379 0.9557
3.5965 10.0588 -3.7379 0.9557
3.4491 10.1102 -3.7379 0.9557
3.3010 10.1595 -3.7379 0.9557
3.0027 10.2516 -3.7379 0.9557
2.7019 10.3350 -3.7379 0.9557
2.5506 10.3734 -3.7379 0.9557
2.3988 10.4096 -3.7379 0.9557
2.0936 10.4752 -3.7379 0.9557
1.9403 10.5047 -3.7379 0.9557
1.7866 10.5319 -3.7379 0.9557
1.6325 10.5569 -3.7379 0.9557
1.3234 10.6001 -3.7379 0.9557
1.1683 10.6183 -3.7379 0.9557
1.0131 10.6342 -3.7379 0.9557
0.8576 10.6479 -3.7379 0.9557
0.7019 10.6593 -3.7379 0.9557
0.5461 10.6684 -3.7379 0.9557
0.3901 10.6752 -3.7379 0.9557
0.2341 10.6798 -3.7379 0.9557
0.0780 10.6821 -3.7379 0.9557
-0.2341 10.6798 -3.7379 0.9557
-0.3902 10.6752 -3.7379 0.9557
-0.5461 10.6684 -3.7379 0.9557
-1.0131 10.6342 -3.7379 0.9557
-1.6325 10.5569 -3.7379 0.9557
-1.9403 10.5046 -3.7379 0.9557
-2.0936 10.4752 -3.7379 0.9557
-2.3988 10.4096 -3.7379 0.9557
-2.5506 10.3734 -3.7379 0.9557
-0.1778 0.5472 -0.2013 0.9976
-0.1830 0.5364 -0.1983 0.9976
-0.1880 0.5259 -0.1954 0.9976
-0.1929 0.5155 -0.1926 0.9977
-0.2027 0.4970 -0.1878 0.9977
-0.2074 0.4879 -0.1855 0.9978
-0.2119 0.4791 -0.1833 0.9978
-0.2163 0.4703 -0.1811 0.9978
-0.2287 0.4448 -0.1750 0.9979
-0.2326 0.4365 -0.1731 0.9979
-0.2363 0.4284 -0.1712 0.9979
-0.2399 0.4204 -0.1694 0.9980
-0.2469 0.4046 -0.1658 0.9980
-0.2502 0.3969 -0.1642 0.9980
-0.2534 0.3893 -0.1625 0.9980
-0.2566 0.3818 -0.1609 0.9981
-0.2597 0.3744 -0.1594 0.9981
-0.2684 0.3529 -0.1551 0.9981
-0.2738 0.3389 -0.1525 0.9982
-0.2789 0.3253 -0.1499 0.9982
-0.2833 0.3116 -0.1474 0.9982
-0.2853 0.3047 -0.1460 0.9982
-0.2889 0.2910 -0.1435 0.9983
-0.2938 0.2711 -0.1399 0.9983
-0.2953 0.2646 -0.1388 0.9983
-0.2968 0.2582 -0.1377 0.9983
-0.2996 0.2456 -0.1355 0.9984
-0.3008 0.2394 -0.1345 0.9984
-0.3033 0.2271 -0.1326 0.9984
-0.3044 0.2211 -0.1317 0.9984
-0.3055 0.2152 -0.1307 0.9984
-0.3065 0.2093 -0.1299 0.9984
-0.3084 0.1976 -0.1282 0.9984
-0.3107 0.1865 -0.1268 0.9985
-0.3118 0.1811 -0.1262 0.9985
-0.3129 0.1756 -0.1256 0.9985
-0.3159 0.1596 -0.1238 0.9985
-0.3169 0.1542 -0.1233 0.9985
-0.3178 0.1490 -0.1228 0.9985
-0.3192 0.1385 -0.1217 0.9985
-0.3199 0.1332 -0.1212 0.9985
-0.3205 0.1280 -0.1208 0.9985
-0.3211 0.1228 -0.1203 0.9985
-0.3221 0.1125 -0.1194 0.9986
-0.3246 0.0773 -0.1168 0.9986
-0.3249 0.0724 -0.1165 0.9986
-0.3253 0.0577 -0.1156 0.9986
-0.3254 0.0528 -0.1154 0.9986
-0.3255 0.0479 -0.1151 0.9986
-0.3255 0.0334 -0.1145 0.9986
-0.3254 0.0286 -0.1143 0.9986
-0.3193 0.0000 -0.1157 0.9986
-0.3196 -0.0046 -0.1158 0.9986
-0.3198 -0.0093 -0.1159 0.9986
-0.3199 -0.0140 -0.1161 0.9986
-0.3201 -0.0187 -0.1162 0.9986
-0.3202 -0.0234 -0.1164 0.9986
-0.3204 -0.0329 -0.1167 0.9986
-0.3204 -0.0376 -0.1169 0.9986
-0.3204 -0.0424 -0.1171 0.9986
-0.3203 -0.0471 -0.1173 0.9986
-0.3202 -0.0519 -0.1176 0.9986
-0.3201 -0.0567 -0.1178 0.9986
-0.3196 -0.0711 -0.1187 0.9986
-0.3191 -0.0809 -0.1193 0.9986
-0.3181 -0.0957 -0.1204 0.9986
-0.3177 -0.1007 -0.1208 0.9986
-0.3168 -0.1107 -0.1216 0.9986
-0.3163 -0.1157 -0.1220 0.9986
-0.3157 -0.1207 -0.1225 0.9986
-0.3145 -0.1309 -0.1235 0.9986
-0.3139 -0.1361 -0.1240 0.9985
-0.3124 -0.1464 -0.1250 0.9985
-0.3115 -0.1516 -0.1255 0.9985
-0.3105 -0.1568 -0.1261 0.9985
-0.3096 -0.1620 -0.1266 0.9985
-0.3085 -0.1673 -0.1272 0.9985
-0.3028 -0.1940 -0.1303 0.9985
-0.3018 -0.1996 -0.1311 0.9985
-0.2997 -0.2111 -0.1329 0.9984
-0.2963 -0.2288 -0.1357 0.9984
-0.2950 -0.2348 -0.1366 0.9984
-0.2909 -0.2531 -0.1397 0.9984
-0.2895 -0.2593 -0.1408 0.9983
-0.2879 -0.2656 -0.1420 0.9983
-0.2706 -0.3251 -0.1533 0.9982
-0.2653 -0.3385 -0.1559 0.9982
-0.2626 -0.3453 -0.1572 0.9982
-0.2598 -0.3521 -0.1586 0.9981
-0.2569 -0.3590 -0.1600 0.9981
-0.2508 -0.3732 -0.1630 0.9981
-0.2445 -0.3877 -0.1661 0.9981
-0.2412 -0.3951 -0.1678 0.9980
-0.2342 -0.4103 -0.1712 0.9980
-0.2306 -0.4180 -0.1730 0.9980
-0.2269 -0.4259 -0.1749 0.9979
-0.2150 -0.4500 -0.1807 0.9979
-0.2108 -0.4583 -0.1828 0.9979
-0.2064 -0.4667 -0.1849 0.9978
-0.2020 -0.4752 -0.1871 0.9978
-0.1973 -0.4839 -0.1894 0.9978
-0.1877 -0.5016 -0.1941 0.9977
-0.1774 -0.5198 -0.1990 0.9977
-0.1720 -0.5293 -0.2017 0.9976
-0.1667 -0.5396 -0.2047 0.9976
-0.1612 -0.5502 -0.2078 0.9976
-0.1555 -0.5610 -0.2110 0.9975
-0.1498 -0.5730 -0.2146 0.9975
-0.1496 -0.6083 -0.2270 0.9973
-2.3256 -10.0918 -3.7532 0.9569
-1.8811 -10.1840 -3.7532 0.9569
-1.7321 -10.2105 -3.7532 0.9569
-1.4330 -10.2567 -3.7532 0.9569
-1.2830 -10.2765 -3.7532 0.9569
-1.1327 -10.2942 -3.7532 0.9569
-0.8314 -10.3229 -3.7532 0.9569
-0.6805 -10.3339 -3.7532 0.9569
-0.5294 -10.3428 -3.7532 0.9569
-0.3782 -10.3494 -3.7532 0.9569
0.0756 -10.3560 -3.7532 0.9569
0.5294 -10.3428 -3.7532 0.9569
0.6805 -10.3339 -3.7532 0.9569
1.2830 -10.2765 -3.7532 0.9569
1.4330 -10.2567 -3.7532 0.9569
1.5827 -10.2346 -3.7532 0.9569
1.7321 -10.2104 -3.7532 0.9569
1.8811 -10.1841 -3.7532 0.9569
2.1779 -10.1247 -3.7532 0.9569
2.3255 -10.0918 -3.7532 0.9569
2.4728 -10.0568 -3.7532 0.9569
2.6194 -10.0196 -3.7532 0.9569
3.2003 -9.8494 -3.7532 0.9569
3.3438 -9.8016 -3.7532 0.9569
3.7702 -9.6457 -3.7532 0.9569
4.6002 -9.2785 -3.7532 0.9569
4.8694 -9.1402 -3.7532 0.9569
5.9022 -8.5098 -3.7532 0.9569
6.1483 -8.3337 -3.7532 0.9569
6.2694 -8.2430 -3.7532 0.9569
6.5076 -8.0563 -3.7532 0.9569
6.7402 -7.8627 -3.7532 0.9569
6.8544 -7.7634 -3.7532 0.9569
6.9671 -7.6624 -3.7532 0.9569
7.2962 -7.3497 -3.7532 0.9569
7.4028 -7.2423 -3.7532 0.9569
7.7131 -6.9110 -3.7532 0.9569
8.2886 -6.2090 -3.7532 0.9569
8.3784 -6.0873 -3.7532 0.9569
8.5527 -5.8398 -3.7532 0.9569
6.3251 -4.0530 -2.7225 0.9685
6.7140 -3.7680 -2.7902 0.9678
6.6363 -3.5980 -2.7357 0.9684
6.9047 -3.6139 -2.8243 0.9674
6.9700 -3.2674 -2.7897 0.9678
6.9255 -3.0029 -2.7356 0.9684
9.5788 -3.8249 -3.7379 0.9571
9.6865 -3.5434 -3.7379 0.9571
9.7373 -3.4014 -3.7379 0.9571
9.7859 -3.2588 -3.7379 0.9571
9.8325 -3.1155 -3.7379 0.9571
9.9193 -2.8268 -3.7379 0.9571
10.0384 -2.5461 -3.7532 0.9569
10.1700 -1.9554 -3.7532 0.9569
10.1975 -1.8066 -3.7532 0.9569
10.2228 -1.6574 -3.7532 0.9569
10.2459 -1.5079 -3.7532 0.9569
10.2669 -1.3580 -3.7532 0.9569
10.2856 -1.2078 -3.7532 0.9569
10.3022 -1.0575 -3.7532 0.9569
10.3287 -0.7560 -3.7532 0.9569
10.3386 -0.6050 -3.7532 0.9569
10.3463 -0.4538 -3.7532 0.9569
10.3519 -0.3026 -3.7532 0.9569
10.3552 0.1513 -3.7532 0.9569
10.3519 0.3027 -3.7532 0.9569
10.3464 0.4539 -3.7532 0.9569
10.3165 0.9068 -3.7532 0.9569
10.3022 1.0575 -3.7532 0.9569
10.2228 1.6575 -3.7532 0.9569
10.1975 1.8066 -3.7532 0.9569
10.1700 1.9555 -3.7532 0.9569
10.1085 2.2518 -3.7532 0.9569
10.0384 2.5462 -3.7532 0.9569
10.0002 2.6926 -3.7532 0.9569
9.8725 3.1282 -3.7532 0.9569
9.8258 3.2722 -3.7532 0.9569
9.7769 3.4154 -3.7532 0.9569
9.2894 3.3982 -3.5847 0.9588
7.3896 3.2042 -2.9189 0.9663
7.2218 3.2577 -2.8711 0.9669
6.7868 3.6796 -2.7978 0.9677
6.7936 3.8127 -2.8232 0.9674
6.8227 4.0957 -2.8839 0.9667
6.9001 4.7115 -3.0280 0.9651
6.9224 4.8765 -3.0687 0.9646
6.9681 5.2199 -3.1552 0.9636
6.9918 5.3989 -3.2013 0.9631
7.0378 5.7704 -3.2982 0.9620
7.1401 6.3975 -3.4743 0.9600
7.4719 7.0991 -3.7351 0.9571
7.2612 7.3143 -3.7351 0.9571
7.1536 7.4196 -3.7351 0.9571
6.9337 7.6255 -3.7351 0.9571
6.7080 7.8249 -3.7351 0.9571
6.4764 8.0175 -3.7351 0.9571
6.3586 8.1113 -3.7351 0.9571
6.2394 8.2033 -3.7351 0.9571
6.1189 8.2937 -3.7351 0.9571
5.8739 8.4689 -3.7351 0.9571
5.7495 8.5538 -3.7351 0.9571
5.6239 8.6369 -3.7351 0.9571
5.4971 8.7182 -3.7351 0.9571
5.3692 8.7976 -3.7351 0.9571
5.0111 8.4875 -3.5720 0.9589
4.9785 9.0244 -3.7351 0.9571
4.8460 9.0962 -3.7351 0.9571
4.7127 9.1660 -3.7351 0.9571
4.5782 9.2339 -3.7351 0.9571
4.4428 9.2998 -3.7351 0.9571
4.3064 9.3637 -3.7351 0.9571
4.1692 9.4257 -3.7351 0.9571
4.0310 9.4855 -3.7351 0.9571
3.6141 9.6604 -3.7379 0.9571
3.4725 9.7121 -3.7379 0.9571
3.3303 9.7619 -3.7379 0.9571
3.0436 9.8550 -3.7379 0.9571
2.7543 9.9397 -3.7379 0.9571
2.4627 10.0160 -3.7379 0.9571
2.3161 10.0509 -3.7379 0.9571
2.1690 10.0836 -3.7379 0.9571
1.8735 10.1427 -3.7379 0.9571
1.5763 10.1931 -3.7379 0.9571
1.4272 10.2150 -3.7379 0.9571
1.1281 10.2524 -3.7379 0.9571
0.6777 10.2920 -3.7379 0.9571
0.5273 10.3008 -3.7379 0.9571
0.2260 10.3118 -3.7379 0.9571
0.0753 10.3140 -3.7379 0.9571
-0.2260 10.3118 -3.7379 0.9571
-0.3767 10.3074 -3.7379 0.9571
-0.6777 10.2920 -3.7379 0.9571
-0.8280 10.2810 -3.7379 0.9571
-1.1281 10.2524 -3.7379 0.9571
-1.2778 10.2348 -3.7379 0.9571
-2.0214 10.1142 -3.7379 0.9571
-2.1690 10.0836 -3.7379 0.9571
-0.1498 0.5730 -0.2146 0.9975
-0.1555 0.5610 -0.2110 0.9975
-0.1612 0.5502 -0.2078 0.9976
-0.1667 0.5397 -0.2047 0.9976
-0.1826 0.5106 -0.1965 0.9977
-0.2019 0.4753 -0.1871 0.9978
-0.2108 0.4584 -0.1828 0.9979
-0.2231 0.4338 -0.1768 0.9979
-0.2269 0.4259 -0.1749 0.9979
-0.2342 0.4103 -0.1712 0.9980
-0.2377 0.4027 -0.1695 0.9980
-0.2412 0.3951 -0.1678 0.9980
-0.2445 0.3877 -0.1661 0.9981
-0.2477 0.3804 -0.1645 0.9981
-0.2508 0.3732 -0.1630 0.9981
-0.2539 0.3661 -0.1615 0.9981
-0.2598 0.3521 -0.1586 0.9981
-0.2731 0.3185 -0.1520 0.9982
-0.2793 0.2983 -0.1481 0.9983
-0.2811 0.2916 -0.1468 0.9983
-0.2863 0.2721 -0.1431 0.9983
-0.2895 0.2594 -0.1408 0.9983
-0.2909 0.2531 -0.1397 0.9984
-0.2937 0.2408 -0.1376 0.9984
-0.2950 0.2348 -0.1366 0.9984
-0.2997 0.2111 -0.1329 0.9984
-0.3008 0.2054 -0.1320 0.9985
-0.3052 0.1832 -0.1290 0.9985
-0.3064 0.1779 -0.1284 0.9985
-0.3115 0.1516 -0.1255 0.9985
-0.3124 0.1464 -0.1250 0.9985
-0.3151 0.1259 -0.1230 0.9986
-0.3163 0.1157 -0.1220 0.9986
-0.3173 0.1057 -0.1212 0.9986
-0.3177 0.1007 -0.1208 0.9986
-0.3181 0.0957 -0.1204 0.9986
-0.3188 0.0859 -0.1197 0.9986
-0.3191 0.0809 -0.1193 0.9986
-0.3194 0.0761 -0.1190 0.9986
-0.3198 0.0664 -0.1184 0.9986
-0.3200 0.0615 -0.1181 0.9986
-0.3204 0.0376 -0.1169 0.9986
-0.3203 0.0329 -0.1167 0.9986
-0.3202 0.0234 -0.1164 0.9986
-0.3201 0.0188 -0.1162 0.9986
-0.3200 0.0141 -0.1161 0.9986
-0.3196 0.0047 -0.1158 0.9986
-0.3144 0.0000 -0.1179 0.9987
-0.3146 -0.0046 -0.1180 0.9987
-0.3153 -0.0323 -0.1189 0.9986
-0.3153 -0.0417 -0.1193 0.9986
-0.3153 -0.0464 -0.1195 0.9986
-0.3152 -0.0511 -0.1197 0.9986
-0.3151 -0.0558 -0.1200 0.9986
-0.3147 -0.0653 -0.1205 0.9986
-0.3145 -0.0700 -0.1208 0.9986
-0.3140 -0.0796 -0.1215 0.9986
-0.3121 -0.1039 -0.1234 0.9986
-0.3116 -0.1088 -0.1238 0.9986
-0.3111 -0.1138 -0.1242 0.9986
-0.3105 -0.1187 -0.1247 0.9986
-0.3100 -0.1237 -0.1251 0.9986
-0.3079 -0.1389 -0.1267 0.9986
-0.3071 -0.1439 -0.1272 0.9986
-0.3062 -0.1490 -0.1277 0.9985
-0.3043 -0.1593 -0.1288 0.9985
-0.3022 -0.1696 -0.1299 0.9985
-0.2975 -0.1906 -0.1325 0.9985
-0.2962 -0.1960 -0.1332 0.9985
-0.2952 -0.2016 -0.1340 0.9985
-0.2941 -0.2072 -0.1349 0.9985
-0.2930 -0.2129 -0.1358 0.9985
-0.2907 -0.2244 -0.1377 0.9984
-0.2894 -0.2302 -0.1387 0.9984
-0.2867 -0.2421 -0.1407 0.9984
-0.2853 -0.2482 -0.1418 0.9984
-0.2838 -0.2542 -0.1429 0.9984
-0.2822 -0.2604 -0.1440 0.9984
-0.2772 -0.2792 -0.1475 0.9983
-0.2754 -0.2856 -0.1488 0.9983
-0.2735 -0.2921 -0.1501 0.9983
-0.2716 -0.2986 -0.1514 0.9983
-0.2674 -0.3119 -0.1541 0.9982
-0.2597 -0.3314 -0.1579 0.9982
-0.2570 -0.3379 -0.1592 0.9982
-0.2542 -0.3446 -0.1606 0.9982
-0.2514 -0.3513 -0.1620 0.9982
-0.2453 -0.3649 -0.1649 0.9981
-0.2422 -0.3719 -0.1664 0.9981
-0.2389 -0.3789 -0.1680 0.9981
-0.2322 -0.3933 -0.1713 0.9981
-0.2288 -0.4007 -0.1730 0.9980
-0.2215 -0.4157 -0.1766 0.9980
-0.2137 -0.4311 -0.1804 0.9979
-0.2097 -0.4389 -0.1824 0.9979
-0.1968 -0.4631 -0.1887 0.9979
-0.1922 -0.4713 -0.1909 0.9978
-0.1875 -0.4798 -0.1932 0.9978
-0.1777 -0.4970 -0.1979 0.9977
-0.1617 -0.5237 -0.2055 0.9977
-0.1503 -0.5423 -0.2110 0.9976
-0.1445 -0.5526 -0.2142 0.9976
-0.1385 -0.5632 -0.2175 0.9975
-0.1332 -0.5781 -0.2225 0.9975
-2.1048 -9.7848 -3.7532 0.9581
-1.8180 -9.8421 -3.7532 0.9581
-1.6740 -9.8677 -3.7532 0.9581
-1.2399 -9.9316 -3.7532 0.9581
-0.9492 -9.9636 -3.7532 0.9581
-0.8035 -9.9763 -3.7532 0.9581
-0.6576 -9.9871 -3.7532 0.9581
-0.5116 -9.9956 -3.7532 0.9581
0.2194 -10.0063 -3.7532 0.9581
0.3655 -10.0020 -3.7532 0.9581
0.5116 -9.9956 -3.7532 0.9581
0.9492 -9.9636 -3.7532 0.9581
1.2399 -9.9316 -3.7532 0.9581
1.3849 -9.9124 -3.7532 0.9581
1.5296 -9.8911 -3.7532 0.9581
1.8179 -9.8422 -3.7532 0.9581
1.9616 -9.8145 -3.7532 0.9581
2.3898 -9.7192 -3.7532 0.9581
2.5315 -9.6832 -3.7532 0.9581
2.6727 -9.6452 -3.7532 0.9581
2.9535 -9.5630 -3.7532 0.9581
3.0928 -9.5188 -3.7532 0.9581
3.3696 -9.4244 -3.7532 0.9581
3.5070 -9.3741 -3.7532 0.9581
3.7794 -9.2677 -3.7532 0.9581
3.9144 -9.2114 -3.7532 0.9581
4.0486 -9.1532 -3.7532 0.9581
4.1819 -9.0932 -3.7532 0.9581
4.3143 -9.0311 -3.7532 0.9581
4.4458 -8.9671 -3.7532 0.9581
4.7059 -8.8333 -3.7532 0.9581
5.4613 -8.3873 -3.7532 0.9581
5.7041 -8.2242 -3.7532 0.9581
5.8236 -8.1399 -3.7532 0.9581
6.0590 -7.9663 -3.7532 0.9581
6.1747 -7.8769 -3.7532 0.9581
6.2892 -7.7858 -3.7532 0.9581
6.5140 -7.5987 -3.7532 0.9581
6.6244 -7.5027 -3.7532 0.9581
6.7332 -7.4052 -3.7532 0.9581
6.9468 -7.2053 -3.7532 0.9581
7.0513 -7.1030 -3.7532 0.9581
7.1543 -6.9992 -3.7532 0.9581
7.4542 -6.6790 -3.7532 0.9581
7.7397 -6.3459 -3.7532 0.9581
8.0972 -5.8829 -3.7532 0.9581
8.3472 -5.5225 -3.7532 0.9581
6.4406 -3.9954 -2.8421 0.9681
6.6358 -3.8527 -2.8774 0.9678
6.9065 -3.6149 -2.9232 0.9672
7.0042 -3.2834 -2.9008 0.9675
6.9504 -3.0137 -2.8408 0.9682
9.3613 -3.4245 -3.7379 0.9583
9.4104 -3.2873 -3.7379 0.9583
9.5863 -2.7320 -3.7379 0.9583
9.6645 -2.6022 -3.7532 0.9581
9.7015 -2.4607 -3.7532 0.9581
9.7364 -2.3187 -3.7532 0.9581
9.7692 -2.1762 -3.7532 0.9581
9.8286 -1.8898 -3.7532 0.9581
9.8552 -1.7460 -3.7532 0.9581
9.8797 -1.6018 -3.7532 0.9581
9.9020 -1.4572 -3.7532 0.9581
10.0076 -0.1462 -3.7532 0.9581
10.0087 0.0000 -3.7532 0.9581
10.0044 0.2925 -3.7532 0.9581
9.9990 0.4386 -3.7532 0.9581
9.9916 0.5847 -3.7532 0.9581
9.9819 0.7306 -3.7532 0.9581
9.9702 0.8764 -3.7532 0.9581
9.9564 1.0220 -3.7532 0.9581
9.9404 1.1673 -3.7532 0.9581
9.9020 1.4573 -3.7532 0.9581
9.8797 1.6018 -3.7532 0.9581
9.8000 2.0332 -3.7532 0.9581
9.6254 2.7431 -3.7532 0.9581
9.5843 2.8835 -3.7532 0.9581
9.4959 3.1623 -3.7532 0.9581
9.3995 3.4385 -3.7532 0.9581
8.0005 3.0600 -3.2121 0.9641
7.3335 3.1798 -2.9974 0.9664
7.1682 3.2334 -2.9488 0.9670
6.8476 3.3329 -2.8558 0.9680
6.7414 3.4040 -2.8320 0.9683
6.7501 3.5331 -2.8570 0.9680
6.7589 3.6645 -2.8831 0.9677
6.7916 3.9433 -2.9449 0.9670
6.8118 4.0892 -2.9793 0.9666
6.8304 4.2374 -3.0142 0.9662
6.8491 4.3888 -3.0504 0.9658
6.9819 5.3912 -3.3078 0.9630
7.0307 5.7646 -3.4093 0.9619
7.0771 5.9777 -3.4738 0.9612
7.1111 6.1867 -3.5345 0.9605
7.3558 6.7872 -3.7532 0.9581
7.2558 6.8939 -3.7532 0.9581
7.1543 6.9992 -3.7532 0.9581
7.0513 7.1030 -3.7532 0.9581
6.9135 7.1706 -3.7351 0.9583
6.8079 7.2708 -3.7351 0.9583
6.4828 7.5622 -3.7351 0.9583
6.3716 7.6561 -3.7351 0.9583
6.0299 7.9280 -3.7351 0.9583
5.9135 8.0152 -3.7351 0.9583
5.4351 8.3470 -3.7351 0.9583
5.3126 8.4255 -3.7351 0.9583
5.1889 8.5023 -3.7351 0.9583
4.8651 8.5222 -3.6798 0.9589
4.8113 8.7214 -3.7351 0.9583
4.6834 8.7908 -3.7351 0.9583
4.0292 9.1093 -3.7351 0.9583
3.8957 9.1671 -3.7351 0.9583
3.7613 9.2231 -3.7351 0.9583
3.2161 9.4270 -3.7351 0.9583
3.0780 9.4730 -3.7351 0.9583
2.9393 9.5170 -3.7351 0.9583
2.8019 9.5662 -3.7379 0.9583
2.5212 9.6439 -3.7379 0.9583
2.0962 9.7452 -3.7379 0.9583
1.9536 9.7748 -3.7379 0.9583
1.5234 9.8509 -3.7379 0.9583
1.3793 9.8721 -3.7379 0.9583
0.9453 9.9231 -3.7379 0.9583
0.8002 9.9359 -3.7379 0.9583
0.5096 9.9550 -3.7379 0.9583
0.2185 9.9657 -3.7379 0.9583
0.0728 9.9678 -3.7379 0.9583
-0.2185 9.9657 -3.7379 0.9583
-0.8002 9.9359 -3.7379 0.9583
-1.5234 9.8510 -3.7379 0.9583
-1.6671 9.8277 -3.7379 0.9583
-1.8106 9.8023 -3.7379 0.9583
-2.0962 9.7452 -3.7379 0.9583
-0.1332 0.5781 -0.2225 0.9975
-0.1445 0.5527 -0.2142 0.9976
-0.1561 0.5329 -0.2082 0.9976
-0.1672 0.5146 -0.2029 0.9977
-0.1725 0.5057 -0.2004 0.9977
-0.1827 0.4883 -0.1955 0.9978
-0.1922 0.4714 -0.1909 0.9978
-0.2177 0.4234 -0.1785 0.9980
-0.2215 0.4157 -0.1766 0.9980
-0.2252 0.4082 -0.1748 0.9980
-0.2288 0.4007 -0.1730 0.9980
-0.2389 0.3789 -0.1680 0.9981
-0.2422 0.3719 -0.1664 0.9981
-0.2514 0.3513 -0.1620 0.9982
-0.2570 0.3379 -0.1592 0.9982
-0.2624 0.3248 -0.1566 0.9982
-0.2649 0.3184 -0.1553 0.9982
-0.2716 0.2987 -0.1514 0.9983
-0.2735 0.2921 -0.1501 0.9983
-0.2772 0.2792 -0.1475 0.9983
-0.2789 0.2729 -0.1463 0.9983
-0.2806 0.2666 -0.1451 0.9983
-0.2822 0.2604 -0.1440 0.9984
-0.2838 0.2543 -0.1429 0.9984
-0.2852 0.2482 -0.1418 0.9984
-0.2867 0.2421 -0.1407 0.9984
-0.2881 0.2362 -0.1397 0.9984
-0.2894 0.2303 -0.1387 0.9984
-0.2931 0.2129 -0.1358 0.9985
-0.2952 0.2016 -0.1340 0.9985
-0.2975 0.1906 -0.1325 0.9985
-0.3011 0.1748 -0.1306 0.9985
-0.3022 0.1696 -0.1299 0.9985
-0.3033 0.1645 -0.1294 0.9985
-0.3053 0.1542 -0.1282 0.9985
-0.3079 0.1389 -0.1267 0.9986
-0.3093 0.1288 -0.1256 0.9986
-0.3100 0.1238 -0.1251 0.9986
-0.3121 0.1040 -0.1234 0.9986
-0.3133 0.0893 -0.1222 0.9986
-0.3140 0.0796 -0.1215 0.9986
-0.3145 0.0701 -0.1208 0.9986
-0.3148 0.0653 -0.1205 0.9986
-0.3151 0.0559 -0.1200 0.9986
-0.3153 0.0464 -0.1195 0.9986
-0.3153 0.0417 -0.1193 0.9986
-0.3153 0.0371 -0.1191 0.9986
-0.3153 0.0324 -0.1189 0.9986
-0.3153 0.0277 -0.1187 0.9986
-0.3152 0.0231 -0.1185 0.9987
-0.3146 0.0046 -0.1180 0.9987
-0.3095 0.0000 -0.1200 0.9987
-0.3097 -0.0045 -0.1201 0.9987
-0.3099 -0.0090 -0.1202 0.9987
-0.3101 -0.0136 -0.1203 0.9987
-0.3104 -0.0365 -0.1212 0.9987
-0.3104 -0.0411 -0.1214 0.9987
-0.3104 -0.0457 -0.1216 0.9987
-0.3101 -0.0549 -0.1221 0.9986
-0.3100 -0.0596 -0.1224 0.9986
-0.3090 -0.0784 -0.1236 0.9986
-0.3087 -0.0831 -0.1239 0.9986
-0.3075 -0.0974 -0.1251 0.9986
-0.3066 -0.1071 -0.1259 0.9986
-0.3060 -0.1119 -0.1263 0.9986
-0.3055 -0.1168 -0.1268 0.9986
-0.3049 -0.1217 -0.1273 0.9986
-0.3042 -0.1266 -0.1278 0.9986
-0.3036 -0.1316 -0.1283 0.9986
-0.3028 -0.1366 -0.1288 0.9986
-0.3011 -0.1466 -0.1298 0.9986
-0.3001 -0.1515 -0.1303 0.9986
-0.2991 -0.1566 -0.1309 0.9986
-0.2971 -0.1667 -0.1321 0.9985
-0.2959 -0.1718 -0.1327 0.9985
-0.2948 -0.1770 -0.1333 0.9985
-0.2910 -0.1925 -0.1353 0.9985
-0.2898 -0.1979 -0.1361 0.9985
-0.2887 -0.2034 -0.1369 0.9985
-0.2876 -0.2089 -0.1378 0.9985
-0.2826 -0.2317 -0.1417 0.9984
-0.2812 -0.2375 -0.1427 0.9984
-0.2734 -0.2674 -0.1483 0.9984
-0.2716 -0.2736 -0.1495 0.9983
-0.2679 -0.2861 -0.1520 0.9983
-0.2619 -0.3054 -0.1560 0.9983
-0.2570 -0.3181 -0.1585 0.9982
-0.2516 -0.3308 -0.1611 0.9982
-0.2460 -0.3438 -0.1639 0.9982
-0.2369 -0.3637 -0.1683 0.9981
-0.2303 -0.3774 -0.1714 0.9981
-0.2269 -0.3843 -0.1730 0.9981
-0.2235 -0.3914 -0.1747 0.9981
-0.2199 -0.3986 -0.1765 0.9980
-0.2162 -0.4059 -0.1783 0.9980
-0.2125 -0.4132 -0.1801 0.9980
-0.2086 -0.4207 -0.1820 0.9980
-0.2005 -0.4359 -0.1860 0.9979
-0.1962 -0.4436 -0.1881 0.9979
-0.1918 -0.4514 -0.1902 0.9979
-0.1573 -0.5094 -0.2067 0.9977
-0.1518 -0.5181 -0.2093 0.9977
-0.1401 -0.5361 -0.2148 0.9976
-0.1278 -0.5545 -0.2206 0.9976
-0.1215 -0.5647 -0.2239 0.9975
-1.7584 -9.5199 -3.7532 0.9593
-1.6192 -9.5446 -3.7532 0.9593
-1.4795 -9.5672 -3.7532 0.9593
-0.7772 -9.6497 -3.7532 0.9593
-0.6361 -9.6600 -3.7532 0.9593
-0.3536 -9.6745 -3.7532 0.9593
-0.2122 -9.6786 -3.7532 0.9593
-0.0707 -9.6807 -3.7532 0.9593
0.2122 -9.6787 -3.7532 0.9593
0.3536 -9.6745 -3.7532 0.9593
0.6361 -9.6601 -3.7532 0.9593
0.9181 -9.6373 -3.7532 0.9593
1.0588 -9.6229 -3.7532 0.9593
1.1993 -9.6064 -3.7532 0.9593
1.3396 -9.5878 -3.7532 0.9593
2.0358 -9.4645 -3.7532 0.9593
2.1739 -9.4338 -3.7532 0.9593
2.3115 -9.4010 -3.7532 0.9593
2.4486 -9.3662 -3.7532 0.9593
2.5852 -9.3294 -3.7532 0.9593
2.7213 -9.2906 -3.7532 0.9593
2.8568 -9.2499 -3.7532 0.9593
2.9916 -9.2072 -3.7532 0.9593
3.1258 -9.1625 -3.7532 0.9593
3.2593 -9.1158 -3.7532 0.9593
3.5243 -9.0166 -3.7532 0.9593
3.6557 -8.9642 -3.7532 0.9593
3.7863 -8.9098 -3.7532 0.9593
3.9160 -8.8536 -3.7532 0.9593
4.1731 -8.7354 -3.7532 0.9593
4.3003 -8.6735 -3.7532 0.9593
4.6762 -8.4767 -3.7532 0.9593
4.7996 -8.4075 -3.7532 0.9593
4.9219 -8.3364 -3.7532 0.9593
5.0432 -8.2636 -3.7532 0.9593
5.2825 -8.1127 -3.7532 0.9593
5.5173 -7.9549 -3.7532 0.9593
5.6329 -7.8734 -3.7532 0.9593
5.7474 -7.7903 -3.7532 0.9593
5.9726 -7.6190 -3.7532 0.9593
6.1927 -7.4412 -3.7532 0.9593
6.3007 -7.3500 -3.7532 0.9593
6.5128 -7.1627 -3.7532 0.9593
6.6167 -7.0668 -3.7532 0.9593
6.9201 -6.7700 -3.7532 0.9593
7.1150 -6.5649 -3.7532 0.9593
7.2101 -6.4603 -3.7532 0.9593
7.3037 -6.3543 -3.7532 0.9593
7.4863 -6.1381 -3.7532 0.9593
7.5752 -6.0281 -3.7532 0.9593
7.6624 -5.9168 -3.7532 0.9593
7.8321 -5.6904 -3.7532 0.9593
8.0739 -5.3416 -3.7532 0.9593
6.4610 -4.0081 -2.9477 0.9679
6.5584 -3.9370 -2.9655 0.9677
6.6970 -3.7585 -2.9772 0.9676
7.0134 -3.5412 -3.0459 0.9669
6.7547 -3.2877 -2.9124 0.9683
7.0302 -3.2956 -3.0101 0.9672
8.9542 -3.5755 -3.7379 0.9595
9.0548 -3.3124 -3.7379 0.9595
9.2329 -2.7778 -3.7379 0.9595
9.3480 -2.5170 -3.7532 0.9593
9.4176 -2.2428 -3.7532 0.9593
9.4494 -2.1049 -3.7532 0.9593
9.4791 -1.9666 -3.7532 0.9593
9.5068 -1.8279 -3.7532 0.9593
9.5325 -1.6888 -3.7532 0.9593
9.5562 -1.5493 -3.7532 0.9593
9.5778 -1.4096 -3.7532 0.9593
9.6438 -0.8477 -3.7532 0.9593
9.6768 -0.2829 -3.7532 0.9593
9.6810 0.0000 -3.7532 0.9593
9.6438 0.8477 -3.7532 0.9593
9.6304 0.9885 -3.7532 0.9593
9.6149 1.1291 -3.7532 0.9593
9.5974 1.2695 -3.7532 0.9593
9.5778 1.4096 -3.7532 0.9593
9.5562 1.5494 -3.7532 0.9593
9.4791 1.9666 -3.7532 0.9593
9.2705 2.7891 -3.7532 0.9593
9.1851 3.0589 -3.7532 0.9593
9.1394 3.1927 -3.7532 0.9593
7.9929 3.0570 -3.3176 0.9640
7.4847 3.1163 -3.1432 0.9658
7.1134 3.2087 -3.0253 0.9671
6.7289 3.3977 -2.9224 0.9682
6.7359 3.6520 -2.9705 0.9677
6.8008 4.0826 -3.0752 0.9665
6.8198 4.2308 -3.1114 0.9662
6.8816 4.6989 -3.2305 0.9649
6.9485 5.2052 -3.3658 0.9634
7.0003 5.5706 -3.4683 0.9623
7.0269 5.7614 -3.5228 0.9618
7.1074 6.1834 -3.6523 0.9604
7.2101 6.4604 -3.7532 0.9593
7.1150 6.5650 -3.7532 0.9593
7.0183 6.6682 -3.7532 0.9593
6.9201 6.7701 -3.7532 0.9593
6.6168 7.0668 -3.7532 0.9593
6.2705 7.3146 -3.7351 0.9595
6.0541 7.4947 -3.7351 0.9595
5.7198 7.7528 -3.7351 0.9595
5.4909 7.9167 -3.7351 0.9595
5.3746 7.9960 -3.7351 0.9595
5.2572 8.0737 -3.7351 0.9595
5.0190 8.2239 -3.7351 0.9595
4.8983 8.2963 -3.7351 0.9595
4.5301 8.5030 -3.7351 0.9595
4.4053 8.5683 -3.7351 0.9595
4.2797 8.6317 -3.7351 0.9595
4.1531 8.6933 -3.7351 0.9595
3.8973 8.8110 -3.7351 0.9595
3.7681 8.8670 -3.7351 0.9595
3.2437 9.0720 -3.7351 0.9595
3.1108 9.1184 -3.7351 0.9595
2.8431 9.2054 -3.7351 0.9595
2.7082 9.2460 -3.7351 0.9595
2.4369 9.3211 -3.7351 0.9595
2.3005 9.3557 -3.7351 0.9595
2.1635 9.3884 -3.7351 0.9595
1.0545 9.5838 -3.7379 0.9595
0.7740 9.6106 -3.7379 0.9595
0.6335 9.6209 -3.7379 0.9595
0.4929 9.6291 -3.7379 0.9595
0.3521 9.6352 -3.7379 0.9595
-0.0704 9.6414 -3.7379 0.9595
-0.3522 9.6353 -3.7379 0.9595
-0.6335 9.6208 -3.7379 0.9595
-0.7740 9.6106 -3.7379 0.9595
-0.9144 9.5982 -3.7379 0.9595
-1.3341 9.5489 -3.7379 0.9595
-1.4735 9.5284 -3.7379 0.9595
-1.6114 9.4987 -3.7351 0.9595
-0.1162 0.5811 -0.2297 0.9975
-0.1215 0.5647 -0.2239 0.9975
-0.1278 0.5546 -0.2206 0.9976
-0.1341 0.5452 -0.2177 0.9976
-0.1402 0.5361 -0.2148 0.9976
-0.1460 0.5271 -0.2120 0.9977
-0.1779 0.4756 -0.1969 0.9978
-0.1873 0.4594 -0.1923 0.9979
-0.1962 0.4436 -0.1881 0.9979
-0.2005 0.4359 -0.1860 0.9979
-0.2086 0.4207 -0.1820 0.9980
-0.2162 0.4059 -0.1783 0.9980
-0.2199 0.3986 -0.1765 0.9980
-0.2235 0.3914 -0.1747 0.9981
-0.2336 0.3705 -0.1698 0.9981
-0.2369 0.3638 -0.1683 0.9981
-0.2400 0.3570 -0.1668 0.9982
-0.2516 0.3308 -0.1611 0.9982
-0.2569 0.3181 -0.1585 0.9982
-0.2660 0.2925 -0.1533 0.9983
-0.2698 0.2798 -0.1507 0.9983
-0.2797 0.2434 -0.1437 0.9984
-0.2812 0.2375 -0.1427 0.9984
-0.2839 0.2259 -0.1407 0.9984
-0.2864 0.2146 -0.1387 0.9985
-0.2876 0.2089 -0.1378 0.9985
-0.2887 0.2034 -0.1369 0.9985
-0.2923 0.1873 -0.1346 0.9985
-0.2936 0.1821 -0.1339 0.9985
-0.2959 0.1718 -0.1327 0.9985
-0.2971 0.1668 -0.1321 0.9985
-0.2981 0.1617 -0.1315 0.9985
-0.2992 0.1566 -0.1309 0.9986
-0.3001 0.1516 -0.1303 0.9986
-0.3011 0.1466 -0.1298 0.9986
-0.3028 0.1366 -0.1288 0.9986
-0.3042 0.1267 -0.1278 0.9986
-0.3055 0.1168 -0.1268 0.9986
-0.3071 0.1023 -0.1255 0.9986
-0.3079 0.0927 -0.1247 0.9986
-0.3083 0.0879 -0.1243 0.9986
-0.3087 0.0831 -0.1239 0.9986
-0.3090 0.0784 -0.1236 0.9986
-0.3093 0.0737 -0.1233 0.9986
-0.3100 0.0596 -0.1224 0.9986
-0.3102 0.0503 -0.1218 0.9987
-0.3103 0.0457 -0.1216 0.9987
-0.3104 0.0273 -0.1208 0.9987
-0.3103 0.0227 -0.1206 0.9987
-0.3102 0.0182 -0.1205 0.9987
-0.3101 0.0136 -0.1203 0.9987
-0.3050 -0.0044 -0.1221 0.9987
-0.3052 -0.0089 -0.1223 0.9987
-0.3053 -0.0134 -0.1224 0.9987
-0.3054 -0.0179 -0.1225 0.9987
-0.3056 -0.0269 -0.1229 0.9987
-0.3056 -0.0314 -0.1230 0.9987
-0.3056 -0.0359 -0.1232 0.9987
-0.3056 -0.0404 -0.1234 0.9987
-0.3054 -0.0495 -0.1239 0.9987
-0.3047 -0.0679 -0.1250 0.9987
-0.3044 -0.0725 -0.1253 0.9987
-0.3041 -0.0771 -0.1257 0.9986
-0.3038 -0.0818 -0.1260 0.9986
-0.3034 -0.0865 -0.1264 0.9986
-0.3026 -0.0959 -0.1271 0.9986
-0.3021 -0.1006 -0.1275 0.9986
-0.3016 -0.1054 -0.1280 0.9986
-0.3011 -0.1101 -0.1284 0.9986
-0.3005 -0.1149 -0.1289 0.9986
-0.2999 -0.1198 -0.1293 0.9986
-0.2993 -0.1246 -0.1298 0.9986
-0.2986 -0.1295 -0.1303 0.9986
-0.2978 -0.1343 -0.1309 0.9986
-0.2941 -0.1539 -0.1330 0.9986
-0.2931 -0.1589 -0.1335 0.9986
-0.2920 -0.1639 -0.1341 0.9986
-0.2909 -0.1689 -0.1347 0.9986
-0.2898 -0.1739 -0.1353 0.9985
-0.2885 -0.1789 -0.1360 0.9985
-0.2873 -0.1841 -0.1367 0.9985
-0.2860 -0.1892 -0.1373 0.9985
-0.2847 -0.1943 -0.1380 0.9985
-0.2835 -0.1997 -0.1389 0.9985
-0.2823 -0.2051 -0.1398 0.9985
-0.2812 -0.2106 -0.1407 0.9985
-0.2799 -0.2161 -0.1416 0.9985
-0.2786 -0.2217 -0.1426 0.9985
-0.2713 -0.2504 -0.1478 0.9984
-0.2697 -0.2562 -0.1490 0.9984
-0.2680 -0.2621 -0.1501 0.9984
-0.2662 -0.2682 -0.1513 0.9984
-0.2644 -0.2743 -0.1526 0.9984
-0.2625 -0.2804 -0.1538 0.9983
-0.2565 -0.2991 -0.1578 0.9983
-0.2285 -0.3624 -0.1716 0.9982
-0.2252 -0.3691 -0.1732 0.9981
-0.2219 -0.3757 -0.1748 0.9981
-0.2075 -0.4036 -0.1817 0.9980
-0.1914 -0.4328 -0.1895 0.9980
-0.1781 -0.4556 -0.1959 0.9979
-0.1734 -0.4634 -0.1982 0.9979
-0.1685 -0.4713 -0.2005 0.9978
-0.1584 -0.4875 -0.2053 0.9978
-0.1363 -0.5211 -0.2157 0.9977
-0.1113 -0.5568 -0.2274 0.9976
-1.5674 -9.2395 -3.7532 0.9604
-1.4322 -9.2614 -3.7532 0.9604
-1.2967 -9.2814 -3.7532 0.9604
-1.1610 -9.2993 -3.7532 0.9604
-0.8888 -9.3292 -3.7532 0.9604
-0.7523 -9.3412 -3.7532 0.9604
-0.6158 -9.3512 -3.7532 0.9604
-0.3423 -9.3653 -3.7532 0.9604
-0.0685 -9.3713 -3.7532 0.9604
0.3423 -9.3653 -3.7532 0.9604
0.4790 -9.3592 -3.7532 0.9604
0.7523 -9.3412 -3.7532 0.9604
1.0249 -9.3152 -3.7532 0.9604
1.2967 -9.2814 -3.7532 0.9604
1.4322 -9.2614 -3.7532 0.9604
1.7022 -9.2156 -3.7532 0.9604
1.8367 -9.1898 -3.7532 0.9604
1.9707 -9.1619 -3.7532 0.9604
2.2376 -9.1004 -3.7532 0.9604
2.3704 -9.0668 -3.7532 0.9604
2.5026 -9.0312 -3.7532 0.9604
2.8959 -8.9128 -3.7532 0.9604
3.0259 -8.8695 -3.7532 0.9604
3.4116 -8.7285 -3.7532 0.9604
3.6652 -8.6250 -3.7532 0.9604
3.7909 -8.5705 -3.7532 0.9604
4.4063 -8.2710 -3.7532 0.9604
4.5267 -8.2057 -3.7532 0.9604
4.6462 -8.1387 -3.7532 0.9604
4.7646 -8.0699 -3.7532 0.9604
4.8820 -7.9994 -3.7532 0.9604
4.9983 -7.9272 -3.7532 0.9604
5.5637 -7.5412 -3.7532 0.9604
5.9947 -7.2034 -3.7532 0.9604
6.0993 -7.1150 -3.7532 0.9604
6.3046 -6.9338 -3.7532 0.9604
6.5045 -6.7465 -3.7532 0.9604
6.6024 -6.6508 -3.7532 0.9604
6.8875 -6.3551 -3.7532 0.9604
6.9796 -6.2538 -3.7532 0.9604
7.2470 -5.9419 -3.7532 0.9604
7.4175 -5.7276 -3.7532 0.9604
7.5817 -5.5084 -3.7532 0.9604
7.7394 -5.2845 -3.7532 0.9604
7.8158 -5.1709 -3.7532 0.9604
6.4818 -4.0210 -3.0548 0.9677
6.5796 -3.9497 -3.0734 0.9675
6.8812 -3.7308 -3.1348 0.9668
7.0567 -3.3080 -3.1212 0.9670
7.0287 -3.1705 -3.0880 0.9673
7.1687 -2.9847 -3.1099 0.9671
8.6679 -3.4612 -3.7379 0.9606
8.7176 -3.3342 -3.7379 0.9606
8.8113 -3.0780 -3.7379 0.9606
8.8975 -2.8193 -3.7379 0.9606
9.0839 -2.3040 -3.7532 0.9604
9.1166 -2.1711 -3.7532 0.9604
9.1473 -2.0376 -3.7532 0.9604
9.1761 -1.9037 -3.7532 0.9604
9.2278 -1.6348 -3.7532 0.9604
9.2507 -1.4998 -3.7532 0.9604
9.2716 -1.3645 -3.7532 0.9604
9.2906 -1.2289 -3.7532 0.9604
9.3355 -0.8205 -3.7532 0.9604
9.3465 -0.6841 -3.7532 0.9604
9.3555 -0.5474 -3.7532 0.9604
9.3675 -0.2739 -3.7532 0.9604
9.3705 -0.1369 -3.7532 0.9604
9.3715 0.0000 -3.7532 0.9604
9.3705 0.1369 -3.7532 0.9604
9.3625 0.4107 -3.7532 0.9604
9.3555 0.5475 -3.7532 0.9604
9.3465 0.6841 -3.7532 0.9604
9.3355 0.8206 -3.7532 0.9604
9.3225 0.9569 -3.7532 0.9604
9.3075 1.0930 -3.7532 0.9604
9.2716 1.3645 -3.7532 0.9604
9.2507 1.4998 -3.7532 0.9604
9.2278 1.6348 -3.7532 0.9604
9.1166 2.1711 -3.7532 0.9604
9.0838 2.3041 -3.7532 0.9604
9.0492 2.4365 -3.7532 0.9604
9.0126 2.5685 -3.7532 0.9604
8.9742 2.7000 -3.7532 0.9604
8.8914 2.9610 -3.7532 0.9604
8.8011 3.2196 -3.7532 0.9604
8.0462 3.0774 -3.4500 0.9636
7.7230 3.0839 -3.3304 0.9648
7.4726 3.1113 -3.2417 0.9657
7.2622 3.1489 -3.1701 0.9665
6.7617 3.2911 -3.0117 0.9681
6.7279 3.3972 -3.0184 0.9680
6.7058 3.5098 -3.0312 0.9679
6.7404 3.7829 -3.0955 0.9672
6.8511 4.5327 -3.2899 0.9652
6.8723 4.6925 -3.3327 0.9648
6.8939 4.8564 -3.3772 0.9643
7.3330 5.8354 -3.7532 0.9604
7.2470 5.9419 -3.7532 0.9604
7.1594 6.0472 -3.7532 0.9604
6.9796 6.2538 -3.7532 0.9604
6.8875 6.3551 -3.7532 0.9604
6.6989 6.5537 -3.7532 0.9604
6.3046 6.9338 -3.7532 0.9604
6.2026 7.0252 -3.7532 0.9604
6.0701 7.0808 -3.7351 0.9606
5.8606 7.2551 -3.7351 0.9606
5.7539 7.3400 -3.7351 0.9606
5.6460 7.4232 -3.7351 0.9606
5.4267 7.5851 -3.7351 0.9606
5.3153 7.6636 -3.7351 0.9606
4.9744 7.8891 -3.7351 0.9606
4.7418 8.0311 -3.7351 0.9606
4.6239 8.0995 -3.7351 0.9606
4.5051 8.1663 -3.7351 0.9606
4.2645 8.2944 -3.7351 0.9606
4.1429 8.3558 -3.7351 0.9606
3.7727 8.5293 -3.7351 0.9606
3.1400 8.7819 -3.7351 0.9606
2.7522 8.9111 -3.7351 0.9606
2.6217 8.9504 -3.7351 0.9606
2.3590 9.0232 -3.7351 0.9606
2.2269 9.0567 -3.7351 0.9606
2.0943 9.0882 -3.7351 0.9606
1.9614 9.1179 -3.7351 0.9606
1.6941 9.1713 -3.7351 0.9606
1.5599 9.1950 -3.7351 0.9606
1.4254 9.2169 -3.7351 0.9606
0.7487 9.2964 -3.7351 0.9606
0.6128 9.3063 -3.7351 0.9606
0.3406 9.3202 -3.7351 0.9606
0.2044 9.3242 -3.7351 0.9606
0.0682 9.3262 -3.7351 0.9606
-0.2044 9.3242 -3.7351 0.9606
-0.4767 9.3142 -3.7351 0.9606
-0.6128 9.3063 -3.7351 0.9606
-0.8845 9.2844 -3.7351 0.9606
-1.0200 9.2705 -3.7351 0.9606
-1.1554 9.2546 -3.7351 0.9606
-1.2905 9.2367 -3.7351 0.9606
-1.4253 9.2169 -3.7351 0.9606
-0.1113 0.5568 -0.2274 0.9976
-0.1178 0.5477 -0.2243 0.9976
-0.1531 0.4957 -0.2078 0.9978
-0.1635 0.4793 -0.2028 0.9978
-0.1685 0.4714 -0.2005 0.9978
-0.1734 0.4635 -0.1982 0.9979
-0.1827 0.4479 -0.1937 0.9979
-0.1871 0.4403 -0.1916 0.9979
-0.1997 0.4180 -0.1855 0.9980
-0.2075 0.4036 -0.1817 0.9980
-0.2149 0.3895 -0.1781 0.9981
-0.2184 0.3825 -0.1764 0.9981
-0.2285 0.3624 -0.1716 0.9982
-0.2379 0.3429 -0.1671 0.9982
-0.2408 0.3366 -0.1657 0.9982
-0.2491 0.3178 -0.1617 0.9983
-0.2517 0.3116 -0.1604 0.9983
-0.2606 0.2866 -0.1551 0.9983
-0.2662 0.2682 -0.1513 0.9984
-0.2680 0.2622 -0.1501 0.9984
-0.2697 0.2562 -0.1490 0.9984
-0.2713 0.2504 -0.1478 0.9984
-0.2786 0.2217 -0.1426 0.9985
-0.2812 0.2106 -0.1407 0.9985
-0.2823 0.2051 -0.1398 0.9985
-0.2835 0.1997 -0.1389 0.9985
-0.2860 0.1893 -0.1373 0.9985
-0.2873 0.1841 -0.1367 0.9985
-0.2885 0.1790 -0.1360 0.9985
-0.2921 0.1639 -0.1341 0.9986
-0.2931 0.1589 -0.1335 0.9986
-0.2941 0.1540 -0.1330 0.9986
-0.2951 0.1490 -0.1324 0.9986
-0.2961 0.1441 -0.1319 0.9986
-0.2970 0.1392 -0.1314 0.9986
-0.2979 0.1344 -0.1309 0.9986
-0.2986 0.1295 -0.1303 0.9986
-0.2999 0.1198 -0.1293 0.9986
-0.3005 0.1150 -0.1289 0.9986
-0.3016 0.1054 -0.1280 0.9986
-0.3021 0.1006 -0.1275 0.9986
-0.3026 0.0959 -0.1271 0.9986
-0.3030 0.0912 -0.1267 0.9986
-0.3034 0.0864 -0.1264 0.9986
