ply
format ascii 1.0
element vertex 1574
property float32 x
property float32 y
property float32 z
property float32 I
end_header
10.8692 2.9266 -0.2963 0.9560
10.4896 2.9895 -0.2871 0.9573
10.1618 3.0573 -0.2793 0.9584
7.3264 2.5594 -0.2043 0.9694
6.8052 2.7175 -0.1929 0.9711
6.7399 2.8062 -0.1922 0.9712
6.7494 3.1640 -0.1962 0.9706
6.7603 3.5384 -0.2009 0.9699
6.7640 3.6673 -0.2025 0.9697
5.3841 3.0218 -0.1625 0.9756
4.8939 3.0361 -0.1516 0.9772
4.7447 3.0404 -0.1483 0.9777
4.5227 3.0881 -0.1442 0.9783
4.3299 3.1459 -0.1409 0.9788
4.2367 3.1738 -0.1393 0.9790
3.9869 3.2690 -0.1357 0.9796
4.1184 4.2716 -0.1562 0.9765
4.1578 4.5727 -0.1627 0.9756
4.1787 4.7328 -0.1662 0.9751
2.6113 3.1378 -0.1075 0.9838
2.4736 3.1555 -0.1055 0.9841
2.4060 3.1633 -0.1046 0.9842
2.3405 3.1725 -0.1038 0.9843
2.2755 3.1805 -0.1029 0.9845
2.1478 3.1954 -0.1014 0.9847
2.0853 3.2026 -0.1006 0.9848
2.0238 3.2097 -0.0999 0.9849
1.9648 3.2194 -0.0993 0.9850
1.9076 3.2309 -0.0988 0.9851
1.8509 3.2423 -0.0983 0.9852
1.7392 3.2646 -0.0974 0.9853
1.5201 3.3053 -0.0958 0.9855
1.4667 3.3159 -0.0954 0.9856
1.4135 3.3261 -0.0951 0.9856
1.2785 3.5758 -0.1000 0.9849
1.4193 4.5955 -0.1266 0.9809
1.6596 5.9891 -0.1636 0.9754
8.9294 36.3158 -0.9845 0.8610
7.8618 36.5486 -0.9841 0.8611
7.3255 36.6532 -0.9840 0.8611
5.1684 36.9926 -0.9833 0.8612
4.0838 37.1145 -0.9829 0.8612
3.5405 37.1637 -0.9827 0.8612
0.6195 9.4073 -0.2482 0.9630
1.9074 37.2628 -0.9822 0.8613
0.2725 37.2902 -0.9817 0.8614
-1.3612 37.2457 -0.9811 0.8615
-0.4390 8.5776 -0.2261 0.9662
-3.5319 37.0754 -0.9804 0.8615
-5.1504 36.8645 -0.9799 0.8616
-6.2230 36.6845 -0.9795 0.8617
-6.7571 36.5829 -0.9793 0.8617
-9.4008 35.9589 -0.9784 0.8618
-10.4437 35.6557 -0.9781 0.8619
-11.4769 35.3223 -0.9777 0.8619
-11.9895 35.1443 -0.9775 0.8619
-12.4996 34.9591 -0.9773 0.8620
-13.5108 34.5666 -0.9770 0.8620
-14.0119 34.3591 -0.9768 0.8620
-15.0045 33.9229 -0.9765 0.8621
-16.4679 33.2150 -0.9759 0.8621
-17.4251 32.7080 -0.9756 0.8622
-17.8981 32.4443 -0.9754 0.8622
-19.7493 31.3219 -0.9747 0.8623
-21.0923 30.4110 -0.9743 0.8624
-22.3935 29.4428 -0.9738 0.8624
-22.8178 29.1080 -0.9736 0.8624
-23.2370 28.7669 -0.9735 0.8625
-24.0599 28.0667 -0.9732 0.8625
-24.4636 27.7077 -0.9730 0.8625
-24.8620 27.3430 -0.9729 0.8625
-25.2551 26.9729 -0.9727 0.8626
-25.6425 26.5968 -0.9726 0.8626
-26.0245 26.2154 -0.9724 0.8626
-26.4008 25.8284 -0.9723 0.8626
-26.7715 25.4362 -0.9721 0.8626
-29.5228 22.1159 -0.9711 0.8628
-0.8869 0.6444 -0.0289 0.9956
-0.7743 0.5288 -0.0247 0.9963
-0.7542 0.4089 -0.0226 0.9966
-0.7488 0.3781 -0.0221 0.9966
-0.7393 0.3335 -0.0214 0.9968
-0.7328 0.3052 -0.0209 0.9968
-0.7297 0.2914 -0.0207 0.9969
-0.7266 0.2779 -0.0205 0.9969
-0.7235 0.2647 -0.0203 0.9969
-0.7146 0.2264 -0.0197 0.9970
-0.7116 0.2141 -0.0196 0.9970
-0.7088 0.2020 -0.0194 0.9971
-0.7070 0.1904 -0.0193 0.9971
-0.7051 0.1788 -0.0191 0.9971
-0.7032 0.1675 -0.0190 0.9971
-0.6995 0.1452 -0.0188 0.9971
-0.6977 0.1342 -0.0187 0.9972
-0.6959 0.1233 -0.0186 0.9972
-0.6941 0.1126 -0.0185 0.9972
-0.6904 0.0914 -0.0183 0.9972
-0.6886 0.0809 -0.0183 0.9972
-0.6867 0.0705 -0.0182 0.9972
-0.6775 0.0198 -0.0178 0.9973
-0.6464 0.0000 -0.0242 0.9974
-0.6492 -0.0189 -0.0243 0.9974
-0.6572 -0.0674 -0.0247 0.9974
-0.6588 -0.0773 -0.0248 0.9973
-0.6604 -0.0873 -0.0249 0.9973
-0.6637 -0.1076 -0.0252 0.9973
-0.6669 -0.1282 -0.0254 0.9973
-0.6701 -0.1492 -0.0257 0.9973
-0.6716 -0.1599 -0.0258 0.9972
-0.6765 -0.1927 -0.0263 0.9972
-0.6785 -0.2041 -0.0265 0.9972
-0.6842 -0.2278 -0.0270 0.9971
-0.6871 -0.2400 -0.0272 0.9971
-0.6929 -0.2650 -0.0278 0.9970
-0.6958 -0.2778 -0.0280 0.9970
-0.7015 -0.3042 -0.0286 0.9969
-0.7043 -0.3177 -0.0289 0.9969
-0.7071 -0.3314 -0.0292 0.9969
-0.7127 -0.3598 -0.0299 0.9968
-0.7153 -0.3744 -0.0302 0.9968
-0.7218 -0.4191 -0.0312 0.9967
-0.7240 -0.4346 -0.0316 0.9966
-0.7286 -0.4669 -0.0324 0.9965
-0.7309 -0.4836 -0.0328 0.9965
-0.7333 -0.5007 -0.0332 0.9965
-0.7357 -0.5182 -0.0337 0.9964
-0.7381 -0.5362 -0.0341 0.9964
-0.7540 -0.5648 -0.0353 0.9962
-20.6740 -16.4516 -0.9886 0.8996
-20.4330 -16.7534 -0.9887 0.8996
-19.6328 -17.0805 -0.9737 0.9011
-19.3828 -17.3670 -0.9738 0.9011
-19.1287 -17.6500 -0.9739 0.9011
-18.6080 -18.2045 -0.9740 0.9010
-18.3417 -18.4762 -0.9741 0.9010
-18.0714 -18.7439 -0.9742 0.9010
-17.7973 -19.0078 -0.9743 0.9010
-17.2376 -19.5234 -0.9745 0.9010
-16.3703 -20.2660 -0.9748 0.9010
-15.7743 -20.7398 -0.9750 0.9010
-14.2258 -21.8475 -0.9755 0.9009
-13.9065 -22.0554 -0.9756 0.9009
-13.5842 -22.2587 -0.9757 0.9009
-13.2590 -22.4572 -0.9758 0.9009
-12.2663 -23.0245 -0.9761 0.9008
-11.9299 -23.2038 -0.9763 0.9008
-11.5909 -23.3784 -0.9764 0.9008
-11.2494 -23.5480 -0.9765 0.9008
-10.9054 -23.7127 -0.9766 0.9008
-10.5590 -23.8722 -0.9767 0.9008
-10.2103 -24.0268 -0.9768 0.9008
-9.1509 -24.4600 -0.9772 0.9007
-8.7935 -24.5939 -0.9773 0.9007
-8.0731 -24.8465 -0.9775 0.9007
-7.7101 -24.9649 -0.9777 0.9007
-7.3455 -25.0780 -0.9778 0.9007
-6.2418 -25.3852 -0.9781 0.9007
-5.8709 -25.4770 -0.9783 0.9006
-4.3749 -25.7895 -0.9788 0.9006
-3.9981 -25.8540 -0.9789 0.9006
-2.8623 -26.0143 -0.9793 0.9005
-2.4823 -26.0567 -0.9794 0.9005
-2.1016 -26.0936 -0.9795 0.9005
-1.3386 -26.1506 -0.9798 0.9005
-0.9565 -26.1707 -0.9799 0.9005
-0.2026 -9.2415 -0.3459 0.9637
0.1997 -9.1081 -0.3409 0.9642
0.3323 -9.0904 -0.3404 0.9642
0.5992 -9.0988 -0.3412 0.9642
0.7326 -9.0956 -0.3414 0.9641
0.8662 -9.0924 -0.3418 0.9641
1.1344 -9.0860 -0.3426 0.9640
1.4041 -9.0795 -0.3438 0.9639
1.5397 -9.0763 -0.3445 0.9638
1.6759 -9.0730 -0.3452 0.9637
0.8780 -4.0816 -0.1562 0.9834
0.9310 -4.0400 -0.1551 0.9835
1.0858 -3.9184 -0.1521 0.9839
1.1362 -3.8789 -0.1512 0.9840
1.0966 -3.3748 -0.1328 0.9859
1.1685 -3.4250 -0.1354 0.9856
1.1715 -3.2764 -0.1302 0.9862
1.2384 -3.3100 -0.1322 0.9860
1.2853 -3.2881 -0.1321 0.9860
1.3786 -3.3804 -0.1366 0.9855
1.4523 -3.4174 -0.1389 0.9852
1.5059 -3.4044 -0.1393 0.9852
1.5786 -3.0702 -0.1292 0.9863
1.8776 -3.2888 -0.1417 0.9850
2.3269 -3.4617 -0.1561 0.9834
6.1750 -8.9030 -0.4054 0.9576
6.3699 -8.9034 -0.4096 0.9571
6.5689 -8.9037 -0.4140 0.9567
6.9803 -8.9045 -0.4234 0.9557
7.4110 -8.9052 -0.4335 0.9547
7.6343 -8.9055 -0.4389 0.9541
7.8633 -8.9059 -0.4445 0.9536
8.0330 -8.8345 -0.4468 0.9533
8.3779 -8.6897 -0.4517 0.9528
9.8101 -9.5974 -0.5135 0.9465
9.8607 -9.0984 -0.5020 0.9477
9.9264 -8.8941 -0.4987 0.9480
10.0869 -8.7755 -0.5003 0.9479
10.2651 -8.6704 -0.5028 0.9476
5.4292 -4.3203 -0.2596 0.9726
5.3643 -4.1421 -0.2536 0.9732
5.1773 -3.2118 -0.2280 0.9759
5.5114 -3.1999 -0.2385 0.9748
5.6820 -2.9739 -0.2400 0.9747
6.0195 -2.9299 -0.2505 0.9736
7.4858 -3.5091 -0.3093 0.9674
7.6025 -3.4293 -0.3121 0.9672
7.9385 -3.1699 -0.3198 0.9664
7.9232 -3.0303 -0.3174 0.9666
7.5823 -2.6486 -0.3005 0.9684
8.7056 -2.7584 -0.3417 0.9641
8.8362 -2.6584 -0.3453 0.9637
8.9697 -2.5562 -0.3490 0.9634
9.1064 -2.4519 -0.3529 0.9630
12.6867 -3.2179 -0.4897 0.9490
12.5564 -2.6050 -0.4798 0.9500
13.6340 -2.6215 -0.5195 0.9459
16.5863 -2.9384 -0.6303 0.9348
16.8195 -2.7269 -0.6376 0.9341
23.8978 -3.1610 -0.9020 0.9080
26.7697 -1.9593 -1.0043 0.8981
26.7957 -1.5679 -1.0043 0.8981
26.8304 -0.7843 -1.0044 0.8981
26.8391 -0.3921 -1.0044 0.8981
26.8420 0.0000 -1.0044 0.8981
26.8161 1.1762 -1.0043 0.8981
26.7957 1.5680 -1.0043 0.8981
26.7698 1.9593 -1.0043 0.8981
26.7005 2.7406 -1.0043 0.8981
26.6572 3.1304 -1.0043 0.8981
23.5055 3.4593 -0.8890 0.9093
21.9976 3.5666 -0.8338 0.9147
17.3350 3.3331 -0.6605 0.9318
13.1946 2.9392 -0.5058 0.9473
10.8186 2.9130 -0.4192 0.9561
10.4433 2.9763 -0.4063 0.9575
7.8755 2.4955 -0.3091 0.9675
7.5378 2.5102 -0.2973 0.9687
7.3046 2.5517 -0.2895 0.9695
6.9397 2.6543 -0.2780 0.9707
6.7385 2.9219 -0.2748 0.9710
6.7404 3.0405 -0.2767 0.9708
6.7433 3.1612 -0.2787 0.9706
6.7468 3.2839 -0.2808 0.9704
5.0104 3.0078 -0.2187 0.9769
4.7259 3.0284 -0.2100 0.9778
4.6070 3.0480 -0.2067 0.9781
4.2145 3.1571 -0.1970 0.9791
4.1240 3.1845 -0.1950 0.9794
3.9695 3.2547 -0.1921 0.9797
3.9837 3.3649 -0.1951 0.9793
4.0136 3.5962 -0.2016 0.9787
4.0292 3.7178 -0.2051 0.9783
4.0977 4.2502 -0.2209 0.9766
4.1165 4.3964 -0.2253 0.9762
2.6692 3.1137 -0.1535 0.9837
2.5302 3.1323 -0.1507 0.9840
2.2641 3.1647 -0.1456 0.9845
2.1375 3.1801 -0.1434 0.9848
1.8992 3.2167 -0.1398 0.9852
1.7869 3.2392 -0.1384 0.9853
1.7316 3.2502 -0.1378 0.9854
1.6767 3.2613 -0.1372 0.9854
1.5684 3.2830 -0.1361 0.9855
1.4077 3.3127 -0.1347 0.9857
1.3549 3.3223 -0.1343 0.9857
1.3024 3.3320 -0.1339 0.9858
1.2597 3.3672 -0.1345 0.9857
1.3046 3.8242 -0.1512 0.9840
1.4095 4.5637 -0.1787 0.9811
1.4857 5.0724 -0.1978 0.9791
1.6050 5.7918 -0.2249 0.9762
6.6456 25.4198 -0.9831 0.9002
5.8986 25.5970 -0.9829 0.9002
5.5233 25.6774 -0.9828 0.9002
4.7693 25.8217 -0.9825 0.9002
4.3910 25.8854 -0.9824 0.9002
4.0119 25.9435 -0.9823 0.9003
2.1062 26.1505 -0.9817 0.9003
0.6179 9.3836 -0.3519 0.9631
1.3408 26.1944 -0.9814 0.9003
0.5747 26.2156 -0.9812 0.9004
-0.1915 26.2145 -0.9809 0.9004
-0.9572 26.1909 -0.9806 0.9004
-0.5601 8.5063 -0.3190 0.9665
-2.4842 26.0767 -0.9801 0.9005
-2.8645 26.0343 -0.9800 0.9005
-3.2442 25.9862 -0.9799 0.9005
-3.6230 25.9326 -0.9798 0.9005
-4.3781 25.8088 -0.9795 0.9005
-5.8752 25.4957 -0.9790 0.9006
-6.2463 25.4039 -0.9789 0.9006
-7.7156 24.9825 -0.9783 0.9006
-8.0787 24.8639 -0.9782 0.9006
-8.7995 24.6108 -0.9780 0.9007
-9.1570 24.4765 -0.9778 0.9007
-9.8658 24.1924 -0.9776 0.9007
-10.2170 24.0426 -0.9775 0.9007
-11.9372 23.2181 -0.9769 0.9008
-12.2736 23.0384 -0.9767 0.9008
-13.2666 22.4701 -0.9764 0.9008
-13.5918 22.2711 -0.9763 0.9008
-15.1722 21.2070 -0.9757 0.9009
-15.4787 20.9806 -0.9756 0.9009
-16.0814 20.5145 -0.9753 0.9009
-16.3775 20.2750 -0.9752 0.9009
-18.3481 18.4827 -0.9745 0.9010
-19.1346 17.6555 -0.9742 0.9010
-19.3885 17.3723 -0.9741 0.9010
-19.8841 16.7951 -0.9739 0.9011
-0.8644 0.6675 -0.0409 0.9956
-0.7357 0.5183 -0.0337 0.9964
-0.7333 0.5007 -0.0332 0.9965
-0.7286 0.4669 -0.0324 0.9965
-0.7241 0.4347 -0.0316 0.9966
-0.7218 0.4191 -0.0312 0.9967
-0.7196 0.4039 -0.0309 0.9967
-0.7174 0.3890 -0.0305 0.9967
-0.7153 0.3744 -0.0302 0.9968
-0.7127 0.3599 -0.0299 0.9968
-0.7098 0.3455 -0.0295 0.9968
-0.7071 0.3315 -0.0292 0.9969
-0.6988 0.2910 -0.0283 0.9970
-0.6958 0.2779 -0.0280 0.9970
-0.6929 0.2650 -0.0278 0.9970
-0.6899 0.2524 -0.0275 0.9971
-0.6871 0.2401 -0.0272 0.9971
-0.6814 0.2159 -0.0267 0.9971
-0.6765 0.1928 -0.0263 0.9972
-0.6748 0.1817 -0.0262 0.9972
-0.6733 0.1708 -0.0260 0.9972
-0.6717 0.1600 -0.0258 0.9972
-0.6669 0.1283 -0.0254 0.9973
-0.6653 0.1179 -0.0253 0.9973
-0.6637 0.1077 -0.0252 0.9973
-0.6621 0.0975 -0.0250 0.9973
-0.6522 0.0382 -0.0244 0.9974
-0.6208 0.0000 -0.0301 0.9975
-0.6221 -0.0090 -0.0302 0.9975
-0.6246 -0.0274 -0.0303 0.9975
-0.6258 -0.0366 -0.0304 0.9975
-0.6300 -0.0646 -0.0307 0.9975
-0.6329 -0.0837 -0.0310 0.9974
-0.6344 -0.0934 -0.0311 0.9974
-0.6427 -0.1530 -0.0321 0.9974
-0.6482 -0.1950 -0.0328 0.9973
-0.6539 -0.2284 -0.0336 0.9972
-0.6663 -0.2889 -0.0352 0.9971
-0.6689 -0.3017 -0.0356 0.9971
-0.6740 -0.3280 -0.0364 0.9970
-0.6766 -0.3416 -0.0368 0.9970
-0.6862 -0.3984 -0.0385 0.9968
-0.6879 -0.4129 -0.0389 0.9968
-0.6896 -0.4277 -0.0394 0.9968
-0.6930 -0.4585 -0.0403 0.9967
-0.6982 -0.5073 -0.0419 0.9965
-0.6999 -0.5243 -0.0424 0.9965
-0.7017 -0.5418 -0.0430 0.9965
-0.7346 -0.5846 -0.0456 0.9962
-14.9702 -13.4133 -0.9753 0.9227
-14.5738 -13.8468 -0.9754 0.9226
-14.3303 -14.0196 -0.9727 0.9229
-14.1249 -14.2285 -0.9728 0.9228
-13.9165 -14.4344 -0.9728 0.9228
-13.7051 -14.6373 -0.9729 0.9228
-13.0534 -15.2272 -0.9731 0.9228
-12.8668 -15.4611 -0.9760 0.9226
-12.6405 -15.6487 -0.9760 0.9226
-12.4115 -15.8329 -0.9761 0.9226
-12.1797 -16.0138 -0.9762 0.9226
-11.7085 -16.3655 -0.9763 0.9226
-11.4690 -16.5361 -0.9764 0.9226
-10.9828 -16.8670 -0.9766 0.9226
-10.7360 -17.0271 -0.9767 0.9226
-10.2356 -17.3364 -0.9768 0.9225
-9.2087 -17.9111 -0.9772 0.9225
-8.1496 -18.4250 -0.9775 0.9225
-7.0620 -18.8765 -0.9779 0.9225
-6.5086 -19.0784 -0.9781 0.9224
-5.9495 -19.2641 -0.9782 0.9224
-4.8159 -19.5863 -0.9786 0.9224
-4.2424 -19.7225 -0.9788 0.9224
-3.9541 -19.7842 -0.9789 0.9224
-3.6650 -19.8418 -0.9790 0.9224
-3.3750 -19.8952 -0.9791 0.9224
-2.7928 -19.9893 -0.9793 0.9224
-2.5006 -20.0299 -0.9794 0.9223
-2.2079 -20.0663 -0.9795 0.9223
-1.9147 -20.0984 -0.9796 0.9223
-1.6210 -20.1262 -0.9797 0.9223
-0.2014 -9.1879 -0.4459 0.9639
0.0663 -9.0758 -0.4404 0.9643
0.1960 -8.9413 -0.4339 0.9648
0.7311 -9.0766 -0.4418 0.9642
0.9980 -9.0702 -0.4427 0.9641
1.1320 -9.0670 -0.4433 0.9641
1.2664 -9.0638 -0.4440 0.9640
1.0887 -3.9286 -0.1978 0.9838
1.1890 -3.8497 -0.1955 0.9840
1.1258 -3.4648 -0.1768 0.9855
1.2460 -3.3304 -0.1725 0.9859
1.2951 -3.3134 -0.1726 0.9859
1.3874 -3.4020 -0.1783 0.9854
1.5176 -3.4309 -0.1820 0.9851
1.5368 -3.3413 -0.1784 0.9854
1.5165 -3.1743 -0.1707 0.9860
1.5729 -3.1723 -0.1718 0.9859
1.6984 -3.0787 -0.1706 0.9860
1.8853 -3.3023 -0.1845 0.9849
1.9269 -3.2635 -0.1839 0.9849
1.9950 -3.1639 -0.1815 0.9851
6.5654 -8.8990 -0.5366 0.9567
6.9765 -8.8996 -0.5487 0.9557
7.6304 -8.9009 -0.5688 0.9541
7.9871 -8.7841 -0.5760 0.9536
8.3018 -8.6107 -0.5803 0.9532
9.8175 -9.6046 -0.6664 0.9465
9.8631 -9.1007 -0.6511 0.9477
10.0737 -8.7641 -0.6479 0.9479
5.0143 -4.2353 -0.3185 0.9741
5.0336 -4.1271 -0.3158 0.9743
5.3062 -3.9748 -0.3217 0.9738
5.0216 -3.5374 -0.2980 0.9757
5.2443 -3.3604 -0.3022 0.9754
5.2654 -3.2664 -0.3006 0.9755
5.2632 -2.9538 -0.2928 0.9761
5.4181 -2.9375 -0.2990 0.9756
7.7032 -3.4747 -0.4100 0.9667
7.6613 -3.3219 -0.4052 0.9671
8.0458 -3.2128 -0.4203 0.9659
8.2855 -3.1689 -0.4304 0.9651
8.3821 -2.9281 -0.4308 0.9651
8.7139 -2.9018 -0.4456 0.9639
12.6183 -3.2005 -0.6316 0.9492
12.5750 -2.9947 -0.6272 0.9495
12.4901 -2.5913 -0.6189 0.9502
16.5345 -2.9293 -0.8147 0.9350
20.0776 -3.2552 -0.9869 0.9218
20.1234 -2.9616 -0.9869 0.9218
20.1647 -2.6672 -0.9869 0.9218
20.5492 -2.1092 -1.0023 0.9206
20.6490 -0.6036 -1.0023 0.9206
20.6379 0.9053 -1.0023 0.9206
20.5160 2.4092 -1.0023 0.9206
20.4363 3.0077 -1.0022 0.9206
20.3390 3.6034 -1.0022 0.9206
13.8369 2.8707 -0.6857 0.9450
13.2609 2.9540 -0.6592 0.9470
12.8018 3.2471 -0.6408 0.9485
7.8643 2.4920 -0.4003 0.9675
7.5044 2.4991 -0.3838 0.9688
7.2829 2.5442 -0.3743 0.9696
6.9348 2.6524 -0.3602 0.9707
6.7352 2.9205 -0.3562 0.9710
6.7390 3.1591 -0.3611 0.9706
6.6165 3.3409 -0.3596 0.9708
6.5906 3.4496 -0.3609 0.9706
6.6545 3.6079 -0.3673 0.9701
5.2965 2.9726 -0.2947 0.9760
5.1302 2.9787 -0.2878 0.9765
4.8362 3.0002 -0.2761 0.9775
4.7074 3.0164 -0.2713 0.9779
4.4802 3.0591 -0.2632 0.9785
4.3779 3.0841 -0.2598 0.9788
4.1027 3.1680 -0.2515 0.9795
4.0147 3.1948 -0.2489 0.9797
3.9661 3.3500 -0.2519 0.9794
3.9952 3.5798 -0.2603 0.9787
4.0105 3.7005 -0.2648 0.9784
4.0596 4.0894 -0.2796 0.9772
4.0966 4.3752 -0.2908 0.9763
4.1436 4.6931 -0.3037 0.9752
2.5185 3.1179 -0.1945 0.9841
2.4495 3.1248 -0.1926 0.9842
2.3814 3.1310 -0.1909 0.9844
2.3157 3.1388 -0.1893 0.9845
2.2514 3.1469 -0.1877 0.9846
2.1880 3.1547 -0.1863 0.9847
2.1256 3.1624 -0.1849 0.9849
2.0644 3.1704 -0.1836 0.9850
1.9462 3.1889 -0.1813 0.9852
1.8893 3.1999 -0.1803 0.9852
1.7777 3.2224 -0.1786 0.9854
1.6141 3.2555 -0.1763 0.9856
1.5612 3.2680 -0.1757 0.9856
1.4550 3.2894 -0.1745 0.9857
1.2972 3.3186 -0.1729 0.9858
1.2595 3.3664 -0.1744 0.9857
1.2479 3.4900 -0.1798 0.9853
1.3437 4.1355 -0.2110 0.9827
1.3998 4.5323 -0.2302 0.9812
1.4757 5.0381 -0.2547 0.9792
1.5692 5.6628 -0.2851 0.9767
5.1207 19.5868 -0.9823 0.9221
3.3841 19.9486 -0.9817 0.9222
3.0919 19.9941 -0.9816 0.9222
2.5059 20.0720 -0.9814 0.9222
0.6162 9.3568 -0.4550 0.9631
0.4816 9.4085 -0.4571 0.9630
-0.1476 20.2093 -0.9806 0.9223
-0.4428 20.2030 -0.9805 0.9223
-0.7380 20.1923 -0.9804 0.9223
-0.5598 8.5023 -0.4134 0.9665
-1.9154 20.1066 -0.9800 0.9223
-2.5016 20.0380 -0.9798 0.9223
-3.9556 19.7920 -0.9793 0.9224
-4.2440 19.7300 -0.9792 0.9224
-4.5313 19.6640 -0.9791 0.9224
-5.1030 19.5193 -0.9789 0.9224
-5.3871 19.4406 -0.9788 0.9224
-5.6700 19.3579 -0.9787 0.9224
-5.9516 19.2710 -0.9786 0.9224
-6.2320 19.1802 -0.9785 0.9224
-6.5109 19.0851 -0.9784 0.9224
-6.7884 18.9861 -0.9783 0.9224
-7.6116 18.6648 -0.9780 0.9224
-8.1522 18.4308 -0.9778 0.9225
-8.4198 18.3080 -0.9777 0.9225
-9.9847 17.4903 -0.9772 0.9225
-10.2383 17.3409 -0.9771 0.9225
-11.4714 16.5398 -0.9766 0.9226
-11.7108 16.3688 -0.9765 0.9226
-12.1819 16.0167 -0.9764 0.9226
-12.4135 15.8356 -0.9763 0.9226
-12.6425 15.6512 -0.9762 0.9226
-12.8687 15.4634 -0.9761 0.9226
-13.7454 14.6803 -0.9758 0.9226
-14.1662 14.2701 -0.9756 0.9226
-14.5749 13.8480 -0.9755 0.9226
-14.9709 13.4141 -0.9753 0.9227
-15.1642 13.1929 -0.9752 0.9227
-15.3542 12.9689 -0.9752 0.9227
-0.8410 0.6896 -0.0528 0.9957
-0.7346 0.5846 -0.0455 0.9962
-0.7017 0.5419 -0.0430 0.9965
-0.6947 0.4744 -0.0408 0.9966
-0.6930 0.4586 -0.0403 0.9967
-0.6913 0.4430 -0.0398 0.9967
-0.6845 0.3842 -0.0381 0.9969
-0.6766 0.3417 -0.0368 0.9970
-0.6638 0.2764 -0.0349 0.9971
-0.6613 0.2641 -0.0346 0.9972
-0.6564 0.2402 -0.0339 0.9972
-0.6539 0.2285 -0.0336 0.9972
-0.6517 0.2171 -0.0333 0.9973
-0.6500 0.2060 -0.0331 0.9973
-0.6482 0.1951 -0.0328 0.9973
-0.6441 0.1634 -0.0322 0.9973
-0.6427 0.1531 -0.0321 0.9974
-0.6414 0.1429 -0.0319 0.9974
-0.6400 0.1328 -0.0317 0.9974
-0.6386 0.1229 -0.0316 0.9974
-0.6358 0.1031 -0.0313 0.9974
-0.6344 0.0934 -0.0311 0.9974
-0.6285 0.0553 -0.0306 0.9975
-0.6258 0.0366 -0.0304 0.9975
-0.6246 0.0274 -0.0303 0.9975
-0.6221 0.0091 -0.0302 0.9975
-0.5971 0.0000 -0.0356 0.9976
-0.5995 -0.0175 -0.0358 0.9976
-0.6028 -0.0441 -0.0360 0.9976
-0.6050 -0.0620 -0.0363 0.9976
-0.6126 -0.1177 -0.0372 0.9975
-0.6196 -0.1765 -0.0384 0.9974
-0.6280 -0.2402 -0.0401 0.9973
-0.6321 -0.2632 -0.0408 0.9973
-0.6342 -0.2750 -0.0412 0.9972
-0.6405 -0.3117 -0.0425 0.9971
-0.6513 -0.3781 -0.0449 0.9970
-0.6569 -0.4209 -0.0465 0.9969
-0.6593 -0.4502 -0.0476 0.9968
-0.6618 -0.4808 -0.0488 0.9967
-0.6630 -0.4966 -0.0494 0.9967
-0.6653 -0.5295 -0.0507 0.9966
-0.6665 -0.5465 -0.0514 0.9966
-0.7163 -0.6050 -0.0559 0.9962
-12.1572 -10.8930 -0.9734 0.9367
-11.9974 -11.0700 -0.9735 0.9367
-11.5027 -11.5871 -0.9736 0.9367
-11.1605 -11.9196 -0.9737 0.9367
-10.8087 -12.2421 -0.9739 0.9367
-10.4477 -12.5543 -0.9740 0.9366
-9.8894 -13.0025 -0.9742 0.9366
-9.5065 -13.2877 -0.9743 0.9366
-9.3119 -13.4261 -0.9744 0.9366
-8.3099 -14.0747 -0.9747 0.9366
-7.8962 -14.3135 -0.9748 0.9366
-7.6867 -14.4284 -0.9749 0.9366
-7.4756 -14.5402 -0.9750 0.9366
-7.0486 -14.7546 -0.9751 0.9366
-6.3967 -15.0526 -0.9753 0.9366
-6.1765 -15.1456 -0.9754 0.9366
-5.2978 -15.5291 -0.9785 0.9364
-4.8425 -15.6797 -0.9786 0.9364
-4.1517 -15.8805 -0.9788 0.9363
-3.9195 -15.9408 -0.9789 0.9363
-3.4526 -16.0511 -0.9791 0.9363
-3.2180 -16.1010 -0.9791 0.9363
-2.5099 -16.2305 -0.9794 0.9363
-2.2727 -16.2667 -0.9795 0.9363
-2.0349 -16.2995 -0.9795 0.9363
-1.5580 -16.3546 -0.9797 0.9363
-1.0796 -16.3959 -0.9799 0.9363
-0.2003 -9.1398 -0.5452 0.9640
-0.0663 -9.0763 -0.5413 0.9643
0.0654 -8.9543 -0.5340 0.9648
0.1944 -8.8682 -0.5290 0.9651
0.7295 -9.0577 -0.5419 0.9642
0.8626 -9.0545 -0.5424 0.9642
0.9959 -9.0512 -0.5430 0.9642
1.1296 -9.0480 -0.5438 0.9641
1.5332 -9.0381 -0.5467 0.9639
1.6688 -9.0347 -0.5479 0.9639
1.8050 -9.0313 -0.5492 0.9638
0.9360 -4.0615 -0.2486 0.9834
0.9885 -4.0201 -0.2469 0.9835
1.0403 -3.9792 -0.2453 0.9837
1.1284 -3.4727 -0.2177 0.9855
1.1200 -3.2829 -0.2069 0.9862
1.1859 -3.3164 -0.2100 0.9860
1.2537 -3.3511 -0.2134 0.9858
1.3963 -3.4238 -0.2205 0.9853
1.4713 -3.4621 -0.2243 0.9850
1.5486 -3.3671 -0.2210 0.9853
1.5845 -3.1958 -0.2127 0.9858
1.6015 -3.1149 -0.2089 0.9861
1.6180 -3.0369 -0.2052 0.9863
1.6891 -3.0618 -0.2085 0.9861
1.8875 -3.3062 -0.2270 0.9849
1.9563 -3.2054 -0.2239 0.9851
1.9900 -3.1559 -0.2225 0.9852
2.3411 -3.4830 -0.2503 0.9833
6.3632 -8.8941 -0.6521 0.9571
6.9727 -8.8948 -0.6740 0.9557
7.1876 -8.8980 -0.6821 0.9552
7.9825 -8.7790 -0.7076 0.9536
8.1025 -8.6535 -0.7069 0.9536
9.8845 -9.3915 -0.8131 0.9468
9.8975 -9.1324 -0.8031 0.9475
5.2899 -4.3372 -0.4079 0.9730
5.1889 -3.8870 -0.3866 0.9744
5.3351 -3.8762 -0.3933 0.9739
5.0085 -3.4198 -0.3617 0.9760
5.1036 -3.3765 -0.3649 0.9758
5.2750 -3.3801 -0.3736 0.9752
4.9779 -3.0880 -0.3493 0.9768
5.1219 -3.0747 -0.3562 0.9763
5.2719 -3.0609 -0.3635 0.9759
5.4103 -3.0364 -0.3700 0.9754
5.3718 -2.9124 -0.3644 0.9758
5.5209 -2.8897 -0.3716 0.9753
5.5837 -2.8194 -0.3730 0.9752
7.3071 -3.5565 -0.4846 0.9680
7.7469 -3.3591 -0.5035 0.9667
8.2755 -3.3045 -0.5314 0.9649
8.3239 -3.1836 -0.5314 0.9649
7.3321 -2.6821 -0.4656 0.9692
9.2962 -2.9455 -0.5815 0.9617
9.3061 -2.7998 -0.5795 0.9618
12.4291 -3.5421 -0.7707 0.9495
12.2286 -3.2926 -0.7552 0.9505
13.3363 -2.7669 -0.8122 0.9469
16.2304 -3.1207 -0.9856 0.9359
16.6065 -2.4439 -1.0010 0.9350
16.6711 -1.9577 -1.0010 0.9350
16.7413 -1.2253 -1.0010 0.9349
16.7575 -0.9805 -1.0010 0.9349
16.7845 0.2453 -1.0010 0.9349
16.7791 0.4905 -1.0010 0.9349
16.7576 0.9806 -1.0010 0.9349
16.7215 1.4698 -1.0010 0.9349
16.6712 1.9577 -1.0010 0.9349
16.6065 2.4440 -1.0010 0.9350
16.5688 2.6864 -1.0010 0.9350
16.5276 2.9281 -1.0009 0.9350
16.4828 3.1693 -1.0009 0.9350
14.1157 3.5804 -0.8684 0.9433
10.5272 3.0002 -0.6528 0.9571
7.8672 2.4929 -0.4921 0.9675
7.4736 2.4888 -0.4697 0.9689
6.8051 2.7173 -0.4370 0.9711
6.7351 2.8042 -0.4351 0.9712
6.7227 3.1515 -0.4428 0.9707
6.6111 3.2178 -0.4385 0.9710
6.5451 3.3048 -0.4372 0.9710
6.5131 3.4090 -0.4384 0.9710
5.2538 2.9486 -0.3593 0.9761
4.9496 2.9713 -0.3442 0.9771
4.6889 3.0047 -0.3321 0.9779
4.5742 3.0263 -0.3271 0.9783
4.4644 3.0484 -0.3224 0.9786
4.0816 3.1517 -0.3075 0.9795
3.9943 3.1785 -0.3044 0.9798
3.9416 3.2318 -0.3039 0.9798
3.9487 3.3352 -0.3082 0.9795
3.9626 3.4475 -0.3132 0.9792
3.9919 3.6834 -0.3239 0.9785
4.0816 4.3592 -0.3561 0.9764
4.1042 4.5137 -0.3638 0.9759
2.7147 3.0746 -0.2446 0.9837
2.6441 3.0845 -0.2423 0.9839
2.5742 3.0932 -0.2400 0.9840
2.5040 3.0999 -0.2376 0.9842
2.3676 3.1129 -0.2332 0.9845
2.3026 3.1211 -0.2313 0.9846
2.1760 3.1373 -0.2277 0.9848
2.0536 3.1539 -0.2244 0.9850
1.9364 3.1730 -0.2217 0.9852
1.8798 3.1839 -0.2205 0.9853
1.5533 3.2515 -0.2149 0.9857
1.2605 3.6948 -0.2328 0.9845
1.3351 4.1091 -0.2576 0.9828
1.4658 5.0043 -0.3110 0.9793
1.6475 6.3018 -0.3884 0.9742
3.9306 15.9857 -0.9817 0.9362
3.6963 16.0402 -0.9816 0.9362
3.4613 16.0912 -0.9815 0.9362
3.2256 16.1388 -0.9814 0.9362
2.9892 16.1830 -0.9814 0.9362
2.7522 16.2236 -0.9813 0.9362
2.5147 16.2609 -0.9812 0.9362
2.2766 16.2946 -0.9811 0.9362
1.7992 16.3516 -0.9810 0.9362
1.5600 16.3748 -0.9809 0.9362
0.6135 9.3161 -0.5567 0.9633
0.6006 16.4327 -0.9806 0.9362
-0.3602 16.4345 -0.9803 0.9363
-0.6003 16.4261 -0.9802 0.9363
-0.4351 8.5011 -0.5076 0.9665
-0.5596 8.4983 -0.5079 0.9664
-1.3192 16.3800 -0.9800 0.9363
-2.0353 16.3024 -0.9797 0.9363
-2.7470 16.1936 -0.9795 0.9363
-2.9830 16.1503 -0.9794 0.9363
-3.2185 16.1038 -0.9793 0.9363
-3.6870 16.0001 -0.9791 0.9363
-5.2985 15.5312 -0.9786 0.9364
-5.9725 15.2805 -0.9784 0.9364
-6.1947 15.1903 -0.9783 0.9364
-6.4155 15.0970 -0.9782 0.9364
-6.6348 15.0004 -0.9781 0.9364
-6.8528 14.9007 -0.9780 0.9364
-7.9191 14.3551 -0.9777 0.9364
-9.1413 13.6002 -0.9772 0.9364
-9.7265 13.1838 -0.9770 0.9365
-10.1060 12.8920 -0.9769 0.9365
-10.2930 12.7426 -0.9768 0.9365
-10.4774 12.5900 -0.9768 0.9365
-10.6596 12.4348 -0.9767 0.9365
-10.8395 12.2770 -0.9766 0.9365
-11.0171 12.1166 -0.9766 0.9365
-11.1923 11.9536 -0.9765 0.9365
-11.3651 11.7880 -0.9765 0.9365
-11.7033 11.4496 -0.9764 0.9365
-12.0316 11.1016 -0.9762 0.9365
-0.8166 0.7105 -0.0645 0.9957
-0.7162 0.6050 -0.0559 0.9963
-0.6665 0.5465 -0.0514 0.9966
-0.6606 0.4654 -0.0482 0.9968
-0.6594 0.4502 -0.0476 0.9968
-0.6581 0.4355 -0.0471 0.9968
-0.6513 0.3782 -0.0449 0.9970
-0.6491 0.3643 -0.0444 0.9970
-0.6469 0.3508 -0.0439 0.9971
-0.6405 0.3118 -0.0425 0.9971
-0.6363 0.2871 -0.0416 0.9972
-0.6321 0.2632 -0.0408 0.9973
-0.6279 0.2402 -0.0401 0.9973
-0.6264 0.2292 -0.0398 0.9973
-0.6249 0.2184 -0.0395 0.9974
-0.6234 0.2076 -0.0392 0.9974
-0.6220 0.1971 -0.0389 0.9974
-0.6196 0.1766 -0.0384 0.9974
-0.6162 0.1468 -0.0378 0.9975
-0.6138 0.1274 -0.0374 0.9975
-0.6114 0.1083 -0.0370 0.9975
-0.6076 0.0804 -0.0366 0.9975
-0.6063 0.0712 -0.0364 0.9976
-0.6027 0.0441 -0.0360 0.9976
-0.6017 0.0352 -0.0359 0.9976
-0.6006 0.0264 -0.0359 0.9976
-0.5995 0.0176 -0.0358 0.9976
-0.5983 0.0088 -0.0357 0.9976
-0.5773 -0.0168 -0.0409 0.9977
-0.5813 -0.0511 -0.0413 0.9977
-0.5831 -0.0684 -0.0415 0.9976
-0.5853 -0.0861 -0.0419 0.9976
-0.5865 -0.0950 -0.0420 0.9976
-0.5886 -0.1131 -0.0424 0.9976
-0.5916 -0.1409 -0.0430 0.9976
-0.5926 -0.1503 -0.0433 0.9976
-0.5954 -0.1791 -0.0440 0.9975
-0.5963 -0.1889 -0.0443 0.9975
-0.5975 -0.1989 -0.0446 0.9975
-0.5987 -0.2091 -0.0449 0.9975
-0.6011 -0.2299 -0.0455 0.9974
-0.6035 -0.2512 -0.0463 0.9974
-0.6050 -0.2623 -0.0467 0.9974
-0.6068 -0.2737 -0.0471 0.9973
-0.6102 -0.2970 -0.0480 0.9973
-0.6119 -0.3090 -0.0485 0.9973
-0.6136 -0.3212 -0.0490 0.9972
-0.6153 -0.3336 -0.0495 0.9972
-0.6187 -0.3592 -0.0506 0.9971
-0.6204 -0.3724 -0.0512 0.9971
-0.6258 -0.4140 -0.0531 0.9970
-0.6289 -0.4569 -0.0550 0.9969
-0.6311 -0.5021 -0.0571 0.9968
-0.6317 -0.5179 -0.0578 0.9967
-0.6329 -0.5506 -0.0594 0.9966
-0.7910 -0.7298 -0.0762 0.9957
-9.7324 -10.0945 -0.9922 0.9453
-9.5843 -10.2362 -0.9923 0.9453
-8.9718 -10.7808 -0.9925 0.9453
-8.1779 -11.0847 -0.9747 0.9463
-8.0155 -11.2036 -0.9748 0.9463
-7.8513 -11.3202 -0.9748 0.9463
-7.6855 -11.4343 -0.9749 0.9463
-7.5180 -11.5461 -0.9750 0.9462
-6.8324 -11.9683 -0.9752 0.9462
-6.6571 -12.0676 -0.9752 0.9462
-6.3025 -12.2584 -0.9754 0.9462
-6.1230 -12.3500 -0.9754 0.9462
-5.9423 -12.4389 -0.9755 0.9462
-5.5770 -12.6087 -0.9756 0.9462
-5.3925 -12.6897 -0.9757 0.9462
-5.2069 -12.7679 -0.9757 0.9462
-4.6432 -12.9863 -0.9759 0.9462
-3.2945 -13.3987 -0.9764 0.9462
-2.9019 -13.4910 -0.9765 0.9462
-1.3094 -13.7448 -0.9770 0.9461
-0.7059 -13.7918 -0.9772 0.9461
-0.3575 -9.7816 -0.6926 0.9615
-0.2003 -9.1361 -0.6466 0.9640
-0.0663 -9.0708 -0.6419 0.9643
0.0652 -8.9123 -0.6307 0.9649
0.1937 -8.8357 -0.6254 0.9652
0.3223 -8.8179 -0.6244 0.9652
0.4531 -8.8502 -0.6271 0.9651
0.5903 -8.9641 -0.6357 0.9646
0.8622 -9.0507 -0.6433 0.9642
0.9955 -9.0477 -0.6441 0.9642
1.6685 -9.0331 -0.6500 0.9638
1.8048 -9.0301 -0.6516 0.9637
1.9418 -9.0271 -0.6534 0.9637
0.9385 -4.0723 -0.2957 0.9834
0.9911 -4.0307 -0.2937 0.9835
1.0431 -3.9896 -0.2918 0.9836
1.0944 -3.9492 -0.2900 0.9837
1.1451 -3.9092 -0.2882 0.9838
1.1952 -3.8696 -0.2866 0.9839
1.1268 -3.3029 -0.2469 0.9861
1.1932 -3.3369 -0.2508 0.9859
1.2616 -3.3721 -0.2548 0.9857
1.3323 -3.4084 -0.2590 0.9854
1.4810 -3.4849 -0.2679 0.9849
1.5606 -3.3933 -0.2643 0.9851
1.5140 -3.0534 -0.2412 0.9864
1.6133 -3.1377 -0.2497 0.9860
1.6296 -3.0588 -0.2452 0.9862
1.6454 -2.9825 -0.2410 0.9864
1.8826 -3.2977 -0.2687 0.9849
1.9849 -3.1479 -0.2633 0.9852
2.2796 -3.5008 -0.2956 0.9834
8.0593 -11.2648 -0.9801 0.9460
8.1156 -10.3528 -0.9308 0.9486
8.2540 -10.2182 -0.9295 0.9487
9.3398 -10.5783 -0.9986 0.9450
8.1380 -8.6915 -0.8425 0.9534
8.3643 -8.6755 -0.8528 0.9528
9.9438 -10.0166 -0.9988 0.9450
10.2332 -9.7227 -0.9988 0.9450
10.6509 -9.2662 -0.9990 0.9450
5.1682 -3.9907 -0.4621 0.9742
5.1816 -3.8816 -0.4581 0.9744
5.2217 -3.7937 -0.4567 0.9745
5.3492 -3.7682 -0.4630 0.9741
5.1602 -3.5234 -0.4421 0.9753
4.9843 -3.1937 -0.4189 0.9765
5.1582 -2.9948 -0.4221 0.9764
5.2136 -2.9260 -0.4231 0.9763
5.3222 -2.7856 -0.4251 0.9762
7.0900 -3.5799 -0.5620 0.9687
7.2403 -3.5240 -0.5698 0.9682
7.0431 -3.3016 -0.5504 0.9693
7.5535 -3.4072 -0.5864 0.9673
7.6666 -3.3243 -0.5913 0.9670
8.3140 -3.3198 -0.6335 0.9647
8.4831 -3.2445 -0.6427 0.9642
9.0712 -3.1688 -0.6799 0.9622
9.0822 -3.0245 -0.6774 0.9623
12.8141 -4.0602 -0.9512 0.9475
12.5259 -3.3726 -0.9179 0.9493
13.5831 -3.0257 -0.9847 0.9457
13.6260 -2.8270 -0.9847 0.9457
13.6660 -2.6277 -0.9847 0.9457
13.9509 -2.2619 -1.0001 0.9449
14.0597 -1.4430 -1.0001 0.9449
14.0794 -1.2375 -1.0001 0.9449
14.0961 -1.0316 -1.0001 0.9449
14.1325 -0.2065 -1.0001 0.9449
14.0794 1.2375 -1.0001 0.9449
14.0371 1.6484 -1.0001 0.9449
13.9827 2.0579 -1.0001 0.9449
13.9510 2.2619 -1.0001 0.9449
13.9162 2.4655 -1.0001 0.9449
13.8786 2.6685 -1.0001 0.9449
13.8379 2.8710 -1.0000 0.9449
11.2484 3.3841 -0.8312 0.9540
7.9753 2.5271 -0.5920 0.9670
7.5809 2.5246 -0.5654 0.9685
7.3156 2.5556 -0.5483 0.9694
7.1268 2.6071 -0.5370 0.9700
6.9517 2.6589 -0.5267 0.9706
6.7401 2.8064 -0.5166 0.9711
6.7286 2.9176 -0.5190 0.9710
4.7978 2.9764 -0.3995 0.9776
4.6706 2.9929 -0.3925 0.9780
4.5580 3.0155 -0.3867 0.9783
4.4488 3.0377 -0.3812 0.9786
4.1490 3.1081 -0.3668 0.9794
3.9740 3.1623 -0.3594 0.9798
3.9293 3.2216 -0.3595 0.9798
3.9313 3.3205 -0.3641 0.9796
4.0249 4.0545 -0.4042 0.9774
4.0454 4.1959 -0.4124 0.9769
4.0889 4.4968 -0.4301 0.9759
2.7018 3.0601 -0.2889 0.9838
2.5588 3.0748 -0.2831 0.9841
2.4209 3.0883 -0.2777 0.9844
2.2897 3.1036 -0.2729 0.9847
2.1034 3.1294 -0.2668 0.9850
2.0430 3.1377 -0.2649 0.9851
1.8148 3.1789 -0.2590 0.9854
1.7596 3.1897 -0.2578 0.9855
1.7050 3.2004 -0.2566 0.9856
1.6511 3.2114 -0.2555 0.9856
1.5455 3.2352 -0.2537 0.9857
1.4935 3.2475 -0.2529 0.9858
1.2868 3.2920 -0.2501 0.9859
1.2518 3.6694 -0.2743 0.9846
1.3248 4.0773 -0.3034 0.9830
1.4559 4.9706 -0.3665 0.9794
1.6511 6.3154 -0.4619 0.9742
3.3112 13.4668 -0.9813 0.9459
2.9159 13.5559 -0.9812 0.9459
1.5159 13.7765 -0.9807 0.9459
1.3143 13.7962 -0.9807 0.9459
1.1125 13.8130 -0.9806 0.9459
0.4764 9.3074 -0.6595 0.9633
0.1012 13.8527 -0.9803 0.9460
-0.1012 13.8517 -0.9802 0.9460
-0.5058 13.8409 -0.9801 0.9460
-0.4349 8.4971 -0.6021 0.9665
-1.1116 13.8027 -0.9799 0.9460
-1.5143 13.7624 -0.9797 0.9460
-1.9155 13.7104 -0.9796 0.9460
-2.1155 13.6800 -0.9795 0.9460
-2.3150 13.6467 -0.9795 0.9460
-2.5140 13.6105 -0.9794 0.9460
-3.1074 13.4845 -0.9792 0.9460
-3.4996 13.3860 -0.9791 0.9460
-3.8886 13.2762 -0.9789 0.9460
-4.2744 13.1555 -0.9788 0.9460
-4.4659 13.0908 -0.9788 0.9460
-4.8459 12.9530 -0.9786 0.9461
-5.4079 12.7259 -0.9784 0.9461
-5.7767 12.5608 -0.9783 0.9461
-5.9592 12.4743 -0.9783 0.9461
-6.8518 12.0023 -0.9780 0.9461
-7.0260 11.9003 -0.9779 0.9461
-7.7074 11.4669 -0.9777 0.9461
-8.0383 11.2355 -0.9776 0.9461
-8.2011 11.1163 -0.9775 0.9461
-8.6790 10.7445 -0.9774 0.9461
-8.8346 10.6159 -0.9773 0.9461
-9.2899 10.2170 -0.9772 0.9461
-9.4377 10.0796 -0.9771 0.9461
-9.7273 9.7986 -0.9770 0.9461
-9.8689 9.6549 -0.9770 0.9461
-0.6317 0.5180 -0.0578 0.9967
-0.6310 0.5023 -0.0571 0.9968
-0.6258 0.4141 -0.0531 0.9970
-0.6240 0.3999 -0.0524 0.9970
-0.6222 0.3860 -0.0518 0.9971
-0.6170 0.3463 -0.0501 0.9972
-0.6153 0.3337 -0.0495 0.9972
-0.6136 0.3212 -0.0490 0.9972
-0.6119 0.3090 -0.0485 0.9973
-0.6023 0.2405 -0.0459 0.9974
-0.5999 0.2195 -0.0452 0.9974
-0.5945 0.1695 -0.0437 0.9975
-0.5936 0.1598 -0.0435 0.9975
-0.5926 0.1504 -0.0433 0.9976
-0.5864 0.0951 -0.0420 0.9976
-0.5831 0.0685 -0.0415 0.9976
-0.5822 0.0598 -0.0414 0.9977
-0.5803 0.0425 -0.0412 0.9977
-0.5773 0.0169 -0.0409 0.9977
-0.5548 0.0000 -0.0454 0.9978
-0.5558 -0.0081 -0.0455 0.9978
-0.5595 -0.0409 -0.0460 0.9978
-0.5604 -0.0492 -0.0461 0.9977
-0.5620 -0.0660 -0.0464 0.9977
-0.5645 -0.0915 -0.0468 0.9977
-0.5654 -0.1002 -0.0470 0.9977
-0.5663 -0.1089 -0.0472 0.9977
-0.5673 -0.1177 -0.0475 0.9977
-0.5714 -0.1628 -0.0487 0.9976
-0.5721 -0.1721 -0.0489 0.9976
-0.5746 -0.2007 -0.0499 0.9976
-0.5784 -0.2408 -0.0513 0.9975
-0.5802 -0.2617 -0.0521 0.9974
-0.5826 -0.2835 -0.0531 0.9974
-0.5839 -0.2948 -0.0536 0.9974
-0.5879 -0.3300 -0.0552 0.9973
-0.5892 -0.3421 -0.0558 0.9973
-0.5905 -0.3545 -0.0564 0.9972
-0.5918 -0.3671 -0.0570 0.9972
-0.5945 -0.3933 -0.0584 0.9971
-0.5958 -0.4068 -0.0591 0.9971
-0.5995 -0.4491 -0.0614 0.9970
-0.5998 -0.4631 -0.0621 0.9970
-0.6003 -0.4922 -0.0636 0.9969
-0.6008 -0.5383 -0.0661 0.9968
-0.6009 -0.5545 -0.0670 0.9967
-0.6766 -0.6429 -0.0764 0.9963
-8.4117 -8.7247 -0.9927 0.9525
-7.8890 -9.2028 -0.9928 0.9525
-7.6175 -9.4302 -0.9929 0.9525
-7.4792 -9.5410 -0.9930 0.9525
-7.1979 -9.7563 -0.9931 0.9525
-6.4681 -10.2582 -0.9933 0.9525
-6.3178 -10.3522 -0.9934 0.9525
-6.1662 -10.4439 -0.9934 0.9525
-6.0133 -10.5334 -0.9935 0.9525
-5.8590 -10.6207 -0.9935 0.9525
-5.5468 -10.7885 -0.9936 0.9525
-5.3888 -10.8689 -0.9937 0.9525
-5.2297 -10.9471 -0.9937 0.9525
-5.0695 -11.0230 -0.9938 0.9525
-4.8194 -10.8957 -0.9759 0.9533
-4.1755 -11.1611 -0.9761 0.9533
-4.0122 -11.2215 -0.9761 0.9533
-3.5172 -11.3885 -0.9763 0.9533
-3.3506 -11.4393 -0.9763 0.9533
-3.1833 -11.4877 -0.9764 0.9533
-3.0153 -11.5336 -0.9764 0.9533
-2.8466 -11.5771 -0.9765 0.9533
-2.1659 -11.7264 -0.9767 0.9533
-1.9945 -11.7575 -0.9768 0.9533
-1.8226 -11.7860 -0.9768 0.9533
-1.6503 -11.8121 -0.9769 0.9533
-1.4776 -11.8357 -0.9770 0.9533
-1.3046 -11.8567 -0.9770 0.9533
-0.9577 -11.8911 -0.9771 0.9532
-0.7839 -11.9046 -0.9772 0.9532
-0.4357 -11.9237 -0.9773 0.9532
-0.2006 -9.1504 -0.7497 0.9639
0.1937 -8.8331 -0.7237 0.9652
0.3222 -8.8151 -0.7225 0.9652
0.4529 -8.8480 -0.7257 0.9651
0.5904 -8.9654 -0.7359 0.9646
0.7292 -9.0532 -0.7439 0.9642
0.8622 -9.0503 -0.7446 0.9642
0.9955 -9.0473 -0.7455 0.9641
1.1292 -9.0445 -0.7466 0.9641
1.2632 -9.0416 -0.7478 0.9640
1.3978 -9.0386 -0.7491 0.9640
1.8048 -9.0297 -0.7542 0.9637
1.1481 -3.9194 -0.3345 0.9837
1.1983 -3.8796 -0.3326 0.9838
1.1337 -3.3231 -0.2876 0.9860
1.2006 -3.3577 -0.2921 0.9858
1.2696 -3.3934 -0.2968 0.9856
1.3408 -3.4303 -0.3017 0.9853
1.5540 -3.5132 -0.3147 0.9847
1.5728 -3.4198 -0.3083 0.9850
1.5267 -3.0792 -0.2815 0.9863
1.6252 -3.1610 -0.2911 0.9858
1.6415 -3.0810 -0.2859 0.9861
1.9122 -3.2387 -0.3081 0.9850
1.9463 -3.1890 -0.3060 0.9851
6.7951 -10.1094 -0.9977 0.9523
6.9424 -10.0095 -0.9978 0.9523
7.0882 -9.9075 -0.9978 0.9523
7.2326 -9.8033 -0.9979 0.9523
7.5167 -9.5887 -0.9979 0.9523
7.6563 -9.4783 -0.9980 0.9523
8.0654 -9.1350 -0.9981 0.9523
8.8366 -8.3957 -0.9984 0.9523
8.9587 -8.2661 -0.9984 0.9523
9.3134 -7.8665 -0.9985 0.9523
5.1847 -4.1258 -0.5427 0.9738
5.0968 -3.9356 -0.5274 0.9745
5.1535 -3.5188 -0.5111 0.9753
4.9912 -3.3021 -0.4902 0.9763
5.1301 -3.2873 -0.4991 0.9758
5.2511 -3.2575 -0.5061 0.9755
5.3243 -3.0912 -0.5043 0.9756
5.4067 -3.0343 -0.5078 0.9754
5.9610 -3.0098 -0.5470 0.9736
5.9643 -2.9029 -0.5433 0.9737
5.9675 -2.7974 -0.5398 0.9739
7.3382 -3.3101 -0.6594 0.9682
8.4563 -3.3767 -0.7458 0.9641
8.8635 -3.2423 -0.7730 0.9628
8.8754 -3.1004 -0.7700 0.9630
11.6011 -3.1236 -0.9841 0.9529
11.7623 -2.6202 -0.9870 0.9528
12.0970 -1.6000 -0.9995 0.9522
12.1192 -1.4232 -0.9995 0.9522
12.1387 -1.2459 -0.9995 0.9522
12.1701 -0.8907 -0.9995 0.9522
12.1818 -0.7128 -0.9995 0.9522
12.1910 -0.5347 -0.9995 0.9522
12.2027 0.0000 -0.9995 0.9522
12.2014 0.1783 -0.9995 0.9522
12.1976 0.3566 -0.9995 0.9522
12.1819 0.7129 -0.9995 0.9522
12.1557 1.0685 -0.9995 0.9522
12.1192 1.4232 -0.9995 0.9522
12.0150 2.1286 -0.9994 0.9522
11.9824 2.3039 -0.9994 0.9522
11.9474 2.4788 -0.9994 0.9522
11.9097 2.6530 -0.9994 0.9522
11.8267 2.9998 -0.9994 0.9522
11.7815 3.1722 -0.9994 0.9522
11.7337 3.3440 -0.9994 0.9522
7.7167 2.5698 -0.6662 0.9679
6.9963 2.6759 -0.6135 0.9704
6.8390 2.7309 -0.6032 0.9709
6.7452 2.8085 -0.5985 0.9711
6.7253 2.9162 -0.6004 0.9710
6.6403 3.1129 -0.6007 0.9710
6.5445 3.1855 -0.5962 0.9712
6.4824 3.2732 -0.5948 0.9713
5.1863 2.9108 -0.4871 0.9764
4.9096 2.9473 -0.4690 0.9773
4.7788 2.9646 -0.4606 0.9777
4.6536 2.9820 -0.4527 0.9781
4.5419 3.0049 -0.4460 0.9784
4.1276 3.0920 -0.4224 0.9795
4.0398 3.1195 -0.4180 0.9797
3.9141 3.3060 -0.4196 0.9796
3.9274 3.4168 -0.4264 0.9793
3.8294 3.5334 -0.4268 0.9793
3.8065 3.7239 -0.4362 0.9789
4.0108 4.0402 -0.4663 0.9774
2.6245 3.0615 -0.3303 0.9839
2.5520 3.0666 -0.3268 0.9841
2.4812 3.0716 -0.3234 0.9843
2.3434 3.0811 -0.3171 0.9846
2.2790 3.0891 -0.3144 0.9847
2.2157 3.0970 -0.3119 0.9848
2.0925 3.1131 -0.3072 0.9851
2.0326 3.1215 -0.3051 0.9852
1.9738 3.1304 -0.3031 0.9853
1.8059 3.1634 -0.2984 0.9855
1.6967 3.1846 -0.2956 0.9856
1.4861 3.2313 -0.2913 0.9858
1.2816 3.2789 -0.2884 0.9860
1.2269 3.4313 -0.2985 0.9855
1.2442 3.6470 -0.3156 0.9847
1.3730 4.4456 -0.3811 0.9815
1.6539 6.3260 -0.5356 0.9741
2.3473 11.7446 -0.9810 0.9531
2.0029 11.8068 -0.9809 0.9531
1.6569 11.8590 -0.9808 0.9531
1.1354 11.9181 -0.9806 0.9531
0.9611 11.9327 -0.9805 0.9531
0.6082 9.2355 -0.7581 0.9635
0.4739 9.2576 -0.7593 0.9635
0.4372 11.9612 -0.9804 0.9531
-0.2622 11.9635 -0.9801 0.9531
-0.4370 11.9577 -0.9801 0.9531
-0.4347 8.4930 -0.6966 0.9664
-0.5590 8.4903 -0.6969 0.9664
-1.1345 11.9090 -0.9799 0.9531
-1.3083 11.8904 -0.9798 0.9531
-1.4818 11.8693 -0.9797 0.9531
-1.6550 11.8457 -0.9797 0.9531
-2.0002 11.7909 -0.9796 0.9531
-2.1721 11.7598 -0.9795 0.9531
-2.3435 11.7261 -0.9795 0.9531
-2.5145 11.6899 -0.9794 0.9531
-2.8547 11.6101 -0.9793 0.9531
-3.0239 11.5665 -0.9792 0.9532
-3.1923 11.5204 -0.9792 0.9532
-4.5122 11.0645 -0.9787 0.9532
-4.8330 10.9267 -0.9786 0.9532
-4.9919 10.8544 -0.9786 0.9532
-5.3064 10.7028 -0.9785 0.9532
-5.6162 10.5420 -0.9784 0.9532
-5.9212 10.3723 -0.9783 0.9532
-6.0719 10.2841 -0.9782 0.9532
-6.2212 10.1939 -0.9782 0.9532
-6.5157 10.0067 -0.9781 0.9532
-6.6610 9.9100 -0.9780 0.9532
-6.9470 9.7101 -0.9779 0.9532
-7.2066 9.4752 -0.9751 0.9533
-7.3439 9.3684 -0.9750 0.9533
-7.6138 9.1489 -0.9749 0.9534
-8.0064 8.8053 -0.9748 0.9534
-8.1338 8.6870 -0.9748 0.9534
-8.2596 8.5669 -0.9747 0.9534
-8.3835 8.4449 -0.9747 0.9534
-0.6766 0.6429 -0.0764 0.9963
-0.6003 0.4923 -0.0636 0.9969
-0.5998 0.4632 -0.0621 0.9970
-0.5971 0.4207 -0.0598 0.9971
-0.5958 0.4068 -0.0591 0.9971
-0.5944 0.3934 -0.0584 0.9971
-0.5931 0.3801 -0.0577 0.9972
-0.5918 0.3672 -0.0570 0.9972
-0.5906 0.3546 -0.0564 0.9972
-0.5892 0.3422 -0.0558 0.9973
-0.5879 0.3300 -0.0552 0.9973
-0.5839 0.2949 -0.0536 0.9974
-0.5825 0.2836 -0.0531 0.9974
-0.5811 0.2725 -0.0526 0.9974
-0.5793 0.2512 -0.0517 0.9975
-0.5774 0.2306 -0.0509 0.9975
-0.5765 0.2205 -0.0506 0.9975
-0.5736 0.1910 -0.0495 0.9976
-0.5729 0.1816 -0.0492 0.9976
-0.5681 0.1266 -0.0477 0.9977
-0.5673 0.1177 -0.0475 0.9977
-0.5654 0.1002 -0.0470 0.9977
-0.5645 0.0916 -0.0468 0.9977
-0.5635 0.0830 -0.0467 0.9977
-0.5620 0.0660 -0.0464 0.9977
-0.5603 0.0493 -0.0461 0.9977
-0.5577 0.0245 -0.0457 0.9978
-0.5357 0.0000 -0.0499 0.9979
-0.5366 -0.0078 -0.0500 0.9978
-0.5375 -0.0157 -0.0501 0.9978
-0.5392 -0.0316 -0.0503 0.9978
-0.5400 -0.0395 -0.0504 0.9978
-0.5437 -0.0800 -0.0511 0.9978
-0.5443 -0.0882 -0.0513 0.9978
-0.5449 -0.0965 -0.0515 0.9978
-0.5457 -0.1049 -0.0517 0.9978
-0.5465 -0.1134 -0.0520 0.9978
-0.5506 -0.1656 -0.0535 0.9977
-0.5511 -0.1746 -0.0538 0.9977
-0.5523 -0.1929 -0.0544 0.9977
-0.5553 -0.2312 -0.0560 0.9976
-0.5567 -0.2511 -0.0568 0.9975
-0.5573 -0.2612 -0.0573 0.9975
-0.5604 -0.3038 -0.0593 0.9974
-0.5661 -0.3745 -0.0632 0.9973
-0.5670 -0.3871 -0.0639 0.9972
-0.5688 -0.4132 -0.0654 0.9972
-0.5696 -0.4266 -0.0662 0.9971
-0.5704 -0.4405 -0.0671 0.9971
-0.5712 -0.4545 -0.0679 0.9971
-0.5719 -0.4689 -0.0688 0.9970
-0.5717 -0.4829 -0.0697 0.9970
-0.5716 -0.4972 -0.0705 0.9970
-0.5713 -0.5119 -0.0714 0.9969
-0.5702 -0.5578 -0.0742 0.9968
-0.6549 -0.6597 -0.0865 0.9963
-7.2923 -7.7883 -0.9930 0.9580
-6.9448 -8.1013 -0.9932 0.9580
-6.8259 -8.2022 -0.9932 0.9580
-6.5839 -8.3988 -0.9933 0.9580
-6.4607 -8.4945 -0.9933 0.9580
-6.3362 -8.5884 -0.9934 0.9580
-6.0830 -8.7705 -0.9934 0.9580
-5.6936 -9.0299 -0.9936 0.9580
-5.2931 -9.2720 -0.9937 0.9580
-5.0204 -9.4235 -0.9938 0.9580
-4.1771 -9.8297 -0.9941 0.9580
-3.8885 -9.9484 -0.9942 0.9580
-3.7429 -10.0047 -0.9942 0.9580
-3.4493 -10.1108 -0.9943 0.9580
-3.3014 -10.1606 -0.9944 0.9580
-3.0034 -10.2537 -0.9945 0.9580
-2.8534 -10.2971 -0.9945 0.9580
-2.3998 -10.4138 -0.9947 0.9580
-2.0946 -10.4805 -0.9948 0.9580
-1.9414 -10.5105 -0.9948 0.9580
-1.6336 -10.5639 -0.9949 0.9580
-1.4792 -10.5872 -0.9950 0.9580
-0.7026 -10.6696 -0.9952 0.9580
-0.3905 -10.6867 -0.9953 0.9579
-0.2344 -10.6918 -0.9954 0.9579
-0.0781 -10.6947 -0.9954 0.9579
0.0655 -8.9549 -0.8335 0.9647
0.1943 -8.8620 -0.8250 0.9650
0.3232 -8.8422 -0.8235 0.9651
0.4546 -8.8805 -0.8276 0.9649
0.8589 -10.6637 -0.9957 0.9579
1.1702 -10.6352 -0.9958 0.9579
1.6354 -10.5754 -0.9960 0.9579
1.7899 -10.5509 -0.9961 0.9579
2.2509 -10.4639 -0.9962 0.9579
2.4036 -10.4305 -0.9963 0.9579
0.9964 -4.0523 -0.3884 0.9834
1.1407 -3.3436 -0.3288 0.9859
1.2081 -3.3787 -0.3340 0.9857
1.2776 -3.4149 -0.3394 0.9855
1.4239 -3.4913 -0.3509 0.9850
1.5578 -3.5219 -0.3584 0.9846
1.5708 -3.2880 -0.3392 0.9855
1.5397 -3.1055 -0.3226 0.9862
1.9749 -3.1320 -0.3446 0.9852
5.9782 -8.8941 -0.9974 0.9579
6.3630 -8.6247 -0.9976 0.9579
6.4886 -8.5312 -0.9976 0.9579
6.7357 -8.3387 -0.9977 0.9579
6.8571 -8.2396 -0.9977 0.9578
7.2125 -7.9322 -0.9978 0.9578
7.4417 -7.7186 -0.9979 0.9578
7.6647 -7.4984 -0.9980 0.9578
7.9867 -7.1561 -0.9981 0.9578
8.1930 -6.9202 -0.9982 0.9578
8.2935 -6.8000 -0.9982 0.9578
5.2171 -3.6752 -0.5940 0.9747
5.2224 -3.3464 -0.5773 0.9754
5.3288 -3.1989 -0.5785 0.9753
5.7760 -3.1315 -0.6115 0.9740
5.8300 -3.0514 -0.6125 0.9739
5.9184 -2.8806 -0.6126 0.9739
6.1490 -2.7737 -0.6278 0.9733
8.1630 -3.3987 -0.8230 0.9651
8.4373 -3.3691 -0.8456 0.9642
8.0925 -3.0951 -0.8064 0.9658
8.6751 -3.1734 -0.8598 0.9636
10.2045 -2.7476 -0.9836 0.9584
10.3283 -2.6196 -0.9917 0.9581
10.4405 -2.4863 -0.9989 0.9578
10.4759 -2.3336 -0.9989 0.9578
10.5089 -2.1803 -0.9989 0.9578
10.5947 -1.7177 -0.9990 0.9578
10.6405 -1.4074 -0.9990 0.9578
10.6600 -1.2518 -0.9990 0.9578
10.6773 -1.0959 -0.9990 0.9578
10.6922 -0.9398 -0.9990 0.9578
10.7152 -0.6270 -0.9990 0.9578
10.7232 -0.4704 -0.9990 0.9578
10.7289 -0.3136 -0.9990 0.9578
10.7324 -0.1568 -0.9990 0.9578
10.7336 0.0001 -0.9990 0.9578
10.7324 0.1569 -0.9990 0.9578
10.7232 0.4704 -0.9990 0.9578
10.7152 0.6270 -0.9990 0.9578
10.7048 0.7835 -0.9990 0.9578
10.6773 1.0959 -0.9990 0.9578
10.6188 1.5628 -0.9990 0.9578
10.5947 1.7178 -0.9990 0.9578
10.5684 1.8723 -0.9990 0.9578
10.5090 2.1804 -0.9989 0.9578
10.3212 2.9414 -0.9989 0.9578
10.2770 3.0919 -0.9989 0.9578
10.2305 3.2416 -0.9989 0.9578
8.2303 2.8751 -0.8114 0.9656
7.0935 2.7131 -0.7069 0.9700
6.8767 2.7460 -0.6892 0.9707
6.7549 2.8125 -0.6810 0.9710
6.7220 2.9148 -0.6819 0.9710
6.7238 3.0330 -0.6865 0.9708
6.4766 3.2703 -0.6753 0.9713
6.4421 3.3718 -0.6768 0.9712
5.3329 2.8914 -0.5646 0.9759
5.0289 2.9198 -0.5412 0.9769
4.8899 2.9355 -0.5308 0.9773
4.7599 2.9529 -0.5213 0.9777
4.5258 2.9943 -0.5051 0.9784
4.4178 3.0166 -0.4979 0.9787
4.3129 3.0382 -0.4910 0.9790
4.2107 3.0593 -0.4844 0.9793
3.9488 3.1424 -0.4697 0.9799
3.9006 3.3935 -0.4812 0.9794
3.8384 3.4392 -0.4797 0.9795
3.7583 3.5708 -0.4825 0.9794
3.8098 3.8377 -0.5033 0.9785
4.0370 4.3116 -0.5497 0.9766
4.0584 4.4634 -0.5615 0.9761
2.6237 3.0605 -0.3752 0.9839
2.5513 3.0657 -0.3712 0.9841
2.2751 3.0838 -0.3567 0.9847
2.2120 3.0917 -0.3538 0.9848
2.0885 3.1072 -0.3485 0.9851
1.9702 3.1247 -0.3438 0.9853
1.9128 3.1341 -0.3417 0.9854
1.8015 3.1556 -0.3382 0.9855
1.7467 3.1662 -0.3366 0.9856
1.6386 3.1871 -0.3335 0.9857
1.5865 3.2000 -0.3324 0.9858
1.5353 3.2137 -0.3315 0.9858
1.4325 3.2386 -0.3296 0.9859
1.2802 3.2753 -0.3273 0.9860
1.2444 3.3262 -0.3305 0.9858
1.2193 3.4102 -0.3371 0.9856
1.3051 4.0166 -0.3931 0.9832
1.3647 4.4189 -0.4305 0.9816
2.0655 10.3346 -0.9809 0.9585
1.9142 10.3632 -0.9809 0.9585
1.7625 10.3895 -0.9808 0.9585
1.4580 10.4355 -0.9807 0.9586
0.6055 9.1959 -0.8578 0.9637
0.4718 9.2171 -0.8590 0.9636
-0.5588 8.4863 -0.7916 0.9664
-0.8452 10.4947 -0.9799 0.9586
-1.4565 10.4253 -0.9797 0.9586
-1.6086 10.4023 -0.9797 0.9586
-1.7603 10.3772 -0.9796 0.9586
-1.9117 10.3498 -0.9796 0.9586
-2.3630 10.2545 -0.9794 0.9586
-2.8097 10.1396 -0.9793 0.9586
-3.1045 10.0521 -0.9792 0.9586
-3.3965 9.9562 -0.9791 0.9586
-3.5415 9.9049 -0.9791 0.9586
-4.1132 9.6793 -0.9789 0.9586
-4.3814 9.5270 -0.9760 0.9587
-4.5199 9.4615 -0.9760 0.9588
-4.6575 9.3940 -0.9759 0.9588
-4.7940 9.3245 -0.9759 0.9588
-5.0640 9.1796 -0.9758 0.9588
-5.7193 8.7835 -0.9756 0.9588
-5.9730 8.6119 -0.9755 0.9588
-6.0979 8.5233 -0.9754 0.9588
-6.3439 8.3408 -0.9754 0.9588
-6.4648 8.2469 -0.9753 0.9588
-6.8191 7.9547 -0.9752 0.9588
-6.9344 7.8539 -0.9752 0.9588
-7.1604 7.6473 -0.9751 0.9588
-0.6549 0.6597 -0.0865 0.9963
-0.5702 0.5578 -0.0742 0.9968
-0.5710 0.5269 -0.0723 0.9969
-0.5713 0.5119 -0.0714 0.9969
-0.5716 0.4973 -0.0705 0.9970
-0.5712 0.4546 -0.0679 0.9971
-0.5704 0.4405 -0.0671 0.9971
-0.5679 0.4001 -0.0647 0.9972
-0.5661 0.3745 -0.0632 0.9973
-0.5643 0.3501 -0.0618 0.9973
-0.5624 0.3266 -0.0605 0.9974
-0.5614 0.3151 -0.0599 0.9974
-0.5585 0.2820 -0.0582 0.9975
-0.5573 0.2613 -0.0573 0.9975
-0.5567 0.2512 -0.0568 0.9975
-0.5560 0.2411 -0.0564 0.9976
-0.5553 0.2312 -0.0560 0.9976
-0.5538 0.2119 -0.0552 0.9976
-0.5517 0.1837 -0.0541 0.9977
-0.5512 0.1747 -0.0538 0.9977
-0.5493 0.1480 -0.0530 0.9977
-0.5487 0.1392 -0.0527 0.9977
-0.5472 0.1220 -0.0522 0.9978
-0.5457 0.1049 -0.0517 0.9978
-0.5449 0.0966 -0.0515 0.9978
-0.5430 0.0718 -0.0510 0.9978
-0.5416 0.0557 -0.0507 0.9978
-0.5392 0.0316 -0.0503 0.9978
-0.5384 0.0236 -0.0502 0.9978
-0.5178 0.0000 -0.0540 0.9979
-0.5195 -0.0152 -0.0542 0.9979
-0.5204 -0.0228 -0.0543 0.9979
-0.5211 -0.0305 -0.0544 0.9979
-0.5219 -0.0382 -0.0546 0.9979
-0.5226 -0.0459 -0.0547 0.9979
-0.5239 -0.0616 -0.0550 0.9979
-0.5245 -0.0694 -0.0552 0.9979
-0.5251 -0.0773 -0.0553 0.9979
-0.5257 -0.0852 -0.0555 0.9979
-0.5262 -0.0932 -0.0557 0.9979
-0.5267 -0.1013 -0.0559 0.9978
-0.5278 -0.1176 -0.0564 0.9978
-0.5284 -0.1258 -0.0566 0.9978
-0.5290 -0.1341 -0.0569 0.9978
-0.5306 -0.1596 -0.0578 0.9978
-0.5314 -0.1769 -0.0584 0.9978
-0.5318 -0.1857 -0.0587 0.9977
-0.5328 -0.2038 -0.0595 0.9977
-0.5334 -0.2130 -0.0599 0.9977
-0.5340 -0.2223 -0.0603 0.9977
-0.5349 -0.2413 -0.0612 0.9976
-0.5358 -0.2608 -0.0621 0.9976
-0.5362 -0.2707 -0.0626 0.9976
-0.5365 -0.2808 -0.0631 0.9976
-0.5379 -0.3123 -0.0648 0.9975
-0.5385 -0.3232 -0.0655 0.9975
-0.5392 -0.3345 -0.0662 0.9975
-0.5403 -0.3574 -0.0676 0.9974
-0.5428 -0.4191 -0.0715 0.9972
-0.5432 -0.4323 -0.0724 0.9972
-0.5439 -0.4594 -0.0742 0.9971
-0.5442 -0.4734 -0.0752 0.9971
-0.5416 -0.5455 -0.0801 0.9969
-6.4093 -7.0489 -0.9933 0.9624
-6.3058 -7.1420 -0.9934 0.9624
-6.2010 -7.2336 -0.9934 0.9624
-6.0949 -7.3238 -0.9934 0.9624
-5.9874 -7.4123 -0.9935 0.9624
-5.8787 -7.4993 -0.9935 0.9624
-5.7687 -7.5846 -0.9935 0.9624
-5.4314 -7.8311 -0.9937 0.9624
-5.3166 -7.9098 -0.9937 0.9624
-5.0836 -8.0625 -0.9938 0.9624
-4.9654 -8.1362 -0.9938 0.9624
-4.7259 -8.2784 -0.9939 0.9624
-4.6047 -8.3470 -0.9939 0.9624
-4.4824 -8.4137 -0.9940 0.9624
-4.3592 -8.4786 -0.9940 0.9624
-4.2350 -8.5418 -0.9941 0.9624
-3.8571 -8.7202 -0.9942 0.9624
-3.7294 -8.7761 -0.9942 0.9624
-3.4717 -8.8821 -0.9943 0.9624
-3.2110 -8.9805 -0.9944 0.9624
-3.0795 -9.0268 -0.9944 0.9624
-2.9474 -9.0712 -0.9945 0.9624
-2.8147 -9.1137 -0.9945 0.9624
-2.4129 -9.2296 -0.9947 0.9624
-2.1424 -9.2970 -0.9947 0.9624
-1.8700 -9.3565 -0.9948 0.9624
-1.7332 -9.3832 -0.9949 0.9624
-1.5959 -9.4080 -0.9949 0.9624
-1.3205 -9.4515 -0.9950 0.9623
-0.6272 -9.5248 -0.9953 0.9623
-0.4880 -9.5334 -0.9953 0.9623
0.0698 -9.5474 -0.9955 0.9623
0.1960 -8.9411 -0.9325 0.9647
0.3258 -8.9144 -0.9301 0.9648
0.4595 -8.9758 -0.9371 0.9645
0.7667 -9.5191 -0.9957 0.9623
0.9057 -9.5073 -0.9958 0.9623
1.0446 -9.4935 -0.9958 0.9623
1.3217 -9.4598 -0.9959 0.9623
1.7352 -9.3940 -0.9960 0.9623
2.0091 -9.3402 -0.9961 0.9623
2.1455 -9.3102 -0.9962 0.9623
1.1031 -3.9805 -0.4307 0.9835
1.1991 -3.8825 -0.4237 0.9838
1.2014 -3.3600 -0.3720 0.9858
1.3534 -3.4624 -0.3876 0.9852
1.4343 -3.5169 -0.3960 0.9848
1.5530 -3.1323 -0.3645 0.9860
1.6376 -3.1850 -0.3734 0.9857
1.6454 -3.0884 -0.3649 0.9860
1.6813 -3.0476 -0.3629 0.9861
1.6963 -2.9713 -0.3567 0.9863
1.9364 -3.1728 -0.3876 0.9852
1.9698 -3.1240 -0.3851 0.9853
5.3355 -7.9379 -0.9972 0.9623
5.4511 -7.8595 -0.9973 0.9623
5.6789 -7.6973 -0.9973 0.9623
5.9018 -7.5287 -0.9974 0.9623
6.2267 -7.2636 -0.9975 0.9623
6.6413 -6.8885 -0.9977 0.9622
6.9375 -6.5914 -0.9978 0.9622
7.0333 -6.4895 -0.9978 0.9622
7.2204 -6.2817 -0.9979 0.9622
5.1274 -4.0802 -0.6832 0.9740
5.2338 -4.0414 -0.6894 0.9738
5.1634 -3.7514 -0.6654 0.9747
5.2153 -3.6739 -0.6651 0.9747
5.1931 -3.4357 -0.6492 0.9753
5.1192 -3.2802 -0.6339 0.9758
5.4111 -3.3568 -0.6639 0.9747
5.5082 -3.3066 -0.6698 0.9745
5.8199 -3.0462 -0.6849 0.9739
5.8639 -2.8541 -0.6800 0.9741
8.1881 -3.4091 -0.9248 0.9650
8.4184 -3.3616 -0.9451 0.9642
8.9021 -3.1097 -0.9832 0.9628
9.3481 -2.0823 -0.9986 0.9622
