ply
format ascii 1.0
element vertex 1596
property float32 x
property float32 y
property float32 z
property float32 I
end_header
0.5897 -3.1925 -0.9378 0.9866
0.6364 -3.1839 -0.9378 0.9866
0.6829 -3.1745 -0.9379 0.9866
0.7292 -3.1644 -0.9380 0.9866
0.7754 -3.1537 -0.9381 0.9866
0.8215 -3.1422 -0.9381 0.9866
0.9131 -3.1175 -0.9383 0.9866
1.0040 -3.0900 -0.9385 0.9866
1.0941 -3.0599 -0.9387 0.9866
1.1388 -3.0440 -0.9387 0.9866
1.3587 -2.9542 -0.9392 0.9866
1.4018 -2.9344 -0.9393 0.9866
1.5296 -2.8711 -0.9397 0.9865
1.6151 -2.8291 -0.9409 0.9865
1.6974 -2.7814 -0.9412 0.9865
1.7381 -2.7566 -0.9413 0.9865
1.7784 -2.7312 -0.9414 0.9865
1.8222 -2.7111 -0.9435 0.9865
1.8732 -2.7007 -0.9494 0.9864
1.9246 -2.6900 -0.9554 0.9863
2.0828 -2.5784 -0.9574 0.9863
2.1206 -2.5480 -0.9575 0.9863
2.1578 -2.5171 -0.9577 0.9863
2.1947 -2.4857 -0.9578 0.9863
2.2311 -2.4537 -0.9579 0.9863
2.2670 -2.4212 -0.9581 0.9863
2.3025 -2.3882 -0.9582 0.9863
2.3719 -2.3205 -0.9585 0.9863
2.5049 -2.1793 -0.9590 0.9863
2.5369 -2.1428 -0.9592 0.9863
2.5683 -2.1058 -0.9593 0.9863
2.6885 -1.9533 -0.9599 0.9863
2.7172 -1.9141 -0.9600 0.9863
2.7453 -1.8745 -0.9602 0.9863
2.7998 -1.7941 -0.9605 0.9863
2.8519 -1.7120 -0.9608 0.9862
2.8770 -1.6704 -0.9609 0.9862
2.9016 -1.6284 -0.9611 0.9862
2.9489 -1.5434 -0.9614 0.9862
2.9716 -1.5005 -0.9615 0.9862
3.0151 -1.4134 -0.9619 0.9862
3.0360 -1.3695 -0.9620 0.9862
3.0757 -1.2805 -0.9623 0.9862
3.1303 -1.1451 -0.9628 0.9862
3.1635 -1.0535 -0.9631 0.9862
3.2082 -0.9143 -0.9636 0.9862
3.2217 -0.8674 -0.9637 0.9862
3.2346 -0.8204 -0.9639 0.9862
3.2884 -0.5826 -0.9646 0.9862
3.2971 -0.5346 -0.9648 0.9862
3.3124 -0.4381 -0.9651 0.9862
3.3249 -0.3413 -0.9654 0.9862
3.3345 -0.2441 -0.9657 0.9862
3.3382 -0.1954 -0.9659 0.9862
3.3451 -0.0489 -0.9663 0.9862
3.3460 0.0000 -0.9665 0.9862
3.3461 0.0489 -0.9666 0.9862
3.3456 0.0978 -0.9668 0.9862
3.3443 0.1467 -0.9669 0.9862
3.3423 0.1956 -0.9671 0.9862
3.3362 0.2933 -0.9674 0.9862
3.3320 0.3420 -0.9675 0.9862
3.3272 0.3907 -0.9676 0.9861
3.3216 0.4394 -0.9678 0.9861
3.3153 0.4879 -0.9679 0.9861
3.3083 0.5364 -0.9681 0.9861
3.3006 0.5847 -0.9682 0.9861
3.2921 0.6330 -0.9683 0.9861
3.2268 0.9196 -0.9691 0.9861
3.1994 1.0137 -0.9694 0.9861
3.1846 1.0605 -0.9695 0.9861
3.1692 1.1071 -0.9697 0.9861
3.1188 1.2454 -0.9700 0.9861
3.0819 1.3363 -0.9703 0.9861
3.0215 1.4706 -0.9706 0.9861
3.0000 1.5148 -0.9707 0.9861
2.9779 1.5587 -0.9708 0.9861
2.9317 1.6453 -0.9711 0.9861
2.9077 1.6882 -0.9712 0.9861
2.8830 1.7307 -0.9713 0.9861
2.8318 1.8146 -0.9715 0.9861
2.7782 1.8970 -0.9717 0.9861
2.7504 1.9375 -0.9718 0.9861
2.7221 1.9777 -0.9719 0.9861
2.6931 2.0175 -0.9720 0.9861
2.6636 2.0568 -0.9720 0.9861
2.6335 2.0956 -0.9721 0.9861
2.5398 2.2096 -0.9724 0.9861
2.5075 2.2467 -0.9725 0.9861
2.4746 2.2833 -0.9725 0.9861
2.3377 2.4247 -0.9728 0.9861
2.2296 2.5253 -0.9730 0.9861
2.1926 2.5578 -0.9731 0.9861
2.0007 2.7118 -0.9734 0.9861
1.7978 2.8512 -0.9736 0.9861
1.7560 2.8773 -0.9736 0.9861
1.7138 2.9028 -0.9737 0.9861
1.6713 2.9276 -0.9737 0.9861
1.4088 3.0632 -0.9739 0.9861
1.3639 3.0835 -0.9739 0.9861
1.2275 3.1405 -0.9739 0.9861
1.0887 3.1912 -0.9739 0.9861
0.9950 3.2217 -0.9739 0.9861
0.8051 3.2742 -0.9739 0.9861
0.7572 3.2855 -0.9739 0.9861
0.7090 3.2963 -0.9739 0.9861
0.6608 3.3062 -0.9739 0.9861
0.6124 3.3155 -0.9739 0.9861
0.5639 3.3239 -0.9738 0.9861
0.5153 3.3318 -0.9738 0.9861
0.4176 3.3452 -0.9738 0.9861
0.2215 3.3634 -0.9736 0.9861
0.1723 3.3662 -0.9736 0.9861
0.1231 3.3682 -0.9735 0.9861
0.0739 3.3695 -0.9735 0.9861
0.0246 3.3700 -0.9734 0.9861
-0.0246 3.3698 -0.9734 0.9861
-0.1722 3.3650 -0.9732 0.9861
-0.2705 3.3581 -0.9731 0.9861
-0.4173 3.3423 -0.9729 0.9861
-0.4660 3.3357 -0.9729 0.9861
-0.6599 3.3018 -0.9726 0.9861
-0.7560 3.2805 -0.9724 0.9861
-0.8514 3.2565 -0.9722 0.9861
-0.9930 3.2152 -0.9720 0.9861
-1.1326 3.1677 -0.9717 0.9861
-1.1786 3.1504 -0.9716 0.9861
-0.2609 0.6675 -0.2070 0.9970
-0.2529 0.6200 -0.1934 0.9972
-0.2457 0.5781 -0.1814 0.9974
-0.2474 0.5595 -0.1767 0.9975
-0.2594 0.5232 -0.1687 0.9976
-0.2666 0.5003 -0.1637 0.9976
-0.2731 0.4785 -0.1591 0.9977
-0.2762 0.4679 -0.1569 0.9977
-0.2796 0.4581 -0.1550 0.9978
-0.2829 0.4488 -0.1532 0.9978
-0.2953 0.4129 -0.1466 0.9979
-0.3010 0.3957 -0.1436 0.9979
-0.3062 0.3791 -0.1408 0.9980
-0.3088 0.3711 -0.1394 0.9980
-0.3183 0.3400 -0.1345 0.9981
-0.3219 0.3243 -0.1320 0.9981
-0.3235 0.3165 -0.1307 0.9981
-0.3251 0.3089 -0.1295 0.9981
-0.3293 0.2864 -0.1261 0.9982
-0.3305 0.2792 -0.1250 0.9982
-0.3351 0.2510 -0.1209 0.9983
-0.3370 0.2374 -0.1191 0.9983
-0.3379 0.2307 -0.1182 0.9983
-0.3396 0.2176 -0.1165 0.9983
-0.3404 0.2111 -0.1157 0.9983
-0.3417 0.1984 -0.1141 0.9984
-0.3425 0.1922 -0.1134 0.9984
-0.3434 0.1862 -0.1128 0.9984
-0.3453 0.1744 -0.1117 0.9984
-0.3462 0.1685 -0.1112 0.9984
-0.3494 0.1395 -0.1087 0.9984
-0.3504 0.1282 -0.1078 0.9984
-0.3516 0.1114 -0.1065 0.9985
-0.3519 0.1059 -0.1062 0.9985
-0.3527 0.0895 -0.1051 0.9985
-0.3529 0.0840 -0.1048 0.9985
-0.3534 0.0626 -0.1037 0.9985
-0.3534 0.0520 -0.1032 0.9985
-0.3532 0.0362 -0.1026 0.9985
-0.3531 0.0311 -0.1024 0.9985
-0.3530 0.0258 -0.1022 0.9985
-0.3528 0.0206 -0.1021 0.9985
-0.3463 -0.0050 -0.1042 0.9986
-0.3466 -0.0102 -0.1043 0.9986
-0.3473 -0.0305 -0.1049 0.9985
-0.3474 -0.0357 -0.1051 0.9985
-0.3475 -0.0460 -0.1055 0.9985
-0.3475 -0.0616 -0.1062 0.9985
-0.3474 -0.0668 -0.1064 0.9985
-0.3467 -0.0880 -0.1076 0.9985
-0.3462 -0.0986 -0.1083 0.9985
-0.3448 -0.1204 -0.1099 0.9985
-0.3443 -0.1260 -0.1103 0.9985
-0.3439 -0.1315 -0.1108 0.9985
-0.3409 -0.1598 -0.1133 0.9984
-0.3382 -0.1770 -0.1148 0.9984
-0.3362 -0.1887 -0.1160 0.9984
-0.3337 -0.2070 -0.1182 0.9984
-0.3321 -0.2197 -0.1198 0.9983
-0.3312 -0.2261 -0.1207 0.9983
-0.3293 -0.2393 -0.1225 0.9983
-0.3248 -0.2663 -0.1264 0.9982
-0.3236 -0.2734 -0.1275 0.9982
-0.3223 -0.2804 -0.1285 0.9982
-0.3195 -0.2948 -0.1308 0.9982
-0.3180 -0.3021 -0.1320 0.9982
-0.3132 -0.3248 -0.1358 0.9981
-0.3091 -0.3399 -0.1382 0.9981
-0.3018 -0.3627 -0.1420 0.9980
-0.2966 -0.3784 -0.1446 0.9980
-0.2853 -0.4113 -0.1506 0.9979
-0.2791 -0.4286 -0.1539 0.9979
-0.2690 -0.4555 -0.1592 0.9978
-0.2653 -0.4648 -0.1610 0.9978
-0.2548 -0.4955 -0.1676 0.9977
-0.2348 -0.5527 -0.1807 0.9975
-0.2304 -0.5650 -0.1836 0.9975
-0.8753 -2.9883 -0.9369 0.9871
-0.8315 -3.0008 -0.9369 0.9871
-0.6992 -3.0345 -0.9370 0.9871
-0.6548 -3.0444 -0.9370 0.9871
-0.6103 -3.0537 -0.9370 0.9871
-0.5208 -3.0703 -0.9370 0.9871
-0.4759 -3.0777 -0.9371 0.9871
-0.4309 -3.0844 -0.9371 0.9871
-0.3858 -3.0905 -0.9371 0.9871
-0.3406 -3.0958 -0.9371 0.9871
-0.1592 -3.1109 -0.9373 0.9871
-0.1138 -3.1130 -0.9373 0.9871
-0.0683 -3.1145 -0.9373 0.9871
-0.0227 -3.1153 -0.9374 0.9871
0.0228 -3.1154 -0.9374 0.9871
0.0683 -3.1150 -0.9375 0.9871
0.1138 -3.1137 -0.9375 0.9871
0.1593 -3.1120 -0.9376 0.9871
0.2956 -3.1025 -0.9377 0.9871
0.3862 -3.0929 -0.9379 0.9871
0.4764 -3.0807 -0.9380 0.9871
0.5214 -3.0737 -0.9380 0.9871
0.6558 -3.0485 -0.9383 0.9871
0.7003 -3.0388 -0.9383 0.9871
0.7447 -3.0286 -0.9384 0.9871
0.8330 -3.0060 -0.9386 0.9871
0.8769 -2.9937 -0.9386 0.9871
0.9206 -2.9809 -0.9387 0.9871
0.9642 -2.9674 -0.9388 0.9871
1.0507 -2.9385 -0.9390 0.9870
1.0936 -2.9231 -0.9391 0.9870
1.1363 -2.9070 -0.9392 0.9870
1.1788 -2.8905 -0.9393 0.9870
1.2210 -2.8732 -0.9393 0.9870
1.3062 -2.8401 -0.9406 0.9870
1.3889 -2.8013 -0.9408 0.9870
1.4705 -2.7602 -0.9410 0.9870
1.5108 -2.7387 -0.9411 0.9870
1.5516 -2.7179 -0.9417 0.9870
1.5986 -2.7075 -0.9461 0.9870
1.6468 -2.6984 -0.9512 0.9869
1.6955 -2.6890 -0.9565 0.9868
1.7352 -2.6648 -0.9568 0.9868
1.8127 -2.6136 -0.9570 0.9868
1.8509 -2.5871 -0.9571 0.9868
1.9632 -2.5045 -0.9575 0.9868
1.9999 -2.4758 -0.9576 0.9868
2.0361 -2.4466 -0.9577 0.9868
2.1422 -2.3560 -0.9581 0.9868
2.2108 -2.2930 -0.9584 0.9868
2.2444 -2.2608 -0.9585 0.9868
2.4357 -2.0573 -0.9593 0.9868
2.4659 -2.0218 -0.9595 0.9868
2.4955 -1.9858 -0.9596 0.9868
2.5246 -1.9495 -0.9597 0.9868
2.5532 -1.9126 -0.9599 0.9868
2.5813 -1.8754 -0.9600 0.9868
2.7133 -1.6832 -0.9607 0.9868
2.7380 -1.6437 -0.9609 0.9867
2.8528 -1.4405 -0.9616 0.9867
2.8740 -1.3989 -0.9618 0.9867
2.9146 -1.3147 -0.9621 0.9867
2.9339 -1.2721 -0.9622 0.9867
2.9707 -1.1862 -0.9625 0.9867
3.0213 -1.0554 -0.9629 0.9867
3.0369 -1.0114 -0.9631 0.9867
3.0797 -0.8777 -0.9635 0.9867
3.0927 -0.8327 -0.9637 0.9867
3.1276 -0.6967 -0.9641 0.9867
3.1476 -0.6052 -0.9644 0.9867
3.1650 -0.5132 -0.9647 0.9867
3.1795 -0.4205 -0.9650 0.9867
3.1964 -0.2809 -0.9655 0.9867
3.2007 -0.2343 -0.9656 0.9867
3.2042 -0.1875 -0.9658 0.9867
3.2093 -0.0938 -0.9661 0.9867
3.2108 -0.0469 -0.9662 0.9867
3.2116 0.0000 -0.9663 0.9867
3.2112 0.0939 -0.9666 0.9867
3.2099 0.1409 -0.9668 0.9867
3.2080 0.1877 -0.9669 0.9867
3.2054 0.2346 -0.9670 0.9867
3.2021 0.2814 -0.9672 0.9867
3.1981 0.3283 -0.9673 0.9867
3.1934 0.3750 -0.9675 0.9867
3.1752 0.5148 -0.9679 0.9867
3.1678 0.5612 -0.9680 0.9867
3.1597 0.6075 -0.9681 0.9866
3.1509 0.6537 -0.9683 0.9866
3.1313 0.7457 -0.9685 0.9866
3.0969 0.8825 -0.9689 0.9866
3.0840 0.9279 -0.9690 0.9866
3.0705 0.9729 -0.9692 0.9866
3.0564 1.0178 -0.9693 0.9866
3.0099 1.1512 -0.9696 0.9866
2.9932 1.1952 -0.9698 0.9866
2.9757 1.2389 -0.9699 0.9866
2.9389 1.3257 -0.9701 0.9866
2.8996 1.4113 -0.9703 0.9866
2.8578 1.4958 -0.9705 0.9866
2.8135 1.5789 -0.9707 0.9866
2.7904 1.6201 -0.9708 0.9866
2.7667 1.6609 -0.9709 0.9866
2.7175 1.7414 -0.9711 0.9866
2.6921 1.7811 -0.9712 0.9866
2.6394 1.8593 -0.9714 0.9866
2.5561 1.9737 -0.9717 0.9866
2.5271 2.0110 -0.9718 0.9866
2.4977 2.0479 -0.9719 0.9866
2.4677 2.0844 -0.9719 0.9866
2.3099 2.2598 -0.9723 0.9866
2.2768 2.2935 -0.9724 0.9866
2.2432 2.3267 -0.9725 0.9866
2.2091 2.3594 -0.9725 0.9866
2.1746 2.3916 -0.9726 0.9866
2.1395 2.4232 -0.9726 0.9866
2.1040 2.4544 -0.9727 0.9866
2.0680 2.4850 -0.9728 0.9866
1.9575 2.5737 -0.9729 0.9866
1.8041 2.6841 -0.9731 0.9866
1.7251 2.7359 -0.9732 0.9866
1.6850 2.7609 -0.9732 0.9866
1.6445 2.7854 -0.9733 0.9866
1.5625 2.8324 -0.9733 0.9866
1.4792 2.8770 -0.9734 0.9866
1.4370 2.8984 -0.9734 0.9866
1.3518 2.9393 -0.9734 0.9866
1.3087 2.9588 -0.9735 0.9866
1.2653 2.9776 -0.9735 0.9866
1.2217 2.9958 -0.9735 0.9866
1.0893 3.0466 -0.9735 0.9866
0.9998 3.0771 -0.9735 0.9866
0.9547 3.0913 -0.9735 0.9866
0.8640 3.1179 -0.9735 0.9866
0.5876 3.1813 -0.9734 0.9866
0.4476 3.2037 -0.9734 0.9866
0.3538 3.2153 -0.9733 0.9866
0.2597 3.2241 -0.9732 0.9866
0.1654 3.2300 -0.9732 0.9866
0.1181 3.2320 -0.9731 0.9866
0.0709 3.2332 -0.9731 0.9866
-0.0236 3.2336 -0.9730 0.9866
-0.1181 3.2312 -0.9729 0.9866
-0.1653 3.2289 -0.9728 0.9866
-0.2124 3.2260 -0.9728 0.9866
-0.2595 3.2223 -0.9727 0.9866
-0.3065 3.2180 -0.9727 0.9866
-0.3535 3.2130 -0.9726 0.9866
-0.4472 3.2009 -0.9725 0.9866
-0.4939 3.1937 -0.9724 0.9866
-0.5404 3.1860 -0.9723 0.9866
-0.5869 3.1775 -0.9723 0.9866
-0.6794 3.1585 -0.9721 0.9866
-0.8170 3.1249 -0.9719 0.9866
-0.9978 3.0708 -0.9715 0.9866
-0.2451 0.6855 -0.2191 0.9970
-0.2383 0.6370 -0.2046 0.9972
-0.2304 0.5650 -0.1836 0.9975
-0.2349 0.5527 -0.1807 0.9975
-0.2392 0.5408 -0.1779 0.9975
-0.2433 0.5291 -0.1752 0.9976
-0.2473 0.5177 -0.1726 0.9976
-0.2511 0.5064 -0.1701 0.9976
-0.2583 0.4848 -0.1653 0.9977
-0.2654 0.4649 -0.1610 0.9978
-0.2690 0.4556 -0.1592 0.9978
-0.2724 0.4464 -0.1574 0.9978
-0.2822 0.4199 -0.1522 0.9979
-0.2883 0.4029 -0.1491 0.9979
-0.2939 0.3864 -0.1461 0.9980
-0.2966 0.3784 -0.1446 0.9980
-0.2992 0.3705 -0.1433 0.9980
-0.3091 0.3399 -0.1382 0.9981
-0.3131 0.3248 -0.1358 0.9981
-0.3180 0.3021 -0.1320 0.9982
-0.3209 0.2876 -0.1297 0.9982
-0.3236 0.2733 -0.1275 0.9982
-0.3249 0.2664 -0.1264 0.9982
-0.3283 0.2459 -0.1234 0.9983
-0.3303 0.2327 -0.1216 0.9983
-0.3312 0.2262 -0.1207 0.9983
-0.3337 0.2071 -0.1182 0.9984
-0.3352 0.1946 -0.1166 0.9984
-0.3362 0.1887 -0.1160 0.9984
-0.3391 0.1713 -0.1143 0.9984
-0.3409 0.1598 -0.1133 0.9984
-0.3422 0.1484 -0.1122 0.9984
-0.3428 0.1427 -0.1117 0.9985
-0.3433 0.1371 -0.1112 0.9985
-0.3438 0.1315 -0.1108 0.9985
-0.3443 0.1259 -0.1103 0.9985
-0.3448 0.1204 -0.1099 0.9985
-0.3452 0.1150 -0.1095 0.9985
-0.3467 0.0879 -0.1076 0.9985
-0.3474 0.0668 -0.1064 0.9985
-0.3475 0.0616 -0.1062 0.9985
-0.3472 0.0255 -0.1047 0.9985
-0.3470 0.0203 -0.1046 0.9985
-0.3466 0.0102 -0.1043 0.9986
-0.3463 0.0050 -0.1042 0.9986
-0.3407 -0.0050 -0.1067 0.9986
-0.3410 -0.0100 -0.1068 0.9986
-0.3412 -0.0150 -0.1069 0.9986
-0.3413 -0.0200 -0.1070 0.9986
-0.3416 -0.0300 -0.1073 0.9986
-0.3417 -0.0351 -0.1075 0.9986
-0.3418 -0.0401 -0.1077 0.9986
-0.3418 -0.0452 -0.1079 0.9986
-0.3418 -0.0554 -0.1084 0.9985
-0.3417 -0.0605 -0.1086 0.9985
-0.3416 -0.0657 -0.1089 0.9985
-0.3415 -0.0709 -0.1092 0.9985
-0.3413 -0.0760 -0.1095 0.9985
-0.3409 -0.0865 -0.1101 0.9985
-0.3407 -0.0917 -0.1104 0.9985
-0.3404 -0.0970 -0.1108 0.9985
-0.3401 -0.1023 -0.1112 0.9985
-0.3397 -0.1077 -0.1115 0.9985
-0.3374 -0.1347 -0.1137 0.9985
-0.3368 -0.1402 -0.1142 0.9985
-0.3362 -0.1458 -0.1147 0.9985
-0.3348 -0.1569 -0.1158 0.9985
-0.3331 -0.1682 -0.1168 0.9984
-0.3247 -0.2218 -0.1231 0.9984
-0.3238 -0.2281 -0.1240 0.9983
-0.3217 -0.2410 -0.1258 0.9983
-0.3206 -0.2476 -0.1268 0.9983
-0.3194 -0.2542 -0.1278 0.9983
-0.3182 -0.2609 -0.1288 0.9983
-0.3156 -0.2746 -0.1309 0.9982
-0.3112 -0.2957 -0.1344 0.9982
-0.3045 -0.3252 -0.1394 0.9981
-0.3000 -0.3398 -0.1419 0.9981
-0.2976 -0.3471 -0.1431 0.9981
-0.2951 -0.3546 -0.1444 0.9981
-0.2925 -0.3621 -0.1457 0.9981
-0.2871 -0.3775 -0.1484 0.9980
-0.2814 -0.3934 -0.1514 0.9980
-0.2785 -0.4016 -0.1529 0.9980
-0.2723 -0.4181 -0.1562 0.9979
-0.2690 -0.4266 -0.1579 0.9979
-0.2622 -0.4441 -0.1614 0.9978
-0.2586 -0.4530 -0.1633 0.9978
-0.2432 -0.4907 -0.1714 0.9977
-0.2394 -0.5012 -0.1739 0.9977
-0.2355 -0.5121 -0.1764 0.9976
-0.2314 -0.5231 -0.1791 0.9976
-0.2271 -0.5344 -0.1818 0.9976
-0.9253 -2.8480 -0.9373 0.9875
-0.6297 -2.9276 -0.9374 0.9875
-0.5009 -2.9526 -0.9374 0.9875
-0.4577 -2.9596 -0.9374 0.9875
-0.4144 -2.9661 -0.9375 0.9875
-0.3710 -2.9719 -0.9375 0.9875
-0.3276 -2.9771 -0.9375 0.9875
-0.2404 -2.9856 -0.9376 0.9875
-0.1094 -2.9936 -0.9377 0.9875
-0.0656 -2.9950 -0.9377 0.9875
0.0657 -2.9954 -0.9378 0.9875
0.1532 -2.9925 -0.9379 0.9875
0.1969 -2.9902 -0.9380 0.9875
0.2842 -2.9834 -0.9381 0.9875
0.3713 -2.9742 -0.9382 0.9875
0.5014 -2.9557 -0.9384 0.9875
0.5446 -2.9482 -0.9385 0.9875
0.5876 -2.9401 -0.9385 0.9875
0.6306 -2.9314 -0.9386 0.9875
0.7586 -2.9017 -0.9388 0.9875
0.8432 -2.8788 -0.9390 0.9875
0.8853 -2.8663 -0.9390 0.9875
0.9271 -2.8534 -0.9391 0.9875
1.0528 -2.8139 -0.9404 0.9875
1.0939 -2.7985 -0.9405 0.9875
1.2560 -2.7309 -0.9409 0.9875
1.3428 -2.7083 -0.9462 0.9874
1.5924 -2.6092 -0.9568 0.9873
1.6305 -2.5860 -0.9569 0.9873
1.6683 -2.5622 -0.9570 0.9873
1.7796 -2.4875 -0.9574 0.9873
1.8160 -2.4615 -0.9575 0.9873
1.8520 -2.4350 -0.9576 0.9873
1.8876 -2.4080 -0.9577 0.9873
1.9577 -2.3524 -0.9580 0.9873
1.9921 -2.3238 -0.9581 0.9873
2.0261 -2.2947 -0.9582 0.9873
2.0597 -2.2652 -0.9583 0.9872
2.0928 -2.2352 -0.9584 0.9872
2.1578 -2.1736 -0.9587 0.9872
2.2210 -2.1102 -0.9590 0.9872
2.2519 -2.0778 -0.9591 0.9872
2.2823 -2.0449 -0.9592 0.9872
2.3123 -2.0116 -0.9593 0.9872
2.3417 -1.9779 -0.9595 0.9872
2.3707 -1.9437 -0.9596 0.9872
2.3992 -1.9092 -0.9597 0.9872
2.4546 -1.8388 -0.9600 0.9872
2.4816 -1.8030 -0.9601 0.9872
2.5339 -1.7302 -0.9604 0.9872
2.5593 -1.6932 -0.9606 0.9872
2.5841 -1.6559 -0.9607 0.9872
2.6084 -1.6181 -0.9608 0.9872
2.6780 -1.5030 -0.9612 0.9872
2.7001 -1.4639 -0.9614 0.9872
2.7216 -1.4245 -0.9615 0.9872
2.7425 -1.3848 -0.9617 0.9872
2.7628 -1.3448 -0.9618 0.9872
2.7826 -1.3044 -0.9620 0.9872
2.8384 -1.1818 -0.9624 0.9872
2.8725 -1.0987 -0.9627 0.9872
2.9192 -0.9721 -0.9631 0.9872
2.9335 -0.9295 -0.9632 0.9872
2.9473 -0.8867 -0.9634 0.9872
2.9728 -0.8005 -0.9637 0.9872
2.9846 -0.7570 -0.9638 0.9872
2.9958 -0.7134 -0.9640 0.9872
3.0064 -0.6696 -0.9641 0.9872
3.0256 -0.5817 -0.9644 0.9872
3.0342 -0.5376 -0.9645 0.9872
3.0562 -0.4042 -0.9650 0.9872
3.0622 -0.3596 -0.9651 0.9872
3.0676 -0.3149 -0.9652 0.9872
3.0763 -0.2252 -0.9655 0.9872
3.0798 -0.1802 -0.9657 0.9872
3.0860 -0.0451 -0.9661 0.9871
3.0851 0.1354 -0.9666 0.9871
3.0832 0.1804 -0.9668 0.9871
3.0807 0.2255 -0.9669 0.9871
3.0775 0.2705 -0.9670 0.9871
3.0737 0.3155 -0.9672 0.9871
3.0582 0.4501 -0.9676 0.9871
3.0367 0.5839 -0.9679 0.9871
2.9990 0.7606 -0.9684 0.9871
2.9879 0.8045 -0.9686 0.9871
2.9762 0.8481 -0.9687 0.9871
2.9639 0.8917 -0.9688 0.9871
2.9230 1.0211 -0.9692 0.9871
2.8423 1.2325 -0.9697 0.9871
2.8243 1.2740 -0.9698 0.9871
2.7865 1.3563 -0.9700 0.9871
2.7463 1.4374 -0.9702 0.9871
2.7036 1.5173 -0.9704 0.9871
2.6587 1.5960 -0.9706 0.9871
2.5619 1.7493 -0.9710 0.9871
2.5102 1.8237 -0.9712 0.9871
2.4562 1.8966 -0.9714 0.9871
2.4284 1.9325 -0.9714 0.9871
2.3713 2.0029 -0.9716 0.9871
2.3420 2.0375 -0.9717 0.9871
2.2818 2.1054 -0.9718 0.9871
2.1878 2.2038 -0.9720 0.9871
2.1555 2.2357 -0.9721 0.9871
2.1228 2.2671 -0.9722 0.9871
2.0895 2.2980 -0.9722 0.9871
2.0559 2.3284 -0.9723 0.9871
2.0217 2.3584 -0.9723 0.9871
1.9522 2.4167 -0.9724 0.9871
1.9167 2.4451 -0.9725 0.9871
1.8447 2.5003 -0.9726 0.9871
1.8080 2.5272 -0.9726 0.9871
1.7336 2.5791 -0.9727 0.9871
1.6957 2.6043 -0.9728 0.9871
1.6576 2.6289 -0.9728 0.9871
1.6190 2.6529 -0.9728 0.9871
1.5802 2.6764 -0.9729 0.9871
1.5014 2.7216 -0.9729 0.9871
1.4615 2.7433 -0.9730 0.9871
1.3808 2.7849 -0.9730 0.9871
1.3400 2.8049 -0.9730 0.9871
1.2575 2.8430 -0.9731 0.9871
1.1739 2.8785 -0.9731 0.9871
1.1318 2.8955 -0.9731 0.9871
1.0893 2.9117 -0.9731 0.9871
0.9607 2.9566 -0.9731 0.9871
0.9174 2.9703 -0.9731 0.9871
0.8302 2.9959 -0.9731 0.9871
0.7423 3.0188 -0.9731 0.9871
0.5199 3.0647 -0.9730 0.9871
0.4301 3.0784 -0.9730 0.9871
0.3851 3.0843 -0.9729 0.9871
0.3399 3.0895 -0.9729 0.9871
0.2948 3.0940 -0.9729 0.9871
0.2495 3.0979 -0.9728 0.9871
0.2042 3.1011 -0.9728 0.9871
0.1589 3.1037 -0.9728 0.9871
0.0227 3.1072 -0.9726 0.9871
-0.0227 3.1071 -0.9726 0.9871
-0.1135 3.1048 -0.9725 0.9871
-0.1588 3.1027 -0.9724 0.9871
-0.2494 3.0963 -0.9723 0.9871
-0.2946 3.0922 -0.9723 0.9871
-0.3397 3.0874 -0.9722 0.9871
-0.3847 3.0818 -0.9722 0.9871
-0.4297 3.0757 -0.9721 0.9871
-0.5193 3.0614 -0.9720 0.9871
-0.5640 3.0533 -0.9719 0.9871
-0.6529 3.0351 -0.9718 0.9871
-0.6971 3.0250 -0.9717 0.9871
-0.7411 3.0142 -0.9716 0.9871
-0.8723 2.9781 -0.9714 0.9871
-0.9156 2.9648 -0.9713 0.9871
-0.2225 0.6521 -0.2157 0.9971
-0.2355 0.5121 -0.1764 0.9976
-0.2433 0.4907 -0.1714 0.9977
-0.2510 0.4712 -0.1671 0.9978
-0.2622 0.4441 -0.1614 0.9978
-0.2656 0.4354 -0.1596 0.9979
-0.2690 0.4266 -0.1579 0.9979
-0.2754 0.4098 -0.1545 0.9979
-0.2843 0.3853 -0.1499 0.9980
-0.2898 0.3698 -0.1471 0.9980
-0.2951 0.3546 -0.1444 0.9981
-0.2976 0.3471 -0.1431 0.9981
-0.3000 0.3398 -0.1419 0.9981
-0.3045 0.3252 -0.1394 0.9981
-0.3063 0.3177 -0.1381 0.9982
-0.3096 0.3029 -0.1356 0.9982
-0.3112 0.2957 -0.1344 0.9982
-0.3156 0.2746 -0.1309 0.9982
-0.3169 0.2677 -0.1299 0.9983
-0.3182 0.2609 -0.1288 0.9983
-0.3194 0.2542 -0.1278 0.9983
-0.3206 0.2475 -0.1268 0.9983
-0.3217 0.2410 -0.1258 0.9983
-0.3247 0.2218 -0.1231 0.9984
-0.3273 0.2030 -0.1206 0.9984
-0.3281 0.1970 -0.1198 0.9984
-0.3311 0.1795 -0.1179 0.9984
-0.3321 0.1739 -0.1173 0.9984
-0.3331 0.1682 -0.1168 0.9984
-0.3340 0.1626 -0.1163 0.9984
-0.3348 0.1570 -0.1158 0.9985
-0.3356 0.1514 -0.1152 0.9985
-0.3374 0.1347 -0.1137 0.9985
-0.3379 0.1293 -0.1132 0.9985
-0.3388 0.1184 -0.1124 0.9985
-0.3397 0.1077 -0.1115 0.9985
-0.3406 0.0917 -0.1104 0.9985
-0.3409 0.0864 -0.1101 0.9985
-0.3413 0.0761 -0.1095 0.9985
-0.3415 0.0709 -0.1092 0.9985
-0.3417 0.0605 -0.1086 0.9985
-0.3418 0.0555 -0.1084 0.9985
-0.3418 0.0402 -0.1077 0.9986
-0.3417 0.0351 -0.1075 0.9986
-0.3416 0.0300 -0.1073 0.9986
-0.3415 0.0250 -0.1072 0.9986
-0.3414 0.0200 -0.1070 0.9986
-0.3412 0.0149 -0.1069 0.9986
-0.3407 0.0050 -0.1067 0.9986
-0.3350 0.0000 -0.1089 0.9986
-0.3352 -0.0049 -0.1090 0.9986
-0.3355 -0.0098 -0.1091 0.9986
-0.3357 -0.0147 -0.1093 0.9986
-0.3360 -0.0245 -0.1096 0.9986
-0.3362 -0.0445 -0.1103 0.9986
-0.3362 -0.0495 -0.1105 0.9986
-0.3362 -0.0545 -0.1108 0.9986
-0.3360 -0.0646 -0.1113 0.9986
-0.3357 -0.0748 -0.1119 0.9986
-0.3355 -0.0799 -0.1122 0.9986
-0.3347 -0.0954 -0.1132 0.9985
-0.3343 -0.1006 -0.1136 0.9985
-0.3336 -0.1111 -0.1143 0.9985
-0.3331 -0.1164 -0.1148 0.9985
-0.3326 -0.1217 -0.1152 0.9985
-0.3310 -0.1378 -0.1166 0.9985
-0.3304 -0.1432 -0.1171 0.9985
-0.3297 -0.1487 -0.1176 0.9985
-0.3281 -0.1597 -0.1187 0.9985
-0.3262 -0.1708 -0.1198 0.9985
-0.3242 -0.1820 -0.1209 0.9984
-0.3212 -0.1992 -0.1229 0.9984
-0.3203 -0.2052 -0.1237 0.9984
-0.3194 -0.2113 -0.1246 0.9984
-0.3175 -0.2237 -0.1263 0.9984
-0.3118 -0.2556 -0.1311 0.9983
-0.3105 -0.2623 -0.1322 0.9983
-0.3062 -0.2825 -0.1355 0.9982
-0.3047 -0.2895 -0.1367 0.9982
-0.2996 -0.3108 -0.1404 0.9982
-0.2978 -0.3181 -0.1417 0.9982
-0.2886 -0.3468 -0.1467 0.9981
-0.2806 -0.3690 -0.1508 0.9981
-0.2778 -0.3766 -0.1522 0.9980
-0.2749 -0.3842 -0.1536 0.9980
-0.2719 -0.3920 -0.1552 0.9980
-0.2689 -0.4000 -0.1568 0.9980
-0.2521 -0.4416 -0.1654 0.9979
-0.2446 -0.4591 -0.1692 0.9978
-0.2406 -0.4681 -0.1712 0.9978
-0.2324 -0.4865 -0.1753 0.9977
-0.2198 -0.5172 -0.1828 0.9976
-0.2108 -0.5392 -0.1883 0.9976
-0.2060 -0.5506 -0.1912 0.9975
-0.2010 -0.5623 -0.1942 0.9975
-0.1985 -0.5820 -0.2000 0.9974
-0.7707 -2.7816 -0.9387 0.9879
-0.5657 -2.8306 -0.9388 0.9879
-0.5243 -2.8386 -0.9388 0.9879
-0.4822 -2.8428 -0.9378 0.9879
-0.4407 -2.8496 -0.9378 0.9879
-0.3990 -2.8558 -0.9378 0.9879
-0.2315 -2.8746 -0.9379 0.9879
-0.1895 -2.8777 -0.9379 0.9879
-0.1474 -2.8803 -0.9380 0.9879
0.0211 -2.8845 -0.9381 0.9879
0.1475 -2.8812 -0.9383 0.9879
0.2316 -2.8759 -0.9384 0.9879
0.3575 -2.8635 -0.9385 0.9879
0.4411 -2.8522 -0.9386 0.9879
0.6491 -2.8166 -0.9400 0.9879
0.8127 -2.7746 -0.9403 0.9879
0.8532 -2.7627 -0.9404 0.9879
0.8936 -2.7502 -0.9405 0.9879
0.9338 -2.7371 -0.9405 0.9879
1.0158 -2.7154 -0.9429 0.9879
1.1462 -2.6971 -0.9531 0.9877
1.2676 -2.6534 -0.9564 0.9877
1.3064 -2.6348 -0.9565 0.9877
1.3449 -2.6157 -0.9566 0.9877
1.3831 -2.5961 -0.9567 0.9877
1.4210 -2.5759 -0.9568 0.9877
1.4586 -2.5551 -0.9569 0.9877
1.4960 -2.5338 -0.9570 0.9877
1.5330 -2.5119 -0.9571 0.9877
1.5697 -2.4895 -0.9572 0.9877
1.6421 -2.4431 -0.9574 0.9877
1.6778 -2.4191 -0.9575 0.9877
1.7132 -2.3946 -0.9576 0.9877
1.7829 -2.3441 -0.9578 0.9877
1.8510 -2.2915 -0.9580 0.9877
1.8846 -2.2645 -0.9582 0.9877
2.0146 -2.1516 -0.9586 0.9877
2.1078 -2.0621 -0.9590 0.9877
2.1970 -1.9684 -0.9594 0.9877
2.3094 -1.8377 -0.9599 0.9877
2.3363 -1.8041 -0.9600 0.9877
2.4874 -1.5938 -0.9608 0.9877
2.5107 -1.5575 -0.9609 0.9876
2.5776 -1.4467 -0.9613 0.9876
2.6196 -1.3711 -0.9616 0.9876
2.6397 -1.3329 -0.9617 0.9876
2.6783 -1.2555 -0.9620 0.9876
2.7146 -1.1771 -0.9623 0.9876
2.7647 -1.0574 -0.9627 0.9876
2.7803 -1.0171 -0.9628 0.9876
2.7952 -0.9765 -0.9630 0.9876
2.8234 -0.8946 -0.9632 0.9876
2.8366 -0.8534 -0.9634 0.9876
2.9278 -0.4747 -0.9646 0.9876
2.9412 -0.3890 -0.9649 0.9876
2.9470 -0.3461 -0.9650 0.9876
2.9522 -0.3030 -0.9652 0.9876
2.9567 -0.2599 -0.9653 0.9876
2.9606 -0.2167 -0.9654 0.9876
2.9685 -0.0868 -0.9658 0.9876
2.9698 -0.0434 -0.9660 0.9876
2.9701 0.0868 -0.9664 0.9876
2.9689 0.1302 -0.9665 0.9876
2.9646 0.2170 -0.9668 0.9876
2.9484 0.3900 -0.9673 0.9876
2.9428 0.4331 -0.9674 0.9876
2.9366 0.4761 -0.9675 0.9876
2.9297 0.5190 -0.9676 0.9876
2.9140 0.6046 -0.9679 0.9876
2.9052 0.6472 -0.9680 0.9876
2.8958 0.6896 -0.9681 0.9876
2.8638 0.8161 -0.9685 0.9876
2.8519 0.8580 -0.9686 0.9876
2.8395 0.8997 -0.9687 0.9875
2.8126 0.9825 -0.9689 0.9875
2.7833 1.0645 -0.9692 0.9875
2.7516 1.1456 -0.9694 0.9875
2.7349 1.1858 -0.9695 0.9875
2.7176 1.2259 -0.9696 0.9875
2.6812 1.3050 -0.9698 0.9875
2.6424 1.3830 -0.9700 0.9875
2.6222 1.4216 -0.9701 0.9875
2.5581 1.5356 -0.9704 0.9875
2.5356 1.5730 -0.9705 0.9875
2.5126 1.6100 -0.9705 0.9875
2.4649 1.6831 -0.9707 0.9875
2.4152 1.7547 -0.9709 0.9875
2.3365 1.8593 -0.9711 0.9875
2.3093 1.8934 -0.9712 0.9875
2.2533 1.9604 -0.9714 0.9875
2.1049 2.1204 -0.9717 0.9875
2.0738 2.1511 -0.9718 0.9875
2.0423 2.1812 -0.9718 0.9875
1.9451 2.2690 -0.9720 0.9875
1.9119 2.2973 -0.9720 0.9875
1.8441 2.3525 -0.9721 0.9875
1.8096 2.3793 -0.9722 0.9875
1.7747 2.4056 -0.9722 0.9875
1.6678 2.4814 -0.9724 0.9875
1.6315 2.5055 -0.9724 0.9875
1.4445 2.6184 -0.9726 0.9875
1.3674 2.6596 -0.9726 0.9875
1.3284 2.6794 -0.9726 0.9875
1.2892 2.6986 -0.9726 0.9875
1.1294 2.7694 -0.9727 0.9875
1.0888 2.7856 -0.9727 0.9875
1.0480 2.8012 -0.9727 0.9875
1.0070 2.8163 -0.9727 0.9875
0.9657 2.8307 -0.9727 0.9875
0.8407 2.8703 -0.9727 0.9875
0.7141 2.9043 -0.9727 0.9875
0.6716 2.9145 -0.9727 0.9875
0.5432 2.9409 -0.9726 0.9875
0.5002 2.9485 -0.9726 0.9875
0.4571 2.9554 -0.9726 0.9875
0.3271 2.9724 -0.9725 0.9875
0.2836 2.9768 -0.9725 0.9875
0.2400 2.9805 -0.9725 0.9875
0.1965 2.9836 -0.9724 0.9875
0.1092 2.9878 -0.9724 0.9875
0.0655 2.9889 -0.9723 0.9875
-0.1528 2.9851 -0.9721 0.9875
-0.1964 2.9823 -0.9720 0.9875
-0.2399 2.9790 -0.9720 0.9875
-0.2834 2.9750 -0.9719 0.9875
-0.3702 2.9652 -0.9718 0.9875
-0.4566 2.9526 -0.9717 0.9875
-0.4997 2.9455 -0.9716 0.9875
-0.5426 2.9377 -0.9716 0.9875
-0.7131 2.9001 -0.9713 0.9875
-0.7974 2.8776 -0.9711 0.9875
-0.2055 0.6655 -0.2265 0.9971
-0.2060 0.5506 -0.1912 0.9975
-0.2108 0.5392 -0.1883 0.9976
-0.2198 0.5172 -0.1828 0.9976
-0.2366 0.4772 -0.1732 0.9978
-0.2407 0.4681 -0.1712 0.9978
-0.2484 0.4503 -0.1673 0.9978
-0.2521 0.4416 -0.1654 0.9979
-0.2557 0.4330 -0.1636 0.9979
-0.2591 0.4246 -0.1618 0.9979
-0.2658 0.4081 -0.1584 0.9980
-0.2806 0.3689 -0.1508 0.9981
-0.2834 0.3615 -0.1494 0.9981
-0.2936 0.3325 -0.1442 0.9981
-0.2959 0.3254 -0.1430 0.9982
-0.2978 0.3181 -0.1417 0.9982
-0.2997 0.3108 -0.1404 0.9982
-0.3014 0.3036 -0.1391 0.9982
-0.3047 0.2895 -0.1367 0.9982
-0.3077 0.2757 -0.1344 0.9983
-0.3105 0.2622 -0.1322 0.9983
-0.3118 0.2557 -0.1311 0.9983
-0.3130 0.2491 -0.1301 0.9983
-0.3153 0.2362 -0.1281 0.9983
-0.3185 0.2174 -0.1254 0.9984
-0.3203 0.2052 -0.1237 0.9984
-0.3220 0.1933 -0.1221 0.9984
-0.3242 0.1820 -0.1209 0.9984
-0.3252 0.1763 -0.1203 0.9984
-0.3262 0.1708 -0.1198 0.9985
-0.3272 0.1652 -0.1192 0.9985
-0.3290 0.1542 -0.1182 0.9985
-0.3297 0.1487 -0.1176 0.9985
-0.3310 0.1379 -0.1166 0.9985
-0.3327 0.1217 -0.1152 0.9985
-0.3331 0.1164 -0.1148 0.9985
-0.3340 0.1059 -0.1139 0.9985
-0.3344 0.1006 -0.1136 0.9985
-0.3350 0.0902 -0.1128 0.9985
-0.3353 0.0850 -0.1125 0.9985
-0.3355 0.0799 -0.1122 0.9986
-0.3357 0.0748 -0.1119 0.9986
-0.3362 0.0495 -0.1105 0.9986
-0.3362 0.0395 -0.1101 0.9986
-0.3362 0.0345 -0.1099 0.9986
-0.3360 0.0246 -0.1096 0.9986
-0.3357 0.0148 -0.1093 0.9986
-0.3354 0.0098 -0.1091 0.9986
-0.3299 -0.0048 -0.1114 0.9986
-0.3306 -0.0242 -0.1119 0.9986
-0.3307 -0.0291 -0.1120 0.9986
-0.3308 -0.0487 -0.1129 0.9986
-0.3307 -0.0536 -0.1131 0.9986
-0.3305 -0.0635 -0.1136 0.9986
-0.3300 -0.0786 -0.1145 0.9986
-0.3288 -0.0989 -0.1159 0.9986
-0.3275 -0.1145 -0.1171 0.9985
-0.3265 -0.1249 -0.1180 0.9985
-0.3259 -0.1302 -0.1185 0.9985
-0.3253 -0.1355 -0.1190 0.9985
-0.3233 -0.1516 -0.1205 0.9985
-0.3224 -0.1569 -0.1210 0.9985
-0.3215 -0.1623 -0.1216 0.9985
-0.3205 -0.1678 -0.1221 0.9985
-0.3195 -0.1733 -0.1227 0.9985
-0.3185 -0.1787 -0.1233 0.9985
-0.3163 -0.1898 -0.1245 0.9984
-0.3151 -0.1955 -0.1252 0.9984
-0.3133 -0.2073 -0.1268 0.9984
-0.3124 -0.2133 -0.1277 0.9984
-0.3114 -0.2194 -0.1286 0.9984
-0.3092 -0.2316 -0.1304 0.9984
-0.3080 -0.2379 -0.1314 0.9984
-0.3014 -0.2701 -0.1366 0.9983
-0.2999 -0.2767 -0.1377 0.9983
-0.2967 -0.2903 -0.1401 0.9982
-0.2950 -0.2972 -0.1413 0.9982
-0.2933 -0.3042 -0.1426 0.9982
-0.2914 -0.3113 -0.1439 0.9982
-0.2895 -0.3184 -0.1453 0.9982
-0.2873 -0.3254 -0.1465 0.9982
-0.2824 -0.3393 -0.1490 0.9981
-0.2798 -0.3464 -0.1503 0.9981
-0.2744 -0.3608 -0.1530 0.9981
-0.2687 -0.3755 -0.1558 0.9981
-0.2626 -0.3907 -0.1589 0.9980
-0.2595 -0.3985 -0.1605 0.9980
-0.2562 -0.4064 -0.1622 0.9980
-0.2529 -0.4144 -0.1639 0.9980
-0.2459 -0.4308 -0.1674 0.9979
-0.2422 -0.4391 -0.1693 0.9979
-0.2305 -0.4649 -0.1751 0.9978
-0.2263 -0.4738 -0.1772 0.9978
-0.2220 -0.4828 -0.1794 0.9978
-0.2176 -0.4920 -0.1816 0.9977
-0.2130 -0.5012 -0.1838 0.9977
-0.2085 -0.5112 -0.1864 0.9977
-0.1992 -0.5325 -0.1919 0.9976
-0.1943 -0.5435 -0.1948 0.9976
-0.1839 -0.5661 -0.2009 0.9975
-0.1830 -0.5927 -0.2094 0.9974
-0.1852 -0.6322 -0.2224 0.9972
-0.7513 -2.7110 -0.9495 0.9882
-0.7097 -2.7150 -0.9472 0.9882
-0.6684 -2.7186 -0.9449 0.9883
-0.6273 -2.7221 -0.9429 0.9883
-0.5453 -2.7298 -0.9396 0.9883
-0.5054 -2.7362 -0.9391 0.9883
-0.4252 -2.7498 -0.9392 0.9883
-0.2234 -2.7739 -0.9393 0.9883
-0.1828 -2.7770 -0.9393 0.9883
0.0611 -2.7830 -0.9395 0.9883
0.1017 -2.7819 -0.9396 0.9883
0.2640 -2.7718 -0.9398 0.9883
0.3046 -2.7678 -0.9398 0.9883
0.4658 -2.7459 -0.9401 0.9883
0.5459 -2.7315 -0.9402 0.9883
0.6266 -2.7189 -0.9418 0.9883
0.7917 -2.7029 -0.9506 0.9882
0.9145 -2.6805 -0.9559 0.9881
0.9926 -2.6531 -0.9561 0.9881
1.0698 -2.6234 -0.9563 0.9881
1.1463 -2.5915 -0.9564 0.9881
1.2217 -2.5573 -0.9566 0.9881
1.2591 -2.5395 -0.9567 0.9881
1.2962 -2.5211 -0.9568 0.9881
1.3330 -2.5021 -0.9569 0.9881
1.3696 -2.4826 -0.9570 0.9881
1.4058 -2.4626 -0.9571 0.9881
1.5479 -2.3772 -0.9575 0.9881
1.5827 -2.3546 -0.9576 0.9881
1.6511 -2.3079 -0.9578 0.9881
1.6849 -2.2838 -0.9579 0.9881
1.7513 -2.2340 -0.9581 0.9881
1.8162 -2.1824 -0.9583 0.9881
1.9415 -2.0736 -0.9588 0.9881
1.9719 -2.0453 -0.9589 0.9881
2.0018 -2.0165 -0.9590 0.9881
2.0313 -1.9872 -0.9591 0.9881
2.0890 -1.9275 -0.9594 0.9881
2.1723 -1.8348 -0.9597 0.9881
2.2255 -1.7710 -0.9600 0.9881
2.2769 -1.7057 -0.9602 0.9881
2.3019 -1.6724 -0.9604 0.9881
2.3264 -1.6388 -0.9605 0.9881
2.4195 -1.5009 -0.9610 0.9881
2.4414 -1.4656 -0.9611 0.9881
2.5243 -1.3212 -0.9616 0.9880
2.5625 -1.2473 -0.9619 0.9880
2.6324 -1.0960 -0.9624 0.9880
2.6790 -0.9800 -0.9628 0.9880
2.7073 -0.9015 -0.9631 0.9880
2.7332 -0.8223 -0.9634 0.9880
2.7453 -0.7824 -0.9635 0.9880
2.7879 -0.6211 -0.9640 0.9880
2.7970 -0.5803 -0.9642 0.9880
2.8056 -0.5395 -0.9643 0.9880
2.8209 -0.4573 -0.9646 0.9880
2.8444 -0.2920 -0.9651 0.9880
2.8487 -0.2504 -0.9652 0.9880
2.8525 -0.2088 -0.9654 0.9880
2.8556 -0.1671 -0.9655 0.9880
2.8600 -0.0836 -0.9657 0.9880
2.8620 0.0000 -0.9660 0.9880
2.8604 0.1255 -0.9664 0.9880
2.8586 0.1673 -0.9665 0.9880
2.8532 0.2508 -0.9667 0.9880
2.8406 0.3757 -0.9671 0.9880
2.8351 0.4173 -0.9672 0.9880
2.8224 0.5000 -0.9675 0.9880
2.8152 0.5413 -0.9676 0.9880
2.7988 0.6235 -0.9678 0.9880
2.7801 0.7051 -0.9681 0.9880
2.7698 0.7458 -0.9682 0.9880
2.7589 0.7863 -0.9683 0.9880
2.7227 0.9068 -0.9686 0.9880
2.6813 1.0255 -0.9689 0.9880
2.6179 1.1809 -0.9693 0.9879
2.5644 1.2948 -0.9696 0.9879
2.5455 1.3323 -0.9697 0.9879
2.5260 1.3695 -0.9698 0.9879
2.5059 1.4064 -0.9699 0.9879
2.4642 1.4793 -0.9701 0.9879
2.4204 1.5509 -0.9703 0.9879
2.3745 1.6213 -0.9704 0.9879
2.3507 1.6560 -0.9705 0.9879
2.3017 1.7242 -0.9707 0.9879
2.2764 1.7578 -0.9708 0.9879
2.2245 1.8239 -0.9709 0.9879
2.1147 1.9512 -0.9712 0.9879
2.0276 2.0424 -0.9714 0.9879
1.9053 2.1579 -0.9716 0.9879
1.8736 2.1856 -0.9717 0.9879
1.8416 2.2129 -0.9717 0.9879
1.8092 2.2397 -0.9718 0.9879
1.7763 2.2660 -0.9718 0.9879
1.7431 2.2918 -0.9719 0.9879
1.6755 2.3420 -0.9719 0.9879
1.5361 2.4362 -0.9721 0.9879
1.5004 2.4585 -0.9721 0.9879
1.4644 2.4802 -0.9722 0.9879
1.4280 2.5014 -0.9722 0.9879
1.3913 2.5221 -0.9722 0.9879
1.3544 2.5422 -0.9722 0.9879
1.3171 2.5618 -0.9723 0.9879
1.2418 2.5993 -0.9723 0.9879
1.2037 2.6172 -0.9723 0.9879
1.0879 2.6675 -0.9724 0.9879
1.0488 2.6832 -0.9724 0.9879
1.0095 2.6982 -0.9724 0.9879
0.9699 2.7127 -0.9724 0.9879
0.9302 2.7266 -0.9724 0.9879
0.8098 2.7647 -0.9724 0.9879
0.7693 2.7762 -0.9724 0.9879
0.7287 2.7872 -0.9724 0.9879
0.6469 2.8072 -0.9723 0.9879
0.4402 2.8467 -0.9723 0.9879
0.3986 2.8528 -0.9722 0.9879
0.3150 2.8630 -0.9722 0.9879
0.2312 2.8709 -0.9721 0.9879
0.1893 2.8739 -0.9721 0.9879
0.0631 2.8791 -0.9720 0.9879
-0.0211 2.8795 -0.9719 0.9879
-0.2730 2.8657 -0.9716 0.9879
-0.3148 2.8612 -0.9716 0.9879
-0.3566 2.8562 -0.9715 0.9879
-0.3982 2.8505 -0.9714 0.9879
-0.6869 2.7936 -0.9710 0.9879
-0.7681 2.7719 -0.9708 0.9879
-0.1830 0.5927 -0.2094 0.9974
-0.2040 0.5218 -0.1891 0.9976
-0.2085 0.5112 -0.1864 0.9977
-0.2130 0.5012 -0.1838 0.9977
-0.2176 0.4919 -0.1816 0.9977
-0.2305 0.4649 -0.1751 0.9978
-0.2345 0.4562 -0.1731 0.9978
-0.2494 0.4225 -0.1656 0.9979
-0.2562 0.4064 -0.1622 0.9980
-0.2798 0.3464 -0.1503 0.9981
-0.2849 0.3323 -0.1477 0.9982
-0.2873 0.3254 -0.1465 0.9982
-0.2895 0.3184 -0.1453 0.9982
-0.2932 0.3041 -0.1426 0.9982
-0.2967 0.2903 -0.1401 0.9982
-0.2999 0.2767 -0.1377 0.9983
-0.3042 0.2570 -0.1344 0.9983
-0.3056 0.2505 -0.1334 0.9983
-0.3068 0.2441 -0.1324 0.9983
-0.3080 0.2378 -0.1314 0.9984
-0.3103 0.2255 -0.1295 0.9984
-0.3114 0.2193 -0.1286 0.9984
-0.3142 0.2014 -0.1260 0.9984
-0.3174 0.1843 -0.1239 0.9985
-0.3185 0.1787 -0.1233 0.9985
-0.3215 0.1623 -0.1216 0.9985
-0.3224 0.1569 -0.1210 0.9985
-0.3259 0.1302 -0.1185 0.9985
-0.3265 0.1249 -0.1180 0.9985
-0.3270 0.1196 -0.1175 0.9985
-0.3280 0.1092 -0.1167 0.9985
-0.3284 0.1041 -0.1163 0.9985
-0.3288 0.0989 -0.1159 0.9986
-0.3291 0.0938 -0.1155 0.9986
-0.3294 0.0887 -0.1152 0.9986
-0.3298 0.0836 -0.1148 0.9986
-0.3302 0.0736 -0.1142 0.9986
-0.3305 0.0636 -0.1136 0.9986
-0.3306 0.0586 -0.1133 0.9986
-0.3307 0.0536 -0.1131 0.9986
-0.3308 0.0487 -0.1129 0.9986
-0.3308 0.0437 -0.1126 0.9986
-0.3307 0.0291 -0.1120 0.9986
-0.3299 0.0048 -0.1114 0.9986
-0.3244 0.0000 -0.1135 0.9986
-0.3249 -0.0095 -0.1137 0.9986
-0.3251 -0.0143 -0.1139 0.9986
-0.3252 -0.0190 -0.1140 0.9986
-0.3253 -0.0238 -0.1141 0.9986
-0.3254 -0.0286 -0.1143 0.9986
-0.3255 -0.0334 -0.1145 0.9986
-0.3255 -0.0431 -0.1149 0.9986
-0.3255 -0.0479 -0.1151 0.9986
-0.3253 -0.0577 -0.1156 0.9986
-0.3248 -0.0724 -0.1165 0.9986
-0.3246 -0.0773 -0.1168 0.9986
-0.3241 -0.0873 -0.1174 0.9986
-0.3234 -0.0973 -0.1182 0.9986
-0.3216 -0.1177 -0.1198 0.9985
-0.3210 -0.1228 -0.1203 0.9985
-0.3205 -0.1280 -0.1208 0.9985
-0.3199 -0.1332 -0.1212 0.9985
-0.3185 -0.1437 -0.1223 0.9985
-0.3177 -0.1489 -0.1228 0.9985
-0.3169 -0.1543 -0.1233 0.9985
-0.3159 -0.1595 -0.1238 0.9985
-0.3139 -0.1702 -0.1250 0.9985
-0.3129 -0.1756 -0.1256 0.9985
-0.3118 -0.1810 -0.1262 0.9985
-0.3106 -0.1865 -0.1268 0.9985
-0.3095 -0.1920 -0.1274 0.9985
-0.3084 -0.1976 -0.1282 0.9984
-0.3075 -0.2034 -0.1290 0.9984
-0.3065 -0.2093 -0.1299 0.9984
-0.3021 -0.2332 -0.1335 0.9984
-0.2995 -0.2456 -0.1355 0.9984
-0.2982 -0.2519 -0.1366 0.9983
-0.2968 -0.2582 -0.1377 0.9983
-0.2938 -0.2711 -0.1399 0.9983
-0.2906 -0.2843 -0.1422 0.9983
-0.2889 -0.2910 -0.1435 0.9983
-0.2789 -0.3253 -0.1499 0.9982
-0.2763 -0.3321 -0.1512 0.9982
-0.2738 -0.3389 -0.1525 0.9982
-0.2656 -0.3600 -0.1565 0.9981
-0.2627 -0.3671 -0.1580 0.9981
-0.2566 -0.3818 -0.1609 0.9981
-0.2534 -0.3892 -0.1625 0.9980
-0.2502 -0.3968 -0.1642 0.9980
-0.2400 -0.4203 -0.1694 0.9980
-0.2363 -0.4284 -0.1712 0.9979
-0.2325 -0.4365 -0.1731 0.9979
-0.2119 -0.4790 -0.1833 0.9978
-0.1978 -0.5062 -0.1902 0.9977
-0.1880 -0.5259 -0.1954 0.9976
-0.1778 -0.5472 -0.2013 0.9976
-0.1667 -0.6015 -0.2184 0.9974
-0.6125 -2.6582 -0.9545 0.9885
-0.5737 -2.6668 -0.9545 0.9885
-0.4955 -2.6825 -0.9545 0.9885
-0.3774 -2.7011 -0.9543 0.9885
-0.2976 -2.7046 -0.9521 0.9885
-0.1783 -2.7083 -0.9497 0.9886
-0.0198 -2.7101 -0.9483 0.9886
0.0198 -2.7100 -0.9483 0.9886
0.0594 -2.7097 -0.9484 0.9886
0.0990 -2.7091 -0.9486 0.9886
0.1386 -2.7084 -0.9490 0.9886
0.1783 -2.7074 -0.9494 0.9886
0.2577 -2.7048 -0.9507 0.9886
0.2974 -2.7032 -0.9516 0.9885
0.3373 -2.7013 -0.9526 0.9885
0.4960 -2.6853 -0.9555 0.9885
0.5352 -2.6779 -0.9556 0.9885
0.5743 -2.6699 -0.9556 0.9885
0.6133 -2.6614 -0.9557 0.9885
0.6909 -2.6428 -0.9558 0.9885
0.7295 -2.6326 -0.9559 0.9885
0.7680 -2.6219 -0.9560 0.9885
0.8062 -2.6105 -0.9560 0.9885
0.8444 -2.5987 -0.9561 0.9885
0.8823 -2.5862 -0.9562 0.9885
1.0322 -2.5311 -0.9565 0.9885
1.1059 -2.5003 -0.9567 0.9885
1.2148 -2.4501 -0.9569 0.9885
1.2861 -2.4141 -0.9571 0.9885
1.3214 -2.3952 -0.9572 0.9885
1.3563 -2.3759 -0.9573 0.9885
1.5269 -2.2717 -0.9578 0.9885
1.5601 -2.2494 -0.9579 0.9885
1.5930 -2.2266 -0.9580 0.9885
1.6255 -2.2033 -0.9581 0.9885
1.7211 -2.1306 -0.9584 0.9885
1.7830 -2.0799 -0.9586 0.9885
1.8434 -2.0274 -0.9588 0.9885
1.9024 -1.9732 -0.9591 0.9885
2.0425 -1.8300 -0.9596 0.9884
2.0693 -1.8003 -0.9597 0.9884
2.0956 -1.7701 -0.9599 0.9884
2.1215 -1.7395 -0.9600 0.9884
2.1470 -1.7085 -0.9601 0.9884
2.1720 -1.6772 -0.9602 0.9884
2.1965 -1.6454 -0.9603 0.9884
2.2207 -1.6134 -0.9605 0.9884
2.2442 -1.5809 -0.9606 0.9884
2.2674 -1.5482 -0.9607 0.9884
2.2901 -1.5151 -0.9608 0.9884
2.3123 -1.4816 -0.9610 0.9884
2.3340 -1.4479 -0.9611 0.9884
2.3961 -1.3447 -0.9614 0.9884
2.4158 -1.3098 -0.9616 0.9884
2.4537 -1.2390 -0.9618 0.9884
2.4719 -1.2031 -0.9620 0.9884
2.4895 -1.1671 -0.9621 0.9884
2.5232 -1.0941 -0.9623 0.9884
2.5548 -1.0202 -0.9626 0.9884
2.5698 -0.9828 -0.9627 0.9884
2.5842 -0.9453 -0.9628 0.9884
2.6242 -0.8315 -0.9632 0.9884
2.6364 -0.7932 -0.9634 0.9884
2.6480 -0.7546 -0.9635 0.9884
2.6796 -0.6381 -0.9639 0.9884
2.6891 -0.5990 -0.9640 0.9884
2.7061 -0.5204 -0.9643 0.9884
2.7138 -0.4808 -0.9644 0.9884
2.7274 -0.4014 -0.9646 0.9884
2.7513 -0.2014 -0.9653 0.9884
2.7567 -0.1209 -0.9655 0.9884
2.7585 -0.0806 -0.9656 0.9884
2.7604 0.0000 -0.9659 0.9884
2.7571 0.1613 -0.9664 0.9884
2.7547 0.2016 -0.9665 0.9884
2.7483 0.2821 -0.9667 0.9884
2.7344 0.4024 -0.9671 0.9884
2.7221 0.4822 -0.9673 0.9884
2.7074 0.5617 -0.9675 0.9884
2.6905 0.6407 -0.9678 0.9883
2.6812 0.6801 -0.9679 0.9883
2.6607 0.7583 -0.9681 0.9883
2.6380 0.8359 -0.9683 0.9883
2.6258 0.8745 -0.9684 0.9883
2.6130 0.9128 -0.9685 0.9883
2.5858 0.9890 -0.9687 0.9883
2.5563 1.0643 -0.9689 0.9883
2.5407 1.1017 -0.9690 0.9883
2.5246 1.1387 -0.9691 0.9883
2.5080 1.1757 -0.9692 0.9883
2.4908 1.2123 -0.9693 0.9883
2.4730 1.2487 -0.9694 0.9883
2.4359 1.3207 -0.9696 0.9883
2.3764 1.4266 -0.9699 0.9883
2.3555 1.4612 -0.9699 0.9883
2.2196 1.6627 -0.9704 0.9883
2.1704 1.7271 -0.9706 0.9883
2.1451 1.7588 -0.9706 0.9883
2.0931 1.8209 -0.9708 0.9883
1.9263 1.9980 -0.9711 0.9883
1.8372 2.0808 -0.9713 0.9883
1.7445 2.1597 -0.9715 0.9883
1.7129 2.1850 -0.9715 0.9883
1.6808 2.2100 -0.9715 0.9883
1.6484 2.2344 -0.9716 0.9883
1.6157 2.2583 -0.9716 0.9883
1.5154 2.3272 -0.9717 0.9883
1.4812 2.3492 -0.9718 0.9883
1.4120 2.3916 -0.9718 0.9883
1.3060 2.4514 -0.9719 0.9883
1.2338 2.4886 -0.9720 0.9883
1.1237 2.5404 -0.9720 0.9883
1.0865 2.5566 -0.9720 0.9883
1.0490 2.5722 -0.9720 0.9883
1.0113 2.5873 -0.9720 0.9883
0.9734 2.6018 -0.9720 0.9883
0.9353 2.6158 -0.9720 0.9883
0.6633 2.6976 -0.9720 0.9883
0.5444 2.7239 -0.9720 0.9883
0.5045 2.7315 -0.9720 0.9883
0.4245 2.7450 -0.9719 0.9883
0.3038 2.7607 -0.9719 0.9883
0.2634 2.7648 -0.9718 0.9883
0.2230 2.7683 -0.9718 0.9883
0.1420 2.7734 -0.9717 0.9883
0.0609 2.7762 -0.9717 0.9883
0.0203 2.7766 -0.9716 0.9883
-0.0203 2.7766 -0.9716 0.9883
-0.0608 2.7759 -0.9716 0.9883
-0.2632 2.7634 -0.9713 0.9883
-0.3840 2.7487 -0.9712 0.9883
-0.4641 2.7360 -0.9710 0.9883
-0.5040 2.7287 -0.9710 0.9883
-0.5835 2.7125 -0.9708 0.9883
-0.6230 2.7034 -0.9708 0.9883
-0.1668 0.5694 -0.2076 0.9975
-0.1830 0.5364 -0.1983 0.9976
-0.2027 0.4970 -0.1878 0.9977
-0.2073 0.4879 -0.1855 0.9978
-0.2119 0.4791 -0.1833 0.9978
-0.2286 0.4448 -0.1750 0.9979
-0.2399 0.4203 -0.1694 0.9980
-0.2502 0.3969 -0.1642 0.9980
-0.2684 0.3529 -0.1551 0.9981
-0.2711 0.3459 -0.1538 0.9981
-0.2738 0.3389 -0.1525 0.9982
-0.2764 0.3321 -0.1512 0.9982
-0.2789 0.3253 -0.1499 0.9982
-0.2813 0.3186 -0.1487 0.9982
-0.2833 0.3116 -0.1474 0.9982
-0.2953 0.2646 -0.1388 0.9983
-0.2982 0.2518 -0.1366 0.9983
-0.2995 0.2456 -0.1355 0.9984
-0.3032 0.2272 -0.1326 0.9984
-0.3044 0.2212 -0.1317 0.9984
-0.3065 0.2093 -0.1299 0.9984
-0.3095 0.1920 -0.1274 0.9985
-0.3107 0.1865 -0.1268 0.9985
-0.3129 0.1756 -0.1256 0.9985
-0.3140 0.1702 -0.1250 0.9985
-0.3150 0.1648 -0.1244 0.9985
-0.3159 0.1595 -0.1238 0.9985
-0.3177 0.1490 -0.1228 0.9985
-0.3185 0.1437 -0.1223 0.9985
-0.3205 0.1280 -0.1208 0.9985
-0.3210 0.1228 -0.1203 0.9985
-0.3221 0.1125 -0.1194 0.9986
-0.3225 0.1074 -0.1190 0.9986
-0.3233 0.0973 -0.1182 0.9986
-0.3237 0.0923 -0.1178 0.9986
-0.3243 0.0823 -0.1171 0.9986
-0.3246 0.0773 -0.1168 0.9986
-0.3253 0.0577 -0.1156 0.9986
-0.3254 0.0528 -0.1154 0.9986
-0.3255 0.0479 -0.1151 0.9986
-0.3255 0.0334 -0.1145 0.9986
-0.3254 0.0286 -0.1143 0.9986
-0.3252 0.0190 -0.1140 0.9986
-0.3247 0.0047 -0.1136 0.9986
-0.3196 -0.0046 -0.1158 0.9986
-0.3198 -0.0093 -0.1159 0.9986
-0.3200 -0.0140 -0.1161 0.9986
-0.3201 -0.0187 -0.1162 0.9986
-0.3202 -0.0234 -0.1164 0.9986
-0.3203 -0.0329 -0.1167 0.9986
-0.3204 -0.0376 -0.1169 0.9986
-0.3203 -0.0471 -0.1173 0.9986
-0.3200 -0.0615 -0.1181 0.9986
-0.3198 -0.0663 -0.1184 0.9986
-0.3191 -0.0809 -0.1193 0.9986
-0.3188 -0.0859 -0.1197 0.9986
-0.3177 -0.1007 -0.1208 0.9986
-0.3162 -0.1157 -0.1220 0.9986
-0.3151 -0.1259 -0.1230 0.9986
-0.3138 -0.1361 -0.1240 0.9985
-0.3124 -0.1464 -0.1250 0.9985
-0.3085 -0.1673 -0.1272 0.9985
-0.3075 -0.1725 -0.1278 0.9985
-0.3052 -0.1832 -0.1290 0.9985
-0.3040 -0.1886 -0.1297 0.9985
-0.3018 -0.1996 -0.1311 0.9985
-0.3008 -0.2054 -0.1320 0.9985
-0.2997 -0.2111 -0.1329 0.9984
-0.2975 -0.2229 -0.1347 0.9984
-0.2963 -0.2288 -0.1357 0.9984
-0.2950 -0.2348 -0.1366 0.9984
-0.2937 -0.2408 -0.1376 0.9984
-0.2923 -0.2469 -0.1387 0.9984
-0.2895 -0.2594 -0.1408 0.9983
-0.2879 -0.2656 -0.1420 0.9983
-0.2793 -0.2983 -0.1481 0.9983
-0.2773 -0.3050 -0.1494 0.9982
-0.2730 -0.3185 -0.1520 0.9982
-0.2706 -0.3251 -0.1533 0.9982
-0.2680 -0.3318 -0.1546 0.9982
-0.2653 -0.3385 -0.1559 0.9982
-0.2626 -0.3453 -0.1572 0.9982
-0.2539 -0.3661 -0.1615 0.9981
-0.2477 -0.3804 -0.1645 0.9981
-0.2445 -0.3877 -0.1661 0.9981
-0.2411 -0.3951 -0.1678 0.9980
-0.2377 -0.4027 -0.1695 0.9980
-0.2306 -0.4180 -0.1730 0.9980
-0.2269 -0.4259 -0.1749 0.9979
-0.2230 -0.4338 -0.1768 0.9979
-0.2150 -0.4501 -0.1808 0.9979
-0.2108 -0.4584 -0.1828 0.9979
-0.1926 -0.4927 -0.1917 0.9978
-0.1826 -0.5106 -0.1965 0.9977
-0.1720 -0.5293 -0.2017 0.9976
-0.1667 -0.5397 -0.2047 0.9976
-0.1555 -0.5610 -0.2110 0.9975
-0.5916 -2.5673 -0.9548 0.9889
-0.5541 -2.5757 -0.9548 0.9889
-0.5164 -2.5836 -0.9548 0.9889
-0.4786 -2.5909 -0.9548 0.9889
-0.4407 -2.5977 -0.9549 0.9889
-0.4027 -2.6039 -0.9549 0.9889
-0.3264 -2.6146 -0.9549 0.9889
-0.2882 -2.6192 -0.9549 0.9889
-0.2499 -2.6232 -0.9550 0.9889
-0.1732 -2.6296 -0.9550 0.9889
-0.1347 -2.6319 -0.9550 0.9889
-0.0962 -2.6337 -0.9551 0.9888
-0.0578 -2.6349 -0.9551 0.9888
-0.0193 -2.6355 -0.9552 0.9888
0.0578 -2.6352 -0.9552 0.9888
0.0963 -2.6342 -0.9553 0.9888
0.1348 -2.6326 -0.9553 0.9888
0.5169 -2.5863 -0.9558 0.9888
0.5923 -2.5705 -0.9560 0.9888
0.6299 -2.5616 -0.9560 0.9888
0.7417 -2.5321 -0.9562 0.9888
0.7787 -2.5213 -0.9563 0.9888
0.8521 -2.4978 -0.9564 0.9888
0.9610 -2.4586 -0.9567 0.9888
1.0681 -2.4147 -0.9569 0.9888
1.2078 -2.3491 -0.9572 0.9888
1.2761 -2.3132 -0.9574 0.9888
1.3434 -2.2754 -0.9576 0.9888
1.3766 -2.2557 -0.9577 0.9888
1.4096 -2.2355 -0.9578 0.9888
1.4422 -2.2149 -0.9579 0.9888
1.4746 -2.1939 -0.9580 0.9888
1.5384 -2.1503 -0.9582 0.9888
1.6009 -2.1048 -0.9584 0.9888
1.6316 -2.0814 -0.9585 0.9888
1.6921 -2.0333 -0.9587 0.9888
1.7218 -2.0086 -0.9588 0.9888
1.7802 -1.9579 -0.9590 0.9888
1.8371 -1.9054 -0.9592 0.9888
1.8649 -1.8786 -0.9593 0.9888
1.9195 -1.8237 -0.9595 0.9888
1.9724 -1.7673 -0.9597 0.9888
2.1443 -1.5580 -0.9606 0.9888
2.1671 -1.5266 -0.9607 0.9888
2.2113 -1.4630 -0.9609 0.9888
2.2742 -1.3652 -0.9613 0.9888
2.3327 -1.2647 -0.9616 0.9888
2.3513 -1.2306 -0.9618 0.9888
2.3693 -1.1963 -0.9619 0.9888
2.3868 -1.1617 -0.9620 0.9888
2.4038 -1.1269 -0.9621 0.9888
2.4518 -1.0209 -0.9625 0.9888
2.4668 -0.9850 -0.9626 0.9888
2.4952 -0.9127 -0.9629 0.9888
2.5086 -0.8763 -0.9630 0.9888
2.5214 -0.8396 -0.9631 0.9888
2.5338 -0.8029 -0.9632 0.9888
2.5675 -0.6913 -0.9636 0.9888
2.5777 -0.6538 -0.9637 0.9887
2.6048 -0.5404 -0.9641 0.9887
2.6270 -0.4259 -0.9645 0.9887
2.6333 -0.3875 -0.9646 0.9887
2.6390 -0.3491 -0.9647 0.9887
2.6442 -0.3105 -0.9648 0.9887
2.6488 -0.2719 -0.9650 0.9887
2.6528 -0.2332 -0.9651 0.9887
2.6563 -0.1944 -0.9652 0.9887
2.6591 -0.1556 -0.9653 0.9887
2.6615 -0.1168 -0.9654 0.9887
2.6632 -0.0778 -0.9656 0.9887
2.6644 -0.0389 -0.9657 0.9887
2.6634 0.1168 -0.9662 0.9887
2.6617 0.1557 -0.9663 0.9887
2.6567 0.2335 -0.9665 0.9887
2.6449 0.3498 -0.9668 0.9887
2.6398 0.3885 -0.9670 0.9887
2.6279 0.4655 -0.9672 0.9887
2.6138 0.5423 -0.9674 0.9887
2.6058 0.5805 -0.9675 0.9887
2.5883 0.6565 -0.9677 0.9887
2.5686 0.7320 -0.9679 0.9887
2.5579 0.7696 -0.9680 0.9887
2.5467 0.8069 -0.9681 0.9887
2.5349 0.8441 -0.9682 0.9887
2.5096 0.9180 -0.9684 0.9887
2.4962 0.9547 -0.9685 0.9887
2.4678 1.0274 -0.9687 0.9887
2.4527 1.0635 -0.9688 0.9887
2.4371 1.0994 -0.9689 0.9887
2.3696 1.2403 -0.9693 0.9887
2.3136 1.3433 -0.9695 0.9887
2.2939 1.3770 -0.9696 0.9887
2.1426 1.6050 -0.9702 0.9887
2.0950 1.6671 -0.9703 0.9887
2.0706 1.6977 -0.9704 0.9887
2.0457 1.7279 -0.9704 0.9887
1.9946 1.7872 -0.9706 0.9887
1.9418 1.8449 -0.9707 0.9887
1.9147 1.8732 -0.9708 0.9887
1.8873 1.9011 -0.9708 0.9887
1.8025 1.9823 -0.9710 0.9887
1.7734 2.0085 -0.9710 0.9887
1.7141 2.0597 -0.9711 0.9887
1.6839 2.0847 -0.9712 0.9887
1.6224 2.1332 -0.9713 0.9887
1.5912 2.1567 -0.9713 0.9887
1.4627 2.2463 -0.9714 0.9887
1.4297 2.2675 -0.9715 0.9887
1.3965 2.2882 -0.9715 0.9887
1.3630 2.3085 -0.9715 0.9887
1.2950 2.3474 -0.9716 0.9887
1.2606 2.3662 -0.9716 0.9887
1.2259 2.3844 -0.9716 0.9887
1.1558 2.4193 -0.9717 0.9887
1.0487 2.4677 -0.9717 0.9887
0.9395 2.5114 -0.9717 0.9887
0.7912 2.5620 -0.9717 0.9887
0.7537 2.5732 -0.9717 0.9887
0.6402 2.6037 -0.9717 0.9887
0.4097 2.6496 -0.9716 0.9887
0.3321 2.6603 -0.9716 0.9887
0.2932 2.6648 -0.9716 0.9887
0.2542 2.6688 -0.9715 0.9887
0.2152 2.6721 -0.9715 0.9887
0.0587 2.6798 -0.9714 0.9887
-0.0587 2.6794 -0.9713 0.9887
-0.0979 2.6782 -0.9712 0.9887
-0.1370 2.6764 -0.9712 0.9887
-0.1761 2.6739 -0.9711 0.9887
-0.2930 2.6632 -0.9710 0.9887
-0.3319 2.6585 -0.9709 0.9887
-0.3707 2.6532 -0.9709 0.9887
-0.4480 2.6410 -0.9708 0.9887
-0.4865 2.6340 -0.9707 0.9887
-0.5632 2.6183 -0.9706 0.9887
-0.1496 0.6084 -0.2270 0.9973
-0.1498 0.5730 -0.2147 0.9975
-0.1555 0.5610 -0.2110 0.9975
-0.1612 0.5502 -0.2078 0.9976
-0.1720 0.5293 -0.2017 0.9976
-0.1773 0.5198 -0.1991 0.9977
-0.1926 0.4927 -0.1917 0.9978
-0.1973 0.4839 -0.1894 0.9978
-0.2191 0.4419 -0.1787 0.9979
-0.2269 0.4259 -0.1749 0.9979
-0.2306 0.4180 -0.1730 0.9980
-0.2377 0.4027 -0.1695 0.9980
-0.2477 0.3804 -0.1645 0.9981
-0.2508 0.3732 -0.1630 0.9981
-0.2598 0.3521 -0.1586 0.9981
-0.2626 0.3452 -0.1572 0.9982
-0.2705 0.3251 -0.1533 0.9982
-0.2753 0.3119 -0.1508 0.9982
-0.2773 0.3050 -0.1494 0.9982
-0.2793 0.2983 -0.1481 0.9983
-0.2811 0.2916 -0.1468 0.9983
-0.2879 0.2657 -0.1420 0.9983
-0.2894 0.2594 -0.1408 0.9983
-0.2923 0.2469 -0.1387 0.9984
-0.2975 0.2229 -0.1347 0.9984
-0.2997 0.2112 -0.1329 0.9984
-0.3018 0.1996 -0.1311 0.9985
-0.3040 0.1886 -0.1297 0.9985
-0.3064 0.1779 -0.1284 0.9985
-0.3075 0.1726 -0.1278 0.9985
-0.3095 0.1620 -0.1266 0.9985
-0.3105 0.1568 -0.1261 0.9985
-0.3115 0.1516 -0.1255 0.9985
-0.3123 0.1464 -0.1250 0.9985
-0.3138 0.1361 -0.1240 0.9985
-0.3151 0.1259 -0.1230 0.9986
-0.3168 0.1107 -0.1216 0.9986
-0.3177 0.1007 -0.1208 0.9986
-0.3185 0.0907 -0.1200 0.9986
-0.3188 0.0859 -0.1197 0.9986
-0.3191 0.0809 -0.1193 0.9986
-0.3194 0.0761 -0.1190 0.9986
-0.3202 0.0520 -0.1176 0.9986
-0.3203 0.0471 -0.1173 0.9986
-0.3204 0.0376 -0.1169 0.9986
-0.3202 0.0234 -0.1164 0.9986
-0.3200 0.0141 -0.1161 0.9986
-0.3196 0.0047 -0.1158 0.9986
-0.3146 -0.0046 -0.1180 0.9987
-0.3149 -0.0138 -0.1182 0.9987
-0.3152 -0.0231 -0.1185 0.9987
-0.3153 -0.0324 -0.1189 0.9986
-0.3153 -0.0370 -0.1191 0.9986
-0.3153 -0.0417 -0.1193 0.9986
-0.3152 -0.0464 -0.1195 0.9986
-0.3151 -0.0558 -0.1200 0.9986
-0.3143 -0.0748 -0.1211 0.9986
-0.3140 -0.0796 -0.1215 0.9986
-0.3137 -0.0845 -0.1218 0.9986
-0.3129 -0.0942 -0.1226 0.9986
-0.3125 -0.0991 -0.1229 0.9986
-0.3105 -0.1187 -0.1247 0.9986
-0.3093 -0.1288 -0.1256 0.9986
-0.3086 -0.1338 -0.1261 0.9986
-0.3071 -0.1440 -0.1272 0.9986
-0.3062 -0.1490 -0.1277 0.9985
-0.3043 -0.1593 -0.1288 0.9985
-0.3011 -0.1748 -0.1306 0.9985
-0.2999 -0.1801 -0.1312 0.9985
-0.2962 -0.1960 -0.1332 0.9985
-0.2952 -0.2016 -0.1341 0.9985
-0.2942 -0.2073 -0.1349 0.9985
