ply
format ascii 1.0
element vertex 1598
property float32 x
property float32 y
property float32 z
property float32 I
end_header
3.2759 -4.1790 -0.9742 0.9786
3.3367 -4.1308 -0.9743 0.9786
3.3968 -4.0817 -0.9743 0.9786
3.5148 -3.9809 -0.9744 0.9786
3.5728 -3.9293 -0.9744 0.9786
3.6863 -3.8235 -0.9745 0.9786
3.7419 -3.7694 -0.9745 0.9786
3.7967 -3.7144 -0.9745 0.9786
3.8507 -3.6587 -0.9746 0.9786
3.9562 -3.5448 -0.9746 0.9786
4.0078 -3.4868 -0.9747 0.9786
4.1571 -3.3081 -0.9748 0.9786
4.2986 -3.1231 -0.9749 0.9786
4.3439 -3.0600 -0.9749 0.9786
4.4743 -2.8671 -0.9750 0.9786
4.5615 -2.7383 -0.9761 0.9786
4.6296 -2.6880 -0.9822 0.9785
4.7506 -2.5756 -0.9915 0.9783
4.8241 -2.4359 -0.9916 0.9783
4.9590 -2.1502 -0.9917 0.9783
4.9900 -2.0777 -0.9917 0.9783
5.0769 -1.8572 -0.9919 0.9783
5.1036 -1.7829 -0.9919 0.9783
5.1293 -1.7082 -0.9919 0.9783
5.1539 -1.6330 -0.9920 0.9783
5.1998 -1.4819 -0.9920 0.9783
5.2413 -1.3295 -0.9921 0.9782
5.2783 -1.1758 -0.9922 0.9782
5.3108 -1.0211 -0.9923 0.9782
5.3388 -0.8656 -0.9923 0.9782
5.3511 -0.7875 -0.9924 0.9782
5.3810 -0.5523 -0.9925 0.9782
5.3887 -0.4737 -0.9925 0.9782
5.4006 -0.3160 -0.9926 0.9782
5.4049 -0.2371 -0.9926 0.9782
5.4080 -0.1581 -0.9927 0.9782
5.4107 -0.0000 -0.9927 0.9782
5.4103 0.0791 -0.9928 0.9782
5.4060 0.2371 -0.9928 0.9782
5.4022 0.3161 -0.9929 0.9782
5.3910 0.4739 -0.9929 0.9782
5.3837 0.5526 -0.9930 0.9782
5.3752 0.6312 -0.9930 0.9782
5.3549 0.7880 -0.9931 0.9782
5.3429 0.8662 -0.9931 0.9782
5.3299 0.9443 -0.9931 0.9782
5.3004 1.0997 -0.9932 0.9782
5.2476 1.3310 -0.9933 0.9782
5.2068 1.4839 -0.9934 0.9782
5.1373 1.7108 -0.9935 0.9782
5.1119 1.7857 -0.9935 0.9782
5.0854 1.8603 -0.9935 0.9782
5.0578 1.9344 -0.9935 0.9782
4.9994 2.0815 -0.9936 0.9782
4.9367 2.2268 -0.9937 0.9782
4.9038 2.2988 -0.9937 0.9782
4.8698 2.3702 -0.9937 0.9782
4.7987 2.5117 -0.9938 0.9782
4.7616 2.5816 -0.9938 0.9782
4.7235 2.6510 -0.9938 0.9782
4.6032 2.8556 -0.9939 0.9782
4.5610 2.9226 -0.9939 0.9782
4.5180 2.9891 -0.9939 0.9782
4.4739 3.0548 -0.9940 0.9782
4.4289 3.1199 -0.9940 0.9782
4.3829 3.1844 -0.9940 0.9782
4.2882 3.3112 -0.9940 0.9782
4.1898 3.4353 -0.9941 0.9782
4.0878 3.5564 -0.9941 0.9782
3.9282 3.7323 -0.9942 0.9782
3.8176 3.8456 -0.9942 0.9782
3.7611 3.9010 -0.9942 0.9782
3.7037 3.9556 -0.9942 0.9782
3.4665 4.1655 -0.9943 0.9782
3.4054 4.2157 -0.9943 0.9782
3.2808 4.3136 -0.9943 0.9782
3.2175 4.3611 -0.9944 0.9782
2.9573 4.5418 -0.9944 0.9782
2.6871 4.7070 -0.9944 0.9782
2.6180 4.7457 -0.9944 0.9782
2.3364 4.8907 -0.9945 0.9782
2.0467 5.0189 -0.9945 0.9782
1.9732 5.0483 -0.9945 0.9782
1.8992 5.0766 -0.9945 0.9782
1.6749 5.1549 -0.9945 0.9782
1.2171 5.2817 -0.9945 0.9782
0.9845 5.3299 -0.9945 0.9782
0.8283 5.3564 -0.9944 0.9782
0.7500 5.3678 -0.9944 0.9782
0.5140 5.3954 -0.9944 0.9782
0.1979 5.4160 -0.9944 0.9782
-0.0396 5.4193 -0.9943 0.9782
-0.1188 5.4180 -0.9943 0.9782
-0.1979 5.4157 -0.9943 0.9782
-0.2770 5.4121 -0.9943 0.9782
-0.3561 5.4074 -0.9943 0.9782
-0.4351 5.4016 -0.9943 0.9782
-0.6713 5.3771 -0.9942 0.9782
-0.8281 5.3550 -0.9942 0.9782
-0.9842 5.3284 -0.9942 0.9782
-1.0619 5.3133 -0.9941 0.9782
-1.2937 5.2614 -0.9941 0.9782
-1.5229 5.1993 -0.9940 0.9782
-1.6741 5.1523 -0.9940 0.9782
-1.7492 5.1272 -0.9940 0.9782
-1.8238 5.1010 -0.9939 0.9782
-1.9720 5.0453 -0.9939 0.9782
-2.0455 5.0158 -0.9939 0.9782
-2.1911 4.9536 -0.9938 0.9782
-2.2632 4.9209 -0.9938 0.9782
-2.4059 4.8525 -0.9937 0.9782
-2.4764 4.8167 -0.9937 0.9782
-2.5465 4.7799 -0.9937 0.9782
-2.6160 4.7420 -0.9937 0.9782
-2.6849 4.7031 -0.9936 0.9782
-2.8210 4.6224 -0.9936 0.9782
-0.4219 0.6479 -0.1419 0.9969
-0.3874 0.5585 -0.1247 0.9972
-0.3890 0.5437 -0.1227 0.9973
-0.3918 0.5152 -0.1188 0.9974
-0.3932 0.5015 -0.1169 0.9974
-0.3965 0.4626 -0.1118 0.9975
-0.3984 0.4382 -0.1087 0.9976
-0.3993 0.4264 -0.1072 0.9976
-0.4001 0.4149 -0.1058 0.9977
-0.4051 0.3629 -0.0998 0.9978
-0.4059 0.3531 -0.0987 0.9978
-0.4066 0.3434 -0.0977 0.9978
-0.4091 0.3065 -0.0938 0.9979
-0.4125 0.2729 -0.0908 0.9980
-0.4134 0.2649 -0.0901 0.9980
-0.4142 0.2570 -0.0894 0.9980
-0.4169 0.2261 -0.0870 0.9981
-0.4175 0.2185 -0.0865 0.9981
-0.4184 0.2037 -0.0854 0.9981
-0.4188 0.1963 -0.0849 0.9981
-0.4192 0.1891 -0.0844 0.9981
-0.4197 0.1820 -0.0839 0.9981
-0.4202 0.1749 -0.0835 0.9982
-0.4207 0.1680 -0.0831 0.9982
-0.4226 0.1339 -0.0813 0.9982
-0.4229 0.1272 -0.0810 0.9982
-0.4232 0.1139 -0.0804 0.9982
-0.4233 0.1073 -0.0801 0.9982
-0.4234 0.1008 -0.0799 0.9982
-0.4234 0.0943 -0.0796 0.9982
-0.4234 0.0878 -0.0793 0.9982
-0.4234 0.0814 -0.0791 0.9982
-0.4233 0.0750 -0.0789 0.9983
-0.4230 0.0623 -0.0784 0.9983
-0.4225 0.0496 -0.0781 0.9983
-0.4222 0.0434 -0.0779 0.9983
-0.4215 0.0308 -0.0775 0.9983
-0.4207 0.0184 -0.0773 0.9983
-0.4078 0.0000 -0.0795 0.9983
-0.4083 -0.0060 -0.0796 0.9983
-0.4089 -0.0120 -0.0797 0.9983
-0.4101 -0.0300 -0.0802 0.9983
-0.4104 -0.0361 -0.0803 0.9983
-0.4107 -0.0422 -0.0805 0.9983
-0.4110 -0.0483 -0.0807 0.9983
-0.4115 -0.0667 -0.0813 0.9983
-0.4116 -0.0730 -0.0815 0.9983
-0.4117 -0.0792 -0.0817 0.9983
-0.4117 -0.0854 -0.0820 0.9983
-0.4115 -0.1044 -0.0828 0.9983
-0.4113 -0.1108 -0.0830 0.9983
-0.4111 -0.1172 -0.0833 0.9983
-0.4106 -0.1302 -0.0840 0.9982
-0.4090 -0.1564 -0.0854 0.9982
-0.4085 -0.1631 -0.0858 0.9982
-0.4079 -0.1698 -0.0861 0.9982
-0.4073 -0.1766 -0.0866 0.9982
-0.4055 -0.1974 -0.0879 0.9982
-0.4050 -0.2045 -0.0885 0.9982
-0.4039 -0.2190 -0.0896 0.9981
-0.4034 -0.2264 -0.0902 0.9981
-0.4031 -0.2341 -0.0909 0.9981
-0.4025 -0.2496 -0.0923 0.9981
-0.4021 -0.2577 -0.0931 0.9981
-0.4012 -0.2739 -0.0947 0.9980
-0.4001 -0.2907 -0.0964 0.9980
-0.3995 -0.2993 -0.0973 0.9980
-0.3967 -0.3351 -0.1012 0.9979
-0.3958 -0.3444 -0.1023 0.9979
-0.3949 -0.3539 -0.1034 0.9978
-0.3940 -0.3635 -0.1045 0.9978
-0.3927 -0.3731 -0.1056 0.9978
-0.3910 -0.3825 -0.1066 0.9978
-0.3893 -0.3922 -0.1077 0.9978
-0.3880 -0.4025 -0.1090 0.9977
-0.3861 -0.4247 -0.1119 0.9977
-0.3851 -0.4362 -0.1134 0.9976
-0.3827 -0.4599 -0.1166 0.9976
-0.3771 -0.5111 -0.1238 0.9974
-0.3737 -0.5388 -0.1278 0.9973
-0.3723 -0.5718 -0.1330 0.9972
-0.3916 -0.6212 -0.1432 0.9970
-0.4196 -0.6876 -0.1570 0.9967
-2.4141 -4.3762 -0.9744 0.9798
-2.0883 -4.5407 -0.9744 0.9798
-2.0532 -4.6420 -0.9896 0.9795
-1.9852 -4.6715 -0.9895 0.9795
-1.9167 -4.7000 -0.9895 0.9795
-1.7785 -4.7540 -0.9895 0.9795
-1.6389 -4.8039 -0.9895 0.9795
-1.4978 -4.8497 -0.9895 0.9795
-1.4268 -4.8711 -0.9895 0.9795
-1.3554 -4.8914 -0.9895 0.9795
-1.1398 -4.9462 -0.9896 0.9795
-1.0674 -4.9623 -0.9896 0.9795
-0.9948 -4.9774 -0.9896 0.9795
-0.8489 -5.0044 -0.9896 0.9795
-0.7757 -5.0163 -0.9896 0.9795
-0.7024 -5.0271 -0.9896 0.9795
-0.6289 -5.0369 -0.9896 0.9795
-0.5552 -5.0455 -0.9896 0.9795
-0.4075 -5.0597 -0.9896 0.9795
-0.3335 -5.0652 -0.9896 0.9795
-0.2595 -5.0695 -0.9896 0.9795
-0.1113 -5.0751 -0.9896 0.9795
0.1113 -5.0752 -0.9897 0.9795
0.1854 -5.0731 -0.9897 0.9795
0.2595 -5.0700 -0.9897 0.9795
0.3336 -5.0657 -0.9897 0.9795
0.4075 -5.0604 -0.9897 0.9795
0.5552 -5.0464 -0.9898 0.9795
0.7025 -5.0282 -0.9898 0.9795
0.7759 -5.0174 -0.9898 0.9795
0.9951 -4.9789 -0.9899 0.9795
1.2124 -4.9308 -0.9899 0.9795
1.2843 -4.9126 -0.9899 0.9795
1.3560 -4.8934 -0.9899 0.9795
1.4273 -4.8732 -0.9900 0.9795
1.4985 -4.8519 -0.9900 0.9795
1.6396 -4.8063 -0.9900 0.9795
1.7795 -4.7565 -0.9901 0.9795
1.8488 -4.7301 -0.9901 0.9795
1.9178 -4.7027 -0.9901 0.9795
2.0544 -4.6448 -0.9902 0.9795
2.1222 -4.6145 -0.9902 0.9795
2.1558 -4.5127 -0.9750 0.9798
2.6650 -4.2266 -0.9741 0.9798
2.7266 -4.1875 -0.9742 0.9798
2.7875 -4.1473 -0.9742 0.9798
2.9077 -4.0643 -0.9742 0.9798
2.9668 -4.0215 -0.9743 0.9798
3.1971 -3.8417 -0.9744 0.9798
3.2530 -3.7947 -0.9744 0.9798
3.3081 -3.7469 -0.9744 0.9798
3.5218 -3.5477 -0.9746 0.9798
3.5734 -3.4959 -0.9746 0.9798
3.6242 -3.4435 -0.9746 0.9798
3.8665 -3.1703 -0.9748 0.9798
3.9578 -3.0561 -0.9749 0.9798
4.0883 -2.8800 -0.9749 0.9798
4.1346 -2.8232 -0.9760 0.9798
4.1756 -2.7625 -0.9761 0.9798
4.2176 -2.7026 -0.9766 0.9798
4.3143 -2.6765 -0.9898 0.9795
4.3600 -2.6173 -0.9914 0.9795
4.3979 -2.5535 -0.9914 0.9795
4.4350 -2.4890 -0.9915 0.9795
4.5402 -2.2925 -0.9916 0.9795
4.6368 -2.0916 -0.9917 0.9795
4.6670 -2.0236 -0.9917 0.9795
4.6963 -1.9554 -0.9918 0.9795
4.7518 -1.8175 -0.9918 0.9795
4.7780 -1.7478 -0.9919 0.9795
4.8032 -1.6779 -0.9919 0.9795
4.8273 -1.6076 -0.9919 0.9795
4.8505 -1.5370 -0.9920 0.9795
4.8726 -1.4660 -0.9920 0.9795
4.9327 -1.2511 -0.9921 0.9795
4.9833 -1.0339 -0.9922 0.9795
5.0243 -0.8146 -0.9923 0.9795
5.0359 -0.7412 -0.9923 0.9795
5.0463 -0.6675 -0.9924 0.9795
5.0557 -0.5937 -0.9924 0.9795
5.0640 -0.5198 -0.9925 0.9795
5.0713 -0.4458 -0.9925 0.9795
5.0825 -0.2974 -0.9926 0.9795
5.0865 -0.2231 -0.9926 0.9795
5.0894 -0.1488 -0.9926 0.9795
5.0919 -0.0000 -0.9927 0.9795
5.0915 0.0744 -0.9927 0.9795
5.0875 0.2232 -0.9928 0.9795
5.0585 0.5940 -0.9929 0.9795
5.0393 0.7416 -0.9930 0.9795
5.0024 0.9618 -0.9931 0.9795
4.9879 1.0348 -0.9931 0.9795
4.9724 1.1076 -0.9932 0.9795
4.9559 1.1802 -0.9932 0.9795
4.8790 1.4679 -0.9933 0.9795
4.8572 1.5391 -0.9933 0.9794
4.7855 1.7505 -0.9934 0.9794
4.7595 1.8204 -0.9935 0.9794
4.6756 2.0273 -0.9935 0.9794
4.6456 2.0955 -0.9936 0.9794
4.6146 2.1632 -0.9936 0.9794
4.5157 2.3635 -0.9937 0.9794
4.4808 2.4293 -0.9937 0.9794
4.4081 2.5593 -0.9937 0.9794
4.3703 2.6236 -0.9938 0.9794
4.3316 2.6872 -0.9938 0.9794
4.2920 2.7502 -0.9938 0.9794
4.2100 2.8746 -0.9938 0.9794
4.1676 2.9359 -0.9939 0.9794
4.1244 2.9965 -0.9939 0.9794
4.0352 3.1159 -0.9939 0.9794
3.9894 3.1745 -0.9939 0.9794
3.9426 3.2325 -0.9940 0.9794
3.8950 3.2899 -0.9940 0.9794
3.7473 3.4577 -0.9940 0.9794
3.6964 3.5120 -0.9941 0.9794
3.5923 3.6187 -0.9941 0.9794
3.4852 3.7222 -0.9941 0.9794
3.3750 3.8226 -0.9941 0.9794
3.2044 3.9670 -0.9942 0.9794
3.0276 4.1037 -0.9942 0.9794
2.7828 4.2737 -0.9943 0.9794
2.6568 4.3534 -0.9943 0.9794
2.5285 4.4292 -0.9943 0.9794
2.4635 4.4657 -0.9943 0.9794
2.3320 4.5358 -0.9943 0.9794
2.2655 4.5694 -0.9943 0.9794
2.1985 4.6020 -0.9943 0.9794
2.1310 4.6337 -0.9943 0.9794
2.0631 4.6644 -0.9943 0.9794
1.9259 4.7227 -0.9943 0.9794
1.6468 4.8271 -0.9943 0.9794
1.4337 4.8946 -0.9943 0.9794
1.3620 4.9150 -0.9943 0.9794
1.2178 4.9527 -0.9943 0.9794
0.9996 5.0013 -0.9943 0.9794
0.4837 5.0770 -0.9943 0.9794
0.4094 5.0835 -0.9943 0.9794
0.2607 5.0932 -0.9942 0.9794
0.1863 5.0964 -0.9942 0.9794
0.0372 5.0995 -0.9942 0.9794
-0.5577 5.0686 -0.9941 0.9794
-0.6317 5.0598 -0.9941 0.9794
-0.7056 5.0500 -0.9941 0.9794
-0.7793 5.0390 -0.9941 0.9794
-0.9261 5.0139 -0.9940 0.9794
-1.1449 4.9683 -0.9940 0.9794
-1.2895 4.9326 -0.9939 0.9794
-1.4331 4.8926 -0.9939 0.9794
-1.5753 4.8484 -0.9939 0.9794
-1.7163 4.8000 -0.9938 0.9794
-1.7862 4.7744 -0.9938 0.9794
-1.9248 4.7199 -0.9938 0.9794
-2.0618 4.6614 -0.9937 0.9794
-2.1297 4.6307 -0.9937 0.9794
-2.2640 4.5663 -0.9936 0.9794
-2.3963 4.4979 -0.9936 0.9794
-2.4617 4.4623 -0.9936 0.9794
-2.5266 4.4258 -0.9935 0.9794
-2.5909 4.3883 -0.9935 0.9794
-0.3718 0.5532 -0.1300 0.9973
-0.3754 0.5248 -0.1258 0.9974
-0.3786 0.4978 -0.1219 0.9975
-0.3801 0.4848 -0.1201 0.9975
-0.3814 0.4722 -0.1183 0.9975
-0.3851 0.4361 -0.1134 0.9976
-0.3861 0.4246 -0.1119 0.9977
-0.3893 0.3922 -0.1077 0.9978
-0.3940 0.3635 -0.1045 0.9978
-0.3982 0.3168 -0.0992 0.9979
-0.3989 0.3080 -0.0982 0.9979
-0.4001 0.2907 -0.0964 0.9980
-0.4007 0.2823 -0.0955 0.9980
-0.4017 0.2657 -0.0939 0.9980
-0.4021 0.2576 -0.0931 0.9981
-0.4025 0.2497 -0.0923 0.9981
-0.4028 0.2418 -0.0916 0.9981
-0.4034 0.2264 -0.0902 0.9981
-0.4039 0.2189 -0.0896 0.9981
-0.4045 0.2117 -0.0890 0.9981
-0.4056 0.1973 -0.0879 0.9982
-0.4060 0.1903 -0.0874 0.9982
-0.4067 0.1834 -0.0870 0.9982
-0.4079 0.1698 -0.0861 0.9982
-0.4103 0.1366 -0.0843 0.9982
-0.4109 0.1236 -0.0836 0.9983
-0.4113 0.1107 -0.0830 0.9983
-0.4115 0.1044 -0.0828 0.9983
-0.4116 0.0980 -0.0825 0.9983
-0.4117 0.0791 -0.0817 0.9983
-0.4116 0.0729 -0.0815 0.9983
-0.4115 0.0668 -0.0813 0.9983
-0.4112 0.0544 -0.0809 0.9983
-0.4109 0.0482 -0.0807 0.9983
-0.4107 0.0421 -0.0805 0.9983
-0.4101 0.0300 -0.0802 0.9983
-0.4093 0.0179 -0.0799 0.9983
-0.4084 0.0059 -0.0796 0.9983
-0.3981 -0.0117 -0.0822 0.9984
-0.3989 -0.0234 -0.0825 0.9984
-0.3992 -0.0292 -0.0826 0.9984
-0.4002 -0.0529 -0.0834 0.9984
-0.4004 -0.0650 -0.0838 0.9983
-0.4005 -0.0710 -0.0840 0.9983
-0.4005 -0.0770 -0.0842 0.9983
-0.4005 -0.0831 -0.0845 0.9983
-0.4005 -0.0892 -0.0847 0.9983
-0.4002 -0.1015 -0.0853 0.9983
-0.4000 -0.1077 -0.0855 0.9983
-0.3991 -0.1329 -0.0868 0.9983
-0.3985 -0.1458 -0.0876 0.9983
-0.3975 -0.1655 -0.0889 0.9982
-0.3971 -0.1722 -0.0894 0.9982
-0.3967 -0.1790 -0.0899 0.9982
-0.3957 -0.1927 -0.0909 0.9982
-0.3953 -0.2069 -0.0921 0.9982
-0.3951 -0.2142 -0.0928 0.9982
-0.3944 -0.2290 -0.0942 0.9981
-0.3927 -0.2598 -0.0972 0.9981
-0.3916 -0.2759 -0.0989 0.9980
-0.3910 -0.2841 -0.0998 0.9980
-0.3842 -0.3545 -0.1079 0.9979
-0.3733 -0.4228 -0.1165 0.9977
-0.3707 -0.4455 -0.1197 0.9976
-0.3693 -0.4573 -0.1214 0.9976
-0.3678 -0.4692 -0.1231 0.9976
-0.3662 -0.4815 -0.1249 0.9975
-0.3628 -0.5071 -0.1287 0.9975
-0.3589 -0.5339 -0.1328 0.9974
-0.3546 -0.5623 -0.1373 0.9973
-0.3659 -0.5996 -0.1450 0.9971
-2.0322 -4.2538 -0.9734 0.9809
-1.9698 -4.2831 -0.9734 0.9809
-1.9070 -4.3114 -0.9734 0.9809
-1.7162 -4.3907 -0.9734 0.9809
-1.5889 -4.4438 -0.9745 0.9809
-1.4584 -4.4884 -0.9745 0.9809
-1.3926 -4.5092 -0.9745 0.9809
-1.3266 -4.5291 -0.9745 0.9809
-1.2800 -4.6190 -0.9897 0.9806
-1.2123 -4.6371 -0.9897 0.9806
-1.0763 -4.6706 -0.9897 0.9806
-0.9394 -4.7002 -0.9897 0.9806
-0.8706 -4.7134 -0.9897 0.9806
-0.8016 -4.7256 -0.9897 0.9806
-0.7325 -4.7369 -0.9897 0.9806
-0.6632 -4.7471 -0.9897 0.9806
-0.5938 -4.7563 -0.9897 0.9806
-0.4546 -4.7717 -0.9897 0.9806
-0.3150 -4.7830 -0.9897 0.9806
-0.2450 -4.7871 -0.9898 0.9806
-0.1051 -4.7923 -0.9898 0.9806
-0.0350 -4.7934 -0.9898 0.9806
0.1751 -4.7905 -0.9898 0.9806
0.3848 -4.7784 -0.9899 0.9806
0.4546 -4.7723 -0.9899 0.9806
0.5939 -4.7572 -0.9899 0.9806
0.8018 -4.7268 -0.9899 0.9806
0.8708 -4.7146 -0.9900 0.9806
1.0083 -4.6873 -0.9900 0.9806
1.1448 -4.6560 -0.9900 0.9806
1.2804 -4.6207 -0.9901 0.9806
1.6545 -4.4224 -0.9750 0.9809
1.9709 -4.2856 -0.9740 0.9809
2.0334 -4.2565 -0.9740 0.9809
2.0954 -4.2264 -0.9740 0.9809
2.2788 -4.1308 -0.9741 0.9809
2.3390 -4.0972 -0.9741 0.9809
2.3986 -4.0627 -0.9742 0.9809
2.5164 -3.9911 -0.9742 0.9809
2.6321 -3.9161 -0.9743 0.9809
2.6891 -3.8772 -0.9743 0.9809
2.8014 -3.7972 -0.9743 0.9809
2.9113 -3.7139 -0.9744 0.9809
2.9654 -3.6711 -0.9744 0.9809
3.0188 -3.6275 -0.9745 0.9809
3.2760 -3.3979 -0.9746 0.9809
3.3254 -3.3498 -0.9746 0.9809
3.4221 -3.2514 -0.9747 0.9809
3.4693 -3.2012 -0.9747 0.9809
3.5616 -3.0986 -0.9748 0.9809
3.6066 -3.0463 -0.9748 0.9809
3.6508 -2.9934 -0.9748 0.9809
3.6943 -2.9398 -0.9749 0.9809
3.7830 -2.8339 -0.9760 0.9809
3.8241 -2.7784 -0.9760 0.9809
4.0425 -2.5904 -0.9914 0.9806
4.1167 -2.4713 -0.9914 0.9806
4.1526 -2.4110 -0.9915 0.9806
4.1875 -2.3502 -0.9915 0.9806
4.2215 -2.2887 -0.9915 0.9806
4.2546 -2.2270 -0.9916 0.9806
4.2868 -2.1645 -0.9916 0.9806
4.3182 -2.1018 -0.9916 0.9806
4.3485 -2.0385 -0.9917 0.9806
4.4065 -1.9107 -0.9917 0.9806
4.5797 -1.4512 -0.9920 0.9806
4.6005 -1.3841 -0.9920 0.9806
4.6204 -1.3168 -0.9920 0.9806
4.6393 -1.2492 -0.9921 0.9806
4.6573 -1.1813 -0.9921 0.9806
4.7050 -0.9762 -0.9922 0.9806
4.7189 -0.9073 -0.9922 0.9806
4.7437 -0.7691 -0.9923 0.9806
4.7733 -0.5605 -0.9924 0.9806
4.7812 -0.4908 -0.9924 0.9806
4.7938 -0.3509 -0.9925 0.9806
4.8023 -0.2107 -0.9926 0.9806
4.8050 -0.1405 -0.9926 0.9806
4.8067 -0.0702 -0.9926 0.9806
4.8070 0.0702 -0.9927 0.9806
4.7997 0.2809 -0.9928 0.9806
4.7898 0.4210 -0.9928 0.9806
4.7758 0.5608 -0.9929 0.9806
4.7672 0.6305 -0.9929 0.9806
4.7576 0.7002 -0.9930 0.9806
4.7470 0.7696 -0.9930 0.9805
4.7228 0.9080 -0.9930 0.9805
4.7091 0.9770 -0.9931 0.9805
4.6788 1.1142 -0.9931 0.9805
4.6622 1.1825 -0.9932 0.9805
4.4415 1.8492 -0.9934 0.9805
4.3566 2.0423 -0.9935 0.9805
4.1963 2.3551 -0.9936 0.9805
4.1616 2.4162 -0.9936 0.9805
4.1259 2.4768 -0.9937 0.9805
4.0894 2.5368 -0.9937 0.9805
4.0137 2.6554 -0.9937 0.9805
3.9745 2.7138 -0.9937 0.9805
3.7221 3.0518 -0.9938 0.9805
3.6771 3.1059 -0.9939 0.9805
3.6314 3.1593 -0.9939 0.9805
3.5849 3.2121 -0.9939 0.9805
3.5377 3.2641 -0.9939 0.9805
3.4896 3.3156 -0.9939 0.9805
3.4409 3.3663 -0.9939 0.9805
3.3914 3.4162 -0.9940 0.9805
3.3411 3.4655 -0.9940 0.9805
3.2902 3.5140 -0.9940 0.9805
3.2386 3.5617 -0.9940 0.9805
3.1862 3.6087 -0.9940 0.9805
3.1332 3.6549 -0.9940 0.9805
3.0795 3.7003 -0.9940 0.9805
3.0251 3.7450 -0.9941 0.9805
2.9701 3.7889 -0.9941 0.9805
2.8013 3.9155 -0.9941 0.9805
2.6858 3.9958 -0.9941 0.9805
2.6271 4.0346 -0.9941 0.9805
2.5679 4.0726 -0.9941 0.9805
2.2638 4.2493 -0.9942 0.9805
2.2015 4.2820 -0.9942 0.9805
2.0755 4.3445 -0.9942 0.9805
1.8831 4.4313 -0.9942 0.9805
1.7528 4.4845 -0.9942 0.9805
1.6871 4.5096 -0.9942 0.9805
1.4879 4.5792 -0.9942 0.9805
1.4208 4.6005 -0.9942 0.9805
1.3534 4.6207 -0.9942 0.9805
1.2179 4.6583 -0.9942 0.9805
1.1497 4.6756 -0.9942 0.9805
1.0812 4.6919 -0.9942 0.9805
1.0125 4.7072 -0.9942 0.9805
0.8746 4.7347 -0.9942 0.9805
0.7358 4.7582 -0.9942 0.9805
0.6662 4.7684 -0.9942 0.9805
0.5266 4.7858 -0.9941 0.9805
0.4566 4.7929 -0.9941 0.9805
0.1758 4.8112 -0.9941 0.9805
0.0352 4.8142 -0.9941 0.9805
-0.0352 4.8142 -0.9941 0.9805
-0.1758 4.8110 -0.9941 0.9805
-0.2461 4.8079 -0.9940 0.9805
-0.4566 4.7923 -0.9940 0.9805
-0.5964 4.7767 -0.9940 0.9805
-0.6661 4.7675 -0.9940 0.9805
-0.8051 4.7458 -0.9939 0.9805
-0.9434 4.7201 -0.9939 0.9805
-1.0123 4.7057 -0.9939 0.9805
-1.0808 4.6904 -0.9939 0.9805
-1.2174 4.6566 -0.9938 0.9805
-1.2853 4.6382 -0.9938 0.9805
-1.4202 4.5986 -0.9938 0.9805
-1.4872 4.5772 -0.9938 0.9805
-1.5539 4.5549 -0.9937 0.9805
-1.6863 4.5073 -0.9937 0.9805
-1.8172 4.4560 -0.9937 0.9805
-2.1374 4.3109 -0.9935 0.9805
-2.2001 4.2791 -0.9935 0.9805
-2.2623 4.2464 -0.9935 0.9805
-0.4156 0.7281 -0.1731 0.9966
-0.3850 0.6521 -0.1564 0.9969
-0.3659 0.5996 -0.1450 0.9971
-0.3546 0.5623 -0.1373 0.9973
-0.3568 0.5479 -0.1350 0.9973
-0.3589 0.5339 -0.1328 0.9974
-0.3645 0.4941 -0.1268 0.9975
-0.3662 0.4815 -0.1249 0.9975
-0.3678 0.4692 -0.1231 0.9976
-0.3693 0.4572 -0.1214 0.9976
-0.3721 0.4340 -0.1180 0.9977
-0.3733 0.4228 -0.1165 0.9977
-0.3759 0.4015 -0.1136 0.9978
-0.3778 0.3918 -0.1124 0.9978
-0.3796 0.3823 -0.1112 0.9978
-0.3842 0.3545 -0.1079 0.9979
-0.3872 0.3270 -0.1046 0.9979
-0.3903 0.2923 -0.1007 0.9980
-0.3910 0.2840 -0.0998 0.9980
-0.3922 0.2677 -0.0981 0.9981
-0.3932 0.2520 -0.0964 0.9981
-0.3941 0.2366 -0.0949 0.9981
-0.3944 0.2290 -0.0942 0.9981
-0.3948 0.2216 -0.0935 0.9982
-0.3953 0.2069 -0.0921 0.9982
-0.3967 0.1789 -0.0899 0.9982
-0.3972 0.1722 -0.0894 0.9982
-0.3979 0.1589 -0.0885 0.9983
-0.3988 0.1393 -0.0872 0.9983
-0.3991 0.1329 -0.0868 0.9983
-0.3995 0.1202 -0.0861 0.9983
-0.3998 0.1139 -0.0858 0.9983
-0.4003 0.0954 -0.0850 0.9983
-0.4004 0.0892 -0.0847 0.9983
-0.4005 0.0830 -0.0845 0.9983
-0.4005 0.0770 -0.0842 0.9983
-0.4003 0.0589 -0.0836 0.9983
-0.4002 0.0530 -0.0834 0.9984
-0.4000 0.0470 -0.0832 0.9984
-0.3998 0.0410 -0.0830 0.9984
-0.3985 0.0174 -0.0824 0.9984
-0.3980 0.0116 -0.0822 0.9984
-0.3976 0.0058 -0.0821 0.9984
-0.3910 -0.0171 -0.0853 0.9984
-0.3913 -0.0229 -0.0855 0.9984
-0.3921 -0.0461 -0.0861 0.9984
-0.3926 -0.0814 -0.0874 0.9984
-0.3923 -0.1057 -0.0886 0.9983
-0.3922 -0.1118 -0.0889 0.9983
-0.3918 -0.1242 -0.0896 0.9983
-0.3907 -0.1494 -0.0912 0.9983
-0.3903 -0.1559 -0.0916 0.9983
-0.3899 -0.1623 -0.0921 0.9983
-0.3890 -0.1755 -0.0931 0.9983
-0.3878 -0.1888 -0.0941 0.9982
-0.3874 -0.1956 -0.0946 0.9982
-0.3871 -0.2027 -0.0953 0.9982
-0.3868 -0.2098 -0.0959 0.9982
-0.3852 -0.2390 -0.0988 0.9981
-0.3847 -0.2465 -0.0996 0.9981
-0.3841 -0.2541 -0.1004 0.9981
-0.3835 -0.2619 -0.1013 0.9981
-0.3822 -0.2777 -0.1030 0.9981
-0.3815 -0.2858 -0.1039 0.9981
-0.3771 -0.3280 -0.1090 0.9980
-0.3760 -0.3369 -0.1101 0.9979
-0.3749 -0.3459 -0.1112 0.9979
-0.3722 -0.3642 -0.1136 0.9979
-0.3703 -0.3730 -0.1146 0.9979
-0.3684 -0.3821 -0.1157 0.9978
-0.3645 -0.4009 -0.1182 0.9978
-0.3624 -0.4105 -0.1194 0.9978
-0.3608 -0.4209 -0.1209 0.9977
-0.3594 -0.4319 -0.1225 0.9977
-0.3578 -0.4430 -0.1242 0.9977
-0.3562 -0.4545 -0.1259 0.9976
-0.3546 -0.4662 -0.1277 0.9976
-0.3468 -0.5159 -0.1355 0.9975
-0.3445 -0.5291 -0.1377 0.9974
-0.3422 -0.5427 -0.1399 0.9974
-0.4094 -0.7684 -0.1898 0.9964
-1.8654 -4.0561 -0.9735 0.9819
-1.8059 -4.0829 -0.9735 0.9819
-1.5643 -4.1813 -0.9735 0.9819
-1.3796 -4.2459 -0.9735 0.9819
-1.3174 -4.2656 -0.9735 0.9819
-1.1922 -4.3023 -0.9735 0.9819
-1.1292 -4.3193 -0.9735 0.9819
-0.9389 -4.3646 -0.9735 0.9819
-0.8750 -4.3779 -0.9735 0.9819
-0.7467 -4.4016 -0.9735 0.9819
-0.6831 -4.4170 -0.9746 0.9819
-0.6184 -4.4264 -0.9746 0.9819
-0.5537 -4.4351 -0.9746 0.9819
-0.4239 -4.4494 -0.9746 0.9819
-0.2285 -4.4638 -0.9747 0.9819
-0.1632 -4.4666 -0.9747 0.9819
0.0979 -4.4688 -0.9747 0.9819
0.2285 -4.4641 -0.9747 0.9819
0.4239 -4.4500 -0.9748 0.9819
0.4889 -4.4434 -0.9748 0.9819
0.5538 -4.4358 -0.9748 0.9819
0.6185 -4.4273 -0.9748 0.9819
1.0028 -4.3518 -0.9738 0.9819
1.0663 -4.3367 -0.9738 0.9819
1.2554 -4.2861 -0.9739 0.9819
1.3801 -4.2477 -0.9739 0.9819
1.5037 -4.2057 -0.9740 0.9819
1.6260 -4.1601 -0.9740 0.9819
1.8069 -4.0852 -0.9741 0.9819
1.8664 -4.0584 -0.9741 0.9819
1.9255 -4.0308 -0.9741 0.9819
1.9843 -4.0023 -0.9741 0.9819
2.1579 -3.9118 -0.9742 0.9819
2.3274 -3.8137 -0.9743 0.9819
2.4380 -3.7443 -0.9743 0.9819
2.5465 -3.6716 -0.9744 0.9819
2.6000 -3.6341 -0.9744 0.9819
2.6528 -3.5958 -0.9744 0.9819
2.7052 -3.5568 -0.9744 0.9819
2.8081 -3.4764 -0.9745 0.9819
2.9086 -3.3930 -0.9745 0.9819
3.2405 -3.0789 -0.9747 0.9819
3.2852 -3.0313 -0.9748 0.9819
3.3293 -2.9830 -0.9748 0.9819
3.3726 -2.9342 -0.9748 0.9819
3.4152 -2.8847 -0.9748 0.9819
3.4609 -2.8376 -0.9759 0.9818
3.5021 -2.7868 -0.9760 0.9818
3.5425 -2.7355 -0.9760 0.9818
3.7164 -2.6180 -0.9913 0.9816
3.7544 -2.5636 -0.9913 0.9816
3.8635 -2.3968 -0.9914 0.9816
3.8982 -2.3401 -0.9915 0.9816
3.9321 -2.2830 -0.9915 0.9816
3.9974 -2.1672 -0.9916 0.9816
4.0287 -2.1087 -0.9916 0.9816
4.1456 -1.8700 -0.9917 0.9816
4.1726 -1.8092 -0.9917 0.9816
4.1987 -1.7481 -0.9918 0.9816
4.2239 -1.6867 -0.9918 0.9816
4.2483 -1.6248 -0.9918 0.9816
4.2717 -1.5627 -0.9919 0.9816
4.2942 -1.5000 -0.9919 0.9816
4.3158 -1.4372 -0.9919 0.9815
4.3364 -1.3741 -0.9920 0.9815
4.3562 -1.3106 -0.9920 0.9815
4.4099 -1.1186 -0.9921 0.9815
4.4410 -0.9893 -0.9921 0.9815
4.4551 -0.9243 -0.9922 0.9815
4.4682 -0.8591 -0.9922 0.9815
4.4917 -0.7282 -0.9923 0.9815
4.5113 -0.5967 -0.9923 0.9815
4.5272 -0.4647 -0.9924 0.9815
4.5336 -0.3985 -0.9924 0.9815
4.5436 -0.2659 -0.9925 0.9815
4.5497 -0.1330 -0.9925 0.9815
4.5515 0.0665 -0.9926 0.9815
4.5479 0.1995 -0.9927 0.9815
4.5447 0.2659 -0.9927 0.9815
4.5352 0.3986 -0.9928 0.9815
4.5290 0.4648 -0.9928 0.9815
4.5047 0.6629 -0.9929 0.9815
4.4947 0.7287 -0.9929 0.9815
4.4837 0.7943 -0.9930 0.9815
4.4717 0.8598 -0.9930 0.9815
4.4301 1.0550 -0.9931 0.9815
4.3976 1.1841 -0.9931 0.9815
4.3800 1.2483 -0.9931 0.9815
4.3614 1.3121 -0.9932 0.9815
4.3418 1.3757 -0.9932 0.9815
4.2303 1.6892 -0.9933 0.9815
4.2053 1.7509 -0.9933 0.9815
4.1794 1.8122 -0.9934 0.9815
4.1248 1.9336 -0.9934 0.9815
4.0963 1.9937 -0.9934 0.9815
4.0668 2.0534 -0.9935 0.9815
4.0364 2.1127 -0.9935 0.9815
3.9731 2.2298 -0.9935 0.9815
3.8718 2.4020 -0.9936 0.9815
3.8002 2.5141 -0.9936 0.9815
3.6865 2.6784 -0.9937 0.9815
3.6068 2.7850 -0.9937 0.9815
3.5658 2.8375 -0.9937 0.9815
3.5240 2.8894 -0.9937 0.9815
3.4815 2.9406 -0.9938 0.9815
3.4382 2.9913 -0.9938 0.9815
3.3040 3.1391 -0.9938 0.9815
3.1633 3.2811 -0.9939 0.9815
3.0662 3.3722 -0.9939 0.9815
3.0167 3.4167 -0.9939 0.9815
2.9665 3.4604 -0.9939 0.9815
2.8121 3.5873 -0.9940 0.9815
2.7594 3.6280 -0.9940 0.9815
2.7061 3.6679 -0.9940 0.9815
2.6522 3.7071 -0.9940 0.9815
2.5428 3.7831 -0.9940 0.9815
2.4873 3.8199 -0.9940 0.9815
2.4312 3.8559 -0.9940 0.9815
2.3176 3.9254 -0.9940 0.9815
2.2600 3.9588 -0.9940 0.9815
2.2019 3.9914 -0.9940 0.9815
2.0843 4.0541 -0.9941 0.9815
2.0249 4.0841 -0.9941 0.9815
1.8440 4.1690 -0.9941 0.9815
1.7214 4.2211 -0.9941 0.9815
1.5973 4.2696 -0.9941 0.9815
1.5348 4.2926 -0.9941 0.9815
1.3452 4.3556 -0.9941 0.9815
1.2814 4.3748 -0.9941 0.9815
1.2173 4.3930 -0.9941 0.9815
1.1530 4.4104 -0.9941 0.9815
1.0884 4.4268 -0.9941 0.9815
0.9587 4.4566 -0.9941 0.9815
0.7624 4.4943 -0.9941 0.9815
0.6307 4.5146 -0.9940 0.9815
0.4985 4.5310 -0.9940 0.9815
0.2995 4.5485 -0.9940 0.9815
0.2330 4.5523 -0.9940 0.9815
0.0999 4.5571 -0.9940 0.9815
0.0333 4.5580 -0.9940 0.9815
-0.0333 4.5580 -0.9940 0.9815
-0.0999 4.5570 -0.9940 0.9815
-0.1665 4.5550 -0.9939 0.9815
-0.2995 4.5481 -0.9939 0.9815
-0.3659 4.5431 -0.9939 0.9815
-0.4322 4.5373 -0.9939 0.9815
-0.4985 4.5304 -0.9939 0.9815
-0.5647 4.5226 -0.9939 0.9815
-0.6306 4.5138 -0.9939 0.9815
-0.7622 4.4933 -0.9938 0.9815
-0.8278 4.4816 -0.9938 0.9815
-0.8932 4.4689 -0.9938 0.9815
-0.9584 4.4554 -0.9938 0.9815
-1.0234 4.4408 -0.9938 0.9815
-1.0881 4.4253 -0.9937 0.9815
-1.1526 4.4089 -0.9937 0.9815
-1.2169 4.3914 -0.9937 0.9815
-1.2809 4.3731 -0.9937 0.9815
-1.4081 4.3337 -0.9937 0.9815
-1.4712 4.3126 -0.9936 0.9815
-1.5341 4.2905 -0.9936 0.9815
-1.7205 4.2189 -0.9936 0.9815
-1.7819 4.1932 -0.9935 0.9815
-1.8430 4.1666 -0.9935 0.9815
-1.9036 4.1392 -0.9935 0.9815
-0.4094 0.7684 -0.1899 0.9964
-0.3583 0.6276 -0.1576 0.9970
-0.3420 0.5793 -0.1467 0.9972
-0.3397 0.5566 -0.1422 0.9973
-0.3422 0.5427 -0.1399 0.9974
-0.3509 0.4904 -0.1315 0.9975
-0.3546 0.4662 -0.1277 0.9976
-0.3562 0.4545 -0.1259 0.9976
-0.3579 0.4430 -0.1242 0.9977
-0.3608 0.4209 -0.1209 0.9977
-0.3624 0.4105 -0.1194 0.9978
-0.3645 0.4009 -0.1182 0.9978
-0.3704 0.3730 -0.1146 0.9979
-0.3722 0.3641 -0.1136 0.9979
-0.3749 0.3459 -0.1112 0.9979
-0.3760 0.3369 -0.1101 0.9979
-0.3771 0.3280 -0.1090 0.9980
-0.3799 0.3023 -0.1059 0.9980
-0.3815 0.2857 -0.1039 0.9981
-0.3822 0.2777 -0.1030 0.9981
-0.3829 0.2697 -0.1021 0.9981
-0.3835 0.2618 -0.1013 0.9981
-0.3841 0.2541 -0.1004 0.9981
-0.3852 0.2389 -0.0988 0.9981
-0.3861 0.2241 -0.0973 0.9982
-0.3868 0.2097 -0.0959 0.9982
-0.3871 0.2026 -0.0953 0.9982
-0.3878 0.1887 -0.0941 0.9982
-0.3885 0.1821 -0.0936 0.9982
-0.3895 0.1689 -0.0926 0.9983
-0.3903 0.1558 -0.0916 0.9983
-0.3906 0.1494 -0.0912 0.9983
-0.3920 0.1179 -0.0893 0.9983
-0.3922 0.1118 -0.0889 0.9983
-0.3923 0.1056 -0.0886 0.9983
-0.3926 0.0874 -0.0877 0.9984
-0.3926 0.0814 -0.0874 0.9984
-0.3926 0.0755 -0.0872 0.9984
-0.3926 0.0695 -0.0869 0.9984
-0.3925 0.0636 -0.0867 0.9984
-0.3924 0.0577 -0.0865 0.9984
-0.3923 0.0519 -0.0863 0.9984
-0.3921 0.0461 -0.0861 0.9984
-0.3918 0.0344 -0.0858 0.9984
-0.3916 0.0286 -0.0856 0.9984
-0.3913 0.0229 -0.0855 0.9984
-0.3907 0.0114 -0.0852 0.9984
-0.3832 0.0000 -0.0880 0.9984
-0.3853 -0.0509 -0.0893 0.9984
-0.3855 -0.0625 -0.0897 0.9984
-0.3855 -0.0683 -0.0899 0.9984
-0.3855 -0.0800 -0.0904 0.9984
-0.3855 -0.0859 -0.0907 0.9984
-0.3854 -0.0918 -0.0910 0.9984
-0.3853 -0.0977 -0.0913 0.9984
-0.3852 -0.1037 -0.0916 0.9984
-0.3848 -0.1158 -0.0923 0.9984
-0.3846 -0.1219 -0.0927 0.9983
-0.3840 -0.1341 -0.0934 0.9983
-0.3837 -0.1404 -0.0938 0.9983
-0.3829 -0.1529 -0.0947 0.9983
-0.3825 -0.1593 -0.0952 0.9983
-0.3816 -0.1721 -0.0961 0.9983
-0.3810 -0.1787 -0.0967 0.9983
-0.3803 -0.1852 -0.0972 0.9983
-0.3792 -0.1985 -0.0983 0.9982
-0.3788 -0.2054 -0.0990 0.9982
-0.3785 -0.2124 -0.0997 0.9982
-0.3758 -0.2487 -0.1035 0.9982
-0.3752 -0.2562 -0.1044 0.9981
-0.3738 -0.2716 -0.1061 0.9981
-0.3730 -0.2794 -0.1070 0.9981
-0.3713 -0.2954 -0.1090 0.9981
-0.3693 -0.3120 -0.1110 0.9980
-0.3635 -0.3556 -0.1168 0.9979
-0.3596 -0.3730 -0.1190 0.9979
-0.3575 -0.3818 -0.1201 0.9979
-0.3534 -0.4002 -0.1226 0.9978
-0.3511 -0.4096 -0.1239 0.9978
-0.3417 -0.4631 -0.1322 0.9976
-0.3354 -0.4989 -0.1381 0.9975
-0.3330 -0.5114 -0.1402 0.9975
-0.3280 -0.5375 -0.1446 0.9974
-0.3225 -0.5649 -0.1494 0.9973
-0.3335 -0.6045 -0.1586 0.9972
-0.3673 -0.7145 -0.1845 0.9967
-1.8272 -3.8247 -0.9736 0.9828
-1.7711 -3.8510 -0.9736 0.9828
-1.6578 -3.9011 -0.9736 0.9828
-1.6006 -3.9249 -0.9736 0.9828
-1.5431 -3.9479 -0.9736 0.9828
-1.1915 -4.0678 -0.9736 0.9828
-1.1319 -4.0848 -0.9736 0.9828
-0.7089 -4.1791 -0.9737 0.9828
-0.6478 -4.1890 -0.9737 0.9828
-0.5865 -4.1980 -0.9737 0.9828
-0.3403 -4.2253 -0.9737 0.9828
-0.2785 -4.2298 -0.9737 0.9828
-0.2167 -4.2334 -0.9737 0.9828
-0.0929 -4.2380 -0.9737 0.9828
0.0929 -4.2382 -0.9737 0.9828
0.2167 -4.2337 -0.9738 0.9828
0.3403 -4.2257 -0.9738 0.9828
0.7091 -4.1800 -0.9739 0.9827
0.7701 -4.1693 -0.9739 0.9827
0.8916 -4.1451 -0.9739 0.9827
0.9521 -4.1317 -0.9739 0.9827
1.0124 -4.1174 -0.9739 0.9827
1.1919 -4.0693 -0.9740 0.9827
1.2513 -4.0515 -0.9740 0.9827
1.3103 -4.0329 -0.9740 0.9827
1.3692 -4.0134 -0.9740 0.9827
1.5438 -3.9497 -0.9741 0.9827
1.6014 -3.9268 -0.9741 0.9827
1.7155 -3.8785 -0.9741 0.9827
1.7720 -3.8530 -0.9742 0.9827
1.8282 -3.8269 -0.9742 0.9827
1.9942 -3.7433 -0.9743 0.9827
2.0488 -3.7139 -0.9743 0.9827
2.4684 -3.4502 -0.9745 0.9827
2.5683 -3.3768 -0.9745 0.9827
2.6660 -3.3005 -0.9745 0.9827
2.7140 -3.2613 -0.9746 0.9827
2.7614 -3.2213 -0.9746 0.9827
2.8083 -3.1807 -0.9746 0.9827
2.8545 -3.1394 -0.9746 0.9827
2.9002 -3.0974 -0.9747 0.9827
2.9896 -3.0115 -0.9747 0.9827
3.0333 -2.9676 -0.9748 0.9827
3.1189 -2.8779 -0.9748 0.9827
3.1607 -2.8321 -0.9748 0.9827
3.3706 -2.6823 -0.9895 0.9825
3.4156 -2.6375 -0.9913 0.9824
3.4539 -2.5873 -0.9913 0.9824
3.4914 -2.5367 -0.9913 0.9824
3.5643 -2.4337 -0.9914 0.9824
3.6341 -2.3287 -0.9914 0.9824
3.7330 -2.1673 -0.9915 0.9824
3.8537 -1.9459 -0.9916 0.9824
3.8818 -1.8894 -0.9917 0.9824
3.9356 -1.7753 -0.9917 0.9824
4.0767 -1.4241 -0.9919 0.9824
4.1168 -1.3045 -0.9920 0.9824
4.1355 -1.2442 -0.9920 0.9824
4.1534 -1.1836 -0.9920 0.9824
4.2159 -0.9391 -0.9921 0.9824
4.2739 -0.6290 -0.9923 0.9824
4.2827 -0.5665 -0.9923 0.9824
4.2977 -0.4411 -0.9924 0.9824
4.3038 -0.3783 -0.9924 0.9824
4.3133 -0.2524 -0.9925 0.9824
4.3166 -0.1893 -0.9925 0.9824
4.3211 -0.0000 -0.9926 0.9824
4.3208 0.0632 -0.9926 0.9824
4.3173 0.1894 -0.9927 0.9824
4.3102 0.3155 -0.9927 0.9824
4.3053 0.3784 -0.9927 0.9824
4.2994 0.4413 -0.9928 0.9824
4.2926 0.5040 -0.9928 0.9824
4.2849 0.5668 -0.9928 0.9824
4.2763 0.6293 -0.9928 0.9824
4.2667 0.6918 -0.9929 0.9824
4.2563 0.7541 -0.9929 0.9824
4.2327 0.8782 -0.9930 0.9824
4.1904 1.0629 -0.9930 0.9824
4.1746 1.1240 -0.9931 0.9824
4.1578 1.1849 -0.9931 0.9824
4.1402 1.2455 -0.9931 0.9824
4.1216 1.3059 -0.9931 0.9824
4.1022 1.3661 -0.9932 0.9824
4.0819 1.4259 -0.9932 0.9824
4.0158 1.6035 -0.9932 0.9824
3.9156 1.8355 -0.9933 0.9824
3.8604 1.9493 -0.9934 0.9824
3.8316 2.0055 -0.9934 0.9824
3.8020 2.0613 -0.9934 0.9824
3.7715 2.1167 -0.9934 0.9824
3.7403 2.1716 -0.9935 0.9824
3.7082 2.2261 -0.9935 0.9824
3.6754 2.2800 -0.9935 0.9824
3.6073 2.3866 -0.9935 0.9824
3.5721 2.4391 -0.9936 0.9824
3.5362 2.4911 -0.9936 0.9824
3.4994 2.5425 -0.9936 0.9824
3.4620 2.5934 -0.9936 0.9824
3.3848 2.6935 -0.9936 0.9824
3.3452 2.7428 -0.9937 0.9824
3.2637 2.8394 -0.9937 0.9824
3.2219 2.8868 -0.9937 0.9824
3.0924 3.0254 -0.9937 0.9824
3.0480 3.0703 -0.9938 0.9824
3.0028 3.1145 -0.9938 0.9824
2.9106 3.2011 -0.9938 0.9824
2.8159 3.2848 -0.9938 0.9824
2.6693 3.4052 -0.9938 0.9824
2.6193 3.4438 -0.9939 0.9824
2.4659 3.5554 -0.9939 0.9824
2.4137 3.5910 -0.9939 0.9824
2.3610 3.6260 -0.9939 0.9824
2.3078 3.6602 -0.9939 0.9824
2.1999 3.7261 -0.9939 0.9824
2.0901 3.7888 -0.9939 0.9824
1.9221 3.8768 -0.9939 0.9824
1.7504 3.9573 -0.9940 0.9824
1.6924 3.9825 -0.9940 0.9824
1.5753 4.0302 -0.9940 0.9824
1.5162 4.0529 -0.9940 0.9824
1.4569 4.0746 -0.9940 0.9824
1.2769 4.1345 -0.9940 0.9824
1.1555 4.1701 -0.9940 0.9824
1.0945 4.1865 -0.9940 0.9824
0.9717 4.2166 -0.9940 0.9824
0.9100 4.2304 -0.9940 0.9824
0.8481 4.2432 -0.9940 0.9824
0.7237 4.2661 -0.9939 0.9824
0.4103 4.3075 -0.9939 0.9824
0.3474 4.3130 -0.9939 0.9824
0.1580 4.3240 -0.9939 0.9824
0.0316 4.3266 -0.9939 0.9824
-0.1580 4.3238 -0.9938 0.9824
-0.3473 4.3125 -0.9938 0.9824
-0.4103 4.3070 -0.9938 0.9824
-0.4732 4.3005 -0.9938 0.9824
-0.6612 4.2754 -0.9937 0.9824
-0.7858 4.2541 -0.9937 0.9824
-0.9097 4.2293 -0.9937 0.9824
-1.0329 4.2007 -0.9937 0.9824
-1.0942 4.1851 -0.9936 0.9824
-1.2764 4.1329 -0.9936 0.9824
-1.4562 4.0728 -0.9935 0.9824
-1.5155 4.0510 -0.9935 0.9824
-1.5746 4.0284 -0.9935 0.9824
-1.6332 4.0049 -0.9935 0.9824
-1.7495 3.9552 -0.9934 0.9824
-1.8070 3.9292 -0.9934 0.9824
-1.8642 3.9023 -0.9934 0.9824
-0.3674 0.7145 -0.1845 0.9967
-0.3335 0.6045 -0.1586 0.9972
-0.3225 0.5649 -0.1494 0.9973
-0.3280 0.5375 -0.1446 0.9974
-0.3306 0.5243 -0.1424 0.9975
-0.3376 0.4867 -0.1361 0.9976
-0.3417 0.4631 -0.1322 0.9976
-0.3454 0.4405 -0.1286 0.9977
-0.3471 0.4296 -0.1269 0.9977
-0.3511 0.4096 -0.1239 0.9978
-0.3534 0.4002 -0.1226 0.9978
-0.3555 0.3909 -0.1214 0.9978
-0.3575 0.3818 -0.1201 0.9979
-0.3596 0.3729 -0.1190 0.9979
-0.3635 0.3556 -0.1168 0.9979
-0.3648 0.3466 -0.1156 0.9979
-0.3660 0.3377 -0.1144 0.9980
-0.3703 0.3036 -0.1100 0.9980
-0.3712 0.2954 -0.1090 0.9981
-0.3721 0.2873 -0.1080 0.9981
-0.3758 0.2486 -0.1035 0.9982
-0.3770 0.2339 -0.1019 0.9982
-0.3780 0.2195 -0.1004 0.9982
-0.3789 0.2054 -0.0990 0.9982
-0.3792 0.1984 -0.0983 0.9982
-0.3795 0.1916 -0.0977 0.9983
-0.3803 0.1851 -0.0972 0.9983
-0.3810 0.1786 -0.0967 0.9983
-0.3815 0.1721 -0.0961 0.9983
-0.3821 0.1657 -0.0957 0.9983
-0.3825 0.1592 -0.0952 0.9983
-0.3840 0.1341 -0.0934 0.9983
-0.3843 0.1280 -0.0930 0.9983
-0.3846 0.1218 -0.0927 0.9983
-0.3848 0.1158 -0.0923 0.9984
-0.3854 0.0918 -0.0910 0.9984
-0.3855 0.0625 -0.0897 0.9984
-0.3854 0.0567 -0.0895 0.9984
-0.3853 0.0510 -0.0893 0.9984
-0.3850 0.0395 -0.0889 0.9984
-0.3844 0.0225 -0.0884 0.9984
-0.3841 0.0169 -0.0883 0.9984
-0.3765 -0.0000 -0.0909 0.9985
-0.3769 -0.0055 -0.0910 0.9985
-0.3772 -0.0111 -0.0911 0.9984
-0.3779 -0.0277 -0.0915 0.9984
-0.3781 -0.0332 -0.0916 0.9984
-0.3787 -0.0671 -0.0928 0.9984
-0.3785 -0.0902 -0.0939 0.9984
-0.3784 -0.0960 -0.0942 0.9984
-0.3780 -0.1077 -0.0949 0.9984
-0.3778 -0.1137 -0.0952 0.9984
-0.3776 -0.1196 -0.0956 0.9984
-0.3773 -0.1257 -0.0960 0.9984
-0.3766 -0.1378 -0.0968 0.9984
-0.3758 -0.1501 -0.0977 0.9983
-0.3754 -0.1563 -0.0982 0.9983
-0.3749 -0.1626 -0.0986 0.9983
-0.3744 -0.1689 -0.0991 0.9983
-0.3738 -0.1752 -0.0997 0.9983
-0.3722 -0.1880 -0.1007 0.9983
-0.3707 -0.2081 -0.1026 0.9983
-0.3685 -0.2362 -0.1057 0.9982
-0.3648 -0.2733 -0.1100 0.9981
-0.3630 -0.2889 -0.1120 0.9981
-0.3598 -0.3130 -0.1151 0.9980
-0.3587 -0.3214 -0.1163 0.9980
-0.3562 -0.3384 -0.1186 0.9980
-0.3548 -0.3471 -0.1198 0.9980
-0.3531 -0.3557 -0.1210 0.9979
-0.3511 -0.3641 -0.1221 0.9979
-0.3447 -0.3904 -0.1257 0.9979
-0.3424 -0.3995 -0.1270 0.9978
-0.3401 -0.4087 -0.1284 0.9978
-0.3377 -0.4181 -0.1297 0.9978
-0.3332 -0.4381 -0.1329 0.9977
-0.3312 -0.4489 -0.1347 0.9977
-0.3269 -0.4714 -0.1385 0.9976
-0.3246 -0.4830 -0.1405 0.9976
-0.3171 -0.5195 -0.1469 0.9975
-0.3114 -0.5454 -0.1516 0.9974
-0.3083 -0.5589 -0.1541 0.9974
-0.3237 -0.6296 -0.1709 0.9971
-1.6317 -3.6890 -0.9737 0.9835
-1.5232 -3.7351 -0.9737 0.9835
-1.4134 -3.7780 -0.9737 0.9835
-1.2465 -3.8363 -0.9737 0.9835
-1.1903 -3.8541 -0.9737 0.9835
-1.0772 -3.8872 -0.9737 0.9835
-1.0203 -3.9026 -0.9737 0.9835
-0.9058 -3.9307 -0.9737 0.9835
-0.7906 -3.9555 -0.9737 0.9835
-0.6747 -3.9770 -0.9737 0.9835
-0.5582 -3.9950 -0.9738 0.9835
-0.4997 -4.0029 -0.9738 0.9835
-0.4412 -4.0097 -0.9738 0.9835
-0.3826 -4.0158 -0.9738 0.9835
-0.2651 -4.0253 -0.9738 0.9835
-0.1473 -4.0314 -0.9738 0.9835
-0.0295 -4.0340 -0.9738 0.9835
0.2062 -4.0290 -0.9739 0.9835
0.3826 -4.0162 -0.9739 0.9835
0.7328 -3.9676 -0.9740 0.9835
0.8485 -3.9446 -0.9740 0.9835
0.9060 -3.9318 -0.9740 0.9835
1.0206 -3.9038 -0.9740 0.9835
1.4140 -3.7796 -0.9741 0.9835
1.5239 -3.7368 -0.9742 0.9835
1.6325 -3.6908 -0.9742 0.9835
1.7928 -3.6159 -0.9743 0.9835
1.8455 -3.5895 -0.9743 0.9835
1.8977 -3.5622 -0.9743 0.9835
1.9496 -3.5342 -0.9743 0.9835
2.0011 -3.5054 -0.9744 0.9835
2.0521 -3.4758 -0.9744 0.9835
2.1529 -3.4145 -0.9744 0.9835
2.2026 -3.3827 -0.9744 0.9835
2.3489 -3.2832 -0.9745 0.9835
2.4440 -3.2133 -0.9746 0.9835
2.5826 -3.1034 -0.9746 0.9835
2.8026 -2.9070 -0.9747 0.9835
2.9307 -2.7845 -0.9759 0.9835
2.9712 -2.7416 -0.9759 0.9835
3.0178 -2.7040 -0.9782 0.9835
3.1369 -2.6496 -0.9912 0.9832
3.2502 -2.5098 -0.9913 0.9832
3.3574 -2.3651 -0.9914 0.9832
3.3917 -2.3159 -0.9914 0.9832
3.4253 -2.2661 -0.9914 0.9832
3.6111 -1.9579 -0.9916 0.9832
3.6670 -1.8516 -0.9916 0.9832
3.7449 -1.6892 -0.9917 0.9832
3.7693 -1.6344 -0.9918 0.9832
3.7929 -1.5792 -0.9918 0.9832
3.8376 -1.4678 -0.9918 0.9832
3.8588 -1.4116 -0.9919 0.9832
3.8791 -1.3552 -0.9919 0.9832
3.9173 -1.2412 -0.9920 0.9832
3.9521 -1.1263 -0.9920 0.9832
3.9682 -1.0685 -0.9920 0.9832
3.9836 -1.0104 -0.9921 0.9832
3.9980 -0.9521 -0.9921 0.9832
4.0362 -0.7761 -0.9922 0.9832
4.0667 -0.5985 -0.9923 0.9832
4.0751 -0.5390 -0.9923 0.9832
4.0827 -0.4795 -0.9923 0.9832
4.0894 -0.4198 -0.9924 0.9832
4.1001 -0.3001 -0.9924 0.9832
4.1042 -0.2402 -0.9924 0.9832
4.1074 -0.1802 -0.9925 0.9832
4.1097 -0.1202 -0.9925 0.9832
4.1111 -0.0601 -0.9925 0.9832
4.0909 0.4199 -0.9927 0.9832
4.0845 0.4796 -0.9928 0.9832
4.0689 0.5988 -0.9928 0.9832
4.0499 0.7175 -0.9929 0.9832
4.0391 0.7766 -0.9929 0.9832
4.0274 0.8355 -0.9929 0.9832
4.0014 0.9530 -0.9930 0.9832
3.9721 1.0695 -0.9930 0.9832
3.9393 1.1852 -0.9930 0.9832
3.9217 1.2426 -0.9931 0.9832
3.8839 1.3567 -0.9931 0.9832
3.8637 1.4134 -0.9931 0.9832
3.8427 1.4697 -0.9932 0.9832
3.8209 1.5257 -0.9932 0.9832
3.7983 1.5815 -0.9932 0.9832
3.7256 1.7465 -0.9933 0.9832
3.5885 2.0140 -0.9934 0.9832
3.5588 2.0662 -0.9934 0.9832
3.4323 2.2707 -0.9935 0.9832
3.3645 2.3701 -0.9935 0.9832
3.3296 2.4191 -0.9935 0.9832
3.2940 2.4675 -0.9935 0.9832
3.2576 2.5155 -0.9935 0.9832
3.1828 2.6096 -0.9936 0.9832
3.1444 2.6559 -0.9936 0.9832
3.0656 2.7467 -0.9936 0.9832
3.0251 2.7912 -0.9936 0.9832
2.9424 2.8785 -0.9937 0.9832
2.8571 2.9634 -0.9937 0.9832
2.8135 3.0048 -0.9937 0.9832
2.7693 3.0457 -0.9937 0.9832
2.7245 3.0859 -0.9937 0.9832
2.6792 3.1254 -0.9937 0.9832
2.6333 3.1642 -0.9937 0.9832
2.5868 3.2023 -0.9937 0.9832
2.4922 3.2766 -0.9938 0.9832
2.4440 3.3127 -0.9938 0.9832
2.3954 3.3481 -0.9938 0.9832
2.2966 3.4168 -0.9938 0.9832
2.2464 3.4499 -0.9938 0.9832
2.0931 3.5452 -0.9938 0.9832
2.0411 3.5754 -0.9938 0.9832
1.9358 3.6335 -0.9938 0.9832
1.8825 3.6614 -0.9938 0.9832
1.8288 3.6886 -0.9939 0.9832
1.7202 3.7405 -0.9939 0.9832
1.6102 3.7892 -0.9939 0.9832
1.5547 3.8123 -0.9939 0.9832
1.3293 3.8966 -0.9939 0.9832
1.2723 3.9156 -0.9939 0.9832
1.0995 3.9676 -0.9939 0.9832
0.9831 3.9980 -0.9939 0.9832
0.6292 4.0687 -0.9938 0.9832
0.5697 4.0774 -0.9938 0.9832
0.3904 4.0984 -0.9938 0.9832
0.3305 4.1036 -0.9938 0.9832
0.2705 4.1080 -0.9938 0.9832
0.2104 4.1114 -0.9938 0.9832
0.1504 4.1140 -0.9938 0.9832
0.0902 4.1158 -0.9938 0.9832
-0.2105 4.1112 -0.9937 0.9832
-0.3305 4.1032 -0.9937 0.9832
-0.3904 4.0979 -0.9937 0.9832
-0.4502 4.0917 -0.9937 0.9832
-0.5100 4.0846 -0.9937 0.9832
-0.5696 4.0767 -0.9937 0.9832
-0.6291 4.0679 -0.9937 0.9832
-0.7477 4.0477 -0.9936 0.9832
-0.8067 4.0363 -0.9936 0.9832
-0.9828 3.9968 -0.9936 0.9832
-1.0991 3.9663 -0.9935 0.9832
-1.2718 3.9141 -0.9935 0.9832
-1.3288 3.8951 -0.9935 0.9832
-1.3856 3.8752 -0.9935 0.9832
-1.4420 3.8545 -0.9934 0.9832
-1.4982 3.8329 -0.9934 0.9832
-1.5540 3.8105 -0.9934 0.9832
-1.6646 3.7634 -0.9934 0.9832
-0.3388 0.6832 -0.1841 0.9969
-0.3106 0.5829 -0.1594 0.9973
-0.3083 0.5588 -0.1541 0.9974
-0.3113 0.5454 -0.1516 0.9974
-0.3222 0.4948 -0.1426 0.9976
-0.3247 0.4830 -0.1405 0.9976
-0.3269 0.4714 -0.1385 0.9976
-0.3291 0.4600 -0.1365 0.9977
-0.3352 0.4276 -0.1312 0.9978
-0.3424 0.3995 -0.1270 0.9978
-0.3447 0.3904 -0.1257 0.9979
-0.3490 0.3727 -0.1233 0.9979
-0.3531 0.3557 -0.1210 0.9979
-0.3548 0.3471 -0.1198 0.9980
-0.3575 0.3298 -0.1174 0.9980
-0.3630 0.2888 -0.1120 0.9981
-0.3648 0.2733 -0.1100 0.9981
-0.3672 0.2507 -0.1073 0.9982
-0.3679 0.2434 -0.1065 0.9982
-0.3703 0.2149 -0.1033 0.9982
-0.3707 0.2080 -0.1026 0.9983
-0.3712 0.2012 -0.1019 0.9983
-0.3738 0.1752 -0.0997 0.9983
-0.3744 0.1688 -0.0991 0.9983
-0.3749 0.1625 -0.0986 0.9983
-0.3754 0.1563 -0.0982 0.9983
-0.3758 0.1501 -0.0977 0.9983
-0.3766 0.1377 -0.0968 0.9984
-0.3776 0.1196 -0.0956 0.9984
-0.3778 0.1137 -0.0952 0.9984
-0.3780 0.1077 -0.0949 0.9984
-0.3782 0.1018 -0.0946 0.9984
-0.3787 0.0671 -0.0928 0.9984
-0.3787 0.0614 -0.0926 0.9984
-0.3786 0.0557 -0.0924 0.9984
-0.3785 0.0445 -0.0920 0.9984
-0.3783 0.0388 -0.0918 0.9984
-0.3781 0.0332 -0.0916 0.9984
-0.3780 0.0277 -0.0915 0.9984
-0.3777 0.0221 -0.0913 0.9984
-0.3775 0.0166 -0.0912 0.9984
-0.3772 0.0110 -0.0911 0.9984
-0.3769 0.0055 -0.0910 0.9985
-0.3704 -0.0054 -0.0938 0.9985
-0.3710 -0.0163 -0.0940 0.9985
-0.3712 -0.0218 -0.0941 0.9985
-0.3715 -0.0272 -0.0943 0.9985
-0.3718 -0.0382 -0.0946 0.9985
-0.3719 -0.0437 -0.0948 0.9985
-0.3720 -0.0492 -0.0950 0.9985
-0.3720 -0.0548 -0.0952 0.9984
-0.3721 -0.0660 -0.0957 0.9984
-0.3721 -0.0716 -0.0959 0.9984
-0.3720 -0.0772 -0.0962 0.9984
-0.3719 -0.0829 -0.0965 0.9984
-0.3718 -0.0886 -0.0968 0.9984
-0.3715 -0.1000 -0.0974 0.9984
-0.3713 -0.1059 -0.0977 0.9984
-0.3710 -0.1117 -0.0981 0.9984
-0.3701 -0.1293 -0.0993 0.9984
-0.3698 -0.1353 -0.0997 0.9984
-0.3674 -0.1657 -0.1020 0.9983
-0.3668 -0.1720 -0.1026 0.9983
-0.3643 -0.1907 -0.1041 0.9983
-0.3637 -0.1972 -0.1047 0.9983
-0.3633 -0.2039 -0.1055 0.9983
-0.3627 -0.2106 -0.1062 0.9983
-0.3616 -0.2243 -0.1077 0.9982
-0.3609 -0.2313 -0.1085 0.9982
-0.3595 -0.2455 -0.1102 0.9982
-0.3587 -0.2527 -0.1111 0.9982
-0.3570 -0.2674 -0.1129 0.9982
-0.3560 -0.2750 -0.1139 0.9981
-0.3550 -0.2826 -0.1149 0.9981
-0.3517 -0.3060 -0.1180 0.9981
-0.3493 -0.3223 -0.1203 0.9980
-0.3479 -0.3306 -0.1215 0.9980
-0.3429 -0.3557 -0.1251 0.9980
-0.3408 -0.3640 -0.1262 0.9979
-0.3386 -0.3724 -0.1274 0.9979
-0.3341 -0.3897 -0.1300 0.9979
-0.3293 -0.4077 -0.1327 0.9978
-0.3242 -0.4262 -0.1356 0.9978
-0.3192 -0.4461 -0.1389 0.9977
-0.3145 -0.4680 -0.1427 0.9977
-0.3120 -0.4793 -0.1448 0.9976
-0.3039 -0.5148 -0.1513 0.9975
-0.3009 -0.5272 -0.1537 0.9975
-0.2945 -0.5529 -0.1586 0.9974
-0.3125 -0.6542 -0.1835 0.9970
-0.3430 -0.7754 -0.2146 0.9965
-1.5045 -3.5403 -0.9738 0.9843
-1.4526 -3.5619 -0.9738 0.9843
-1.4004 -3.5828 -0.9738 0.9843
-1.3479 -3.6028 -0.9738 0.9843
-1.1887 -3.6584 -0.9738 0.9843
-1.1351 -3.6754 -0.9738 0.9843
-1.0813 -3.6916 -0.9738 0.9843
-0.9730 -3.7216 -0.9738 0.9843
-0.9185 -3.7355 -0.9738 0.9843
-0.8089 -3.7607 -0.9738 0.9843
-0.6987 -3.7828 -0.9738 0.9843
-0.5323 -3.8098 -0.9738 0.9843
-0.3089 -3.8345 -0.9739 0.9843
-0.1967 -3.8420 -0.9739 0.9843
-0.0843 -3.8461 -0.9739 0.9843
0.0281 -3.8470 -0.9739 0.9843
0.0843 -3.8462 -0.9739 0.9843
0.1405 -3.8446 -0.9739 0.9843
0.1967 -3.8421 -0.9739 0.9843
0.2528 -3.8389 -0.9739 0.9843
0.4208 -3.8243 -0.9740 0.9843
0.4766 -3.8177 -0.9740 0.9843
0.5880 -3.8023 -0.9740 0.9842
0.6988 -3.7837 -0.9740 0.9842
0.7541 -3.7730 -0.9741 0.9842
0.8640 -3.7495 -0.9741 0.9842
0.9187 -3.7365 -0.9741 0.9842
1.0275 -3.7082 -0.9741 0.9842
1.0817 -3.6929 -0.9741 0.9842
1.1355 -3.6767 -0.9742 0.9842
1.1891 -3.6598 -0.9742 0.9842
1.4532 -3.5635 -0.9743 0.9842
1.5052 -3.5419 -0.9743 0.9842
1.5568 -3.5196 -0.9743 0.9842
1.6081 -3.4966 -0.9743 0.9842
1.6590 -3.4728 -0.9743 0.9842
1.7096 -3.4482 -0.9743 0.9842
1.7598 -3.4230 -0.9744 0.9842
1.8097 -3.3970 -0.9744 0.9842
1.8592 -3.3702 -0.9744 0.9842
1.9083 -3.3427 -0.9744 0.9842
2.0052 -3.2857 -0.9745 0.9842
2.0531 -3.2561 -0.9745 0.9842
2.2855 -3.0979 -0.9746 0.9842
2.3752 -3.0299 -0.9746 0.9842
2.4192 -2.9949 -0.9746 0.9842
2.5483 -2.8863 -0.9747 0.9842
2.5903 -2.8487 -0.9747 0.9842
2.6345 -2.8138 -0.9758 0.9842
2.7158 -2.7357 -0.9759 0.9842
2.7640 -2.7041 -0.9789 0.9842
2.8291 -2.6879 -0.9879 0.9840
2.9160 -2.6128 -0.9912 0.9840
2.9540 -2.5700 -0.9912 0.9840
2.9913 -2.5266 -0.9912 0.9840
3.0640 -2.4382 -0.9913 0.9840
3.2015 -2.2553 -0.9914 0.9840
3.2342 -2.2084 -0.9914 0.9840
3.2662 -2.1609 -0.9915 0.9840
3.2975 -2.1130 -0.9915 0.9840
3.3581 -2.0159 -0.9915 0.9840
3.3872 -1.9666 -0.9916 0.9840
3.4157 -1.9170 -0.9916 0.9840
3.4967 -1.7656 -0.9917 0.9840
3.5222 -1.7144 -0.9917 0.9840
3.5710 -1.6108 -0.9917 0.9840
3.5943 -1.5585 -0.9918 0.9840
3.6167 -1.5059 -0.9918 0.9840
3.6594 -1.3996 -0.9918 0.9840
3.6796 -1.3460 -0.9919 0.9840
3.6989 -1.2921 -0.9919 0.9840
3.7175 -1.2380 -0.9919 0.9840
3.7523 -1.1289 -0.9920 0.9840
3.7685 -1.0740 -0.9920 0.9840
3.7985 -0.9634 -0.9921 0.9840
3.8374 -0.7962 -0.9921 0.9840
3.8487 -0.7400 -0.9922 0.9840
3.8777 -0.5707 -0.9923 0.9840
3.8930 -0.4572 -0.9923 0.9840
3.8993 -0.4002 -0.9923 0.9840
3.9096 -0.2862 -0.9924 0.9840
3.9134 -0.2291 -0.9924 0.9840
3.9187 -0.1146 -0.9925 0.9840
3.9200 -0.0573 -0.9925 0.9840
3.9191 0.1146 -0.9926 0.9840
3.9171 0.1718 -0.9926 0.9840
3.9143 0.2291 -0.9926 0.9840
3.9106 0.2862 -0.9926 0.9840
3.9061 0.3433 -0.9927 0.9840
3.8711 0.6276 -0.9928 0.9839
3.8401 0.7967 -0.9929 0.9839
3.8282 0.8527 -0.9929 0.9839
3.8154 0.9086 -0.9929 0.9839
3.8018 0.9643 -0.9929 0.9839
3.7874 1.0198 -0.9930 0.9839
3.7561 1.1301 -0.9930 0.9839
3.7393 1.1849 -0.9930 0.9839
3.6840 1.3476 -0.9931 0.9839
3.6640 1.4014 -0.9931 0.9839
3.6432 1.4548 -0.9931 0.9839
3.5523 1.6652 -0.9932 0.9839
3.5023 1.7684 -0.9932 0.9839
3.4761 1.8194 -0.9933 0.9839
3.4216 1.9204 -0.9933 0.9839
3.3642 2.0195 -0.9933 0.9839
3.3344 2.0685 -0.9934 0.9839
3.3038 2.1170 -0.9934 0.9839
3.2407 2.2127 -0.9934 0.9839
3.2080 2.2598 -0.9934 0.9839
3.1407 2.3527 -0.9934 0.9839
2.9981 2.5323 -0.9935 0.9839
2.9229 2.6189 -0.9935 0.9839
2.8844 2.6614 -0.9935 0.9839
2.8452 2.7033 -0.9936 0.9839
2.8055 2.7446 -0.9936 0.9839
2.7241 2.8255 -0.9936 0.9839
2.6826 2.8650 -0.9936 0.9839
2.6404 2.9039 -0.9936 0.9839
2.5545 2.9799 -0.9936 0.9839
2.4216 3.0891 -0.9937 0.9839
2.3762 3.1242 -0.9937 0.9839
2.3303 3.1586 -0.9937 0.9839
2.1897 3.2577 -0.9937 0.9839
2.1419 3.2894 -0.9937 0.9839
2.0936 3.3204 -0.9937 0.9839
1.9461 3.4090 -0.9937 0.9839
1.8961 3.4371 -0.9937 0.9839
1.8457 3.4645 -0.9938 0.9839
1.7949 3.4910 -0.9938 0.9839
1.7437 3.5170 -0.9938 0.9839
1.6921 3.5420 -0.9938 0.9839
1.6402 3.5664 -0.9938 0.9839
1.5879 3.5900 -0.9938 0.9839
1.5353 3.6128 -0.9938 0.9839
1.4291 3.6562 -0.9938 0.9839
1.3755 3.6766 -0.9938 0.9839
1.3216 3.6964 -0.9938 0.9839
1.2675 3.7153 -0.9938 0.9839
1.2130 3.7334 -0.9938 0.9839
1.1035 3.7673 -0.9938 0.9839
1.0483 3.7830 -0.9938 0.9839
0.9373 3.8120 -0.9938 0.9839
0.8815 3.8253 -0.9938 0.9839
0.7130 3.8602 -0.9938 0.9839
0.6565 3.8701 -0.9938 0.9839
0.5999 3.8793 -0.9938 0.9839
0.5431 3.8877 -0.9937 0.9839
0.4863 3.8952 -0.9937 0.9839
0.4293 3.9018 -0.9937 0.9839
0.3723 3.9077 -0.9937 0.9839
0.2579 3.9168 -0.9937 0.9839
0.2006 3.9201 -0.9937 0.9839
0.1433 3.9227 -0.9937 0.9839
0.0860 3.9243 -0.9937 0.9839
-0.2006 3.9199 -0.9937 0.9839
-0.2579 3.9166 -0.9936 0.9839
-0.4293 3.9013 -0.9936 0.9839
-0.4862 3.8945 -0.9936 0.9839
-0.5431 3.8870 -0.9936 0.9839
-0.7129 3.8594 -0.9935 0.9839
-0.8813 3.8243 -0.9935 0.9839
-0.9926 3.7967 -0.9935 0.9839
-1.0480 3.7818 -0.9935 0.9839
-1.2126 3.7320 -0.9934 0.9839
-1.2670 3.7139 -0.9934 0.9839
-1.3211 3.6949 -0.9934 0.9839
-1.3750 3.6752 -0.9934 0.9839
-0.3267 0.7103 -0.1979 0.9968
-0.2911 0.5662 -0.1612 0.9974
-0.2945 0.5528 -0.1586 0.9974
-0.2978 0.5398 -0.1561 0.9975
-0.3039 0.5147 -0.1513 0.9975
-0.3121 0.4792 -0.1448 0.9976
-0.3145 0.4680 -0.1427 0.9977
-0.3169 0.4569 -0.1408 0.9977
-0.3192 0.4461 -0.1389 0.9977
-0.3242 0.4262 -0.1356 0.9978
-0.3293 0.4077 -0.1327 0.9978
-0.3317 0.3986 -0.1313 0.9979
-0.3341 0.3897 -0.1300 0.9979
-0.3386 0.3724 -0.1274 0.9979
-0.3408 0.3640 -0.1262 0.9979
-0.3430 0.3557 -0.1251 0.9980
-0.3450 0.3475 -0.1240 0.9980
-0.3465 0.3390 -0.1227 0.9980
-0.3479 0.3305 -0.1215 0.9980
-0.3493 0.3222 -0.1203 0.9980
-0.3505 0.3141 -0.1191 0.9981
-0.3517 0.3060 -0.1180 0.9981
-0.3540 0.2902 -0.1159 0.9981
-0.3550 0.2825 -0.1149 0.9981
-0.3560 0.2749 -0.1139 0.9981
-0.3579 0.2600 -0.1120 0.9982
-0.3587 0.2527 -0.1111 0.9982
-0.3609 0.2313 -0.1085 0.9982
-0.3627 0.2106 -0.1062 0.9983
-0.3633 0.2039 -0.1055 0.9983
-0.3638 0.1972 -0.1047 0.9983
-0.3643 0.1906 -0.1041 0.9983
-0.3652 0.1844 -0.1036 0.9983
-0.3660 0.1781 -0.1031 0.9983
-0.3674 0.1657 -0.1020 0.9983
-0.3689 0.1473 -0.1006 0.9984
-0.3698 0.1353 -0.0997 0.9984
-0.3701 0.1293 -0.0993 0.9984
-0.3708 0.1175 -0.0985 0.9984
-0.3711 0.1116 -0.0981 0.9984
