ply
format ascii 1.0
element vertex 1593
property float32 x
property float32 y
property float32 z
property float32 I
end_header
-0.2656 3.2986 -0.9957 0.9863
-0.3619 3.2892 -0.9957 0.9863
-0.4099 3.2835 -0.9956 0.9863
-0.6958 3.2345 -0.9955 0.9863
-0.8367 3.2006 -0.9954 0.9863
-0.8834 3.1880 -0.9954 0.9863
-0.9299 3.1747 -0.9954 0.9863
-0.9761 3.1607 -0.9953 0.9863
-1.0222 3.1460 -0.9953 0.9863
-0.2451 0.6855 -0.2190 0.9970
-0.2511 0.5064 -0.1701 0.9976
-0.2547 0.4955 -0.1676 0.9977
-0.2583 0.4848 -0.1653 0.9977
-0.2654 0.4648 -0.1610 0.9978
-0.2758 0.4375 -0.1556 0.9978
-0.2822 0.4199 -0.1522 0.9979
-0.2853 0.4113 -0.1506 0.9979
-0.2882 0.4029 -0.1491 0.9979
-0.2911 0.3946 -0.1475 0.9980
-0.2939 0.3864 -0.1461 0.9980
-0.3018 0.3627 -0.1420 0.9980
-0.3043 0.3550 -0.1407 0.9980
-0.3090 0.3399 -0.1382 0.9981
-0.3180 0.3021 -0.1320 0.9982
-0.3195 0.2948 -0.1308 0.9982
-0.3209 0.2875 -0.1297 0.9982
-0.3223 0.2804 -0.1285 0.9982
-0.3236 0.2734 -0.1275 0.9982
-0.3248 0.2664 -0.1264 0.9982
-0.3272 0.2526 -0.1244 0.9983
-0.3293 0.2393 -0.1225 0.9983
-0.3303 0.2327 -0.1216 0.9983
-0.3321 0.2197 -0.1198 0.9983
-0.3337 0.2070 -0.1182 0.9984
-0.3345 0.2008 -0.1174 0.9984
-0.3352 0.1946 -0.1166 0.9984
-0.3362 0.1887 -0.1160 0.9984
-0.3372 0.1828 -0.1154 0.9984
-0.3382 0.1770 -0.1148 0.9984
-0.3400 0.1655 -0.1138 0.9984
-0.3415 0.1541 -0.1127 0.9984
-0.3422 0.1484 -0.1122 0.9984
-0.3427 0.1427 -0.1117 0.9985
-0.3433 0.1371 -0.1112 0.9985
-0.3443 0.1259 -0.1103 0.9985
-0.3448 0.1204 -0.1099 0.9985
-0.3452 0.1150 -0.1095 0.9985
-0.3456 0.1095 -0.1091 0.9985
-0.3459 0.1041 -0.1087 0.9985
-0.3465 0.0933 -0.1080 0.9985
-0.3471 0.0773 -0.1070 0.9985
-0.3474 0.0668 -0.1064 0.9985
-0.3475 0.0616 -0.1062 0.9985
-0.3475 0.0511 -0.1057 0.9985
-0.3475 0.0460 -0.1055 0.9985
-0.3474 0.0357 -0.1051 0.9985
-0.3468 0.0152 -0.1045 0.9986
-0.3466 0.0101 -0.1043 0.9986
-0.3463 0.0051 -0.1042 0.9986
-0.3404 0.0000 -0.1066 0.9986
-0.3407 -0.0050 -0.1067 0.9986
-0.3412 -0.0150 -0.1069 0.9986
-0.3418 -0.0402 -0.1077 0.9986
-0.3418 -0.0503 -0.1081 0.9986
-0.3418 -0.0554 -0.1084 0.9985
-0.3417 -0.0606 -0.1086 0.9985
-0.3416 -0.0657 -0.1089 0.9985
-0.3415 -0.0709 -0.1092 0.9985
-0.3413 -0.0760 -0.1095 0.9985
-0.3409 -0.0865 -0.1101 0.9985
-0.3404 -0.0970 -0.1108 0.9985
-0.3400 -0.1023 -0.1112 0.9985
-0.3384 -0.1237 -0.1128 0.9985
-0.3368 -0.1402 -0.1142 0.9985
-0.3362 -0.1458 -0.1147 0.9985
-0.3355 -0.1514 -0.1152 0.9985
-0.3348 -0.1570 -0.1157 0.9985
-0.3340 -0.1625 -0.1163 0.9984
-0.3331 -0.1682 -0.1168 0.9984
-0.3311 -0.1795 -0.1179 0.9984
-0.3301 -0.1853 -0.1185 0.9984
-0.3265 -0.2092 -0.1214 0.9984
-0.3257 -0.2154 -0.1222 0.9984
-0.3247 -0.2218 -0.1231 0.9984
-0.3182 -0.2609 -0.1288 0.9983
-0.3169 -0.2677 -0.1299 0.9983
-0.3156 -0.2746 -0.1309 0.9982
-0.3142 -0.2815 -0.1321 0.9982
-0.3127 -0.2886 -0.1332 0.9982
-0.3023 -0.3325 -0.1407 0.9981
-0.2898 -0.3698 -0.1471 0.9980
-0.2871 -0.3775 -0.1484 0.9980
-0.2843 -0.3853 -0.1499 0.9980
-0.2814 -0.3934 -0.1514 0.9980
-0.2785 -0.4015 -0.1529 0.9980
-0.2754 -0.4097 -0.1545 0.9979
-0.2690 -0.4266 -0.1579 0.9979
-0.2622 -0.4441 -0.1614 0.9978
-0.2586 -0.4530 -0.1633 0.9978
-0.2510 -0.4712 -0.1671 0.9978
-0.2433 -0.4907 -0.1714 0.9977
-0.2227 -0.5460 -0.1846 0.9975
-0.2175 -0.6084 -0.2023 0.9973
-0.2224 -0.6521 -0.2157 0.9971
-0.8362 -3.0177 -0.9802 0.9870
-0.7920 -3.0296 -0.9802 0.9870
-0.7477 -3.0410 -0.9802 0.9870
-0.7032 -3.0516 -0.9802 0.9870
-0.6586 -3.0617 -0.9803 0.9870
-0.6138 -3.0711 -0.9803 0.9870
-0.5689 -3.0797 -0.9803 0.9870
-0.5238 -3.0878 -0.9803 0.9870
-0.4786 -3.0952 -0.9804 0.9870
-0.4334 -3.1020 -0.9804 0.9870
-0.3880 -3.1080 -0.9804 0.9870
-0.2971 -3.1182 -0.9805 0.9870
-0.2515 -3.1223 -0.9805 0.9870
-0.2058 -3.1257 -0.9805 0.9870
-0.1144 -3.1305 -0.9806 0.9870
-0.0686 -3.1320 -0.9806 0.9870
-0.0229 -3.1328 -0.9806 0.9870
0.0229 -3.1328 -0.9806 0.9870
0.0687 -3.1322 -0.9807 0.9870
0.1144 -3.1309 -0.9807 0.9870
0.1602 -3.1290 -0.9807 0.9870
0.4789 -3.0969 -0.9809 0.9870
0.5241 -3.0896 -0.9809 0.9870
0.5692 -3.0817 -0.9809 0.9870
0.6142 -3.0731 -0.9810 0.9870
0.7038 -3.0540 -0.9810 0.9869
0.7928 -3.0323 -0.9811 0.9869
0.8370 -3.0205 -0.9811 0.9869
0.8810 -3.0080 -0.9811 0.9869
0.9249 -2.9948 -0.9811 0.9869
0.9686 -2.9811 -0.9811 0.9869
1.0554 -2.9517 -0.9812 0.9869
1.1412 -2.9197 -0.9812 0.9869
1.1838 -2.9028 -0.9813 0.9869
1.2681 -2.8671 -0.9813 0.9869
1.3099 -2.8483 -0.9813 0.9869
1.3514 -2.8289 -0.9814 0.9869
1.4336 -2.7884 -0.9814 0.9869
1.5145 -2.7454 -0.9814 0.9869
1.5545 -2.7230 -0.9815 0.9869
1.6335 -2.6766 -0.9815 0.9869
1.6779 -2.6611 -0.9847 0.9869
1.8150 -2.6169 -0.9968 0.9867
1.8531 -2.5902 -0.9969 0.9867
1.8908 -2.5628 -0.9969 0.9867
2.0014 -2.4777 -0.9969 0.9867
2.2109 -2.2931 -0.9971 0.9867
2.2442 -2.2606 -0.9971 0.9867
2.2770 -2.2277 -0.9971 0.9867
2.3412 -2.1602 -0.9971 0.9867
2.3726 -2.1258 -0.9971 0.9867
2.4338 -2.0557 -0.9972 0.9867
2.4928 -1.9837 -0.9972 0.9867
2.6047 -1.8348 -0.9973 0.9867
2.6572 -1.7580 -0.9973 0.9867
2.6827 -1.7190 -0.9973 0.9867
2.7075 -1.6797 -0.9973 0.9867
2.8012 -1.5187 -0.9974 0.9867
2.8852 -1.3525 -0.9974 0.9867
2.9418 -1.2248 -0.9975 0.9867
2.9764 -1.1384 -0.9975 0.9867
2.9927 -1.0948 -0.9975 0.9867
3.0084 -1.0510 -0.9975 0.9867
3.0235 -1.0069 -0.9975 0.9867
3.0379 -0.9626 -0.9975 0.9867
3.0517 -0.9181 -0.9975 0.9867
3.0648 -0.8734 -0.9975 0.9867
3.0773 -0.8286 -0.9975 0.9867
3.0890 -0.7835 -0.9975 0.9867
3.1595 -0.4179 -0.9976 0.9867
3.1652 -0.3717 -0.9976 0.9867
3.1785 -0.2327 -0.9976 0.9867
3.1816 -0.1862 -0.9976 0.9867
3.1857 -0.0931 -0.9976 0.9867
3.1870 0.0000 -0.9976 0.9867
3.1867 0.0466 -0.9976 0.9867
3.1840 0.1396 -0.9976 0.9867
3.1816 0.1862 -0.9976 0.9867
3.1748 0.2791 -0.9976 0.9867
3.1652 0.3717 -0.9976 0.9867
3.1595 0.4179 -0.9976 0.9867
3.1381 0.5559 -0.9976 0.9867
3.1296 0.6017 -0.9976 0.9867
3.1205 0.6474 -0.9976 0.9867
3.1106 0.6929 -0.9975 0.9867
3.1002 0.7383 -0.9975 0.9867
3.0773 0.8285 -0.9975 0.9867
3.0517 0.9181 -0.9975 0.9867
3.0084 1.0509 -0.9975 0.9867
2.9764 1.1384 -0.9975 0.9867
2.9594 1.1817 -0.9975 0.9867
2.9047 1.3102 -0.9974 0.9867
2.8852 1.3525 -0.9974 0.9867
2.8651 1.3945 -0.9974 0.9867
2.8444 1.4362 -0.9974 0.9867
2.7786 1.5595 -0.9974 0.9867
2.7318 1.6399 -0.9973 0.9867
2.7075 1.6796 -0.9973 0.9867
2.6572 1.7580 -0.9973 0.9867
2.6312 1.7966 -0.9973 0.9867
2.5498 1.9101 -0.9972 0.9867
2.5216 1.9471 -0.9972 0.9867
2.4929 1.9837 -0.9972 0.9867
2.4636 2.0199 -0.9972 0.9867
2.4338 2.0556 -0.9972 0.9867
2.4034 2.0910 -0.9972 0.9867
2.3726 2.1258 -0.9972 0.9867
2.3412 2.1602 -0.9971 0.9867
2.2109 2.2931 -0.9971 0.9867
2.1771 2.3252 -0.9970 0.9867
2.1082 2.3877 -0.9970 0.9867
2.0374 2.4482 -0.9970 0.9867
1.8531 2.5901 -0.9969 0.9867
1.8150 2.6169 -0.9968 0.9867
1.7766 2.6430 -0.9968 0.9867
1.6985 2.6937 -0.9968 0.9867
1.4972 2.8102 -0.9967 0.9867
1.4559 2.8317 -0.9967 0.9867
1.4143 2.8526 -0.9966 0.9867
1.3303 2.8926 -0.9966 0.9867
1.2879 2.9117 -0.9966 0.9867
1.2451 2.9301 -0.9965 0.9867
1.2022 2.9479 -0.9965 0.9867
1.0278 3.0128 -0.9964 0.9867
0.9837 3.0275 -0.9964 0.9867
0.8500 3.0674 -0.9963 0.9867
0.7600 3.0908 -0.9963 0.9867
0.5781 3.1296 -0.9962 0.9867
0.4864 3.1450 -0.9961 0.9868
0.4403 3.1517 -0.9961 0.9868
0.3018 3.1677 -0.9960 0.9868
0.2091 3.1751 -0.9960 0.9868
0.0698 3.1809 -0.9959 0.9868
0.0233 3.1814 -0.9959 0.9868
-0.0697 3.1807 -0.9958 0.9868
-0.1162 3.1792 -0.9958 0.9868
-0.1626 3.1771 -0.9958 0.9868
-0.2554 3.1708 -0.9957 0.9868
-0.3017 3.1667 -0.9957 0.9868
-0.3479 3.1619 -0.9957 0.9868
-0.3941 3.1564 -0.9957 0.9868
-0.4401 3.1502 -0.9956 0.9868
-0.5777 3.1276 -0.9956 0.9868
-0.6688 3.1092 -0.9955 0.9868
-0.7142 3.0991 -0.9955 0.9868
-0.7593 3.0882 -0.9955 0.9868
-0.8044 3.0767 -0.9954 0.9868
-0.9384 3.0383 -0.9954 0.9868
-0.2225 0.6521 -0.2157 0.9971
-0.2175 0.6084 -0.2023 0.9973
-0.2180 0.5577 -0.1875 0.9975
-0.2433 0.4906 -0.1714 0.9977
-0.2510 0.4712 -0.1671 0.9978
-0.2549 0.4620 -0.1652 0.9978
-0.2622 0.4441 -0.1614 0.9978
-0.2657 0.4353 -0.1596 0.9979
-0.2722 0.4182 -0.1562 0.9979
-0.2754 0.4098 -0.1545 0.9979
-0.2785 0.4015 -0.1529 0.9980
-0.2814 0.3934 -0.1514 0.9980
-0.2843 0.3854 -0.1499 0.9980
-0.2871 0.3775 -0.1484 0.9980
-0.2925 0.3621 -0.1457 0.9981
-0.2976 0.3472 -0.1431 0.9981
-0.3023 0.3325 -0.1407 0.9981
-0.3045 0.3252 -0.1394 0.9981
-0.3062 0.3177 -0.1381 0.9982
-0.3096 0.3029 -0.1356 0.9982
-0.3112 0.2957 -0.1344 0.9982
-0.3156 0.2746 -0.1309 0.9982
-0.3182 0.2609 -0.1288 0.9983
-0.3217 0.2410 -0.1258 0.9983
-0.3228 0.2345 -0.1249 0.9983
-0.3248 0.2218 -0.1231 0.9984
-0.3256 0.2155 -0.1222 0.9984
-0.3265 0.2092 -0.1214 0.9984
-0.3281 0.1970 -0.1198 0.9984
-0.3290 0.1910 -0.1191 0.9984
-0.3331 0.1682 -0.1168 0.9984
-0.3340 0.1625 -0.1163 0.9984
-0.3348 0.1569 -0.1157 0.9985
-0.3362 0.1458 -0.1147 0.9985
-0.3374 0.1347 -0.1137 0.9985
-0.3384 0.1238 -0.1128 0.9985
-0.3400 0.1023 -0.1112 0.9985
-0.3407 0.0918 -0.1104 0.9985
-0.3409 0.0865 -0.1101 0.9985
-0.3413 0.0760 -0.1095 0.9985
-0.3415 0.0709 -0.1092 0.9985
-0.3416 0.0657 -0.1089 0.9985
-0.3418 0.0554 -0.1084 0.9985
-0.3418 0.0503 -0.1081 0.9986
-0.3418 0.0452 -0.1079 0.9986
-0.3418 0.0401 -0.1077 0.9986
-0.3416 0.0300 -0.1073 0.9986
-0.3415 0.0250 -0.1072 0.9986
-0.3413 0.0200 -0.1070 0.9986
-0.3410 0.0100 -0.1068 0.9986
-0.3352 -0.0049 -0.1090 0.9986
-0.3355 -0.0098 -0.1091 0.9986
-0.3358 -0.0196 -0.1094 0.9986
-0.3360 -0.0246 -0.1096 0.9986
-0.3362 -0.0395 -0.1101 0.9986
-0.3362 -0.0495 -0.1105 0.9986
-0.3362 -0.0545 -0.1108 0.9986
-0.3361 -0.0595 -0.1110 0.9986
-0.3360 -0.0646 -0.1113 0.9986
-0.3359 -0.0697 -0.1116 0.9986
-0.3357 -0.0748 -0.1119 0.9986
-0.3355 -0.0799 -0.1122 0.9986
-0.3347 -0.0954 -0.1132 0.9985
-0.3343 -0.1006 -0.1136 0.9985
-0.3340 -0.1058 -0.1139 0.9985
-0.3331 -0.1164 -0.1148 0.9985
-0.3326 -0.1216 -0.1152 0.9985
-0.3316 -0.1324 -0.1161 0.9985
-0.3304 -0.1433 -0.1171 0.9985
-0.3290 -0.1542 -0.1182 0.9985
-0.3281 -0.1597 -0.1187 0.9985
-0.3272 -0.1652 -0.1192 0.9985
-0.3262 -0.1707 -0.1198 0.9985
-0.3231 -0.1877 -0.1215 0.9984
-0.3220 -0.1933 -0.1221 0.9984
-0.3212 -0.1992 -0.1229 0.9984
-0.3203 -0.2053 -0.1237 0.9984
-0.3185 -0.2175 -0.1254 0.9984
-0.3175 -0.2237 -0.1263 0.9984
-0.3164 -0.2299 -0.1272 0.9984
-0.3130 -0.2491 -0.1301 0.9983
-0.3105 -0.2623 -0.1322 0.9983
-0.3091 -0.2689 -0.1333 0.9983
-0.3062 -0.2825 -0.1355 0.9982
-0.3046 -0.2895 -0.1367 0.9982
-0.3030 -0.2965 -0.1379 0.9982
-0.3014 -0.3036 -0.1391 0.9982
-0.2978 -0.3181 -0.1417 0.9982
-0.2959 -0.3254 -0.1430 0.9982
-0.2935 -0.3325 -0.1442 0.9981
-0.2860 -0.3541 -0.1480 0.9981
-0.2834 -0.3615 -0.1494 0.9981
-0.2806 -0.3690 -0.1508 0.9981
-0.2778 -0.3765 -0.1522 0.9980
-0.2657 -0.4081 -0.1584 0.9980
-0.2625 -0.4163 -0.1601 0.9979
-0.2591 -0.4246 -0.1618 0.9979
-0.2484 -0.4503 -0.1673 0.9978
-0.2366 -0.4772 -0.1732 0.9978
-0.2324 -0.4865 -0.1753 0.9977
-0.2281 -0.4961 -0.1776 0.9977
-0.2240 -0.5066 -0.1801 0.9977
-0.2010 -0.5623 -0.1942 0.9975
-0.2055 -0.6655 -0.2265 0.9971
-0.7196 -2.9268 -0.9802 0.9874
-0.5907 -2.9558 -0.9803 0.9874
-0.4607 -2.9791 -0.9804 0.9874
-0.4171 -2.9855 -0.9804 0.9874
-0.3735 -2.9914 -0.9804 0.9874
-0.3297 -2.9966 -0.9804 0.9874
-0.2859 -3.0011 -0.9805 0.9874
-0.1981 -3.0084 -0.9805 0.9874
0.0661 -3.0146 -0.9807 0.9874
0.1101 -3.0134 -0.9807 0.9874
0.2860 -3.0021 -0.9808 0.9874
0.3298 -2.9977 -0.9808 0.9874
0.4173 -2.9869 -0.9809 0.9874
0.4609 -2.9805 -0.9809 0.9874
0.5044 -2.9736 -0.9809 0.9874
0.5478 -2.9660 -0.9809 0.9874
0.5911 -2.9577 -0.9809 0.9874
0.8480 -2.8950 -0.9811 0.9874
0.8902 -2.8824 -0.9811 0.9874
1.0157 -2.8408 -0.9812 0.9874
1.0983 -2.8100 -0.9812 0.9874
1.1801 -2.7769 -0.9813 0.9874
1.2205 -2.7594 -0.9813 0.9874
1.2607 -2.7413 -0.9813 0.9874
1.3797 -2.6836 -0.9814 0.9874
1.4204 -2.6662 -0.9825 0.9874
1.4662 -2.6578 -0.9872 0.9873
1.5123 -2.6491 -0.9920 0.9873
1.6346 -2.5925 -0.9967 0.9872
1.6724 -2.5684 -0.9968 0.9872
1.8556 -2.4397 -0.9969 0.9872
1.8911 -2.4124 -0.9969 0.9872
1.9261 -2.3845 -0.9969 0.9872
1.9608 -2.3562 -0.9969 0.9872
2.0623 -2.2681 -0.9970 0.9872
2.0952 -2.2377 -0.9970 0.9872
2.1914 -2.1439 -0.9971 0.9872
2.2226 -2.1116 -0.9971 0.9872
2.2532 -2.0791 -0.9971 0.9872
2.2834 -2.0459 -0.9971 0.9872
2.3423 -1.9784 -0.9971 0.9872
2.3991 -1.9092 -0.9972 0.9872
2.4268 -1.8739 -0.9972 0.9872
2.4540 -1.8383 -0.9972 0.9872
2.5067 -1.7659 -0.9972 0.9872
2.5573 -1.6919 -0.9972 0.9872
2.5818 -1.6544 -0.9973 0.9872
2.6519 -1.5397 -0.9973 0.9872
2.6742 -1.5008 -0.9973 0.9872
2.6959 -1.4616 -0.9973 0.9872
2.7169 -1.4221 -0.9973 0.9872
2.7375 -1.3822 -0.9973 0.9872
2.7574 -1.3421 -0.9974 0.9872
2.7767 -1.3017 -0.9974 0.9872
2.7955 -1.2610 -0.9974 0.9872
2.8136 -1.2200 -0.9974 0.9872
2.8312 -1.1788 -0.9974 0.9872
2.8645 -1.0955 -0.9974 0.9872
2.8953 -1.0114 -0.9974 0.9872
2.9098 -0.9690 -0.9974 0.9872
2.9237 -0.9264 -0.9974 0.9872
2.9495 -0.8406 -0.9975 0.9872
2.9615 -0.7974 -0.9975 0.9872
2.9729 -0.7541 -0.9975 0.9872
3.0031 -0.6230 -0.9975 0.9872
3.0119 -0.5791 -0.9975 0.9872
3.0276 -0.4909 -0.9975 0.9872
3.0511 -0.3132 -0.9975 0.9872
3.0554 -0.2686 -0.9975 0.9872
3.0619 -0.1792 -0.9975 0.9872
3.0659 -0.0896 -0.9975 0.9872
3.0669 -0.0448 -0.9975 0.9872
3.0669 0.0448 -0.9975 0.9872
3.0642 0.1344 -0.9975 0.9872
3.0554 0.2686 -0.9975 0.9872
3.0119 0.5791 -0.9975 0.9872
2.9937 0.6669 -0.9975 0.9872
2.9729 0.7540 -0.9975 0.9872
2.9496 0.8405 -0.9975 0.9872
2.9237 0.9264 -0.9974 0.9872
2.9098 0.9690 -0.9974 0.9872
2.8802 1.0536 -0.9974 0.9872
2.8481 1.1373 -0.9974 0.9872
2.8312 1.1788 -0.9974 0.9872
2.7955 1.2609 -0.9974 0.9872
2.7768 1.3017 -0.9974 0.9872
2.7375 1.3822 -0.9973 0.9872
2.7170 1.4221 -0.9973 0.9872
2.6959 1.4616 -0.9973 0.9872
2.6742 1.5008 -0.9973 0.9872
2.6057 1.6165 -0.9973 0.9872
2.5818 1.6544 -0.9973 0.9872
2.5573 1.6919 -0.9973 0.9872
2.5323 1.7291 -0.9972 0.9872
2.5067 1.7659 -0.9972 0.9872
2.4540 1.8383 -0.9972 0.9872
2.3992 1.9092 -0.9972 0.9872
2.3423 1.9784 -0.9971 0.9872
2.2834 2.0459 -0.9971 0.9872
2.2532 2.0790 -0.9971 0.9872
2.2226 2.1116 -0.9971 0.9872
2.1914 2.1439 -0.9971 0.9872
2.1598 2.1756 -0.9970 0.9872
2.0953 2.2378 -0.9970 0.9872
2.0289 2.2979 -0.9970 0.9872
1.9608 2.3561 -0.9969 0.9872
1.9261 2.3845 -0.9969 0.9872
1.8911 2.4124 -0.9969 0.9872
1.8197 2.4665 -0.9969 0.9872
1.7834 2.4927 -0.9968 0.9872
1.7468 2.5185 -0.9968 0.9872
1.6724 2.5684 -0.9968 0.9872
1.6346 2.5925 -0.9968 0.9872
1.5581 2.6390 -0.9967 0.9872
1.2804 2.7839 -0.9966 0.9872
1.2395 2.8022 -0.9965 0.9872
1.1984 2.8200 -0.9965 0.9872
0.9467 2.9137 -0.9964 0.9872
0.7314 2.9747 -0.9963 0.9872
0.6879 2.9850 -0.9962 0.9872
0.6003 3.0036 -0.9962 0.9872
0.3350 3.0443 -0.9960 0.9872
0.2012 3.0558 -0.9960 0.9872
0.1566 3.0583 -0.9960 0.9872
0.1119 3.0602 -0.9959 0.9872
0.0671 3.0614 -0.9959 0.9872
0.0224 3.0620 -0.9959 0.9872
-0.1118 3.0598 -0.9958 0.9872
-0.2458 3.0518 -0.9957 0.9872
-0.3348 3.0432 -0.9957 0.9872
-0.4236 3.0319 -0.9956 0.9872
-0.4678 3.0254 -0.9956 0.9872
-0.6437 2.9926 -0.9955 0.9872
-0.6873 2.9827 -0.9955 0.9872
-0.7308 2.9723 -0.9955 0.9872
-0.8604 2.9372 -0.9954 0.9872
-0.1985 0.5820 -0.2000 0.9974
-0.2010 0.5623 -0.1942 0.9975
-0.2060 0.5506 -0.1912 0.9975
-0.2154 0.5281 -0.1855 0.9976
-0.2198 0.5172 -0.1828 0.9976
-0.2281 0.4961 -0.1776 0.9977
-0.2324 0.4864 -0.1753 0.9977
-0.2366 0.4772 -0.1732 0.9978
-0.2521 0.4416 -0.1654 0.9979
-0.2556 0.4330 -0.1636 0.9979
-0.2625 0.4163 -0.1601 0.9979
-0.2719 0.3921 -0.1552 0.9980
-0.2749 0.3842 -0.1536 0.9980
-0.2778 0.3765 -0.1522 0.9980
-0.2806 0.3690 -0.1508 0.9981
-0.2886 0.3468 -0.1467 0.9981
-0.2959 0.3254 -0.1430 0.9982
-0.3014 0.3036 -0.1391 0.9982
-0.3031 0.2965 -0.1379 0.9982
-0.3047 0.2895 -0.1367 0.9982
-0.3077 0.2757 -0.1344 0.9983
-0.3091 0.2689 -0.1333 0.9983
-0.3105 0.2622 -0.1322 0.9983
-0.3153 0.2362 -0.1281 0.9983
-0.3175 0.2236 -0.1263 0.9984
-0.3203 0.2052 -0.1237 0.9984
-0.3211 0.1992 -0.1229 0.9984
-0.3220 0.1933 -0.1221 0.9984
-0.3272 0.1652 -0.1192 0.9985
-0.3290 0.1542 -0.1182 0.9985
-0.3297 0.1487 -0.1176 0.9985
-0.3321 0.1270 -0.1157 0.9985
-0.3336 0.1111 -0.1143 0.9985
-0.3347 0.0954 -0.1132 0.9985
-0.3353 0.0850 -0.1125 0.9985
-0.3355 0.0799 -0.1122 0.9986
-0.3357 0.0748 -0.1119 0.9986
-0.3358 0.0696 -0.1116 0.9986
-0.3361 0.0595 -0.1110 0.9986
-0.3362 0.0495 -0.1105 0.9986
-0.3361 0.0295 -0.1097 0.9986
-0.3357 0.0147 -0.1093 0.9986
-0.3296 0.0000 -0.1113 0.9986
-0.3299 -0.0048 -0.1114 0.9986
-0.3303 -0.0145 -0.1116 0.9986
-0.3304 -0.0194 -0.1117 0.9986
-0.3307 -0.0291 -0.1120 0.9986
-0.3307 -0.0340 -0.1122 0.9986
-0.3308 -0.0487 -0.1129 0.9986
-0.3306 -0.0586 -0.1133 0.9986
-0.3305 -0.0636 -0.1136 0.9986
-0.3304 -0.0686 -0.1139 0.9986
-0.3302 -0.0736 -0.1142 0.9986
-0.3300 -0.0786 -0.1145 0.9986
-0.3294 -0.0887 -0.1152 0.9986
-0.3291 -0.0938 -0.1155 0.9986
-0.3270 -0.1196 -0.1175 0.9985
-0.3265 -0.1248 -0.1180 0.9985
-0.3254 -0.1355 -0.1190 0.9985
-0.3247 -0.1408 -0.1195 0.9985
-0.3240 -0.1462 -0.1200 0.9985
-0.3233 -0.1516 -0.1205 0.9985
-0.3224 -0.1569 -0.1210 0.9985
-0.3205 -0.1678 -0.1221 0.9985
-0.3195 -0.1732 -0.1227 0.9985
-0.3174 -0.1843 -0.1239 0.9985
-0.3162 -0.1898 -0.1245 0.9984
-0.3142 -0.2014 -0.1260 0.9984
-0.3114 -0.2194 -0.1286 0.9984
-0.3080 -0.2379 -0.1314 0.9984
-0.3068 -0.2441 -0.1324 0.9983
-0.3042 -0.2570 -0.1344 0.9983
-0.3014 -0.2701 -0.1366 0.9983
-0.2999 -0.2767 -0.1377 0.9983
-0.2983 -0.2835 -0.1389 0.9983
-0.2967 -0.2903 -0.1401 0.9982
-0.2933 -0.3042 -0.1426 0.9982
-0.2914 -0.3113 -0.1439 0.9982
-0.2873 -0.3254 -0.1465 0.9982
-0.2798 -0.3464 -0.1503 0.9981
-0.2744 -0.3608 -0.1530 0.9981
-0.2656 -0.3830 -0.1573 0.9980
-0.2595 -0.3984 -0.1605 0.9980
-0.2529 -0.4144 -0.1639 0.9980
-0.2459 -0.4307 -0.1674 0.9979
-0.2422 -0.4391 -0.1693 0.9979
-0.2384 -0.4476 -0.1712 0.9979
-0.2345 -0.4562 -0.1731 0.9978
-0.2305 -0.4649 -0.1751 0.9978
-0.2263 -0.4738 -0.1772 0.9978
-0.2085 -0.5112 -0.1864 0.9977
-0.1943 -0.5435 -0.1948 0.9976
-0.1892 -0.5547 -0.1978 0.9975
-0.1840 -0.5661 -0.2009 0.9975
-0.1830 -0.5927 -0.2093 0.9974
-0.1852 -0.6322 -0.2223 0.9972
-0.6934 -2.8202 -0.9803 0.9878
-0.6108 -2.8394 -0.9803 0.9878
-0.4858 -2.8636 -0.9804 0.9878
-0.4439 -2.8705 -0.9804 0.9878
-0.4019 -2.8768 -0.9804 0.9878
-0.2755 -2.8918 -0.9805 0.9878
-0.2332 -2.8955 -0.9805 0.9878
-0.1485 -2.9013 -0.9805 0.9878
-0.0212 -2.9052 -0.9806 0.9878
0.0637 -2.9048 -0.9807 0.9878
0.1061 -2.9036 -0.9807 0.9878
0.1485 -2.9018 -0.9807 0.9878
0.2333 -2.8964 -0.9808 0.9878
0.2756 -2.8927 -0.9808 0.9878
0.3600 -2.8835 -0.9808 0.9878
0.4861 -2.8652 -0.9809 0.9878
0.5279 -2.8579 -0.9809 0.9878
0.5696 -2.8499 -0.9809 0.9878
0.6112 -2.8413 -0.9810 0.9878
0.6527 -2.8321 -0.9810 0.9878
0.6940 -2.8224 -0.9810 0.9878
0.7352 -2.8120 -0.9810 0.9878
0.8171 -2.7895 -0.9811 0.9878
0.8577 -2.7773 -0.9811 0.9878
0.8983 -2.7645 -0.9811 0.9878
0.9386 -2.7512 -0.9811 0.9878
1.0583 -2.7076 -0.9812 0.9878
1.0978 -2.6919 -0.9812 0.9878
1.1789 -2.6653 -0.9837 0.9878
1.2226 -2.6583 -0.9876 0.9877
1.2664 -2.6509 -0.9916 0.9877
1.3883 -2.6059 -0.9966 0.9876
1.4263 -2.5854 -0.9966 0.9876
1.4639 -2.5644 -0.9967 0.9876
1.5383 -2.5207 -0.9967 0.9876
1.5750 -2.4980 -0.9967 0.9876
1.6114 -2.4747 -0.9967 0.9876
1.6831 -2.4267 -0.9968 0.9876
1.7184 -2.4018 -0.9968 0.9876
1.7534 -2.3766 -0.9968 0.9876
1.7879 -2.3507 -0.9968 0.9876
1.8221 -2.3244 -0.9969 0.9876
1.8559 -2.2976 -0.9969 0.9876
1.9223 -2.2424 -0.9969 0.9876
2.0502 -2.1264 -0.9970 0.9876
2.2001 -1.9713 -0.9971 0.9876
2.2287 -1.9390 -0.9971 0.9876
2.2568 -1.9062 -0.9971 0.9876
2.2845 -1.8730 -0.9971 0.9876
2.3116 -1.8395 -0.9971 0.9876
2.3383 -1.8056 -0.9971 0.9876
2.4153 -1.7014 -0.9972 0.9876
2.4876 -1.5941 -0.9972 0.9876
2.5332 -1.5207 -0.9972 0.9876
2.5766 -1.4461 -0.9973 0.9876
2.5975 -1.4083 -0.9973 0.9876
2.6178 -1.3702 -0.9973 0.9876
2.6376 -1.3318 -0.9973 0.9876
2.7279 -1.1358 -0.9973 0.9876
2.7442 -1.0958 -0.9974 0.9876
2.7600 -1.0556 -0.9974 0.9876
2.7751 -1.0152 -0.9974 0.9876
2.8036 -0.9337 -0.9974 0.9876
2.8170 -0.8926 -0.9974 0.9876
2.8298 -0.8514 -0.9974 0.9876
2.8535 -0.7683 -0.9974 0.9876
2.8644 -0.7266 -0.9974 0.9876
2.8935 -0.6004 -0.9974 0.9876
2.9098 -0.5155 -0.9974 0.9876
2.9171 -0.4730 -0.9974 0.9876
2.9350 -0.3446 -0.9975 0.9876
2.9398 -0.3018 -0.9975 0.9876
2.9439 -0.2588 -0.9975 0.9876
2.9474 -0.2157 -0.9975 0.9876
2.9502 -0.1726 -0.9975 0.9876
2.9524 -0.1295 -0.9975 0.9876
2.9550 -0.0432 -0.9975 0.9876
2.9540 0.0863 -0.9975 0.9876
2.9474 0.2157 -0.9975 0.9876
2.9439 0.2588 -0.9975 0.9876
2.9398 0.3018 -0.9975 0.9876
2.9351 0.3446 -0.9975 0.9876
2.9099 0.5155 -0.9974 0.9876
2.8844 0.6425 -0.9974 0.9876
2.8535 0.7683 -0.9974 0.9876
2.8419 0.8099 -0.9974 0.9876
2.8298 0.8513 -0.9974 0.9876
2.8170 0.8926 -0.9974 0.9876
2.7897 0.9745 -0.9974 0.9876
2.7751 1.0152 -0.9974 0.9876
2.6935 1.2149 -0.9973 0.9876
2.6568 1.2931 -0.9973 0.9876
2.6376 1.3318 -0.9973 0.9876
2.6178 1.3702 -0.9973 0.9876
2.5552 1.4835 -0.9972 0.9876
2.5106 1.5575 -0.9972 0.9876
2.4876 1.5940 -0.9972 0.9876
2.4640 1.6302 -0.9972 0.9876
2.4153 1.7014 -0.9972 0.9876
2.3901 1.7365 -0.9972 0.9876
2.3645 1.7713 -0.9971 0.9876
2.3383 1.8055 -0.9971 0.9876
2.3117 1.8395 -0.9971 0.9876
2.2845 1.8730 -0.9971 0.9876
2.2568 1.9062 -0.9971 0.9876
2.2287 1.9390 -0.9971 0.9876
2.2001 1.9713 -0.9971 0.9876
2.1710 2.0031 -0.9970 0.9876
2.0810 2.0963 -0.9970 0.9876
1.9871 2.1854 -0.9969 0.9876
1.7879 2.3507 -0.9968 0.9876
1.7533 2.3765 -0.9968 0.9876
1.7184 2.4018 -0.9968 0.9876
1.6831 2.4267 -0.9968 0.9876
1.5750 2.4979 -0.9967 0.9876
1.5383 2.5206 -0.9967 0.9876
1.4263 2.5855 -0.9966 0.9876
1.3501 2.6259 -0.9966 0.9876
1.3115 2.6453 -0.9966 0.9876
1.1943 2.7001 -0.9965 0.9876
1.0344 2.7650 -0.9964 0.9876
0.9939 2.7797 -0.9964 0.9876
0.9532 2.7939 -0.9964 0.9876
0.8298 2.8328 -0.9963 0.9876
0.7883 2.8446 -0.9963 0.9876
0.7466 2.8557 -0.9963 0.9876
0.6207 2.8855 -0.9962 0.9876
0.5361 2.9023 -0.9962 0.9876
0.4936 2.9097 -0.9961 0.9876
0.4510 2.9165 -0.9961 0.9876
0.4084 2.9228 -0.9961 0.9876
0.3656 2.9284 -0.9961 0.9876
0.3228 2.9334 -0.9960 0.9876
0.2799 2.9377 -0.9960 0.9876
0.2369 2.9413 -0.9960 0.9876
0.1508 2.9469 -0.9960 0.9876
0.0216 2.9505 -0.9959 0.9876
-0.0215 2.9504 -0.9959 0.9876
-0.0647 2.9497 -0.9958 0.9876
-0.1938 2.9438 -0.9958 0.9876
-0.2798 2.9368 -0.9957 0.9876
-0.3227 2.9323 -0.9957 0.9876
-0.4081 2.9215 -0.9956 0.9876
-0.5781 2.8924 -0.9956 0.9876
-0.7460 2.8534 -0.9955 0.9876
-0.1852 0.6322 -0.2224 0.9972
-0.1839 0.5661 -0.2009 0.9975
-0.1892 0.5547 -0.1978 0.9975
-0.1943 0.5435 -0.1948 0.9976
-0.2040 0.5218 -0.1891 0.9976
-0.2085 0.5112 -0.1864 0.9977
-0.2130 0.5012 -0.1838 0.9977
-0.2176 0.4919 -0.1816 0.9977
-0.2220 0.4828 -0.1794 0.9978
-0.2305 0.4648 -0.1751 0.9978
-0.2422 0.4391 -0.1693 0.9979
-0.2459 0.4307 -0.1674 0.9979
-0.2495 0.4225 -0.1656 0.9979
-0.2529 0.4144 -0.1639 0.9980
-0.2562 0.4064 -0.1622 0.9980
-0.2626 0.3907 -0.1589 0.9980
-0.2656 0.3830 -0.1573 0.9980
-0.2686 0.3755 -0.1558 0.9981
-0.2798 0.3464 -0.1503 0.9981
-0.2824 0.3393 -0.1490 0.9981
-0.2873 0.3254 -0.1465 0.9982
-0.2914 0.3113 -0.1439 0.9982
-0.2933 0.3041 -0.1426 0.9982
-0.2950 0.2972 -0.1413 0.9982
-0.2983 0.2835 -0.1389 0.9983
-0.2999 0.2767 -0.1377 0.9983
-0.3042 0.2570 -0.1344 0.9983
-0.3055 0.2505 -0.1334 0.9983
-0.3068 0.2441 -0.1324 0.9983
-0.3080 0.2379 -0.1314 0.9984
-0.3092 0.2316 -0.1304 0.9984
-0.3103 0.2254 -0.1295 0.9984
-0.3114 0.2193 -0.1286 0.9984
-0.3124 0.2133 -0.1277 0.9984
-0.3151 0.1955 -0.1252 0.9984
-0.3162 0.1898 -0.1245 0.9984
-0.3185 0.1787 -0.1233 0.9985
-0.3195 0.1732 -0.1227 0.9985
-0.3247 0.1408 -0.1195 0.9985
-0.3260 0.1301 -0.1185 0.9985
-0.3265 0.1248 -0.1180 0.9985
-0.3270 0.1196 -0.1175 0.9985
-0.3275 0.1144 -0.1171 0.9985
-0.3284 0.1041 -0.1163 0.9985
-0.3295 0.0887 -0.1152 0.9986
-0.3297 0.0836 -0.1148 0.9986
-0.3302 0.0736 -0.1142 0.9986
-0.3307 0.0586 -0.1133 0.9986
-0.3307 0.0291 -0.1120 0.9986
-0.3306 0.0242 -0.1119 0.9986
-0.3303 0.0145 -0.1116 0.9986
-0.3299 0.0048 -0.1114 0.9986
-0.3249 -0.0095 -0.1137 0.9986
-0.3250 -0.0143 -0.1139 0.9986
-0.3252 -0.0191 -0.1140 0.9986
-0.3255 -0.0334 -0.1145 0.9986
-0.3255 -0.0430 -0.1149 0.9986
-0.3254 -0.0528 -0.1154 0.9986
-0.3248 -0.0724 -0.1165 0.9986
-0.3246 -0.0773 -0.1168 0.9986
-0.3243 -0.0823 -0.1171 0.9986
-0.3241 -0.0873 -0.1174 0.9986
-0.3237 -0.0923 -0.1178 0.9986
-0.3230 -0.1023 -0.1186 0.9986
-0.3210 -0.1228 -0.1203 0.9985
-0.3192 -0.1384 -0.1217 0.9985
-0.3185 -0.1437 -0.1223 0.9985
-0.3159 -0.1595 -0.1238 0.9985
-0.3139 -0.1702 -0.1250 0.9985
-0.3129 -0.1756 -0.1256 0.9985
-0.3095 -0.1920 -0.1274 0.9985
-0.3084 -0.1976 -0.1282 0.9984
-0.3054 -0.2152 -0.1307 0.9984
-0.2995 -0.2456 -0.1355 0.9984
-0.2982 -0.2519 -0.1366 0.9983
-0.2968 -0.2582 -0.1377 0.9983
-0.2953 -0.2646 -0.1388 0.9983
-0.2905 -0.2843 -0.1422 0.9983
-0.2888 -0.2910 -0.1435 0.9983
-0.2738 -0.3389 -0.1525 0.9982
-0.2684 -0.3529 -0.1551 0.9981
-0.2626 -0.3671 -0.1580 0.9981
-0.2534 -0.3892 -0.1625 0.9980
-0.2469 -0.4046 -0.1658 0.9980
-0.2435 -0.4124 -0.1676 0.9980
-0.2399 -0.4203 -0.1694 0.9980
-0.2363 -0.4284 -0.1712 0.9979
-0.2287 -0.4448 -0.1750 0.9979
-0.2247 -0.4532 -0.1770 0.9979
-0.2205 -0.4617 -0.1790 0.9978
-0.2119 -0.4790 -0.1833 0.9978
-0.2074 -0.4880 -0.1855 0.9978
-0.1830 -0.5364 -0.1983 0.9976
-0.1778 -0.5472 -0.2013 0.9976
-0.1724 -0.5582 -0.2044 0.9975
-0.1668 -0.5694 -0.2076 0.9975
-0.1667 -0.6015 -0.2184 0.9974
-0.7085 -2.7102 -0.9802 0.9882
-0.6689 -2.7204 -0.9803 0.9882
-0.6291 -2.7300 -0.9803 0.9882
-0.5892 -2.7389 -0.9803 0.9882
-0.5491 -2.7473 -0.9803 0.9882
-0.5089 -2.7551 -0.9804 0.9882
-0.4686 -2.7623 -0.9804 0.9882
-0.4282 -2.7689 -0.9804 0.9882
-0.3471 -2.7804 -0.9804 0.9882
-0.1433 -2.7986 -0.9805 0.9882
-0.0205 -2.8024 -0.9806 0.9882
0.0615 -2.8018 -0.9807 0.9882
0.1024 -2.8008 -0.9807 0.9882
0.1433 -2.7991 -0.9807 0.9882
0.1841 -2.7967 -0.9807 0.9882
0.2250 -2.7938 -0.9807 0.9882
0.2658 -2.7902 -0.9808 0.9882
0.3066 -2.7861 -0.9808 0.9882
0.3473 -2.7814 -0.9808 0.9882
0.4688 -2.7637 -0.9809 0.9882
0.5092 -2.7566 -0.9809 0.9882
0.5494 -2.7490 -0.9809 0.9882
0.5895 -2.7407 -0.9809 0.9882
0.7091 -2.7124 -0.9810 0.9882
0.8674 -2.6695 -0.9822 0.9882
0.9089 -2.6643 -0.9850 0.9881
0.9507 -2.6588 -0.9880 0.9881
1.0347 -2.6471 -0.9945 0.9880
1.1138 -2.6209 -0.9965 0.9880
1.1899 -2.5873 -0.9965 0.9880
1.2276 -2.5697 -0.9965 0.9880
1.2651 -2.5516 -0.9965 0.9880
1.3022 -2.5329 -0.9966 0.9880
1.3392 -2.5136 -0.9966 0.9880
1.4121 -2.4735 -0.9966 0.9880
1.4481 -2.4527 -0.9966 0.9880
1.7245 -2.2674 -0.9968 0.9880
1.7575 -2.2420 -0.9968 0.9880
1.8541 -2.1630 -0.9969 0.9880
1.8856 -2.1357 -0.9969 0.9880
1.9473 -2.0797 -0.9969 0.9880
1.9775 -2.0511 -0.9969 0.9880
2.0073 -2.0220 -0.9970 0.9880
2.0656 -1.9625 -0.9970 0.9880
2.0940 -1.9322 -0.9970 0.9880
2.1221 -1.9014 -0.9970 0.9880
2.2297 -1.7743 -0.9971 0.9880
2.2554 -1.7415 -0.9971 0.9880
2.2806 -1.7084 -0.9971 0.9880
2.3054 -1.6749 -0.9971 0.9880
2.3296 -1.6411 -0.9971 0.9880
2.3994 -1.5375 -0.9972 0.9880
2.4434 -1.4668 -0.9972 0.9880
2.4646 -1.4309 -0.9972 0.9880
2.5054 -1.3584 -0.9972 0.9880
2.5250 -1.3216 -0.9972 0.9880
2.5440 -1.2846 -0.9972 0.9880
2.5626 -1.2473 -0.9973 0.9880
2.5805 -1.2097 -0.9973 0.9880
2.5980 -1.1719 -0.9973 0.9880
2.6469 -1.0569 -0.9973 0.9880
2.6621 -1.0182 -0.9973 0.9880
2.7042 -0.9005 -0.9973 0.9880
2.7171 -0.8610 -0.9973 0.9880
2.7411 -0.7812 -0.9973 0.9880
2.7909 -0.5790 -0.9974 0.9880
2.8200 -0.4150 -0.9974 0.9880
2.8258 -0.3738 -0.9974 0.9880
2.8395 -0.2496 -0.9974 0.9880
2.8428 -0.2081 -0.9974 0.9880
2.8477 -0.1249 -0.9974 0.9880
2.8501 -0.0417 -0.9974 0.9880
2.8492 0.0833 -0.9974 0.9880
2.8477 0.1249 -0.9974 0.9880
2.8456 0.1665 -0.9974 0.9880
2.8355 0.2911 -0.9974 0.9880
2.8309 0.3324 -0.9974 0.9880
2.8258 0.3738 -0.9974 0.9880
2.8067 0.4973 -0.9974 0.9880
2.7909 0.5790 -0.9974 0.9880
2.7728 0.6603 -0.9974 0.9880
2.7523 0.7411 -0.9974 0.9880
2.7412 0.7812 -0.9973 0.9880
2.7294 0.8212 -0.9973 0.9880
2.7171 0.8609 -0.9973 0.9880
2.6621 1.0181 -0.9973 0.9880
2.6469 1.0569 -0.9973 0.9880
2.6149 1.1338 -0.9973 0.9880
2.5980 1.1719 -0.9973 0.9880
2.5626 1.2472 -0.9973 0.9880
2.5441 1.2846 -0.9972 0.9880
2.5250 1.3216 -0.9972 0.9880
2.4853 1.3948 -0.9972 0.9880
2.4646 1.4309 -0.9972 0.9880
2.3994 1.5375 -0.9972 0.9880
2.3534 1.6069 -0.9971 0.9880
2.3054 1.6750 -0.9971 0.9880
2.2806 1.7084 -0.9971 0.9880
2.2554 1.7416 -0.9971 0.9880
2.2297 1.7743 -0.9971 0.9880
2.2035 1.8066 -0.9971 0.9880
2.1768 1.8386 -0.9970 0.9880
2.1497 1.8702 -0.9970 0.9880
2.1221 1.9014 -0.9970 0.9880
2.0941 1.9321 -0.9970 0.9880
2.0366 1.9925 -0.9970 0.9880
1.7901 2.2161 -0.9968 0.9880
1.7575 2.2420 -0.9968 0.9880
1.6912 2.2923 -0.9968 0.9880
1.6575 2.3167 -0.9968 0.9880
1.5543 2.3870 -0.9967 0.9880
1.4121 2.4736 -0.9966 0.9880
1.3758 2.4938 -0.9966 0.9880
1.3391 2.5136 -0.9966 0.9880
1.3023 2.5329 -0.9966 0.9880
1.1520 2.6044 -0.9965 0.9880
1.1138 2.6209 -0.9965 0.9880
0.9978 2.6670 -0.9964 0.9880
0.9587 2.6812 -0.9964 0.9880
0.9194 2.6949 -0.9964 0.9880
0.8799 2.7080 -0.9963 0.9880
0.8004 2.7324 -0.9963 0.9880
0.7603 2.7438 -0.9963 0.9880
0.7202 2.7545 -0.9963 0.9880
0.5987 2.7832 -0.9962 0.9880
0.5579 2.7916 -0.9962 0.9880
0.5171 2.7995 -0.9961 0.9880
0.4351 2.8133 -0.9961 0.9880
0.3527 2.8246 -0.9961 0.9880
0.2285 2.8371 -0.9960 0.9880
0.1870 2.8402 -0.9960 0.9880
0.1040 2.8443 -0.9959 0.9880
0.0624 2.8454 -0.9959 0.9880
0.0208 2.8460 -0.9959 0.9880
-0.0624 2.8452 -0.9958 0.9880
-0.1870 2.8395 -0.9958 0.9880
-0.3525 2.8236 -0.9957 0.9880
-0.5168 2.7979 -0.9956 0.9880
-0.5576 2.7900 -0.9956 0.9880
-0.6389 2.7723 -0.9955 0.9880
-0.7196 2.7524 -0.9955 0.9880
-0.1667 0.6015 -0.2184 0.9974
-0.1724 0.5582 -0.2044 0.9975
-0.1778 0.5472 -0.2013 0.9976
-0.1830 0.5364 -0.1983 0.9976
-0.1978 0.5062 -0.1902 0.9977
-0.2027 0.4970 -0.1878 0.9977
-0.2074 0.4879 -0.1855 0.9978
-0.2119 0.4790 -0.1833 0.9978
-0.2163 0.4703 -0.1811 0.9978
-0.2205 0.4616 -0.1790 0.9978
-0.2246 0.4531 -0.1770 0.9979
-0.2325 0.4365 -0.1731 0.9979
-0.2363 0.4284 -0.1712 0.9979
-0.2502 0.3968 -0.1642 0.9980
-0.2534 0.3892 -0.1625 0.9980
-0.2684 0.3529 -0.1551 0.9981
-0.2711 0.3459 -0.1538 0.9981
-0.2738 0.3389 -0.1525 0.9982
-0.2764 0.3321 -0.1512 0.9982
-0.2813 0.3186 -0.1487 0.9982
-0.2889 0.2910 -0.1435 0.9983
-0.2906 0.2843 -0.1422 0.9983
-0.2922 0.2777 -0.1410 0.9983
-0.2953 0.2646 -0.1388 0.9983
-0.2968 0.2582 -0.1377 0.9983
-0.2982 0.2518 -0.1366 0.9983
-0.2995 0.2455 -0.1355 0.9984
-0.3008 0.2394 -0.1345 0.9984
-0.3020 0.2332 -0.1335 0.9984
-0.3044 0.2211 -0.1317 0.9984
-0.3055 0.2152 -0.1307 0.9984
-0.3065 0.2093 -0.1299 0.9984
-0.3075 0.2034 -0.1290 0.9984
-0.3084 0.1976 -0.1282 0.9984
-0.3106 0.1865 -0.1268 0.9985
-0.3139 0.1702 -0.1250 0.9985
-0.3150 0.1649 -0.1244 0.9985
-0.3177 0.1489 -0.1228 0.9985
-0.3185 0.1437 -0.1223 0.9985
-0.3205 0.1280 -0.1208 0.9985
-0.3210 0.1228 -0.1203 0.9985
-0.3216 0.1177 -0.1198 0.9985
-0.3221 0.1125 -0.1194 0.9986
-0.3237 0.0923 -0.1178 0.9986
-0.3244 0.0823 -0.1171 0.9986
-0.3250 0.0674 -0.1162 0.9986
-0.3253 0.0576 -0.1156 0.9986
-0.3255 0.0382 -0.1147 0.9986
-0.3255 0.0334 -0.1145 0.9986
-0.3252 0.0191 -0.1140 0.9986
-0.3250 0.0143 -0.1139 0.9986
-0.3193 0.0000 -0.1157 0.9986
-0.3199 -0.0141 -0.1161 0.9986
-0.3201 -0.0187 -0.1162 0.9986
-0.3203 -0.0282 -0.1165 0.9986
-0.3203 -0.0329 -0.1167 0.9986
-0.3203 -0.0471 -0.1173 0.9986
-0.3202 -0.0519 -0.1176 0.9986
-0.3201 -0.0567 -0.1178 0.9986
-0.3200 -0.0616 -0.1181 0.9986
-0.3194 -0.0761 -0.1190 0.9986
-0.3191 -0.0809 -0.1193 0.9986
-0.3185 -0.0907 -0.1200 0.9986
-0.3173 -0.1057 -0.1212 0.9986
-0.3168 -0.1107 -0.1216 0.9986
-0.3163 -0.1157 -0.1220 0.9986
-0.3157 -0.1207 -0.1225 0.9986
-0.3151 -0.1259 -0.1230 0.9986
-0.3139 -0.1361 -0.1240 0.9985
-0.3124 -0.1464 -0.1250 0.9985
-0.3115 -0.1516 -0.1255 0.9985
-0.3095 -0.1620 -0.1266 0.9985
-0.3075 -0.1725 -0.1278 0.9985
-0.3052 -0.1832 -0.1290 0.9985
-0.3040 -0.1886 -0.1297 0.9985
-0.3018 -0.1996 -0.1311 0.9985
-0.3008 -0.2054 -0.1320 0.9985
-0.2997 -0.2112 -0.1329 0.9984
-0.2975 -0.2228 -0.1347 0.9984
-0.2963 -0.2288 -0.1357 0.9984
-0.2894 -0.2593 -0.1408 0.9983
-0.2879 -0.2657 -0.1420 0.9983
-0.2811 -0.2916 -0.1468 0.9983
-0.2793 -0.2982 -0.1481 0.9983
-0.2773 -0.3050 -0.1494 0.9982
-0.2753 -0.3118 -0.1508 0.9982
-0.2730 -0.3185 -0.1520 0.9982
-0.2626 -0.3453 -0.1572 0.9982
-0.2569 -0.3591 -0.1600 0.9981
-0.2444 -0.3877 -0.1661 0.9981
-0.2377 -0.4027 -0.1695 0.9980
-0.2190 -0.4419 -0.1787 0.9979
-0.2150 -0.4501 -0.1807 0.9979
-0.2064 -0.4667 -0.1849 0.9978
-0.2020 -0.4752 -0.1871 0.9978
-0.1926 -0.4927 -0.1917 0.9978
-0.1720 -0.5293 -0.2017 0.9976
-0.1611 -0.5503 -0.2078 0.9976
-0.1498 -0.5730 -0.2146 0.9975
-0.6136 -2.6626 -0.9902 0.9884
-0.4140 -2.6767 -0.9816 0.9885
-0.3745 -2.6805 -0.9809 0.9886
-0.3351 -2.6846 -0.9804 0.9886
-0.2959 -2.6893 -0.9805 0.9886
-0.2172 -2.6968 -0.9805 0.9886
-0.1778 -2.6998 -0.9805 0.9886
-0.0988 -2.7040 -0.9806 0.9886
-0.0198 -2.7058 -0.9806 0.9886
0.0988 -2.7043 -0.9807 0.9886
0.2173 -2.6975 -0.9807 0.9886
0.2567 -2.6941 -0.9808 0.9886
0.3353 -2.6855 -0.9808 0.9886
0.4138 -2.6759 -0.9813 0.9885
0.4930 -2.6689 -0.9836 0.9885
0.5727 -2.6625 -0.9870 0.9885
0.6127 -2.6590 -0.9889 0.9885
0.6529 -2.6552 -0.9909 0.9884
0.7335 -2.6470 -0.9954 0.9884
0.8877 -2.6020 -0.9963 0.9884
1.0010 -2.5608 -0.9964 0.9884
1.0383 -2.5459 -0.9964 0.9884
1.0754 -2.5305 -0.9964 0.9884
1.1489 -2.4981 -0.9965 0.9884
1.2573 -2.4455 -0.9965 0.9884
1.2930 -2.4270 -0.9966 0.9884
1.3634 -2.3882 -0.9966 0.9884
1.3982 -2.3681 -0.9966 0.9884
1.4668 -2.3263 -0.9967 0.9884
1.5674 -2.2600 -0.9967 0.9884
1.6003 -2.2369 -0.9967 0.9884
1.7284 -2.1396 -0.9968 0.9884
1.7902 -2.0883 -0.9968 0.9884
1.8206 -2.0620 -0.9969 0.9884
1.8505 -2.0352 -0.9969 0.9884
1.8801 -2.0080 -0.9969 0.9884
1.9093 -1.9804 -0.9969 0.9884
2.0218 -1.8655 -0.9970 0.9884
2.2019 -1.6495 -0.9971 0.9884
2.2493 -1.5845 -0.9971 0.9884
2.3381 -1.4505 -0.9971 0.9884
2.3591 -1.4162 -0.9971 0.9884
2.4189 -1.3114 -0.9972 0.9884
2.4379 -1.2760 -0.9972 0.9884
2.4915 -1.1680 -0.9972 0.9884
2.5083 -1.1315 -0.9972 0.9884
2.5404 -1.0577 -0.9972 0.9884
2.5556 -1.0205 -0.9972 0.9884
2.5702 -0.9830 -0.9973 0.9884
2.5843 -0.9454 -0.9973 0.9884
2.6233 -0.8312 -0.9973 0.9884
2.6465 -0.7542 -0.9973 0.9884
2.6573 -0.7155 -0.9973 0.9884
2.6861 -0.5984 -0.9973 0.9884
2.6946 -0.5591 -0.9973 0.9884
2.7166 -0.4404 -0.9973 0.9884
2.7333 -0.3210 -0.9973 0.9884
2.7415 -0.2410 -0.9973 0.9884
2.7509 -0.0804 -0.9974 0.9884
2.7518 -0.0402 -0.9974 0.9884
2.7521 0.0000 -0.9974 0.9884
2.7518 0.0402 -0.9974 0.9884
2.7494 0.1206 -0.9974 0.9884
2.7474 0.1607 -0.9974 0.9884
2.7415 0.2410 -0.9973 0.9884
2.7377 0.2810 -0.9973 0.9884
2.6862 0.5984 -0.9973 0.9884
2.6771 0.6375 -0.9973 0.9884
2.6352 0.7928 -0.9973 0.9884
2.6233 0.8312 -0.9973 0.9884
2.6109 0.8695 -0.9973 0.9884
2.5979 0.9075 -0.9973 0.9884
2.5703 0.9830 -0.9973 0.9884
2.5404 1.0577 -0.9972 0.9884
2.5083 1.1314 -0.9972 0.9884
2.4379 1.2760 -0.9972 0.9884
2.3795 1.3816 -0.9972 0.9884
2.3381 1.4504 -0.9971 0.9884
2.2947 1.5181 -0.9971 0.9884
2.2722 1.5515 -0.9971 0.9884
2.2019 1.6495 -0.9971 0.9884
2.1776 1.6814 -0.9970 0.9884
2.1017 1.7752 -0.9970 0.9884
1.9943 1.8948 -0.9969 0.9884
1.9664 1.9237 -0.9969 0.9884
1.9380 1.9522 -0.9969 0.9884
1.8505 2.0352 -0.9969 0.9884
1.8206 2.0620 -0.9969 0.9884
1.6651 2.1892 -0.9968 0.9884
1.5007 2.3047 -0.9967 0.9884
1.4326 2.3475 -0.9966 0.9884
1.2573 2.4455 -0.9965 0.9884
1.1123 2.5146 -0.9965 0.9884
1.0754 2.5305 -0.9964 0.9884
1.0009 2.5608 -0.9964 0.9884
0.9634 2.5751 -0.9964 0.9884
0.9256 2.5889 -0.9964 0.9884
0.7341 2.6492 -0.9963 0.9884
0.6953 2.6596 -0.9962 0.9884
0.6564 2.6694 -0.9962 0.9884
0.6173 2.6787 -0.9962 0.9884
0.5781 2.6874 -0.9962 0.9884
0.4993 2.7030 -0.9961 0.9884
0.4201 2.7163 -0.9961 0.9884
0.3803 2.7221 -0.9961 0.9884
0.3405 2.7273 -0.9961 0.9884
0.3006 2.7320 -0.9960 0.9884
0.2607 2.7360 -0.9960 0.9884
0.1806 2.7423 -0.9960 0.9884
0.1405 2.7446 -0.9959 0.9884
0.1004 2.7462 -0.9959 0.9884
0.0201 2.7479 -0.9959 0.9884
-0.0201 2.7479 -0.9959 0.9884
-0.1805 2.7418 -0.9958 0.9884
-0.3005 2.7310 -0.9957 0.9884
-0.3801 2.7209 -0.9957 0.9884
-0.5384 2.6939 -0.9956 0.9884
-0.5777 2.6856 -0.9956 0.9884
-0.6169 2.6769 -0.9955 0.9884
-0.1496 0.6083 -0.2270 0.9973
-0.1611 0.5502 -0.2078 0.9976
-0.1720 0.5293 -0.2017 0.9976
-0.1876 0.5016 -0.1941 0.9977
-0.1926 0.4927 -0.1917 0.9978
-0.2064 0.4667 -0.1849 0.9978
-0.2108 0.4583 -0.1828 0.9979
-0.2150 0.4500 -0.1807 0.9979
-0.2191 0.4419 -0.1787 0.9979
-0.2306 0.4180 -0.1730 0.9980
-0.2342 0.4103 -0.1712 0.9980
-0.2377 0.4027 -0.1695 0.9980
-0.2411 0.3952 -0.1678 0.9980
-0.2476 0.3804 -0.1645 0.9981
-0.2569 0.3591 -0.1600 0.9981
-0.2653 0.3385 -0.1559 0.9982
-0.2680 0.3318 -0.1546 0.9982
-0.2706 0.3251 -0.1533 0.9982
-0.2753 0.3119 -0.1508 0.9982
-0.2811 0.2916 -0.1468 0.9983
-0.2829 0.2850 -0.1455 0.9983
-0.2846 0.2784 -0.1443 0.9983
-0.2879 0.2656 -0.1420 0.9983
-0.2950 0.2348 -0.1366 0.9984
-0.2963 0.2287 -0.1357 0.9984
-0.2986 0.2170 -0.1338 0.9984
-0.2997 0.2112 -0.1329 0.9984
-0.3007 0.2054 -0.1320 0.9985
-0.3018 0.1996 -0.1311 0.9985
-0.3075 0.1725 -0.1278 0.9985
-0.3085 0.1673 -0.1272 0.9985
-0.3105 0.1568 -0.1261 0.9985
-0.3145 0.1309 -0.1235 0.9986
-0.3152 0.1258 -0.1230 0.9986
-0.3157 0.1208 -0.1225 0.9986
-0.3163 0.1157 -0.1220 0.9986
-0.3168 0.1107 -0.1216 0.9986
-0.3172 0.1057 -0.1212 0.9986
-0.3185 0.0907 -0.1200 0.9986
-0.3191 0.0809 -0.1193 0.9986
-0.3196 0.0712 -0.1187 0.9986
-0.3198 0.0664 -0.1184 0.9986
-0.3200 0.0615 -0.1181 0.9986
-0.3201 0.0567 -0.1178 0.9986
-0.3204 0.0376 -0.1169 0.9986
-0.3202 0.0234 -0.1164 0.9986
-0.3198 0.0093 -0.1159 0.9986
-0.3196 0.0046 -0.1158 0.9986
-0.3144 0.0000 -0.1179 0.9987
-0.3146 -0.0046 -0.1180 0.9987
-0.3148 -0.0092 -0.1181 0.9987
-0.3151 -0.0184 -0.1184 0.9987
-0.3152 -0.0230 -0.1185 0.9987
-0.3153 -0.0277 -0.1187 0.9986
-0.3153 -0.0370 -0.1191 0.9986
-0.3150 -0.0558 -0.1200 0.9986
-0.3149 -0.0605 -0.1203 0.9986
-0.3145 -0.0701 -0.1208 0.9986
-0.3140 -0.0796 -0.1215 0.9986
-0.3133 -0.0893 -0.1222 0.9986
-0.3121 -0.1039 -0.1234 0.9986
-0.3111 -0.1138 -0.1242 0.9986
-0.3099 -0.1237 -0.1251 0.9986
-0.3093 -0.1288 -0.1256 0.9986
-0.3086 -0.1338 -0.1261 0.9986
-0.3079 -0.1389 -0.1267 0.9986
-0.3071 -0.1440 -0.1272 0.9986
-0.3062 -0.1490 -0.1277 0.9985
-0.3053 -0.1541 -0.1282 0.9985
-0.3032 -0.1645 -0.1294 0.9985
-0.3022 -0.1696 -0.1299 0.9985
-0.3011 -0.1748 -0.1306 0.9985
-0.2987 -0.1853 -0.1318 0.9985
-0.2974 -0.1907 -0.1325 0.9985
-0.2962 -0.1960 -0.1332 0.9985
-0.2919 -0.2187 -0.1368 0.9984
-0.2906 -0.2244 -0.1377 0.9984
-0.2894 -0.2303 -0.1387 0.9984
-0.2880 -0.2362 -0.1397 0.9984
-0.2867 -0.2422 -0.1407 0.9984
-0.2852 -0.2482 -0.1418 0.9984
-0.2806 -0.2666 -0.1451 0.9983
-0.2789 -0.2729 -0.1463 0.9983
-0.2772 -0.2792 -0.1475 0.9983
-0.2754 -0.2856 -0.1488 0.9983
-0.2715 -0.2987 -0.1514 0.9983
-0.2696 -0.3053 -0.1527 0.9983
-0.2674 -0.3120 -0.1541 0.9982
-0.2624 -0.3248 -0.1566 0.9982
-0.2542 -0.3446 -0.1606 0.9982
-0.2513 -0.3513 -0.1620 0.9982
-0.2483 -0.3581 -0.1634 0.9981
-0.2453 -0.3649 -0.1649 0.9981
-0.2322 -0.3933 -0.1713 0.9981
-0.2215 -0.4157 -0.1766 0.9980
-0.2137 -0.4311 -0.1804 0.9979
-0.2097 -0.4389 -0.1824 0.9979
-0.2055 -0.4469 -0.1844 0.9979
-0.2012 -0.4549 -0.1865 0.9979
-0.1968 -0.4631 -0.1887 0.9979
-0.1777 -0.4970 -0.1979 0.9977
-0.1561 -0.5329 -0.2082 0.9976
-0.1445 -0.5527 -0.2142 0.9976
-0.1332 -0.5781 -0.2225 0.9975
-0.5583 -2.5956 -0.9956 0.9887
-0.5203 -2.6034 -0.9956 0.9887
-0.4440 -2.6177 -0.9956 0.9887
-0.3289 -2.6348 -0.9957 0.9887
-0.2904 -2.6393 -0.9957 0.9887
-0.1745 -2.6497 -0.9958 0.9887
-0.1357 -2.6511 -0.9954 0.9887
-0.0194 -2.6521 -0.9945 0.9887
0.0194 -2.6520 -0.9945 0.9887
0.0969 -2.6511 -0.9948 0.9887
0.1357 -2.6503 -0.9951 0.9887
0.1744 -2.6493 -0.9956 0.9887
0.2132 -2.6474 -0.9960 0.9887
0.2905 -2.6402 -0.9960 0.9887
0.3291 -2.6357 -0.9960 0.9887
0.3676 -2.6307 -0.9961 0.9887
0.4443 -2.6190 -0.9961 0.9887
0.4825 -2.6122 -0.9961 0.9887
0.5965 -2.5887 -0.9962 0.9887
0.6343 -2.5798 -0.9962 0.9887
0.7095 -2.5603 -0.9962 0.9887
0.8210 -2.5269 -0.9963 0.9887
0.8579 -2.5146 -0.9963 0.9887
0.8946 -2.5020 -0.9963 0.9887
0.9673 -2.4748 -0.9964 0.9887
1.0393 -2.4455 -0.9964 0.9887
1.1455 -2.3978 -0.9965 0.9887
1.1805 -2.3809 -0.9965 0.9887
1.2151 -2.3634 -0.9965 0.9887
1.2495 -2.3454 -0.9965 0.9887
1.2837 -2.3270 -0.9966 0.9887
1.3845 -2.2686 -0.9966 0.9887
1.4175 -2.2482 -0.9966 0.9887
1.4827 -2.2059 -0.9967 0.9887
1.5465 -2.1617 -0.9967 0.9887
1.6399 -2.0920 -0.9968 0.9887
1.7594 -1.9927 -0.9968 0.9887
1.7884 -1.9668 -0.9968 0.9887
1.8451 -1.9138 -0.9969 0.9887
1.8729 -1.8867 -0.9969 0.9887
1.9273 -1.8312 -0.9969 0.9887
1.9539 -1.8028 -0.9969 0.9887
1.9801 -1.7741 -0.9969 0.9887
2.0058 -1.7450 -0.9970 0.9887
2.0311 -1.7155 -0.9970 0.9887
2.0560 -1.6857 -0.9970 0.9887
2.1044 -1.6250 -0.9970 0.9887
2.1279 -1.5941 -0.9970 0.9887
2.1510 -1.5628 -0.9970 0.9887
2.1737 -1.5312 -0.9970 0.9887
2.1958 -1.4993 -0.9971 0.9887
2.2175 -1.4671 -0.9971 0.9887
2.2595 -1.4017 -0.9971 0.9887
2.2996 -1.3351 -0.9971 0.9887
2.3188 -1.3014 -0.9971 0.9887
2.3376 -1.2674 -0.9971 0.9887
2.3737 -1.1986 -0.9971 0.9887
2.4078 -1.1287 -0.9972 0.9887
2.4975 -0.9136 -0.9972 0.9887
2.5106 -0.8770 -0.9972 0.9887
2.5680 -0.6914 -0.9973 0.9887
2.5958 -0.5782 -0.9973 0.9887
2.6040 -0.5403 -0.9973 0.9887
2.6117 -0.5022 -0.9973 0.9887
2.6187 -0.4639 -0.9973 0.9887
2.6252 -0.4257 -0.9973 0.9887
2.6456 -0.2715 -0.9973 0.9887
2.6584 -0.0777 -0.9973 0.9887
2.6570 0.1165 -0.9973 0.9887
2.6550 0.1553 -0.9973 0.9887
2.6457 0.2716 -0.9973 0.9887
2.6414 0.3102 -0.9973 0.9887
2.6366 0.3487 -0.9973 0.9887
2.6312 0.3872 -0.9973 0.9887
2.6252 0.4256 -0.9973 0.9887
2.6117 0.5021 -0.9973 0.9887
2.6040 0.5403 -0.9973 0.9887
2.5958 0.5782 -0.9973 0.9887
2.5871 0.6161 -0.9973 0.9887
2.5576 0.7289 -0.9973 0.9887
2.5106 0.8770 -0.9972 0.9887
2.4697 0.9862 -0.9972 0.9887
2.4550 1.0221 -0.9972 0.9887
2.3737 1.1985 -0.9972 0.9887
2.3559 1.2330 -0.9971 0.9887
2.2798 1.3686 -0.9971 0.9887
2.2595 1.4018 -0.9971 0.9887
2.2175 1.4671 -0.9971 0.9887
2.1279 1.5941 -0.9970 0.9887
2.1044 1.6249 -0.9970 0.9887
2.0804 1.6555 -0.9970 0.9887
2.0559 1.6857 -0.9970 0.9887
1.9800 1.7741 -0.9969 0.9887
1.9273 1.8312 -0.9969 0.9887
1.9003 1.8591 -0.9969 0.9887
1.8729 1.8866 -0.9969 0.9887
1.8451 1.9137 -0.9969 0.9887
1.8170 1.9405 -0.9969 0.9887
1.7884 1.9668 -0.9968 0.9887
1.7594 1.9927 -0.9968 0.9887
1.7004 2.0432 -0.9968 0.9887
1.6703 2.0678 -0.9968 0.9887
1.6399 2.0920 -0.9968 0.9887
1.4827 2.2059 -0.9967 0.9887
1.3845 2.2686 -0.9966 0.9887
1.3512 2.2886 -0.9966 0.9887
1.2837 2.3270 -0.9966 0.9887
1.2151 2.3634 -0.9965 0.9887
1.1455 2.3978 -0.9965 0.9887
1.1103 2.4142 -0.9965 0.9887
0.9310 2.4886 -0.9964 0.9887
0.7095 2.5602 -0.9963 0.9887
0.6720 2.5703 -0.9962 0.9887
0.5966 2.5887 -0.9962 0.9887
0.5206 2.6050 -0.9962 0.9887
0.4825 2.6122 -0.9961 0.9887
0.2519 2.6441 -0.9960 0.9887
0.2132 2.6474 -0.9960 0.9887
0.1745 2.6502 -0.9960 0.9887
0.0970 2.6541 -0.9959 0.9887
-0.0194 2.6556 -0.9959 0.9887
-0.1745 2.6497 -0.9958 0.9887
-0.2518 2.6434 -0.9957 0.9887
-0.3289 2.6348 -0.9957 0.9887
-0.3674 2.6296 -0.9957 0.9887
-0.4440 2.6177 -0.9956 0.9887
-0.5203 2.6035 -0.9956 0.9887
-0.5583 2.5955 -0.9956 0.9887
-0.1445 0.5527 -0.2142 0.9976
-0.1503 0.5423 -0.2110 0.9976
-0.1617 0.5236 -0.2055 0.9977
-0.1672 0.5146 -0.2029 0.9977
-0.1777 0.4970 -0.1979 0.9977
-0.1827 0.4883 -0.1955 0.9978
-0.1922 0.4713 -0.1909 0.9978
-0.1968 0.4631 -0.1887 0.9979
-0.2097 0.4389 -0.1824 0.9979
-0.2176 0.4233 -0.1785 0.9980
-0.2251 0.4081 -0.1748 0.9980
-0.2287 0.4007 -0.1730 0.9980
-0.2322 0.3933 -0.1713 0.9981
-0.2356 0.3860 -0.1696 0.9981
-0.2453 0.3650 -0.1649 0.9981
-0.2513 0.3513 -0.1620 0.9982
-0.2597 0.3313 -0.1579 0.9982
-0.2624 0.3248 -0.1566 0.9982
-0.2649 0.3184 -0.1553 0.9982
-0.2696 0.3053 -0.1527 0.9983
-0.2735 0.2921 -0.1501 0.9983
-0.2754 0.2856 -0.1488 0.9983
-0.2772 0.2792 -0.1475 0.9983
-0.2806 0.2666 -0.1451 0.9983
-0.2837 0.2543 -0.1429 0.9984
-0.2852 0.2482 -0.1418 0.9984
-0.2880 0.2361 -0.1397 0.9984
-0.2930 0.2129 -0.1358 0.9985
-0.2941 0.2072 -0.1349 0.9985
-0.2952 0.2016 -0.1340 0.9985
-0.2962 0.1960 -0.1332 0.9985
-0.2975 0.1907 -0.1325 0.9985
-0.2987 0.1853 -0.1318 0.9985
-0.2999 0.1801 -0.1312 0.9985
-0.3011 0.1748 -0.1306 0.9985
-0.3053 0.1541 -0.1282 0.9985
-0.3062 0.1490 -0.1277 0.9985
-0.3071 0.1439 -0.1272 0.9986
-0.3121 0.1039 -0.1234 0.9986
-0.3125 0.0990 -0.1229 0.9986
-0.3129 0.0941 -0.1226 0.9986
-0.3137 0.0845 -0.1218 0.9986
-0.3140 0.0796 -0.1215 0.9986
-0.3145 0.0701 -0.1208 0.9986
-0.3152 0.0464 -0.1195 0.9986
-0.3153 0.0277 -0.1187 0.9986
-0.3152 0.0230 -0.1185 0.9987
-0.3151 0.0184 -0.1184 0.9987
-0.3150 0.0138 -0.1182 0.9987
-0.3148 0.0092 -0.1181 0.9987
-0.3146 0.0046 -0.1180 0.9987
-0.3095 0.0000 -0.1200 0.9987
-0.3101 -0.0136 -0.1203 0.9987
-0.3102 -0.0182 -0.1205 0.9987
-0.3104 -0.0365 -0.1212 0.9987
-0.3104 -0.0411 -0.1214 0.9987
-0.3103 -0.0457 -0.1216 0.9987
-0.3102 -0.0503 -0.1218 0.9987
-0.3100 -0.0596 -0.1224 0.9986
-0.3098 -0.0643 -0.1226 0.9986
-0.3087 -0.0831 -0.1239 0.9986
-0.3079 -0.0927 -0.1247 0.9986
-0.3055 -0.1168 -0.1268 0.9986
-0.3048 -0.1217 -0.1273 0.9986
-0.3042 -0.1266 -0.1278 0.9986
-0.3035 -0.1316 -0.1283 0.9986
-0.3020 -0.1416 -0.1293 0.9986
-0.3011 -0.1466 -0.1298 0.9986
-0.2991 -0.1566 -0.1309 0.9986
-0.2981 -0.1616 -0.1315 0.9985
-0.2959 -0.1718 -0.1327 0.9985
-0.2947 -0.1770 -0.1333 0.9985
-0.2910 -0.1925 -0.1353 0.9985
-0.2887 -0.2034 -0.1369 0.9985
-0.2852 -0.2202 -0.1397 0.9985
-0.2839 -0.2259 -0.1407 0.9984
-0.2826 -0.2317 -0.1417 0.9984
-0.2812 -0.2375 -0.1427 0.9984
-0.2797 -0.2434 -0.1437 0.9984
-0.2782 -0.2493 -0.1448 0.9984
-0.2767 -0.2553 -0.1459 0.9984
-0.2750 -0.2613 -0.1471 0.9984
-0.2733 -0.2674 -0.1483 0.9984
-0.2698 -0.2798 -0.1507 0.9983
-0.2619 -0.3055 -0.1560 0.9983
-0.2569 -0.3181 -0.1585 0.9982
-0.2516 -0.3308 -0.1611 0.9982
-0.2488 -0.3373 -0.1625 0.9982
-0.2430 -0.3504 -0.1653 0.9982
-0.2336 -0.3706 -0.1698 0.9981
-0.2303 -0.3774 -0.1714 0.9981
-0.2269 -0.3844 -0.1730 0.9981
-0.2234 -0.3914 -0.1747 0.9981
-0.2086 -0.4207 -0.1820 0.9980
-0.2005 -0.4359 -0.1860 0.9979
-0.1873 -0.4594 -0.1923 0.9979
-0.1827 -0.4675 -0.1946 0.9978
-0.1779 -0.4756 -0.1969 0.9978
-0.1730 -0.4838 -0.1992 0.9978
-0.1518 -0.5182 -0.2093 0.9977
-0.1460 -0.5270 -0.2120 0.9977
-0.1401 -0.5361 -0.2148 0.9976
-0.1340 -0.5452 -0.2177 0.9976
-0.1277 -0.5545 -0.2206 0.9976
-0.1161 -0.5811 -0.2297 0.9975
-0.4664 -2.5254 -0.9956 0.9890
-0.4295 -2.5320 -0.9956 0.9890
-0.3554 -2.5435 -0.9957 0.9890
-0.2436 -2.5569 -0.9957 0.9890
-0.1688 -2.5630 -0.9958 0.9890
-0.1313 -2.5652 -0.9958 0.9890
-0.0188 -2.5687 -0.9959 0.9890
0.0938 -2.5672 -0.9959 0.9890
0.1313 -2.5656 -0.9959 0.9890
0.2062 -2.5607 -0.9960 0.9890
0.2810 -2.5538 -0.9960 0.9890
0.3183 -2.5494 -0.9960 0.9890
0.3927 -2.5391 -0.9961 0.9890
0.5404 -2.5120 -0.9962 0.9890
0.5770 -2.5039 -0.9962 0.9890
0.6136 -2.4953 -0.9962 0.9890
0.6863 -2.4764 -0.9962 0.9890
0.7942 -2.4441 -0.9963 0.9890
0.8298 -2.4323 -0.9963 0.9890
0.8652 -2.4200 -0.9963 0.9890
0.9356 -2.3937 -0.9964 0.9890
1.0052 -2.3655 -0.9964 0.9890
1.0397 -2.3505 -0.9964 0.9890
1.1080 -2.3192 -0.9965 0.9890
1.1418 -2.3029 -0.9965 0.9890
1.3392 -2.1943 -0.9966 0.9890
1.4028 -2.1543 -0.9966 0.9890
1.4341 -2.1336 -0.9966 0.9890
1.4651 -2.1124 -0.9967 0.9890
1.5263 -2.0688 -0.9967 0.9890
1.6156 -2.0000 -0.9967 0.9890
1.6446 -1.9763 -0.9968 0.9890
1.7017 -1.9273 -0.9968 0.9890
1.7847 -1.8511 -0.9968 0.9890
1.8115 -1.8248 -0.9968 0.9890
1.8641 -1.7712 -0.9969 0.9890
1.8898 -1.7437 -0.9969 0.9890
1.9151 -1.7159 -0.9969 0.9890
1.9400 -1.6879 -0.9969 0.9890
1.9886 -1.6305 -0.9969 0.9890
2.0122 -1.6012 -0.9970 0.9890
2.0354 -1.5717 -0.9970 0.9890
2.0805 -1.5116 -0.9970 0.9890
2.1239 -1.4502 -0.9970 0.9890
2.1449 -1.4190 -0.9970 0.9890
2.2242 -1.2914 -0.9971 0.9890
2.2610 -1.2259 -0.9971 0.9890
2.2787 -1.1927 -0.9971 0.9890
2.2959 -1.1593 -0.9971 0.9890
2.3126 -1.1256 -0.9971 0.9890
2.3288 -1.0917 -0.9971 0.9890
2.3598 -1.0232 -0.9971 0.9890
2.3887 -0.9539 -0.9972 0.9890
2.4024 -0.9189 -0.9972 0.9890
2.4156 -0.8837 -0.9972 0.9890
2.4283 -0.8482 -0.9972 0.9890
2.4521 -0.7769 -0.9972 0.9890
2.4631 -0.7410 -0.9972 0.9890
2.4737 -0.7050 -0.9972 0.9890
2.4933 -0.6324 -0.9972 0.9890
2.5187 -0.5225 -0.9972 0.9890
2.5260 -0.4857 -0.9972 0.9890
2.5392 -0.4117 -0.9972 0.9890
2.5501 -0.3373 -0.9972 0.9890
2.5548 -0.3000 -0.9972 0.9890
2.5589 -0.2627 -0.9973 0.9890
2.5655 -0.1878 -0.9973 0.9890
