ply
format ascii 1.0
element vertex 1594
property float32 x
property float32 y
property float32 z
property float32 I
end_header
0.4633 2.7313 -1.0040 0.9883
0.4233 2.7373 -1.0038 0.9883
0.3430 2.7477 -1.0035 0.9883
0.2222 2.7589 -1.0030 0.9883
0.1818 2.7614 -1.0029 0.9883
0.1414 2.7633 -1.0027 0.9883
0.1010 2.7646 -1.0026 0.9883
0.0606 2.7654 -1.0024 0.9883
0.0202 2.7655 -1.0023 0.9883
-0.0202 2.7651 -1.0021 0.9883
-0.1010 2.7625 -1.0018 0.9883
-0.1413 2.7603 -1.0016 0.9883
-0.2218 2.7541 -1.0013 0.9883
-0.2620 2.7502 -1.0012 0.9883
-0.3421 2.7406 -1.0009 0.9883
-0.4617 2.7217 -1.0004 0.9883
-0.5013 2.7142 -1.0003 0.9883
-0.5409 2.7062 -1.0001 0.9883
-0.5803 2.6976 -1.0000 0.9883
-0.1496 0.6083 -0.2270 0.9973
-0.1555 0.5610 -0.2110 0.9975
-0.1612 0.5503 -0.2078 0.9976
-0.1720 0.5293 -0.2017 0.9976
-0.1773 0.5198 -0.1990 0.9977
-0.1826 0.5107 -0.1965 0.9977
-0.1877 0.5016 -0.1941 0.9977
-0.1926 0.4927 -0.1917 0.9978
-0.2064 0.4668 -0.1849 0.9978
-0.2108 0.4584 -0.1828 0.9979
-0.2150 0.4501 -0.1807 0.9979
-0.2269 0.4259 -0.1749 0.9979
-0.2412 0.3952 -0.1678 0.9980
-0.2445 0.3877 -0.1661 0.9981
-0.2539 0.3661 -0.1615 0.9981
-0.2598 0.3521 -0.1586 0.9981
-0.2626 0.3453 -0.1572 0.9982
-0.2654 0.3385 -0.1559 0.9982
-0.2706 0.3251 -0.1533 0.9982
-0.2773 0.3050 -0.1494 0.9982
-0.2863 0.2720 -0.1431 0.9983
-0.2895 0.2594 -0.1408 0.9983
-0.2909 0.2531 -0.1397 0.9984
-0.2924 0.2470 -0.1387 0.9984
-0.2963 0.2288 -0.1357 0.9984
-0.2975 0.2229 -0.1347 0.9984
-0.2997 0.2112 -0.1329 0.9984
-0.3018 0.1997 -0.1311 0.9985
-0.3040 0.1886 -0.1297 0.9985
-0.3139 0.1362 -0.1240 0.9985
-0.3152 0.1259 -0.1230 0.9986
-0.3157 0.1208 -0.1225 0.9986
-0.3163 0.1157 -0.1220 0.9986
-0.3168 0.1107 -0.1216 0.9986
-0.3177 0.1007 -0.1208 0.9986
-0.3181 0.0957 -0.1204 0.9986
-0.3185 0.0908 -0.1200 0.9986
-0.3191 0.0810 -0.1193 0.9986
-0.3194 0.0761 -0.1190 0.9986
-0.3198 0.0664 -0.1184 0.9986
-0.3200 0.0616 -0.1181 0.9986
-0.3203 0.0520 -0.1176 0.9986
-0.3203 0.0282 -0.1165 0.9986
-0.3200 0.0140 -0.1161 0.9986
-0.3144 0.0000 -0.1179 0.9987
-0.3148 -0.0092 -0.1181 0.9987
-0.3151 -0.0184 -0.1184 0.9987
-0.3152 -0.0230 -0.1185 0.9987
-0.3153 -0.0277 -0.1187 0.9986
-0.3153 -0.0323 -0.1189 0.9986
-0.3153 -0.0370 -0.1191 0.9986
-0.3151 -0.0558 -0.1200 0.9986
-0.3148 -0.0652 -0.1205 0.9986
-0.3145 -0.0700 -0.1208 0.9986
-0.3143 -0.0748 -0.1211 0.9986
-0.3140 -0.0796 -0.1215 0.9986
-0.3137 -0.0844 -0.1218 0.9986
-0.3130 -0.0941 -0.1226 0.9986
-0.3126 -0.0990 -0.1229 0.9986
-0.3121 -0.1039 -0.1234 0.9986
-0.3111 -0.1137 -0.1242 0.9986
-0.3105 -0.1187 -0.1247 0.9986
-0.3099 -0.1237 -0.1251 0.9986
-0.3079 -0.1388 -0.1267 0.9986
-0.3062 -0.1490 -0.1277 0.9985
-0.3053 -0.1541 -0.1282 0.9985
-0.3043 -0.1593 -0.1288 0.9985
-0.3033 -0.1644 -0.1294 0.9985
-0.3022 -0.1696 -0.1299 0.9985
-0.3011 -0.1748 -0.1306 0.9985
-0.2988 -0.1853 -0.1318 0.9985
-0.2975 -0.1906 -0.1325 0.9985
-0.2962 -0.1959 -0.1332 0.9985
-0.2952 -0.2016 -0.1340 0.9985
-0.2942 -0.2071 -0.1349 0.9985
-0.2919 -0.2186 -0.1368 0.9984
-0.2894 -0.2302 -0.1387 0.9984
-0.2838 -0.2543 -0.1429 0.9984
-0.2822 -0.2604 -0.1440 0.9984
-0.2789 -0.2728 -0.1463 0.9983
-0.2772 -0.2792 -0.1475 0.9983
-0.2754 -0.2855 -0.1488 0.9983
-0.2716 -0.2986 -0.1514 0.9983
-0.2696 -0.3052 -0.1527 0.9983
-0.2650 -0.3184 -0.1553 0.9982
-0.2453 -0.3649 -0.1649 0.9981
-0.2356 -0.3861 -0.1696 0.9981
-0.2177 -0.4233 -0.1785 0.9980
-0.2137 -0.4311 -0.1804 0.9979
-0.2097 -0.4389 -0.1824 0.9979
-0.2055 -0.4468 -0.1844 0.9979
-0.1968 -0.4630 -0.1887 0.9979
-0.1827 -0.4882 -0.1955 0.9978
-0.1777 -0.4969 -0.1979 0.9977
-0.1725 -0.5057 -0.2004 0.9977
-0.1672 -0.5146 -0.2029 0.9977
-0.1561 -0.5329 -0.2082 0.9976
-0.1445 -0.5527 -0.2142 0.9976
-0.1385 -0.5632 -0.2175 0.9975
-0.5227 -2.6155 -1.0002 0.9887
-0.4845 -2.6231 -1.0003 0.9887
-0.4462 -2.6304 -1.0005 0.9887
-0.4078 -2.6370 -1.0006 0.9887
-0.2920 -2.6534 -1.0010 0.9887
-0.2144 -2.6616 -1.0013 0.9887
-0.1755 -2.6649 -1.0015 0.9887
-0.1366 -2.6676 -1.0016 0.9887
-0.0976 -2.6697 -1.0018 0.9887
-0.0195 -2.6722 -1.0021 0.9886
0.0586 -2.6725 -1.0024 0.9886
0.0976 -2.6717 -1.0025 0.9886
0.1367 -2.6704 -1.0027 0.9886
0.2147 -2.6660 -1.0030 0.9886
0.2537 -2.6630 -1.0031 0.9886
0.2926 -2.6594 -1.0033 0.9886
0.3315 -2.6552 -1.0034 0.9886
0.3703 -2.6505 -1.0036 0.9886
0.4477 -2.6393 -1.0039 0.9886
0.4863 -2.6329 -1.0040 0.9886
0.6397 -2.6015 -1.0046 0.9886
0.6777 -2.5923 -1.0047 0.9886
0.7534 -2.5720 -1.0050 0.9886
0.9398 -2.5120 -1.0057 0.9886
0.9765 -2.4983 -1.0059 0.9886
1.0855 -2.4541 -1.0063 0.9886
1.1571 -2.4220 -1.0066 0.9886
1.1925 -2.4052 -1.0067 0.9886
1.3317 -2.3327 -1.0072 0.9886
1.3996 -2.2933 -1.0075 0.9886
1.4332 -2.2729 -1.0076 0.9886
1.4664 -2.2520 -1.0077 0.9886
1.6592 -2.1165 -1.0085 0.9886
1.7207 -2.0676 -1.0087 0.9886
1.7509 -2.0425 -1.0088 0.9886
1.8102 -1.9909 -1.0091 0.9886
1.8394 -1.9644 -1.0092 0.9886
1.8681 -1.9376 -1.0093 0.9886
1.9789 -1.8259 -1.0097 0.9886
2.0318 -1.7677 -1.0099 0.9886
2.0576 -1.7380 -1.0100 0.9886
2.1564 -1.6154 -1.0104 0.9886
2.1800 -1.5839 -1.0105 0.9886
2.2696 -1.4543 -1.0108 0.9886
2.2908 -1.4211 -1.0109 0.9885
2.3514 -1.3196 -1.0111 0.9885
2.3706 -1.2852 -1.0112 0.9885
2.3893 -1.2505 -1.0113 0.9885
2.4251 -1.1803 -1.0114 0.9885
2.4750 -1.0732 -1.0116 0.9885
2.4906 -1.0370 -1.0117 0.9885
2.5201 -0.9638 -1.0118 0.9885
2.5340 -0.9270 -1.0118 0.9885
2.5603 -0.8526 -1.0119 0.9885
2.5726 -0.8152 -1.0120 0.9885
2.5843 -0.7775 -1.0120 0.9885
2.6062 -0.7017 -1.0121 0.9885
2.6162 -0.6636 -1.0121 0.9885
2.6347 -0.5869 -1.0122 0.9885
2.6431 -0.5484 -1.0122 0.9885
2.6509 -0.5097 -1.0123 0.9885
2.6581 -0.4709 -1.0123 0.9885
2.6709 -0.3930 -1.0123 0.9885
2.6857 -0.2756 -1.0124 0.9885
2.6895 -0.2363 -1.0124 0.9885
2.6973 -0.1183 -1.0125 0.9885
2.6997 -0.0395 -1.0125 0.9885
2.7000 0.0001 -1.0125 0.9885
2.6997 0.0395 -1.0125 0.9885
2.6988 0.0789 -1.0125 0.9885
2.6813 0.3149 -1.0124 0.9885
2.6764 0.3541 -1.0124 0.9885
2.6648 0.4321 -1.0123 0.9885
2.6509 0.5097 -1.0123 0.9885
2.6431 0.5484 -1.0122 0.9885
2.6347 0.5870 -1.0122 0.9885
2.6163 0.6636 -1.0121 0.9885
2.5956 0.7397 -1.0121 0.9885
2.5844 0.7775 -1.0120 0.9885
2.5726 0.8152 -1.0120 0.9885
2.5341 0.9270 -1.0118 0.9885
2.5201 0.9639 -1.0118 0.9885
2.4252 1.1805 -1.0114 0.9885
2.3893 1.2506 -1.0113 0.9885
2.3514 1.3197 -1.0111 0.9885
2.2908 1.4212 -1.0109 0.9885
2.2696 1.4544 -1.0108 0.9886
2.2479 1.4873 -1.0107 0.9886
2.2258 1.5198 -1.0107 0.9886
2.2032 1.5521 -1.0106 0.9886
2.1801 1.5839 -1.0105 0.9886
2.1565 1.6155 -1.0104 0.9886
2.1080 1.6775 -1.0102 0.9886
1.9789 1.8260 -1.0097 0.9886
1.8964 1.9104 -1.0094 0.9886
1.8681 1.9377 -1.0093 0.9886
1.8103 1.9910 -1.0091 0.9886
1.7808 2.0170 -1.0090 0.9886
1.7510 2.0426 -1.0089 0.9886
1.6902 2.0924 -1.0086 0.9886
1.6592 2.1166 -1.0085 0.9886
1.6279 2.1404 -1.0084 0.9886
1.5963 2.1637 -1.0083 0.9886
1.5320 2.2089 -1.0080 0.9886
1.4664 2.2521 -1.0078 0.9886
1.3658 2.3133 -1.0074 0.9886
1.0494 2.4695 -1.0062 0.9886
1.0131 2.4843 -1.0060 0.9886
0.9765 2.4985 -1.0059 0.9886
0.9398 2.5121 -1.0058 0.9886
0.9028 2.5252 -1.0056 0.9886
0.7910 2.5612 -1.0052 0.9886
0.7534 2.5722 -1.0051 0.9886
0.3703 2.6506 -1.0036 0.9886
0.3315 2.6554 -1.0034 0.9886
0.2147 2.6661 -1.0030 0.9886
0.1757 2.6686 -1.0029 0.9886
0.0976 2.6718 -1.0026 0.9886
-0.1366 2.6677 -1.0017 0.9887
-0.1755 2.6651 -1.0015 0.9887
-0.2920 2.6536 -1.0011 0.9887
-0.4078 2.6371 -1.0006 0.9887
-0.4462 2.6305 -1.0005 0.9887
-0.5228 2.6155 -1.0002 0.9887
-0.1385 0.5632 -0.2175 0.9975
-0.1561 0.5329 -0.2082 0.9976
-0.1617 0.5237 -0.2055 0.9977
-0.1672 0.5146 -0.2029 0.9977
-0.1777 0.4970 -0.1979 0.9977
-0.1827 0.4883 -0.1955 0.9978
-0.1968 0.4631 -0.1887 0.9979
-0.2012 0.4550 -0.1865 0.9979
-0.2177 0.4234 -0.1785 0.9980
-0.2215 0.4157 -0.1766 0.9980
-0.2252 0.4082 -0.1748 0.9980
-0.2288 0.4007 -0.1730 0.9980
-0.2322 0.3934 -0.1713 0.9981
-0.2389 0.3789 -0.1680 0.9981
-0.2422 0.3720 -0.1664 0.9981
-0.2484 0.3581 -0.1634 0.9981
-0.2514 0.3513 -0.1620 0.9982
-0.2542 0.3446 -0.1606 0.9982
-0.2570 0.3380 -0.1592 0.9982
-0.2624 0.3248 -0.1566 0.9982
-0.2696 0.3053 -0.1527 0.9983
-0.2772 0.2792 -0.1475 0.9983
-0.2789 0.2729 -0.1463 0.9983
-0.2806 0.2666 -0.1451 0.9983
-0.2838 0.2543 -0.1429 0.9984
-0.2881 0.2362 -0.1397 0.9984
-0.2894 0.2303 -0.1387 0.9984
-0.2907 0.2245 -0.1377 0.9984
-0.2952 0.2016 -0.1340 0.9985
-0.2962 0.1960 -0.1332 0.9985
-0.2975 0.1907 -0.1325 0.9985
-0.2987 0.1854 -0.1318 0.9985
-0.2999 0.1801 -0.1312 0.9985
-0.3043 0.1593 -0.1288 0.9985
-0.3062 0.1491 -0.1277 0.9985
-0.3087 0.1338 -0.1261 0.9986
-0.3093 0.1288 -0.1256 0.9986
-0.3105 0.1188 -0.1247 0.9986
-0.3121 0.1039 -0.1234 0.9986
-0.3137 0.0845 -0.1218 0.9986
-0.3140 0.0796 -0.1215 0.9986
-0.3148 0.0653 -0.1205 0.9986
-0.3149 0.0606 -0.1203 0.9986
-0.3153 0.0417 -0.1193 0.9986
-0.3153 0.0277 -0.1187 0.9986
-0.3150 0.0138 -0.1182 0.9987
-0.3148 0.0092 -0.1181 0.9987
-0.3146 0.0046 -0.1180 0.9987
-0.3097 -0.0045 -0.1201 0.9987
-0.3099 -0.0091 -0.1202 0.9987
-0.3102 -0.0181 -0.1205 0.9987
-0.3103 -0.0227 -0.1206 0.9987
-0.3104 -0.0410 -0.1214 0.9987
-0.3103 -0.0456 -0.1216 0.9987
-0.3103 -0.0502 -0.1218 0.9987
-0.3100 -0.0596 -0.1224 0.9986
-0.3096 -0.0689 -0.1229 0.9986
-0.3093 -0.0736 -0.1233 0.9986
-0.3083 -0.0879 -0.1243 0.9986
-0.3071 -0.1023 -0.1255 0.9986
-0.3049 -0.1217 -0.1273 0.9986
-0.3042 -0.1266 -0.1278 0.9986
-0.3036 -0.1316 -0.1283 0.9986
-0.3020 -0.1416 -0.1293 0.9986
-0.3011 -0.1465 -0.1298 0.9986
-0.3001 -0.1515 -0.1303 0.9986
-0.2991 -0.1566 -0.1309 0.9986
-0.2981 -0.1616 -0.1315 0.9985
-0.2959 -0.1718 -0.1327 0.9985
-0.2936 -0.1821 -0.1339 0.9985
-0.2876 -0.2089 -0.1378 0.9985
-0.2852 -0.2202 -0.1397 0.9985
-0.2839 -0.2259 -0.1407 0.9984
-0.2826 -0.2316 -0.1417 0.9984
-0.2798 -0.2434 -0.1437 0.9984
-0.2767 -0.2553 -0.1459 0.9984
-0.2716 -0.2736 -0.1495 0.9983
-0.2660 -0.2925 -0.1533 0.9983
-0.2619 -0.3054 -0.1560 0.9983
-0.2570 -0.3180 -0.1585 0.9982
-0.2543 -0.3244 -0.1598 0.9982
-0.2489 -0.3372 -0.1625 0.9982
-0.2400 -0.3570 -0.1668 0.9982
-0.2369 -0.3637 -0.1683 0.9981
-0.2336 -0.3705 -0.1698 0.9981
-0.2235 -0.3914 -0.1747 0.9981
-0.2199 -0.3986 -0.1765 0.9980
-0.2162 -0.4058 -0.1783 0.9980
-0.2086 -0.4207 -0.1820 0.9980
-0.1873 -0.4594 -0.1923 0.9979
-0.1730 -0.4838 -0.1992 0.9978
-0.1679 -0.4922 -0.2016 0.9978
-0.1461 -0.5270 -0.2120 0.9977
-0.1215 -0.5647 -0.2239 0.9975
-0.1162 -0.5811 -0.2298 0.9975
-0.4317 -2.5444 -1.0005 0.9890
-0.3199 -2.5620 -1.0009 0.9890
-0.2824 -2.5667 -1.0011 0.9890
-0.1698 -2.5777 -1.0015 0.9890
-0.1321 -2.5803 -1.0017 0.9890
-0.0189 -2.5847 -1.0021 0.9890
0.0189 -2.5851 -1.0022 0.9890
0.0567 -2.5849 -1.0024 0.9890
0.1322 -2.5829 -1.0027 0.9890
0.1699 -2.5810 -1.0028 0.9890
0.2077 -2.5787 -1.0030 0.9890
0.2453 -2.5757 -1.0031 0.9890
0.3206 -2.5682 -1.0034 0.9890
0.3582 -2.5636 -1.0035 0.9890
0.5447 -2.5324 -1.0042 0.9889
0.5817 -2.5245 -1.0044 0.9889
0.6555 -2.5071 -1.0047 0.9889
0.7650 -2.4770 -1.0051 0.9889
0.8013 -2.4659 -1.0052 0.9889
0.8373 -2.4543 -1.0054 0.9889
0.8732 -2.4421 -1.0055 0.9889
1.0149 -2.3882 -1.0060 0.9889
1.0498 -2.3734 -1.0062 0.9889
1.0845 -2.3582 -1.0063 0.9889
1.1190 -2.3424 -1.0064 0.9889
1.1533 -2.3261 -1.0066 0.9889
1.1873 -2.3093 -1.0067 0.9889
1.3208 -2.2372 -1.0072 0.9889
1.3535 -2.2179 -1.0073 0.9889
1.3860 -2.1982 -1.0074 0.9889
1.4181 -2.1779 -1.0076 0.9889
1.5742 -2.0698 -1.0082 0.9889
1.6640 -1.9995 -1.0085 0.9889
1.6932 -1.9752 -1.0086 0.9889
1.7221 -1.9505 -1.0087 0.9889
1.7787 -1.8997 -1.0089 0.9889
1.8339 -1.8473 -1.0092 0.9889
1.8608 -1.8205 -1.0093 0.9889
1.9137 -1.7657 -1.0095 0.9889
1.9898 -1.6806 -1.0097 0.9889
2.0143 -1.6515 -1.0098 0.9889
2.0384 -1.6220 -1.0099 0.9889
2.0621 -1.5923 -1.0100 0.9889
2.1081 -1.5316 -1.0102 0.9889
2.1523 -1.4695 -1.0104 0.9889
2.2547 -1.3091 -1.0108 0.9889
2.3104 -1.2093 -1.0110 0.9889
2.3932 -1.0377 -1.0113 0.9889
2.4083 -1.0027 -1.0113 0.9889
2.4228 -0.9674 -1.0114 0.9889
2.4503 -0.8963 -1.0115 0.9889
2.4632 -0.8605 -1.0116 0.9889
2.4757 -0.8244 -1.0116 0.9889
2.4875 -0.7882 -1.0116 0.9889
2.4989 -0.7518 -1.0117 0.9889
2.5097 -0.7152 -1.0117 0.9889
2.5200 -0.6786 -1.0118 0.9889
2.5476 -0.5675 -1.0119 0.9889
2.5703 -0.4553 -1.0120 0.9889
2.5826 -0.3800 -1.0120 0.9889
2.5879 -0.3423 -1.0120 0.9889
2.5927 -0.3044 -1.0121 0.9889
2.5969 -0.2666 -1.0121 0.9889
2.6005 -0.2286 -1.0121 0.9889
2.6036 -0.1905 -1.0121 0.9889
2.6062 -0.1524 -1.0121 0.9889
2.6081 -0.1144 -1.0121 0.9889
2.6107 0.0000 -1.0121 0.9889
2.6104 0.0382 -1.0121 0.9889
2.6096 0.0763 -1.0121 0.9889
2.6036 0.1906 -1.0121 0.9889
2.5879 0.3423 -1.0120 0.9889
2.5390 0.6047 -1.0119 0.9889
2.5298 0.6417 -1.0118 0.9889
2.5201 0.6786 -1.0118 0.9889
2.5098 0.7153 -1.0117 0.9889
2.4990 0.7518 -1.0117 0.9889
2.4633 0.8605 -1.0116 0.9889
2.4503 0.8964 -1.0115 0.9889
2.4368 0.9320 -1.0115 0.9889
2.4083 1.0027 -1.0114 0.9889
2.3777 1.0726 -1.0112 0.9889
2.3616 1.1071 -1.0112 0.9889
2.3280 1.1755 -1.0110 0.9889
2.3104 1.2093 -1.0110 0.9889
2.2923 1.2429 -1.0109 0.9889
2.2152 1.3742 -1.0106 0.9889
2.1947 1.4063 -1.0105 0.9889
2.1523 1.4696 -1.0104 0.9889
2.1304 1.5008 -1.0103 0.9889
2.1081 1.5316 -1.0102 0.9889
2.0853 1.5622 -1.0101 0.9889
2.0621 1.5923 -1.0100 0.9889
2.0384 1.6221 -1.0099 0.9889
2.0143 1.6516 -1.0099 0.9889
1.9648 1.7095 -1.0097 0.9889
1.9395 1.7378 -1.0096 0.9889
1.9137 1.7658 -1.0095 0.9889
1.8609 1.8206 -1.0093 0.9889
1.7506 1.9254 -1.0089 0.9889
1.7221 1.9505 -1.0087 0.9889
1.6933 1.9753 -1.0086 0.9889
1.6345 2.0235 -1.0084 0.9889
1.5437 2.0924 -1.0081 0.9889
1.4815 2.1362 -1.0078 0.9889
1.4500 2.1573 -1.0077 0.9889
1.2879 2.2560 -1.0071 0.9889
1.2211 2.2921 -1.0068 0.9889
1.1873 2.3094 -1.0067 0.9889
1.1533 2.3262 -1.0066 0.9889
1.1190 2.3425 -1.0064 0.9889
1.0846 2.3583 -1.0063 0.9889
1.0498 2.3736 -1.0062 0.9889
0.9798 2.4026 -1.0059 0.9889
0.9089 2.4295 -1.0056 0.9889
0.8373 2.4544 -1.0054 0.9889
0.6187 2.5162 -1.0045 0.9889
0.5818 2.5246 -1.0044 0.9889
0.5447 2.5325 -1.0043 0.9889
0.4704 2.5466 -1.0040 0.9890
0.4330 2.5529 -1.0038 0.9890
0.3582 2.5637 -1.0035 0.9890
0.2830 2.5723 -1.0033 0.9890
0.2454 2.5759 -1.0031 0.9890
0.0567 2.5850 -1.0024 0.9890
0.0189 2.5852 -1.0023 0.9890
-0.0189 2.5848 -1.0021 0.9890
-0.0944 2.5824 -1.0018 0.9890
-0.1321 2.5804 -1.0017 0.9890
-0.2074 2.5747 -1.0014 0.9890
-0.2449 2.5711 -1.0013 0.9890
-0.2824 2.5668 -1.0011 0.9890
-0.3199 2.5621 -1.0010 0.9890
-0.4317 2.5445 -1.0005 0.9890
-0.4687 2.5375 -1.0004 0.9890
-0.1162 0.5811 -0.2297 0.9975
-0.1215 0.5648 -0.2239 0.9975
-0.1461 0.5270 -0.2120 0.9977
-0.1573 0.5095 -0.2067 0.9977
-0.1627 0.5008 -0.2041 0.9977
-0.1827 0.4675 -0.1946 0.9978
-0.1919 0.4515 -0.1902 0.9979
-0.1962 0.4437 -0.1881 0.9979
-0.2046 0.4283 -0.1840 0.9980
-0.2086 0.4207 -0.1820 0.9980
-0.2269 0.3844 -0.1730 0.9981
-0.2303 0.3775 -0.1714 0.9981
-0.2336 0.3705 -0.1698 0.9981
-0.2430 0.3504 -0.1653 0.9982
-0.2460 0.3438 -0.1639 0.9982
-0.2516 0.3309 -0.1611 0.9982
-0.2543 0.3245 -0.1598 0.9982
-0.2570 0.3181 -0.1585 0.9982
-0.2619 0.3055 -0.1560 0.9983
-0.2660 0.2925 -0.1533 0.9983
-0.2679 0.2862 -0.1520 0.9983
-0.2698 0.2798 -0.1507 0.9983
-0.2716 0.2737 -0.1495 0.9983
-0.2750 0.2614 -0.1471 0.9984
-0.2767 0.2553 -0.1459 0.9984
-0.2782 0.2493 -0.1448 0.9984
-0.2812 0.2375 -0.1427 0.9984
-0.2839 0.2260 -0.1407 0.9984
-0.2852 0.2202 -0.1397 0.9985
-0.2865 0.2146 -0.1387 0.9985
-0.2876 0.2090 -0.1378 0.9985
-0.2887 0.2034 -0.1369 0.9985
-0.2923 0.1873 -0.1346 0.9985
-0.2936 0.1821 -0.1339 0.9985
-0.2948 0.1770 -0.1333 0.9985
-0.3020 0.1416 -0.1293 0.9986
-0.3029 0.1366 -0.1288 0.9986
-0.3036 0.1316 -0.1283 0.9986
-0.3042 0.1267 -0.1278 0.9986
-0.3049 0.1218 -0.1273 0.9986
-0.3061 0.1120 -0.1263 0.9986
-0.3066 0.1071 -0.1259 0.9986
-0.3079 0.0927 -0.1247 0.9986
-0.3087 0.0831 -0.1239 0.9986
-0.3098 0.0643 -0.1226 0.9986
-0.3100 0.0596 -0.1224 0.9986
-0.3101 0.0550 -0.1221 0.9986
-0.3102 0.0504 -0.1218 0.9987
-0.3104 0.0365 -0.1212 0.9987
-0.3104 0.0319 -0.1210 0.9987
-0.3104 0.0273 -0.1208 0.9987
-0.3103 0.0227 -0.1206 0.9987
-0.3101 0.0136 -0.1203 0.9987
-0.3099 0.0091 -0.1202 0.9987
-0.3097 0.0046 -0.1201 0.9987
-0.3048 0.0000 -0.1221 0.9987
-0.3050 -0.0045 -0.1221 0.9987
-0.3052 -0.0089 -0.1223 0.9987
-0.3053 -0.0133 -0.1224 0.9987
-0.3054 -0.0178 -0.1225 0.9987
-0.3055 -0.0223 -0.1227 0.9987
-0.3056 -0.0268 -0.1229 0.9987
-0.3056 -0.0313 -0.1230 0.9987
-0.3056 -0.0404 -0.1234 0.9987
-0.3055 -0.0449 -0.1237 0.9987
-0.3054 -0.0495 -0.1239 0.9987
-0.3053 -0.0540 -0.1242 0.9987
-0.3049 -0.0632 -0.1247 0.9987
-0.3047 -0.0679 -0.1250 0.9987
-0.3041 -0.0771 -0.1257 0.9986
-0.3016 -0.1054 -0.1280 0.9986
-0.3011 -0.1101 -0.1284 0.9986
-0.2993 -0.1246 -0.1298 0.9986
-0.2979 -0.1343 -0.1309 0.9986
-0.2961 -0.1441 -0.1319 0.9986
-0.2951 -0.1490 -0.1324 0.9986
-0.2920 -0.1639 -0.1341 0.9986
-0.2873 -0.1841 -0.1367 0.9985
-0.2860 -0.1892 -0.1373 0.9985
-0.2835 -0.1996 -0.1389 0.9985
-0.2823 -0.2051 -0.1398 0.9985
-0.2786 -0.2217 -0.1426 0.9985
-0.2729 -0.2445 -0.1467 0.9984
-0.2713 -0.2503 -0.1478 0.9984
-0.2680 -0.2621 -0.1501 0.9984
-0.2662 -0.2681 -0.1513 0.9984
-0.2625 -0.2804 -0.1538 0.9983
-0.2606 -0.2865 -0.1551 0.9983
-0.2491 -0.3177 -0.1617 0.9983
-0.2408 -0.3365 -0.1657 0.9982
-0.2379 -0.3429 -0.1671 0.9982
-0.2348 -0.3493 -0.1686 0.9982
-0.2317 -0.3559 -0.1701 0.9982
-0.2252 -0.3691 -0.1732 0.9981
-0.2219 -0.3758 -0.1748 0.9981
-0.2184 -0.3825 -0.1764 0.9981
-0.2149 -0.3894 -0.1781 0.9981
-0.2075 -0.4035 -0.1817 0.9980
-0.2037 -0.4107 -0.1836 0.9980
-0.1956 -0.4253 -0.1875 0.9980
-0.1781 -0.4556 -0.1959 0.9979
-0.1734 -0.4634 -0.1982 0.9979
-0.1685 -0.4713 -0.2005 0.9978
-0.1635 -0.4793 -0.2028 0.9978
-0.1584 -0.4875 -0.2053 0.9978
-0.1531 -0.4957 -0.2078 0.9978
-0.1420 -0.5125 -0.2130 0.9977
-0.1303 -0.5298 -0.2185 0.9977
-0.1178 -0.5476 -0.2243 0.9976
-0.4178 -2.4632 -1.0006 0.9893
-0.3458 -2.4750 -1.0008 0.9893
-0.2734 -2.4847 -1.0011 0.9893
-0.2371 -2.4888 -1.0013 0.9893
-0.1643 -2.4954 -1.0015 0.9893
-0.1279 -2.4979 -1.0017 0.9893
-0.0548 -2.5012 -1.0020 0.9893
0.0183 -2.5024 -1.0022 0.9893
0.0548 -2.5023 -1.0024 0.9893
0.1280 -2.5003 -1.0026 0.9893
0.1645 -2.4985 -1.0028 0.9893
0.2375 -2.4933 -1.0031 0.9893
0.3467 -2.4815 -1.0035 0.9893
0.3829 -2.4766 -1.0036 0.9893
0.4553 -2.4650 -1.0039 0.9893
0.4913 -2.4584 -1.0040 0.9893
0.5273 -2.4512 -1.0042 0.9893
0.5988 -2.4355 -1.0044 0.9893
0.6344 -2.4268 -1.0046 0.9893
0.6699 -2.4176 -1.0047 0.9892
0.7053 -2.4079 -1.0048 0.9892
0.7405 -2.3976 -1.0050 0.9892
0.8104 -2.3756 -1.0052 0.9892
0.8452 -2.3638 -1.0054 0.9892
0.8797 -2.3515 -1.0055 0.9892
0.9141 -2.3387 -1.0056 0.9892
1.0161 -2.2973 -1.0060 0.9892
1.1162 -2.2514 -1.0064 0.9892
1.1819 -2.2184 -1.0067 0.9892
1.2143 -2.2012 -1.0068 0.9892
1.2465 -2.1835 -1.0069 0.9892
1.4034 -2.0879 -1.0075 0.9892
1.4940 -2.0251 -1.0079 0.9892
1.5236 -2.0032 -1.0080 0.9892
1.5819 -1.9583 -1.0082 0.9892
1.6105 -1.9352 -1.0083 0.9892
1.6667 -1.8877 -1.0085 0.9892
1.6943 -1.8634 -1.0086 0.9892
1.7484 -1.8134 -1.0088 0.9892
1.7748 -1.7878 -1.0089 0.9892
1.8010 -1.7619 -1.0090 0.9892
1.8267 -1.7355 -1.0091 0.9892
1.9015 -1.6543 -1.0094 0.9892
1.9257 -1.6265 -1.0095 0.9892
2.0181 -1.5118 -1.0099 0.9892
2.0829 -1.4223 -1.0101 0.9892
2.1438 -1.3299 -1.0103 0.9892
2.1631 -1.2986 -1.0104 0.9892
2.1820 -1.2669 -1.0105 0.9892
2.2004 -1.2349 -1.0106 0.9892
2.2184 -1.2027 -1.0106 0.9892
2.2529 -1.1375 -1.0108 0.9892
2.2694 -1.1046 -1.0108 0.9892
2.3010 -1.0379 -1.0109 0.9892
2.3160 -1.0043 -1.0110 0.9892
2.3306 -0.9703 -1.0110 0.9892
2.3447 -0.9362 -1.0111 0.9892
2.3582 -0.9019 -1.0112 0.9892
2.3712 -0.8674 -1.0112 0.9892
2.3838 -0.8327 -1.0113 0.9892
2.4073 -0.7628 -1.0113 0.9892
2.4387 -0.6566 -1.0115 0.9892
2.4482 -0.6209 -1.0115 0.9892
2.4570 -0.5851 -1.0115 0.9892
2.4654 -0.5491 -1.0116 0.9892
2.4732 -0.5131 -1.0116 0.9892
2.4806 -0.4769 -1.0116 0.9892
2.4873 -0.4406 -1.0116 0.9892
2.4936 -0.4043 -1.0117 0.9892
2.4992 -0.3678 -1.0117 0.9892
2.5131 -0.2579 -1.0117 0.9892
2.5166 -0.2212 -1.0118 0.9892
2.5196 -0.1844 -1.0118 0.9892
2.5221 -0.1475 -1.0118 0.9892
2.5253 -0.0738 -1.0118 0.9892
2.5264 0.0000 -1.0118 0.9892
2.5261 0.0369 -1.0118 0.9892
2.5166 0.2212 -1.0118 0.9892
2.4993 0.3679 -1.0117 0.9892
2.4936 0.4043 -1.0117 0.9892
2.4873 0.4407 -1.0117 0.9892
2.4805 0.4770 -1.0116 0.9892
2.4732 0.5132 -1.0116 0.9892
2.4570 0.5852 -1.0115 0.9892
2.4388 0.6567 -1.0115 0.9892
2.4288 0.6922 -1.0114 0.9892
2.4183 0.7276 -1.0114 0.9892
2.3958 0.7979 -1.0113 0.9892
2.3713 0.8675 -1.0112 0.9892
2.3582 0.9020 -1.0112 0.9892
2.3306 0.9704 -1.0111 0.9892
2.3161 1.0043 -1.0110 0.9892
2.3010 1.0379 -1.0109 0.9892
2.2694 1.1046 -1.0108 0.9892
2.2529 1.1376 -1.0108 0.9892
2.1821 1.2669 -1.0105 0.9892
2.1631 1.2986 -1.0104 0.9892
2.1438 1.3300 -1.0103 0.9892
2.1037 1.3918 -1.0102 0.9892
2.0830 1.4223 -1.0101 0.9892
2.0402 1.4823 -1.0100 0.9892
1.9728 1.5699 -1.0097 0.9892
1.8770 1.6818 -1.0093 0.9892
1.8521 1.7089 -1.0092 0.9892
1.8267 1.7357 -1.0091 0.9892
1.8010 1.7620 -1.0090 0.9892
1.7215 1.8387 -1.0087 0.9892
1.6943 1.8634 -1.0086 0.9892
1.6668 1.8878 -1.0085 0.9892
1.6105 1.9353 -1.0083 0.9892
1.5529 1.9811 -1.0081 0.9892
1.5237 2.0033 -1.0080 0.9892
1.4941 2.0252 -1.0079 0.9892
1.4642 2.0466 -1.0078 0.9892
1.4339 2.0675 -1.0076 0.9892
1.3726 2.1080 -1.0074 0.9892
1.3415 2.1276 -1.0073 0.9892
1.3101 2.1467 -1.0072 0.9892
1.2784 2.1654 -1.0071 0.9892
1.2465 2.1836 -1.0069 0.9892
1.2143 2.2012 -1.0068 0.9892
1.1819 2.2185 -1.0067 0.9892
1.0498 2.2826 -1.0062 0.9892
1.0162 2.2974 -1.0061 0.9892
0.9824 2.3117 -1.0059 0.9892
0.8452 2.3639 -1.0054 0.9892
0.8105 2.3757 -1.0053 0.9892
0.7405 2.3977 -1.0050 0.9892
0.7053 2.4080 -1.0049 0.9892
0.6699 2.4177 -1.0047 0.9892
0.6345 2.4269 -1.0046 0.9892
0.5273 2.4514 -1.0042 0.9893
0.4913 2.4585 -1.0041 0.9893
0.4553 2.4651 -1.0039 0.9893
0.3104 2.4861 -1.0034 0.9893
0.2740 2.4900 -1.0032 0.9893
0.2375 2.4934 -1.0031 0.9893
0.0914 2.5016 -1.0025 0.9893
0.0548 2.5024 -1.0024 0.9893
-0.0183 2.5022 -1.0021 0.9893
-0.0548 2.5013 -1.0020 0.9893
-0.0914 2.4999 -1.0018 0.9893
-0.1279 2.4980 -1.0017 0.9893
-0.2007 2.4924 -1.0014 0.9893
-0.2371 2.4889 -1.0013 0.9893
-0.2734 2.4848 -1.0011 0.9893
-0.3458 2.4751 -1.0009 0.9893
-0.3819 2.4695 -1.0007 0.9893
-0.4179 2.4633 -1.0006 0.9893
-0.1046 0.5660 -0.2305 0.9975
-0.1242 0.5387 -0.2214 0.9976
-0.1476 0.5041 -0.2104 0.9977
-0.1635 0.4794 -0.2028 0.9978
-0.1734 0.4635 -0.1982 0.9979
-0.1781 0.4557 -0.1959 0.9979
-0.1827 0.4479 -0.1937 0.9979
-0.1871 0.4403 -0.1916 0.9979
-0.1914 0.4328 -0.1895 0.9980
-0.1956 0.4254 -0.1875 0.9980
-0.2075 0.4036 -0.1817 0.9980
-0.2149 0.3895 -0.1781 0.9981
-0.2219 0.3758 -0.1748 0.9981
-0.2286 0.3625 -0.1716 0.9982
-0.2348 0.3494 -0.1686 0.9982
-0.2379 0.3429 -0.1671 0.9982
-0.2408 0.3366 -0.1657 0.9982
-0.2436 0.3302 -0.1643 0.9982
-0.2491 0.3178 -0.1617 0.9983
-0.2542 0.3056 -0.1592 0.9983
-0.2565 0.2991 -0.1578 0.9983
-0.2585 0.2929 -0.1564 0.9983
-0.2644 0.2743 -0.1526 0.9984
-0.2662 0.2682 -0.1513 0.9984
-0.2744 0.2388 -0.1457 0.9984
-0.2786 0.2217 -0.1426 0.9985
-0.2812 0.2106 -0.1407 0.9985
-0.2835 0.1997 -0.1389 0.9985
-0.2860 0.1893 -0.1373 0.9985
-0.2873 0.1841 -0.1367 0.9985
-0.2898 0.1740 -0.1353 0.9985
-0.2909 0.1689 -0.1347 0.9986
-0.2931 0.1589 -0.1335 0.9986
-0.2970 0.1393 -0.1314 0.9986
-0.2985 0.1295 -0.1303 0.9986
-0.2999 0.1198 -0.1293 0.9986
-0.3011 0.1102 -0.1284 0.9986
-0.3047 0.0679 -0.1250 0.9987
-0.3054 0.0495 -0.1239 0.9987
-0.3055 0.0450 -0.1237 0.9987
-0.3056 0.0405 -0.1234 0.9987
-0.3056 0.0359 -0.1232 0.9987
-0.3056 0.0269 -0.1229 0.9987
-0.3055 0.0224 -0.1227 0.9987
-0.3055 0.0179 -0.1225 0.9987
-0.3053 0.0134 -0.1224 0.9987
-0.3052 0.0090 -0.1223 0.9987
-0.3050 0.0045 -0.1221 0.9987
-0.3003 -0.0044 -0.1242 0.9987
-0.3008 -0.0176 -0.1245 0.9987
-0.3009 -0.0220 -0.1247 0.9987
-0.3009 -0.0264 -0.1249 0.9987
-0.3009 -0.0309 -0.1251 0.9987
-0.3008 -0.0443 -0.1257 0.9987
-0.3006 -0.0532 -0.1262 0.9987
-0.2994 -0.0759 -0.1277 0.9987
-0.2978 -0.0943 -0.1291 0.9986
-0.2963 -0.1084 -0.1304 0.9986
-0.2951 -0.1178 -0.1313 0.9986
-0.2944 -0.1225 -0.1318 0.9986
-0.2937 -0.1273 -0.1323 0.9986
-0.2921 -0.1369 -0.1334 0.9986
-0.2903 -0.1466 -0.1344 0.9986
-0.2882 -0.1562 -0.1355 0.9986
-0.2849 -0.1709 -0.1373 0.9986
-0.2824 -0.1809 -0.1387 0.9985
-0.2811 -0.1859 -0.1393 0.9985
-0.2772 -0.2014 -0.1417 0.9985
-0.2734 -0.2176 -0.1445 0.9985
-0.2721 -0.2230 -0.1455 0.9985
-0.2707 -0.2286 -0.1465 0.9985
-0.2661 -0.2455 -0.1497 0.9984
-0.2645 -0.2512 -0.1508 0.9984
-0.2628 -0.2570 -0.1520 0.9984
-0.2610 -0.2629 -0.1531 0.9984
-0.2592 -0.2688 -0.1544 0.9984
-0.2554 -0.2808 -0.1569 0.9984
-0.2533 -0.2868 -0.1582 0.9983
-0.2466 -0.3053 -0.1623 0.9983
-0.2440 -0.3113 -0.1635 0.9983
-0.2386 -0.3234 -0.1661 0.9983
-0.2358 -0.3295 -0.1675 0.9982
-0.2328 -0.3357 -0.1689 0.9982
-0.2299 -0.3420 -0.1703 0.9982
-0.2203 -0.3610 -0.1749 0.9982
-0.2170 -0.3675 -0.1764 0.9982
-0.2136 -0.3741 -0.1781 0.9981
-0.2027 -0.3942 -0.1833 0.9981
-0.1782 -0.4369 -0.1951 0.9980
-0.1737 -0.4443 -0.1972 0.9979
-0.1643 -0.4593 -0.2017 0.9979
-0.1594 -0.4670 -0.2040 0.9979
-0.1491 -0.4827 -0.2088 0.9978
-0.1437 -0.4906 -0.2114 0.9978
-0.1382 -0.4987 -0.2139 0.9978
-0.1267 -0.5152 -0.2193 0.9977
-0.1207 -0.5235 -0.2221 0.9977
-0.1145 -0.5321 -0.2250 0.9976
-0.1015 -0.5495 -0.2310 0.9976
-0.3350 -2.3977 -1.0009 0.9896
-0.2649 -2.4072 -1.0012 0.9896
-0.1592 -2.4174 -1.0016 0.9896
-0.0885 -2.4217 -1.0018 0.9896
-0.0531 -2.4230 -1.0020 0.9896
0.0177 -2.4243 -1.0022 0.9896
0.0886 -2.4234 -1.0025 0.9896
0.1594 -2.4204 -1.0028 0.9896
0.2654 -2.4120 -1.0032 0.9896
0.3006 -2.4082 -1.0033 0.9896
0.3359 -2.4039 -1.0034 0.9895
0.4410 -2.3878 -1.0038 0.9895
0.4759 -2.3814 -1.0040 0.9895
0.5108 -2.3746 -1.0041 0.9895
0.5801 -2.3592 -1.0044 0.9895
0.6146 -2.3508 -1.0045 0.9895
0.6832 -2.3324 -1.0048 0.9895
0.7173 -2.3225 -1.0049 0.9895
0.7512 -2.3121 -1.0050 0.9895
0.7850 -2.3012 -1.0052 0.9895
0.8187 -2.2897 -1.0053 0.9895
0.8522 -2.2778 -1.0054 0.9895
0.9186 -2.2525 -1.0057 0.9895
0.9515 -2.2391 -1.0058 0.9895
0.9842 -2.2252 -1.0059 0.9895
1.0168 -2.2109 -1.0060 0.9895
1.0491 -2.1961 -1.0062 0.9895
1.1131 -2.1650 -1.0064 0.9895
1.1448 -2.1488 -1.0065 0.9895
1.2689 -2.0792 -1.0070 0.9895
1.2993 -2.0607 -1.0071 0.9895
1.3294 -2.0417 -1.0072 0.9895
1.3593 -2.0223 -1.0073 0.9895
1.4181 -1.9822 -1.0076 0.9895
1.4471 -1.9614 -1.0077 0.9895
1.4758 -1.9403 -1.0078 0.9895
1.5321 -1.8968 -1.0080 0.9895
1.5872 -1.8516 -1.0082 0.9895
1.6410 -1.8048 -1.0084 0.9895
1.7190 -1.7316 -1.0087 0.9895
1.7692 -1.6809 -1.0089 0.9895
1.8417 -1.6023 -1.0092 0.9895
1.8881 -1.5480 -1.0094 0.9895
1.9328 -1.4924 -1.0095 0.9895
1.9546 -1.4642 -1.0096 0.9895
1.9969 -1.4066 -1.0098 0.9895
2.0571 -1.3181 -1.0100 0.9895
2.1133 -1.2270 -1.0102 0.9895
2.1311 -1.1961 -1.0103 0.9895
2.1485 -1.1648 -1.0104 0.9895
2.1819 -1.1017 -1.0105 0.9895
2.1979 -1.0698 -1.0105 0.9895
2.2285 -1.0052 -1.0107 0.9895
2.2571 -0.9398 -1.0108 0.9895
2.2839 -0.8735 -1.0109 0.9895
2.2965 -0.8401 -1.0109 0.9895
2.3087 -0.8064 -1.0110 0.9895
2.3203 -0.7727 -1.0110 0.9895
2.3314 -0.7387 -1.0111 0.9895
2.3522 -0.6704 -1.0111 0.9895
2.3618 -0.6359 -1.0112 0.9895
2.3710 -0.6014 -1.0112 0.9895
2.3877 -0.5319 -1.0113 0.9895
2.3952 -0.4970 -1.0113 0.9895
2.4299 -0.2853 -1.0114 0.9895
2.4401 -0.1786 -1.0115 0.9895
2.4425 -0.1429 -1.0115 0.9895
2.4457 -0.0715 -1.0115 0.9895
2.4465 -0.0357 -1.0115 0.9895
2.4468 0.0000 -1.0115 0.9895
2.4457 0.0715 -1.0115 0.9895
2.4425 0.1430 -1.0115 0.9895
2.4372 0.2142 -1.0115 0.9895
2.4339 0.2498 -1.0114 0.9895
2.4254 0.3208 -1.0114 0.9895
2.4023 0.4619 -1.0113 0.9895
2.3710 0.6014 -1.0112 0.9895
2.2839 0.8736 -1.0109 0.9895
2.2708 0.9068 -1.0108 0.9895
2.2431 0.9727 -1.0107 0.9895
2.1979 1.0698 -1.0106 0.9895
2.1655 1.1335 -1.0104 0.9895
2.1312 1.1961 -1.0103 0.9895
2.1133 1.2270 -1.0102 0.9895
2.0950 1.2577 -1.0102 0.9895
2.0763 1.2881 -1.0101 0.9895
2.0571 1.3182 -1.0100 0.9895
2.0374 1.3480 -1.0099 0.9895
2.0174 1.3775 -1.0099 0.9895
1.9546 1.4643 -1.0096 0.9895
1.9329 1.4925 -1.0095 0.9895
1.8881 1.5481 -1.0094 0.9895
1.8651 1.5754 -1.0093 0.9895
1.8417 1.6023 -1.0092 0.9895
1.8180 1.6289 -1.0091 0.9895
1.7191 1.7317 -1.0087 0.9895
1.6674 1.7809 -1.0085 0.9895
1.6410 1.8048 -1.0084 0.9895
1.6143 1.8284 -1.0083 0.9895
1.5873 1.8517 -1.0082 0.9895
1.5599 1.8745 -1.0081 0.9895
1.5322 1.8968 -1.0080 0.9895
1.5042 1.9188 -1.0079 0.9895
1.4758 1.9404 -1.0078 0.9895
1.4471 1.9616 -1.0077 0.9895
1.4182 1.9822 -1.0076 0.9895
1.3593 2.0224 -1.0074 0.9895
1.3295 2.0418 -1.0072 0.9895
1.2689 2.0793 -1.0070 0.9895
1.2074 2.1150 -1.0068 0.9895
1.1762 2.1322 -1.0067 0.9895
1.1131 2.1651 -1.0064 0.9895
1.0492 2.1962 -1.0062 0.9895
1.0168 2.2110 -1.0061 0.9895
0.9843 2.2254 -1.0059 0.9895
0.9516 2.2392 -1.0058 0.9895
0.9186 2.2526 -1.0057 0.9895
0.8187 2.2898 -1.0053 0.9895
0.7513 2.3122 -1.0050 0.9895
0.7173 2.3226 -1.0049 0.9895
0.5108 2.3747 -1.0041 0.9895
0.4411 2.3879 -1.0039 0.9895
0.4060 2.3938 -1.0037 0.9895
0.3710 2.3992 -1.0036 0.9895
0.3007 2.4084 -1.0033 0.9895
0.2654 2.4121 -1.0032 0.9896
0.2301 2.4155 -1.0031 0.9896
0.1947 2.4182 -1.0029 0.9896
0.1594 2.4205 -1.0028 0.9896
0.1240 2.4222 -1.0027 0.9896
0.0531 2.4241 -1.0024 0.9896
-0.0177 2.4241 -1.0021 0.9896
-0.0531 2.4232 -1.0020 0.9896
-0.1239 2.4200 -1.0017 0.9896
-0.1945 2.4146 -1.0014 0.9896
-0.2649 2.4073 -1.0012 0.9896
-0.3350 2.3979 -1.0009 0.9896
-0.3700 2.3924 -1.0008 0.9896
-0.1015 0.5496 -0.2310 0.9976
-0.1081 0.5408 -0.2280 0.9976
-0.1145 0.5321 -0.2250 0.9976
-0.1207 0.5237 -0.2221 0.9977
-0.1267 0.5152 -0.2193 0.9977
-0.1382 0.4987 -0.2139 0.9978
-0.1437 0.4907 -0.2114 0.9978
-0.1491 0.4827 -0.2088 0.9978
-0.1643 0.4594 -0.2017 0.9979
-0.1690 0.4518 -0.1994 0.9979
-0.1782 0.4369 -0.1951 0.9980
-0.1826 0.4296 -0.1930 0.9980
-0.1910 0.4152 -0.1889 0.9980
-0.1989 0.4012 -0.1851 0.9981
-0.2027 0.3943 -0.1833 0.9981
-0.2064 0.3874 -0.1815 0.9981
-0.2100 0.3807 -0.1797 0.9981
-0.2136 0.3741 -0.1781 0.9981
-0.2170 0.3676 -0.1764 0.9982
-0.2236 0.3547 -0.1733 0.9982
-0.2268 0.3483 -0.1718 0.9982
-0.2299 0.3420 -0.1703 0.9982
-0.2358 0.3295 -0.1675 0.9982
-0.2413 0.3173 -0.1648 0.9983
-0.2440 0.3113 -0.1635 0.9983
-0.2490 0.2993 -0.1609 0.9983
-0.2533 0.2869 -0.1582 0.9983
-0.2573 0.2748 -0.1556 0.9984
-0.2610 0.2629 -0.1531 0.9984
-0.2627 0.2571 -0.1520 0.9984
-0.2661 0.2455 -0.1497 0.9984
-0.2677 0.2399 -0.1486 0.9984
-0.2707 0.2286 -0.1465 0.9985
-0.2721 0.2231 -0.1455 0.9985
-0.2735 0.2176 -0.1445 0.9985
-0.2748 0.2122 -0.1435 0.9985
-0.2760 0.2068 -0.1426 0.9985
-0.2772 0.2014 -0.1417 0.9985
-0.2784 0.1961 -0.1408 0.9985
-0.2798 0.1910 -0.1400 0.9985
-0.2811 0.1860 -0.1393 0.9985
-0.2849 0.1711 -0.1373 0.9986
-0.2860 0.1661 -0.1367 0.9986
-0.2871 0.1612 -0.1361 0.9986
-0.2893 0.1514 -0.1350 0.9986
-0.2921 0.1370 -0.1334 0.9986
-0.2930 0.1322 -0.1329 0.9986
-0.2968 0.1037 -0.1300 0.9986
-0.2978 0.0944 -0.1291 0.9986
-0.2994 0.0759 -0.1277 0.9987
-0.3004 0.0578 -0.1264 0.9987
-0.3006 0.0533 -0.1262 0.9987
-0.3008 0.0443 -0.1257 0.9987
-0.3009 0.0265 -0.1249 0.9987
-0.3009 0.0220 -0.1247 0.9987
-0.3006 0.0132 -0.1244 0.9987
-0.3005 0.0088 -0.1243 0.9987
-0.2961 -0.0130 -0.1264 0.9987
-0.2962 -0.0173 -0.1265 0.9987
-0.2962 -0.0216 -0.1267 0.9987
-0.2963 -0.0304 -0.1270 0.9987
-0.2947 -0.0748 -0.1296 0.9987
-0.2944 -0.0792 -0.1300 0.9987
-0.2936 -0.0883 -0.1307 0.9987
-0.2926 -0.0974 -0.1315 0.9987
-0.2916 -0.1066 -0.1324 0.9987
-0.2910 -0.1112 -0.1328 0.9986
-0.2904 -0.1159 -0.1333 0.9986
-0.2897 -0.1206 -0.1338 0.9986
-0.2890 -0.1252 -0.1343 0.9986
-0.2882 -0.1300 -0.1348 0.9986
-0.2864 -0.1394 -0.1358 0.9986
-0.2835 -0.1536 -0.1375 0.9986
-0.2824 -0.1584 -0.1381 0.9986
-0.2812 -0.1632 -0.1387 0.9986
-0.2801 -0.1681 -0.1393 0.9986
-0.2789 -0.1730 -0.1399 0.9986
-0.2776 -0.1779 -0.1406 0.9986
-0.2763 -0.1827 -0.1413 0.9986
-0.2750 -0.1877 -0.1420 0.9986
-0.2736 -0.1927 -0.1427 0.9985
-0.2722 -0.1977 -0.1435 0.9985
-0.2657 -0.2244 -0.1483 0.9985
-0.2610 -0.2408 -0.1515 0.9985
-0.2594 -0.2464 -0.1526 0.9984
-0.2577 -0.2520 -0.1537 0.9984
-0.2559 -0.2578 -0.1549 0.9984
-0.2461 -0.2870 -0.1613 0.9984
-0.2417 -0.2992 -0.1640 0.9983
-0.2391 -0.3050 -0.1653 0.9983
-0.2365 -0.3109 -0.1666 0.9983
-0.2337 -0.3168 -0.1679 0.9983
-0.2309 -0.3227 -0.1692 0.9983
-0.2156 -0.3533 -0.1765 0.9982
-0.2089 -0.3659 -0.1797 0.9982
-0.2054 -0.3723 -0.1813 0.9982
-0.2018 -0.3787 -0.1830 0.9981
-0.1981 -0.3852 -0.1847 0.9981
-0.1943 -0.3919 -0.1865 0.9981
-0.1904 -0.3986 -0.1884 0.9981
-0.1649 -0.4405 -0.2006 0.9980
-0.1346 -0.4854 -0.2148 0.9978
-0.1174 -0.5092 -0.2228 0.9977
-0.1113 -0.5173 -0.2256 0.9977
-0.1051 -0.5255 -0.2285 0.9977
-0.0920 -0.5422 -0.2345 0.9976
-0.3248 -2.3245 -1.0009 0.9898
-0.2908 -2.3294 -1.0011 0.9898
-0.1885 -2.3407 -1.0014 0.9898
-0.1543 -2.3436 -1.0016 0.9898
-0.0858 -2.3477 -1.0018 0.9898
0.1202 -2.3480 -1.0026 0.9898
0.1888 -2.3441 -1.0029 0.9898
0.2230 -2.3414 -1.0030 0.9898
0.2914 -2.3346 -1.0033 0.9898
0.3936 -2.3204 -1.0037 0.9898
0.4951 -2.3018 -1.0040 0.9898
0.5288 -2.2946 -1.0042 0.9898
0.5623 -2.2870 -1.0043 0.9898
0.6622 -2.2610 -1.0047 0.9898
0.7282 -2.2413 -1.0049 0.9898
0.7936 -2.2195 -1.0052 0.9898
0.8260 -2.2080 -1.0053 0.9898
0.8583 -2.1959 -1.0054 0.9898
0.9223 -2.1705 -1.0057 0.9898
0.9540 -2.1570 -1.0058 0.9898
0.9856 -2.1430 -1.0059 0.9898
1.0169 -2.1287 -1.0060 0.9898
1.0789 -2.0986 -1.0063 0.9898
1.1096 -2.0828 -1.0064 0.9898
1.1703 -2.0499 -1.0066 0.9898
1.2003 -2.0329 -1.0067 0.9898
1.2594 -1.9974 -1.0070 0.9898
1.2886 -1.9790 -1.0071 0.9898
1.3175 -1.9602 -1.0072 0.9898
1.3746 -1.9212 -1.0074 0.9898
1.4026 -1.9012 -1.0075 0.9898
1.4304 -1.8807 -1.0076 0.9898
1.4579 -1.8598 -1.0077 0.9898
1.4851 -1.8385 -1.0078 0.9898
1.5119 -1.8167 -1.0079 0.9898
1.5647 -1.7721 -1.0081 0.9898
1.6161 -1.7260 -1.0083 0.9898
1.6661 -1.6783 -1.0085 0.9898
1.6907 -1.6540 -1.0086 0.9898
1.7148 -1.6292 -1.0087 0.9898
1.7386 -1.6042 -1.0088 0.9898
1.7620 -1.5787 -1.0089 0.9898
1.8299 -1.5004 -1.0091 0.9898
1.8733 -1.4465 -1.0093 0.9898
1.8944 -1.4191 -1.0094 0.9898
1.9151 -1.3913 -1.0095 0.9898
1.9552 -1.3351 -1.0096 0.9898
1.9747 -1.3064 -1.0097 0.9898
1.9937 -1.2775 -1.0098 0.9898
2.0304 -1.2189 -1.0099 0.9898
2.0482 -1.1891 -1.0100 0.9898
2.1147 -1.0677 -1.0102 0.9898
2.1452 -1.0056 -1.0103 0.9898
2.1598 -0.9742 -1.0104 0.9897
2.1876 -0.9108 -1.0105 0.9897
2.2375 -0.7816 -1.0107 0.9897
2.2487 -0.7488 -1.0107 0.9897
2.2596 -0.7159 -1.0108 0.9897
2.2699 -0.6829 -1.0108 0.9897
2.3062 -0.5492 -1.0110 0.9897
2.3140 -0.5154 -1.0110 0.9897
2.3282 -0.4477 -1.0110 0.9897
2.3405 -0.3795 -1.0111 0.9897
2.3506 -0.3109 -1.0111 0.9897
2.3549 -0.2766 -1.0111 0.9897
2.3588 -0.2421 -1.0112 0.9897
2.3690 -0.1039 -1.0112 0.9897
2.3703 -0.0693 -1.0112 0.9897
2.3713 0.0000 -1.0112 0.9897
2.3710 0.0347 -1.0112 0.9897
2.3703 0.0693 -1.0112 0.9897
2.3690 0.1039 -1.0112 0.9897
2.3672 0.1385 -1.0112 0.9897
2.3649 0.1731 -1.0112 0.9897
2.3621 0.2077 -1.0112 0.9897
2.3588 0.2421 -1.0112 0.9897
2.3550 0.2766 -1.0111 0.9897
2.3458 0.3453 -1.0111 0.9897
2.3346 0.4136 -1.0111 0.9897
2.3214 0.4816 -1.0110 0.9897
2.3062 0.5492 -1.0110 0.9897
2.2979 0.5829 -1.0109 0.9897
2.2890 0.6163 -1.0109 0.9897
2.2797 0.6497 -1.0109 0.9897
2.2488 0.7489 -1.0107 0.9897
2.2008 0.8788 -1.0106 0.9897
2.1876 0.9109 -1.0105 0.9897
2.1740 0.9427 -1.0105 0.9897
2.1599 0.9743 -1.0104 0.9897
2.1302 1.0369 -1.0103 0.9898
2.0824 1.1290 -1.0101 0.9898
2.0655 1.1592 -1.0100 0.9898
2.0482 1.1892 -1.0100 0.9898
2.0305 1.2189 -1.0099 0.9898
2.0123 1.2484 -1.0098 0.9898
1.9553 1.3351 -1.0096 0.9898
1.8944 1.4191 -1.0094 0.9898
1.8734 1.4466 -1.0093 0.9898
1.8519 1.4737 -1.0092 0.9898
1.8300 1.5004 -1.0092 0.9898
1.8077 1.5269 -1.0091 0.9898
1.7620 1.5788 -1.0089 0.9898
1.7386 1.6043 -1.0088 0.9898
1.7148 1.6293 -1.0087 0.9898
1.6907 1.6541 -1.0086 0.9898
1.6662 1.6784 -1.0085 0.9898
1.6413 1.7025 -1.0084 0.9898
1.6161 1.7261 -1.0083 0.9898
1.5906 1.7493 -1.0082 0.9898
1.4851 1.8385 -1.0078 0.9898
1.4304 1.8807 -1.0076 0.9898
1.4027 1.9013 -1.0075 0.9898
1.3462 1.9410 -1.0073 0.9898
1.3175 1.9603 -1.0072 0.9898
1.2595 1.9975 -1.0070 0.9898
1.2003 2.0330 -1.0068 0.9898
1.1401 2.0667 -1.0065 0.9898
1.1096 2.0829 -1.0064 0.9898
1.0481 2.1139 -1.0062 0.9898
0.9224 2.1705 -1.0057 0.9898
0.8904 2.1836 -1.0056 0.9898
0.8260 2.2080 -1.0053 0.9898
0.6623 2.2611 -1.0047 0.9898
0.6291 2.2702 -1.0046 0.9898
0.4951 2.3019 -1.0041 0.9898
0.3596 2.3257 -1.0036 0.9898
0.3256 2.3304 -1.0034 0.9898
0.2915 2.3346 -1.0033 0.9898
0.1888 2.3443 -1.0029 0.9898
-0.1201 2.3460 -1.0017 0.9898
-0.1543 2.3437 -1.0016 0.9898
-0.2227 2.3376 -1.0013 0.9898
-0.3587 2.3194 -1.0008 0.9898
-0.0986 0.5338 -0.2315 0.9976
-0.1051 0.5255 -0.2285 0.9977
-0.1113 0.5173 -0.2256 0.9977
-0.1400 0.4778 -0.2123 0.9978
-0.1503 0.4627 -0.2074 0.9979
-0.1553 0.4552 -0.2051 0.9979
-0.1649 0.4406 -0.2006 0.9980
-0.1694 0.4334 -0.1984 0.9980
-0.1739 0.4263 -0.1963 0.9980
-0.1824 0.4123 -0.1923 0.9980
-0.1905 0.3987 -0.1884 0.9981
-0.2054 0.3723 -0.1813 0.9982
-0.2089 0.3659 -0.1797 0.9982
-0.2123 0.3596 -0.1781 0.9982
-0.2156 0.3533 -0.1765 0.9982
-0.2280 0.3287 -0.1706 0.9983
-0.2309 0.3228 -0.1692 0.9983
-0.2365 0.3109 -0.1666 0.9983
-0.2391 0.3051 -0.1653 0.9983
-0.2417 0.2993 -0.1640 0.9983
-0.2440 0.2931 -0.1626 0.9983
-0.2461 0.2871 -0.1613 0.9984
-0.2482 0.2812 -0.1599 0.9984
-0.2502 0.2752 -0.1586 0.9984
-0.2522 0.2694 -0.1573 0.9984
-0.2577 0.2521 -0.1537 0.9984
-0.2594 0.2465 -0.1526 0.9984
-0.2610 0.2409 -0.1515 0.9985
-0.2642 0.2299 -0.1493 0.9985
-0.2656 0.2244 -0.1483 0.9985
-0.2671 0.2190 -0.1473 0.9985
-0.2684 0.2136 -0.1463 0.9985
-0.2710 0.2030 -0.1444 0.9985
-0.2763 0.1829 -0.1413 0.9986
-0.2776 0.1779 -0.1406 0.9986
-0.2789 0.1730 -0.1399 0.9986
-0.2801 0.1682 -0.1393 0.9986
-0.2812 0.1634 -0.1387 0.9986
-0.2835 0.1537 -0.1375 0.9986
-0.2855 0.1442 -0.1364 0.9986
-0.2865 0.1395 -0.1358 0.9986
-0.2874 0.1348 -0.1353 0.9986
-0.2882 0.1300 -0.1348 0.9986
-0.2890 0.1253 -0.1343 0.9986
-0.2897 0.1206 -0.1338 0.9986
-0.2910 0.1113 -0.1328 0.9986
-0.2921 0.1021 -0.1319 0.9987
-0.2936 0.0883 -0.1307 0.9987
-0.2944 0.0793 -0.1300 0.9987
-0.2947 0.0748 -0.1296 0.9987
-0.2950 0.0703 -0.1293 0.9987
-0.2953 0.0658 -0.1290 0.9987
-0.2958 0.0569 -0.1284 0.9987
-0.2959 0.0525 -0.1282 0.9987
-0.2961 0.0480 -0.1279 0.9987
-0.2962 0.0437 -0.1277 0.9987
-0.2963 0.0392 -0.1274 0.9987
-0.2964 0.0305 -0.1270 0.9987
-0.2963 0.0261 -0.1268 0.9987
-0.2962 0.0174 -0.1265 0.9987
-0.2961 0.0130 -0.1264 0.9987
-0.2958 0.0044 -0.1261 0.9987
-0.2911 0.0000 -0.1280 0.9987
-0.2915 -0.0085 -0.1282 0.9987
-0.2917 -0.0171 -0.1285 0.9987
-0.2918 -0.0213 -0.1286 0.9987
-0.2918 -0.0343 -0.1292 0.9987
-0.2912 -0.0559 -0.1304 0.9987
-0.2910 -0.0604 -0.1306 0.9987
-0.2902 -0.0736 -0.1316 0.9987
-0.2898 -0.0780 -0.1319 0.9987
-0.2894 -0.0824 -0.1323 0.9987
-0.2880 -0.0959 -0.1335 0.9987
-0.2875 -0.1004 -0.1339 0.9987
-0.2863 -0.1095 -0.1348 0.9987
-0.2857 -0.1141 -0.1352 0.9987
-0.2851 -0.1186 -0.1357 0.9987
-0.2818 -0.1371 -0.1378 0.9986
-0.2809 -0.1418 -0.1383 0.9986
-0.2799 -0.1464 -0.1388 0.9986
-0.2788 -0.1511 -0.1394 0.9986
-0.2766 -0.1606 -0.1406 0.9986
-0.2754 -0.1653 -0.1412 0.9986
-0.2742 -0.1701 -0.1419 0.9986
-0.2730 -0.1749 -0.1425 0.9986
-0.2717 -0.1797 -0.1432 0.9986
-0.2689 -0.1894 -0.1446 0.9986
-0.2675 -0.1943 -0.1453 0.9986
-0.2636 -0.2097 -0.1481 0.9985
-0.2607 -0.2202 -0.1500 0.9985
-0.2593 -0.2255 -0.1511 0.9985
-0.2577 -0.2309 -0.1521 0.9985
-0.2561 -0.2363 -0.1532 0.9985
-0.2545 -0.2417 -0.1543 0.9985
-0.2510 -0.2528 -0.1566 0.9984
-0.2492 -0.2584 -0.1578 0.9984
-0.2453 -0.2698 -0.1603 0.9984
-0.2390 -0.2872 -0.1643 0.9984
-0.2368 -0.2931 -0.1657 0.9984
-0.2344 -0.2989 -0.1670 0.9983
-0.2317 -0.3046 -0.1683 0.9983
-0.2290 -0.3104 -0.1696 0.9983
-0.2262 -0.3161 -0.1709 0.9983
-0.2233 -0.3220 -0.1723 0.9983
-0.2204 -0.3279 -0.1737 0.9983
-0.2173 -0.3338 -0.1751 0.9983
-0.2044 -0.3580 -0.1812 0.9982
-0.1973 -0.3704 -0.1845 0.9982
-0.1899 -0.3830 -0.1879 0.9981
-0.1861 -0.3895 -0.1898 0.9981
-0.1740 -0.4093 -0.1955 0.9981
-0.1608 -0.4298 -0.2018 0.9980
-0.1562 -0.4368 -0.2039 0.9980
-0.1466 -0.4510 -0.2085 0.9979
-0.1416 -0.4582 -0.2108 0.9979
-0.1256 -0.4803 -0.2182 0.9978
-0.1200 -0.4878 -0.2208 0.9978
-0.1142 -0.4954 -0.2235 0.9978
-0.1082 -0.5031 -0.2262 0.9978
-0.0851 -0.5503 -0.2448 0.9976
-0.3151 -2.2550 -1.0010 0.9901
-0.2821 -2.2597 -1.0011 0.9901
-0.2160 -2.2676 -1.0013 0.9901
-0.1829 -2.2707 -1.0015 0.9901
-0.1497 -2.2735 -1.0016 0.9901
-0.1165 -2.2757 -1.0017 0.9901
-0.0167 -2.2795 -1.0021 0.9901
0.0167 -2.2798 -1.0022 0.9901
0.0499 -2.2796 -1.0024 0.9901
0.1166 -2.2778 -1.0026 0.9901
0.1498 -2.2761 -1.0027 0.9901
0.1831 -2.2739 -1.0029 0.9901
0.2163 -2.2713 -1.0030 0.9901
0.3158 -2.2605 -1.0034 0.9901
0.4147 -2.2453 -1.0037 0.9901
0.4475 -2.2393 -1.0039 0.9901
0.4803 -2.2328 -1.0040 0.9901
0.5129 -2.2258 -1.0041 0.9901
0.5779 -2.2104 -1.0044 0.9901
0.6424 -2.1931 -1.0046 0.9901
0.7063 -2.1739 -1.0049 0.9901
0.7698 -2.1529 -1.0051 0.9901
0.8012 -2.1417 -1.0052 0.9901
0.8325 -2.1300 -1.0053 0.9901
0.8637 -2.1179 -1.0055 0.9901
0.9254 -2.0922 -1.0057 0.9901
1.0165 -2.0503 -1.0060 0.9901
1.0465 -2.0355 -1.0062 0.9900
1.0763 -2.0202 -1.0063 0.9900
1.1058 -2.0045 -1.0064 0.9900
1.1642 -1.9717 -1.0066 0.9900
1.1930 -1.9548 -1.0067 0.9900
1.2215 -1.9373 -1.0068 0.9900
1.3057 -1.8825 -1.0071 0.9900
1.3332 -1.8634 -1.0072 0.9900
1.3873 -1.8241 -1.0075 0.9900
1.4140 -1.8037 -1.0076 0.9900
1.4664 -1.7620 -1.0078 0.9900
1.5176 -1.7188 -1.0079 0.9900
1.5427 -1.6966 -1.0080 0.9900
1.5674 -1.6740 -1.0081 0.9900
1.6160 -1.6278 -1.0083 0.9900
1.6397 -1.6042 -1.0084 0.9900
1.7089 -1.5312 -1.0087 0.9900
1.7312 -1.5062 -1.0088 0.9900
1.7532 -1.4808 -1.0088 0.9900
1.7748 -1.4552 -1.0089 0.9900
1.7960 -1.4292 -1.0090 0.9900
1.8169 -1.4029 -1.0091 0.9900
1.8770 -1.3223 -1.0093 0.9900
1.8963 -1.2948 -1.0094 0.9900
1.9151 -1.2670 -1.0095 0.9900
1.9336 -1.2390 -1.0095 0.9900
1.9516 -1.2107 -1.0096 0.9900
1.9692 -1.1821 -1.0097 0.9900
2.0195 -1.0949 -1.0099 0.9900
2.0659 -1.0055 -1.0100 0.9900
2.1216 -0.8833 -1.0103 0.9900
2.1344 -0.8523 -1.0103 0.9900
2.1699 -0.7580 -1.0104 0.9900
2.1809 -0.7262 -1.0105 0.9900
2.1913 -0.6943 -1.0105 0.9900
2.2199 -0.5977 -1.0106 0.9900
2.2285 -0.5652 -1.0107 0.9900
2.2513 -0.4670 -1.0107 0.9900
2.2641 -0.4011 -1.0108 0.9900
2.2698 -0.3680 -1.0108 0.9900
2.2796 -0.3015 -1.0109 0.9900
2.2875 -0.2348 -1.0109 0.9900
2.2908 -0.2013 -1.0109 0.9900
2.2935 -0.1678 -1.0109 0.9900
2.2987 -0.0672 -1.0109 0.9900
2.2994 -0.0336 -1.0109 0.9900
2.2994 0.0336 -1.0109 0.9900
2.2987 0.0672 -1.0109 0.9900
2.2974 0.1009 -1.0109 0.9900
2.2935 0.1679 -1.0109 0.9900
2.2908 0.2014 -1.0109 0.9900
2.2875 0.2348 -1.0109 0.9900
2.2750 0.3348 -1.0108 0.9900
2.2579 0.4342 -1.0108 0.9900
2.2513 0.4671 -1.0108 0.9900
2.2442 0.5000 -1.0107 0.9900
2.2366 0.5327 -1.0107 0.9900
2.2285 0.5653 -1.0107 0.9900
2.2199 0.5977 -1.0106 0.9900
2.2109 0.6302 -1.0106 0.9900
2.1914 0.6944 -1.0105 0.9900
2.1809 0.7263 -1.0105 0.9900
2.1700 0.7580 -1.0104 0.9900
2.1586 0.7897 -1.0104 0.9900
2.1467 0.8211 -1.0104 0.9900
2.1344 0.8523 -1.0103 0.9900
2.1216 0.8834 -1.0103 0.9900
2.1084 0.9142 -1.0102 0.9900
2.0354 1.0654 -1.0099 0.9900
2.0195 1.0950 -1.0099 0.9900
2.0032 1.1243 -1.0098 0.9900
1.9336 1.2391 -1.0095 0.9900
1.9152 1.2671 -1.0095 0.9900
1.8963 1.2948 -1.0094 0.9900
1.8770 1.3223 -1.0093 0.9900
1.8373 1.3764 -1.0092 0.9900
1.8169 1.4030 -1.0091 0.9900
1.7960 1.4293 -1.0090 0.9900
1.7748 1.4552 -1.0089 0.9900
1.7532 1.4809 -1.0089 0.9900
1.7313 1.5063 -1.0088 0.9900
1.7089 1.5312 -1.0087 0.9900
1.6397 1.6043 -1.0084 0.9900
1.6160 1.6279 -1.0083 0.9900
1.5919 1.6512 -1.0082 0.9900
1.5176 1.7189 -1.0080 0.9900
1.4922 1.7407 -1.0079 0.9900
1.4665 1.7621 -1.0078 0.9900
1.4140 1.8039 -1.0076 0.9900
1.3874 1.8241 -1.0075 0.9900
1.3605 1.8441 -1.0074 0.9900
1.3332 1.8636 -1.0073 0.9900
1.3057 1.8827 -1.0072 0.9900
1.2779 1.9013 -1.0071 0.9900
1.2499 1.9196 -1.0069 0.9900
1.2216 1.9374 -1.0068 0.9900
1.1930 1.9549 -1.0067 0.9900
1.1642 1.9719 -1.0066 0.9900
1.1351 1.9884 -1.0065 0.9900
1.0465 2.0356 -1.0062 0.9900
0.9560 2.0788 -1.0058 0.9901
0.9254 2.0923 -1.0057 0.9901
0.8947 2.1053 -1.0056 0.9901
0.8637 2.1179 -1.0055 0.9901
0.8013 2.1418 -1.0052 0.9901
0.7698 2.1530 -1.0051 0.9901
0.7064 2.1741 -1.0049 0.9901
0.6745 2.1839 -1.0048 0.9901
0.5779 2.2105 -1.0044 0.9901
0.5455 2.2185 -1.0043 0.9901
0.5129 2.2259 -1.0041 0.9901
0.4803 2.2329 -1.0040 0.9901
0.4475 2.2394 -1.0039 0.9901
0.3488 2.2560 -1.0035 0.9901
0.3158 2.2606 -1.0034 0.9901
0.2827 2.2646 -1.0033 0.9901
0.1832 2.2740 -1.0029 0.9901
0.0833 2.2790 -1.0025 0.9901
-0.0167 2.2796 -1.0021 0.9901
-0.1165 2.2758 -1.0017 0.9901
-0.1497 2.2736 -1.0016 0.9901
-0.2160 2.2677 -1.0014 0.9901
-0.2821 2.2598 -1.0011 0.9901
-0.0851 0.5504 -0.2448 0.9976
-0.0958 0.5189 -0.2319 0.9977
-0.1021 0.5110 -0.2291 0.9977
-0.1142 0.4955 -0.2235 0.9978
-0.1200 0.4878 -0.2208 0.9978
-0.1256 0.4804 -0.2182 0.9978
-0.1465 0.4510 -0.2085 0.9979
-0.1515 0.4439 -0.2062 0.9980
-0.1562 0.4368 -0.2039 0.9980
-0.1608 0.4299 -0.2018 0.9980
-0.1740 0.4095 -0.1955 0.9981
-0.2044 0.3580 -0.1812 0.9982
-0.2110 0.3458 -0.1781 0.9982
-0.2142 0.3398 -0.1766 0.9982
-0.2204 0.3279 -0.1737 0.9983
-0.2234 0.3220 -0.1723 0.9983
-0.2262 0.3162 -0.1709 0.9983
-0.2317 0.3047 -0.1683 0.9983
-0.2344 0.2990 -0.1670 0.9983
-0.2368 0.2932 -0.1657 0.9984
-0.2453 0.2698 -0.1603 0.9984
-0.2528 0.2473 -0.1554 0.9985
-0.2562 0.2364 -0.1532 0.9985
-0.2577 0.2309 -0.1521 0.9985
-0.2608 0.2203 -0.1500 0.9985
-0.2635 0.2097 -0.1481 0.9985
-0.2675 0.1943 -0.1453 0.9986
-0.2689 0.1895 -0.1446 0.9986
-0.2703 0.1846 -0.1439 0.9986
-0.2717 0.1798 -0.1432 0.9986
-0.2754 0.1654 -0.1412 0.9986
-0.2766 0.1606 -0.1406 0.9986
-0.2777 0.1559 -0.1400 0.9986
-0.2788 0.1512 -0.1394 0.9986
-0.2808 0.1418 -0.1383 0.9986
-0.2843 0.1234 -0.1362 0.9986
-0.2851 0.1187 -0.1357 0.9987
-0.2857 0.1141 -0.1352 0.9987
-0.2864 0.1095 -0.1348 0.9987
-0.2869 0.1050 -0.1343 0.9987
-0.2885 0.0915 -0.1330 0.9987
-0.2890 0.0870 -0.1327 0.9987
-0.2894 0.0825 -0.1323 0.9987
-0.2898 0.0780 -0.1319 0.9987
-0.2901 0.0736 -0.1316 0.9987
-0.2907 0.0648 -0.1309 0.9987
-0.2915 0.0473 -0.1298 0.9987
-0.2917 0.0430 -0.1296 0.9987
-0.2918 0.0386 -0.1294 0.9987
-0.2918 0.0214 -0.1286 0.9987
-0.2916 0.0129 -0.1283 0.9987
-0.2915 0.0085 -0.1282 0.9987
-0.2913 0.0043 -0.1281 0.9987
-0.2868 0.0000 -0.1299 0.9987
-0.2870 -0.0042 -0.1300 0.9987
-0.2873 -0.0168 -0.1303 0.9987
-0.2873 -0.0422 -0.1315 0.9987
-0.2871 -0.0465 -0.1317 0.9987
-0.2868 -0.0551 -0.1322 0.9987
-0.2860 -0.0681 -0.1331 0.9987
-0.2853 -0.0768 -0.1338 0.9987
-0.2845 -0.0855 -0.1345 0.9987
-0.2835 -0.0944 -0.1353 0.9987
-0.2830 -0.0988 -0.1358 0.9987
-0.2825 -0.1033 -0.1362 0.9987
-0.2818 -0.1077 -0.1367 0.9987
-0.2812 -0.1123 -0.1371 0.9987
-0.2805 -0.1168 -0.1376 0.9987
-0.2772 -0.1349 -0.1396 0.9986
-0.2732 -0.1533 -0.1419 0.9986
-0.2684 -0.1720 -0.1444 0.9986
-0.2671 -0.1767 -0.1450 0.9986
-0.2658 -0.1814 -0.1457 0.9986
-0.2629 -0.1910 -0.1472 0.9986
-0.2615 -0.1958 -0.1479 0.9986
-0.2601 -0.2008 -0.1488 0.9986
-0.2514 -0.2319 -0.1549 0.9985
-0.2444 -0.2534 -0.1595 0.9985
-0.2425 -0.2589 -0.1607 0.9984
-0.2405 -0.2645 -0.1619 0.9984
-0.2385 -0.2701 -0.1632 0.9984
-0.2320 -0.2872 -0.1672 0.9984
-0.2271 -0.2986 -0.1699 0.9984
-0.2188 -0.3154 -0.1739 0.9983
-0.2066 -0.3385 -0.1796 0.9983
-0.2034 -0.3444 -0.1811 0.9982
-0.2000 -0.3503 -0.1827 0.9982
-0.1966 -0.3563 -0.1843 0.9982
-0.1930 -0.3623 -0.1859 0.9982
-0.1780 -0.3870 -0.1929 0.9981
-0.1657 -0.4063 -0.1987 0.9981
-0.1614 -0.4129 -0.2008 0.9981
-0.1429 -0.4398 -0.2094 0.9980
-0.1380 -0.4467 -0.2117 0.9979
-0.1329 -0.4536 -0.2141 0.9979
-0.1223 -0.4679 -0.2190 0.9979
-0.1168 -0.4750 -0.2215 0.9979
-0.1112 -0.4823 -0.2241 0.9978
-0.0994 -0.4971 -0.2296 0.9978
-0.0801 -0.5730 -0.2620 0.9975
-0.2097 -2.2011 -1.0014 0.9903
-0.1776 -2.2041 -1.0015 0.9903
-0.0485 -2.2119 -1.0020 0.9903
-0.0162 -2.2127 -1.0021 0.9903
0.1131 -2.2109 -1.0026 0.9903
0.3386 -2.1896 -1.0035 0.9903
0.4025 -2.1793 -1.0037 0.9903
0.5294 -2.1532 -1.0042 0.9903
0.5609 -2.1454 -1.0043 0.9903
0.6546 -2.1196 -1.0047 0.9903
0.7164 -2.1000 -1.0049 0.9903
0.7471 -2.0895 -1.0050 0.9903
0.7776 -2.0786 -1.0051 0.9903
0.8382 -2.0555 -1.0054 0.9903
0.9866 -1.9900 -1.0059 0.9903
1.0157 -1.9756 -1.0060 0.9903
1.0732 -1.9454 -1.0063 0.9903
1.1578 -1.8971 -1.0066 0.9903
