ply
format ascii 1.0
element vertex 1572
property float32 x
property float32 y
property float32 z
property float32 I
end_header
-1.4230 0.8827 0.0487 0.9933
-1.4151 0.8495 0.0480 0.9934
-0.9804 0.5315 0.0324 0.9955
-0.9792 0.5125 0.0322 0.9956
-0.9769 0.4754 0.0316 0.9957
-0.9758 0.4574 0.0314 0.9957
-0.9748 0.4396 0.0311 0.9957
-0.9719 0.4213 0.0308 0.9958
-0.9403 0.3284 0.0290 0.9960
-0.9275 0.2939 0.0283 0.9961
-0.9230 0.2630 0.0279 0.9962
-0.9197 0.2332 0.0276 0.9962
-0.9181 0.2186 0.0275 0.9962
-0.9140 0.1896 0.0272 0.9963
-0.9092 0.1748 0.0269 0.9963
-0.9046 0.1602 0.0267 0.9963
-0.8911 0.1178 0.0262 0.9964
-0.8868 0.1041 0.0260 0.9964
-0.8798 0.0773 0.0257 0.9965
-0.8765 0.0641 0.0256 0.9965
-0.8733 0.0511 0.0255 0.9965
-0.8670 0.0253 0.0252 0.9965
-0.8640 0.0126 0.0251 0.9965
-0.8184 -0.0120 0.0147 0.9967
-0.8239 -0.0362 0.0149 0.9967
-0.8354 -0.0857 0.0151 0.9966
-0.8384 -0.0985 0.0152 0.9966
-0.8414 -0.1113 0.0153 0.9966
-0.8446 -0.1243 0.0154 0.9966
-0.8485 -0.1376 0.0155 0.9966
-0.8565 -0.1647 0.0157 0.9965
-0.8701 -0.2480 0.0163 0.9964
-0.8754 -0.2773 0.0165 0.9963
-0.8919 -0.3263 0.0171 0.9962
-0.9314 -0.4875 0.0189 0.9958
-0.9321 -0.5054 0.0191 0.9958
-0.9329 -0.5236 0.0193 0.9957
-1.1483 -0.6893 0.0241 0.9947
16.2224 -87.8267 1.6085 0.6996
16.0599 -80.3552 1.4758 0.7205
15.7011 -63.8563 1.1843 0.7687
15.5313 -56.0482 1.0474 0.7924
15.3391 -47.2088 0.8940 0.8199
3.9168 -9.2170 0.1804 0.9607
4.0757 -9.2146 0.1815 0.9605
4.2367 -9.2122 0.1826 0.9602
4.3997 -9.2099 0.1838 0.9600
4.5650 -9.2075 0.1851 0.9597
5.0753 -9.2002 0.1892 0.9588
5.6124 -9.1963 0.1940 0.9578
5.7982 -9.1958 0.1958 0.9574
23.9844 -35.6832 0.7743 0.8420
24.7375 -35.6668 0.7817 0.8406
26.2888 -35.6331 0.7975 0.8377
27.0879 -35.6150 0.8058 0.8361
27.9039 -35.5962 0.8146 0.8345
27.9583 -34.6118 0.8013 0.8369
27.9356 -33.5682 0.7865 0.8397
3.4896 -4.0708 0.0966 0.9788
3.6756 -3.9256 0.0969 0.9787
3.7379 -3.8770 0.0970 0.9787
3.7146 -3.7419 0.0950 0.9791
3.8125 -3.7298 0.0961 0.9789
3.9847 -3.6768 0.0976 0.9785
3.9745 -3.4579 0.0949 0.9791
4.0829 -3.4486 0.0962 0.9788
3.9177 -3.2122 0.0912 0.9799
4.1414 -3.1979 0.0942 0.9793
4.4605 -3.0457 0.0973 0.9786
4.9139 -3.1488 0.1051 0.9769
14.5133 -9.0036 0.3076 0.9340
14.9871 -8.9969 0.3148 0.9325
56.9891 -30.8977 1.1675 0.7716
18.9491 -9.9181 0.3852 0.9180
10.5386 -4.3879 0.2056 0.9554
10.1113 -4.0376 0.1961 0.9574
10.4941 -3.4948 0.1992 0.9567
10.5000 -3.3271 0.1984 0.9569
11.3526 -3.0568 0.2117 0.9541
11.1568 -2.6570 0.2065 0.9552
18.7812 -3.6112 0.3444 0.9263
58.7695 -2.5779 1.0594 0.7903
99.6080 -2.9118 1.7946 0.6712
82.8063 9.7240 1.5015 0.7164
19.8514 3.8169 0.3641 0.9223
19.4073 4.0264 0.3570 0.9238
15.9674 3.5568 0.2946 0.9367
15.7744 3.7566 0.2920 0.9372
13.6229 3.4554 0.2531 0.9453
9.5732 2.8802 0.1800 0.9608
9.6012 3.1973 0.1822 0.9603
9.6155 3.3589 0.1834 0.9601
9.6300 3.5227 0.1847 0.9598
7.6216 3.1733 0.1487 0.9675
7.3536 3.1886 0.1443 0.9684
7.1743 3.2362 0.1417 0.9690
6.8366 3.3276 0.1369 0.9700
6.7702 3.4185 0.1366 0.9701
6.7890 3.5535 0.1380 0.9698
6.8082 3.6912 0.1395 0.9695
6.8279 3.8320 0.1410 0.9692
4.9426 3.2700 0.1067 0.9766
4.7011 3.3117 0.1036 0.9773
4.3427 3.3533 0.0988 0.9783
4.1430 3.3969 0.0965 0.9788
4.0468 3.4181 0.0954 0.9790
4.0798 3.7644 0.1000 0.9780
4.1409 4.0511 0.1043 0.9771
4.1664 4.1969 0.1065 0.9766
4.2291 4.5167 0.1114 0.9755
4.2919 4.8610 0.1168 0.9744
4.3610 5.2403 0.1228 0.9731
4.3785 5.4206 0.1255 0.9725
4.4664 5.6977 0.1304 0.9715
2.2424 8.5772 0.1597 0.9652
-0.9329 0.5236 0.0193 0.9957
-0.9314 0.4875 0.0189 0.9958
-0.9194 0.4146 0.0182 0.9960
-0.9090 0.3784 0.0177 0.9961
-0.8919 0.3262 0.0171 0.9962
-0.8807 0.2932 0.0167 0.9963
-0.8714 0.2621 0.0164 0.9964
-0.8701 0.2479 0.0163 0.9964
-0.8675 0.2200 0.0161 0.9964
-0.8663 0.2063 0.0160 0.9964
-0.8565 0.1647 0.0157 0.9965
-0.8525 0.1510 0.0156 0.9965
-0.8446 0.1243 0.0154 0.9966
-0.8354 0.0857 0.0151 0.9966
-0.8325 0.0732 0.0151 0.9967
-0.8296 0.0607 0.0150 0.9967
-0.8239 0.0361 0.0149 0.9967
-0.8212 0.0240 0.0148 0.9967
-0.7750 0.0000 0.0054 0.9969
-0.7774 -0.0114 0.0054 0.9969
-0.7799 -0.0229 0.0054 0.9969
-0.7824 -0.0344 0.0054 0.9969
-0.7849 -0.0460 0.0054 0.9969
-0.7874 -0.0577 0.0055 0.9968
-0.7900 -0.0695 0.0055 0.9968
-0.7952 -0.0934 0.0055 0.9968
-0.8005 -0.1178 0.0056 0.9968
-0.8032 -0.1302 0.0056 0.9968
-0.8061 -0.1428 0.0057 0.9967
-0.8096 -0.1557 0.0057 0.9967
-0.8219 -0.2213 0.0059 0.9966
-0.8288 -0.2626 0.0060 0.9965
-0.8334 -0.2775 0.0061 0.9965
-0.8381 -0.2928 0.0061 0.9965
-0.8429 -0.3083 0.0062 0.9964
-0.8478 -0.3243 0.0063 0.9964
-0.8529 -0.3406 0.0064 0.9963
-0.8580 -0.3573 0.0064 0.9963
-0.8629 -0.3741 0.0065 0.9962
-0.8673 -0.3912 0.0066 0.9962
-0.8717 -0.4086 0.0067 0.9962
-0.8810 -0.4449 0.0068 0.9961
-0.8859 -0.4637 0.0069 0.9960
-0.8887 -0.4988 0.0071 0.9959
-0.9722 -0.6031 0.0079 0.9954
16.4161 -96.7713 0.6798 0.6753
16.0591 -80.3514 0.5675 0.7205
15.9214 -74.0178 0.5244 0.7387
3.0252 -12.3038 0.0878 0.9506
15.5308 -56.0463 0.4028 0.7924
15.4598 -52.7808 0.3809 0.8025
3.0491 -9.3842 0.0683 0.9613
3.2847 -9.1869 0.0676 0.9617
3.5852 -9.1725 0.0682 0.9614
3.8973 -9.1712 0.0690 0.9609
4.0562 -9.1705 0.0695 0.9607
4.7135 -9.1679 0.0714 0.9596
5.0567 -9.1664 0.0725 0.9590
5.5929 -9.1643 0.0744 0.9580
5.7779 -9.1636 0.0750 0.9576
23.9844 -35.6832 0.2978 0.8420
25.5054 -35.6502 0.3036 0.8392
26.2888 -35.6331 0.3067 0.8377
27.9354 -33.5679 0.3025 0.8397
3.6221 -3.9836 0.0373 0.9787
3.6843 -3.9350 0.0373 0.9787
3.8305 -3.7475 0.0371 0.9788
3.9436 -3.6388 0.0372 0.9788
3.9288 -3.4181 0.0361 0.9794
4.1349 -3.2904 0.0366 0.9791
4.1619 -3.2137 0.0364 0.9792
4.1467 -3.1064 0.0359 0.9795
4.4397 -3.1276 0.0376 0.9785
4.4449 -3.0350 0.0373 0.9787
13.9199 -8.9197 0.1145 0.9360
14.8124 -8.8920 0.1197 0.9332
15.2992 -8.8827 0.1225 0.9317
18.3647 -9.6121 0.1436 0.9204
18.3810 -9.2812 0.1426 0.9209
19.3813 -9.0855 0.1482 0.9179
20.0846 -9.0597 0.1526 0.9156
10.5186 -4.3796 0.0789 0.9554
10.6009 -3.8780 0.0782 0.9559
10.6773 -3.7299 0.0783 0.9558
10.5684 -3.5195 0.0771 0.9564
10.4520 -3.1446 0.0756 0.9573
11.1861 -2.6640 0.0796 0.9550
11.2522 -2.3345 0.0796 0.9551
15.6024 -3.0000 0.1100 0.9384
18.4235 -3.2641 0.1296 0.9279
18.3366 -2.9730 0.1287 0.9284
19.1241 -2.8145 0.1339 0.9256
24.0431 -2.8234 0.1677 0.9077
30.2158 -2.6559 0.2101 0.8857
30.6846 -2.2459 0.2131 0.8842
99.7373 -1.4575 0.6908 0.6710
99.1130 4.3475 0.6871 0.6724
50.8086 3.7187 0.3528 0.8156
42.0382 3.6951 0.2923 0.8447
38.0463 3.9052 0.2649 0.8581
33.1814 3.8965 0.2314 0.8749
15.7888 3.2757 0.1117 0.9375
10.6747 2.5421 0.0760 0.9571
9.8355 2.6483 0.0705 0.9601
9.5266 3.0186 0.0692 0.9608
9.5541 3.3375 0.0701 0.9603
9.5681 3.5001 0.0706 0.9601
9.5823 3.6649 0.0711 0.9598
7.8240 3.1243 0.0583 0.9669
7.5240 3.1327 0.0564 0.9679
7.2905 3.1612 0.0550 0.9687
7.1138 3.2089 0.0541 0.9693
6.9468 3.2566 0.0531 0.9698
6.7638 3.5402 0.0529 0.9699
6.7827 3.6774 0.0534 0.9696
6.8020 3.8175 0.0540 0.9693
5.0171 3.2149 0.0413 0.9764
4.6448 3.2720 0.0394 0.9775
4.5278 3.2896 0.0388 0.9779
4.2045 3.3458 0.0372 0.9787
4.1097 3.3696 0.0368 0.9790
4.0170 3.3930 0.0364 0.9792
4.0633 3.8606 0.0388 0.9778
4.0965 4.0077 0.0397 0.9773
4.1506 4.3050 0.0414 0.9764
4.1951 5.5158 0.0480 0.9727
3.3452 9.3561 0.0688 0.9610
-0.9721 0.6030 0.0079 0.9954
-0.8884 0.4816 0.0070 0.9960
-0.8859 0.4636 0.0069 0.9960
-0.8810 0.4448 0.0068 0.9961
-0.8672 0.3912 0.0066 0.9962
-0.8580 0.3572 0.0064 0.9963
-0.8478 0.3243 0.0063 0.9964
-0.8334 0.2775 0.0061 0.9965
-0.8242 0.2479 0.0060 0.9966
-0.8219 0.2213 0.0059 0.9966
-0.8200 0.1953 0.0058 0.9966
-0.8131 0.1687 0.0058 0.9967
-0.8096 0.1556 0.0057 0.9967
-0.8032 0.1302 0.0056 0.9968
-0.7978 0.1055 0.0056 0.9968
-0.7952 0.0934 0.0055 0.9968
-0.7926 0.0813 0.0055 0.9968
-0.7849 0.0459 0.0054 0.9969
-0.7774 0.0113 0.0054 0.9969
-0.7382 0.0000 -0.0031 0.9971
-0.7404 -0.0108 -0.0031 0.9970
-0.7493 -0.0549 -0.0031 0.9970
-0.7516 -0.0661 -0.0031 0.9970
-0.7539 -0.0774 -0.0031 0.9970
-0.7562 -0.0888 -0.0032 0.9970
-0.7585 -0.1004 -0.0032 0.9969
-0.7632 -0.1238 -0.0032 0.9969
-0.7656 -0.1357 -0.0032 0.9969
-0.7680 -0.1477 -0.0032 0.9969
-0.7706 -0.1599 -0.0033 0.9969
-0.7769 -0.1850 -0.0033 0.9968
-0.7792 -0.1977 -0.0033 0.9968
-0.7805 -0.2224 -0.0034 0.9968
-0.7869 -0.2493 -0.0034 0.9967
-0.7908 -0.2634 -0.0035 0.9967
-0.7949 -0.2777 -0.0035 0.9966
-0.7990 -0.2923 -0.0035 0.9966
-0.8119 -0.3380 -0.0037 0.9965
-0.8163 -0.3540 -0.0037 0.9964
-0.8282 -0.4032 -0.0038 0.9963
-0.8361 -0.4376 -0.0039 0.9962
-0.8401 -0.4555 -0.0040 0.9962
-0.8443 -0.4738 -0.0040 0.9961
-0.8486 -0.4927 -0.0041 0.9961
-0.8486 -0.5094 -0.0041 0.9960
-0.8486 -0.5264 -0.0041 0.9960
16.4151 -96.7659 -0.4079 0.6753
16.0583 -80.3475 -0.3405 0.7205
15.9207 -74.0144 -0.3146 0.7387
15.8025 -68.5754 -0.2924 0.7547
3.0303 -12.3243 -0.0527 0.9505
15.6098 -59.7086 -0.2565 0.7812
2.7366 -9.8755 -0.0426 0.9598
2.7501 -9.3890 -0.0407 0.9616
2.8539 -9.2405 -0.0402 0.9621
3.1266 -9.1650 -0.0402 0.9620
3.4243 -9.1530 -0.0406 0.9617
3.7297 -9.1458 -0.0410 0.9613
3.8850 -9.1421 -0.0413 0.9610
4.0431 -9.1409 -0.0415 0.9608
4.2035 -9.1400 -0.0418 0.9606
4.5307 -9.1383 -0.0424 0.9600
4.6978 -9.1374 -0.0427 0.9597
5.5735 -9.1326 -0.0445 0.9581
5.7577 -9.1316 -0.0449 0.9577
23.9843 -35.6832 -0.1787 0.8420
24.7375 -35.6668 -0.1804 0.8406
25.5054 -35.6501 -0.1822 0.8392
8.1782 -10.1244 -0.0541 0.9493
3.5062 -4.0901 -0.0224 0.9787
3.5684 -4.0416 -0.0224 0.9787
3.6931 -3.9443 -0.0225 0.9786
3.9033 -3.6016 -0.0221 0.9790
4.0083 -3.4872 -0.0221 0.9790
4.1243 -3.4836 -0.0224 0.9786
4.1774 -3.2257 -0.0219 0.9791
4.8212 -3.1897 -0.0240 0.9771
13.7534 -8.8130 -0.0679 0.9367
15.1243 -8.7812 -0.0727 0.9324
16.2299 -8.7993 -0.0767 0.9288
17.8379 -9.3364 -0.0837 0.9226
18.5395 -9.0237 -0.0857 0.9208
10.5016 -4.5536 -0.0476 0.9552
10.4987 -4.3712 -0.0473 0.9555
10.5682 -3.1796 -0.0459 0.9568
10.2993 -2.7732 -0.0443 0.9582
10.2689 -2.4455 -0.0439 0.9587
11.2487 -2.5058 -0.0479 0.9549
11.2818 -2.3407 -0.0479 0.9550
18.6936 -3.0309 -0.0787 0.9270
18.7421 -2.7583 -0.0787 0.9270
23.9999 -2.4634 -0.1003 0.9080
30.0907 -2.2024 -0.1254 0.8863
45.9643 -2.6896 -0.1913 0.8318
98.5213 -1.4398 -0.4095 0.6743
70.2415 3.0811 -0.2922 0.7548
50.0120 2.9264 -0.2082 0.8184
46.7329 3.4204 -0.1947 0.8291
29.9946 3.5223 -0.1255 0.8862
25.8195 3.4152 -0.1082 0.9011
15.5176 3.2195 -0.0659 0.9386
9.5272 2.7151 -0.0412 0.9611
9.4745 2.8505 -0.0411 0.9612
9.4934 3.3163 -0.0418 0.9606
9.5069 3.4777 -0.0421 0.9603
8.0481 3.0782 -0.0358 0.9661
7.7257 3.0850 -0.0346 0.9673
7.4289 3.0931 -0.0334 0.9683
7.0591 3.1842 -0.0322 0.9695
6.8954 3.2325 -0.0316 0.9700
6.7206 3.3935 -0.0313 0.9703
5.2733 3.1656 -0.0256 0.9757
5.1292 3.1820 -0.0251 0.9761
4.9944 3.2004 -0.0247 0.9766
4.8674 3.2202 -0.0243 0.9769
4.7391 3.2359 -0.0238 0.9773
3.9941 3.3736 -0.0217 0.9793
3.9758 3.4589 -0.0219 0.9791
4.0091 3.6992 -0.0227 0.9784
4.0754 4.1053 -0.0240 0.9771
4.1034 4.2561 -0.0246 0.9766
4.1889 4.7443 -0.0263 0.9750
4.2183 4.9207 -0.0269 0.9744
4.3194 5.5100 -0.0291 0.9724
4.1955 5.5162 -0.0288 0.9727
3.2367 9.4876 -0.0417 0.9607
2.2421 8.5762 -0.0368 0.9652
-0.8487 0.5438 -0.0042 0.9960
-0.8486 0.5264 -0.0041 0.9960
-0.8443 0.4738 -0.0040 0.9961
-0.8361 0.4376 -0.0039 0.9962
-0.8321 0.4201 -0.0039 0.9963
-0.8207 0.3702 -0.0037 0.9964
-0.8163 0.3539 -0.0037 0.9964
-0.8118 0.3380 -0.0037 0.9965
-0.8074 0.3224 -0.0036 0.9965
-0.8032 0.3071 -0.0036 0.9966
-0.7908 0.2634 -0.0035 0.9967
-0.7868 0.2493 -0.0034 0.9967
-0.7806 0.2224 -0.0034 0.9968
-0.7791 0.1976 -0.0033 0.9968
-0.7737 0.1723 -0.0033 0.9968
-0.7680 0.1477 -0.0032 0.9969
-0.7656 0.1356 -0.0032 0.9969
-0.7632 0.1237 -0.0032 0.9969
-0.7609 0.1120 -0.0032 0.9969
-0.7562 0.0888 -0.0032 0.9970
-0.7493 0.0548 -0.0031 0.9970
-0.7426 0.0217 -0.0031 0.9970
-0.7404 0.0108 -0.0031 0.9970
-0.7067 -0.0104 -0.0108 0.9972
-0.7107 -0.0312 -0.0108 0.9972
-0.7127 -0.0417 -0.0109 0.9971
-0.7147 -0.0523 -0.0109 0.9971
-0.7167 -0.0630 -0.0110 0.9971
-0.7188 -0.0738 -0.0110 0.9971
-0.7229 -0.0956 -0.0111 0.9971
-0.7270 -0.1179 -0.0112 0.9971
-0.7291 -0.1292 -0.0113 0.9970
-0.7355 -0.1639 -0.0115 0.9970
-0.7377 -0.1757 -0.0116 0.9970
-0.7405 -0.1879 -0.0116 0.9969
-0.7419 -0.1998 -0.0117 0.9969
-0.7424 -0.2116 -0.0118 0.9969
-0.7456 -0.2243 -0.0119 0.9969
-0.7524 -0.2506 -0.0121 0.9968
-0.7666 -0.3061 -0.0126 0.9967
-0.7704 -0.3207 -0.0127 0.9967
-0.7819 -0.3666 -0.0132 0.9966
-0.7851 -0.3821 -0.0133 0.9965
-0.7883 -0.3980 -0.0135 0.9965
-0.7915 -0.4143 -0.0136 0.9964
-0.7982 -0.4480 -0.0139 0.9963
-0.8052 -0.4834 -0.0143 0.9962
-0.8107 -0.5195 -0.0147 0.9962
-0.8104 -0.5361 -0.0148 0.9961
-50.1177 -36.4127 -0.9440 0.7805
-49.5992 -37.1553 -0.9443 0.7804
-49.0701 -37.8907 -0.9447 0.7803
-48.5308 -38.6192 -0.9451 0.7803
-46.8505 -40.7599 -0.9463 0.7800
-46.2692 -41.4575 -0.9467 0.7799
-44.4677 -43.5035 -0.9480 0.7797
-43.8475 -44.1691 -0.9484 0.7796
-43.2181 -44.8264 -0.9488 0.7795
-40.6042 -47.3661 -0.9507 0.7791
-39.9277 -47.9782 -0.9512 0.7790
-39.2426 -48.5814 -0.9516 0.7789
-38.5480 -49.1745 -0.9521 0.7788
-37.1337 -50.3327 -0.9531 0.7786
-36.4135 -50.8967 -0.9536 0.7785
-35.6853 -51.4513 -0.9541 0.7784
-34.2059 -52.5324 -0.9552 0.7782
-31.6376 -55.4195 -0.9724 0.7747
-30.8435 -55.9105 -0.9730 0.7746
-30.0419 -56.3901 -0.9736 0.7744
-27.5938 -57.7610 -0.9755 0.7741
-26.7641 -58.1954 -0.9761 0.7739
-25.9276 -58.6181 -0.9767 0.7738
-22.5181 -60.1899 -0.9793 0.7733
-21.6505 -60.5526 -0.9799 0.7732
-18.1254 -61.8815 -0.9826 0.7726
-16.0820 -61.5144 -0.9689 0.7754
-14.2975 -62.0439 -0.9702 0.7751
-13.3987 -62.2895 -0.9709 0.7750
-12.4959 -62.5227 -0.9716 0.7749
-10.6787 -62.9494 -0.9729 0.7746
-9.7645 -63.1428 -0.9736 0.7744
-8.8472 -63.3240 -0.9743 0.7743
-7.9266 -63.4914 -0.9750 0.7742
-2.3469 -64.2172 -0.9792 0.7733
-1.4094 -64.2908 -0.9799 0.7732
-0.4702 -64.3508 -0.9806 0.7730
0.4705 -64.3971 -0.9813 0.7729
2.3553 -64.4487 -0.9827 0.7726
6.1338 -64.3867 -0.9856 0.7720
7.0791 -64.3372 -0.9863 0.7719
8.0241 -64.2729 -0.9870 0.7717
8.9689 -64.1954 -0.9877 0.7716
10.8563 -63.9971 -0.9891 0.7713
11.7987 -63.8775 -0.9898 0.7712
14.6179 -63.4347 -0.9920 0.7707
2.5674 -10.4417 -0.1639 0.9579
3.2667 -9.1363 -0.1479 0.9619
3.4167 -9.1327 -0.1486 0.9617
3.7214 -9.1254 -0.1502 0.9613
3.8763 -9.1216 -0.1510 0.9611
4.0329 -9.1178 -0.1519 0.9609
4.5158 -9.1082 -0.1549 0.9601
4.6823 -9.1071 -0.1560 0.9599
5.1970 -9.1036 -0.1597 0.9589
5.3741 -9.1023 -0.1611 0.9586
8.2772 -12.3145 -0.2261 0.9424
24.7375 -35.6668 -0.6614 0.8406
7.8202 -10.2819 -0.1968 0.9496
7.7710 -9.9133 -0.1919 0.9509
7.8413 -9.1471 -0.1836 0.9529
3.6393 -4.0025 -0.0824 0.9786
3.8276 -3.8557 -0.0828 0.9785
3.8822 -3.7980 -0.0828 0.9785
3.9542 -3.7571 -0.0831 0.9784
3.8408 -3.2441 -0.0766 0.9801
4.1843 -3.3298 -0.0815 0.9788
4.1921 -3.2371 -0.0807 0.9790
4.1593 -3.0219 -0.0783 0.9796
4.4139 -3.0139 -0.0814 0.9788
4.8081 -3.1810 -0.0878 0.9772
13.6195 -8.7272 -0.2465 0.9373
15.5210 -8.7108 -0.2712 0.9313
16.1258 -8.7429 -0.2795 0.9292
17.7208 -9.2752 -0.3048 0.9231
17.9002 -9.0384 -0.3056 0.9229
8.2632 -3.8736 -0.1391 0.9641
8.3295 -3.7573 -0.1392 0.9641
8.4383 -3.5134 -0.1393 0.9641
9.8024 -3.5859 -0.1591 0.9591
9.8451 -3.4393 -0.1589 0.9591
10.2788 -3.4230 -0.1651 0.9576
10.4553 -3.3129 -0.1671 0.9571
10.4424 -2.9760 -0.1655 0.9575
10.4260 -2.8073 -0.1645 0.9577
10.3938 -2.4753 -0.1628 0.9582
11.2784 -2.5124 -0.1761 0.9548
11.3413 -2.3530 -0.1765 0.9547
15.4361 -2.9680 -0.2395 0.9391
18.2880 -3.2400 -0.2830 0.9284
18.8565 -2.7752 -0.2904 0.9266
19.5908 -2.5913 -0.3011 0.9240
23.6484 -2.7771 -0.3628 0.9091
23.6282 -2.4253 -0.3619 0.9094
30.6360 -2.2423 -0.4681 0.8844
46.8330 -2.7405 -0.7149 0.8289
55.0051 -2.4128 -0.8390 0.8023
68.7759 -0.0000 -1.0480 0.7595
68.7064 3.0137 -1.0480 0.7595
50.6475 2.9636 -0.7731 0.8163
37.7602 3.3190 -0.5776 0.8593
25.4714 3.3692 -0.3915 0.9023
24.7057 3.6360 -0.3805 0.9049
15.6590 3.0108 -0.2430 0.9382
15.4764 3.2109 -0.2409 0.9387
10.5515 2.5128 -0.1653 0.9575
10.0679 2.5536 -0.1583 0.9593
9.7691 2.6304 -0.1542 0.9603
9.5080 2.7096 -0.1507 0.9612
9.4306 2.8372 -0.1501 0.9614
7.6311 3.0472 -0.1252 0.9677
7.0064 3.1604 -0.1171 0.9697
6.6884 3.2555 -0.1133 0.9707
6.6961 3.3811 -0.1143 0.9704
6.7322 3.6500 -0.1167 0.9698
5.3940 3.1318 -0.0950 0.9754
5.2475 3.1501 -0.0933 0.9758
5.1046 3.1667 -0.0915 0.9763
4.9717 3.1858 -0.0900 0.9767
4.8385 3.2011 -0.0884 0.9771
4.7099 3.2160 -0.0869 0.9774
4.4857 3.2591 -0.0845 0.9781
4.2706 3.2976 -0.0822 0.9786
3.9735 3.3562 -0.0793 0.9794
3.9555 3.4414 -0.0799 0.9792
3.9686 3.5559 -0.0812 0.9789
3.9977 3.7984 -0.0840 0.9782
4.0144 3.9273 -0.0856 0.9778
4.0327 4.0623 -0.0872 0.9774
4.0559 4.2068 -0.0890 0.9769
4.0814 4.3589 -0.0910 0.9764
4.1284 4.6758 -0.0950 0.9754
4.1830 5.0263 -0.0996 0.9742
4.2531 5.4255 -0.1050 0.9728
4.4219 6.1807 -0.1158 0.9701
37.0161 55.0713 -1.0111 0.7669
35.3492 56.0629 -1.0099 0.7671
32.7985 57.4531 -1.0081 0.7675
31.0673 58.3148 -1.0068 0.7677
30.1928 58.7253 -1.0062 0.7679
29.3127 59.1221 -1.0056 0.7680
28.4276 59.5064 -1.0049 0.7681
24.8383 60.9066 -1.0023 0.7686
23.0170 61.5242 -1.0010 0.7689
3.3656 9.4132 -0.1523 0.9608
19.3315 62.5939 -0.9983 0.7695
15.5989 63.4407 -0.9955 0.7700
13.7193 63.7803 -0.9941 0.7703
12.7770 63.9287 -0.9934 0.7704
9.9422 64.2912 -0.9913 0.7709
8.9952 64.3833 -0.9906 0.7710
8.0477 64.4619 -0.9899 0.7711
4.2562 64.6361 -0.9871 0.7717
3.3090 64.6455 -0.9864 0.7719
2.3624 64.6401 -0.9857 0.7720
0.4719 64.5884 -0.9842 0.7723
-1.4135 64.4814 -0.9828 0.7726
-2.3538 64.4071 -0.9821 0.7727
-3.2923 64.3196 -0.9814 0.7729
-4.2288 64.2185 -0.9807 0.7730
-5.1630 64.1043 -0.9800 0.7732
-6.0947 63.9755 -0.9793 0.7733
-7.0237 63.8340 -0.9786 0.7734
-9.7932 63.3280 -0.9765 0.7739
-10.7099 63.1333 -0.9758 0.7740
-12.5321 62.7039 -0.9744 0.7743
-13.4376 62.4706 -0.9737 0.7744
-14.3389 62.2236 -0.9730 0.7746
-15.2356 61.9632 -0.9723 0.7747
-18.7766 60.7973 -0.9696 0.7753
-22.2350 59.4334 -0.9670 0.7758
-23.0853 59.0619 -0.9663 0.7759
-24.7678 58.2834 -0.9650 0.7762
-25.5996 57.8765 -0.9644 0.7763
-26.4249 57.4580 -0.9637 0.7765
-27.2438 57.0284 -0.9631 0.7766
-28.0556 56.5868 -0.9624 0.7767
-29.6585 55.6705 -0.9612 0.7770
-30.4493 55.1959 -0.9606 0.7771
-31.2328 54.7104 -0.9600 0.7772
-32.0082 54.2134 -0.9594 0.7774
-35.0336 52.1217 -0.9570 0.7778
-35.7701 51.5736 -0.9564 0.7780
-36.4987 51.0154 -0.9559 0.7781
-39.3292 48.6886 -0.9537 0.7785
-40.6909 47.4671 -0.9527 0.7787
-42.0154 46.2082 -0.9517 0.7789
-42.6642 45.5659 -0.9512 0.7790
-45.1619 42.9093 -0.9493 0.7794
-46.3517 41.5313 -0.9484 0.7796
-46.9314 40.8303 -0.9479 0.7797
-48.0601 39.4051 -0.9470 0.7799
-48.6084 38.6809 -0.9466 0.7800
-49.1466 37.9497 -0.9462 0.7800
-50.1913 36.4661 -0.9454 0.7802
-0.8107 0.5195 -0.0147 0.9962
-0.8052 0.4834 -0.0143 0.9963
-0.8017 0.4654 -0.0141 0.9963
-0.7982 0.4480 -0.0139 0.9963
-0.7916 0.4143 -0.0136 0.9964
-0.7780 0.3509 -0.0130 0.9966
-0.7667 0.3061 -0.0126 0.9967
-0.7630 0.2918 -0.0124 0.9967
-0.7524 0.2505 -0.0121 0.9968
-0.7490 0.2373 -0.0120 0.9969
-0.7424 0.2116 -0.0118 0.9969
-0.7405 0.1878 -0.0116 0.9969
-0.7378 0.1757 -0.0116 0.9970
-0.7333 0.1521 -0.0114 0.9970
-0.7291 0.1292 -0.0113 0.9970
-0.7270 0.1179 -0.0112 0.9971
-0.7208 0.0846 -0.0111 0.9971
-0.7167 0.0630 -0.0110 0.9971
-0.7147 0.0523 -0.0109 0.9971
-0.7127 0.0417 -0.0109 0.9971
-0.7107 0.0311 -0.0108 0.9972
-0.7087 0.0207 -0.0108 0.9972
-0.6743 0.0000 -0.0177 0.9973
-0.6813 -0.0399 -0.0180 0.9973
-0.6831 -0.0500 -0.0180 0.9973
-0.6868 -0.0705 -0.0182 0.9972
-0.6886 -0.0809 -0.0183 0.9972
-0.6923 -0.1019 -0.0184 0.9972
-0.6978 -0.1342 -0.0187 0.9972
-0.6996 -0.1451 -0.0188 0.9971
-0.7033 -0.1675 -0.0190 0.9971
-0.7071 -0.1904 -0.0193 0.9971
-0.7117 -0.2141 -0.0196 0.9970
-0.7236 -0.2647 -0.0203 0.9969
-0.7266 -0.2779 -0.0205 0.9969
-0.7329 -0.3052 -0.0209 0.9968
-0.7361 -0.3192 -0.0211 0.9968
-0.7427 -0.3482 -0.0216 0.9967
-0.7460 -0.3631 -0.0218 0.9967
-0.7489 -0.3782 -0.0221 0.9966
-0.7515 -0.3933 -0.0223 0.9966
-0.7542 -0.4089 -0.0226 0.9966
-0.7569 -0.4248 -0.0228 0.9965
-0.7654 -0.4748 -0.0237 0.9964
-0.7713 -0.5103 -0.0243 0.9963
-0.8870 -0.6444 -0.0289 0.9956
-28.2942 -23.8987 -0.9750 0.8623
-27.5984 -24.7283 -0.9755 0.8622
-27.2417 -25.1358 -0.9758 0.8622
-26.1362 -26.3278 -0.9766 0.8620
-25.7563 -26.7148 -0.9769 0.8620
-24.9796 -27.4723 -0.9775 0.8619
-24.5830 -27.8429 -0.9778 0.8619
-24.1810 -28.2079 -0.9781 0.8619
-22.5206 -29.6098 -0.9793 0.8617
-22.0928 -29.9456 -0.9796 0.8617
-21.2225 -30.5988 -0.9803 0.8616
-19.8817 -31.5319 -0.9813 0.8614
-19.4256 -31.8301 -0.9816 0.8614
-18.9652 -32.1219 -0.9820 0.8613
-18.5003 -32.4070 -0.9823 0.8613
-17.5582 -32.9575 -0.9830 0.8612
-17.0809 -33.2226 -0.9834 0.8612
-15.8683 -33.2165 -0.9691 0.8630
-15.3870 -33.4573 -0.9694 0.8630
-14.9021 -33.6912 -0.9698 0.8629
-14.4136 -33.9181 -0.9702 0.8629
-13.9219 -34.1382 -0.9705 0.8628
-12.4269 -34.7558 -0.9716 0.8627
-11.9223 -34.9472 -0.9720 0.8626
-11.4149 -35.1315 -0.9724 0.8626
-10.9047 -35.3084 -0.9728 0.8625
-10.3917 -35.4781 -0.9732 0.8625
-9.3581 -35.7952 -0.9740 0.8624
-7.7899 -36.2146 -0.9751 0.8622
-7.2629 -36.3394 -0.9755 0.8622
-5.6704 -36.6677 -0.9767 0.8620
-5.1361 -36.7619 -0.9771 0.8620
-4.6003 -36.8481 -0.9775 0.8619
-4.0631 -36.9266 -0.9779 0.8619
-3.5246 -36.9972 -0.9783 0.8618
-2.9848 -37.0601 -0.9788 0.8618
-2.4440 -37.1154 -0.9792 0.8617
-0.8162 -37.2333 -0.9804 0.8616
-0.2723 -37.2567 -0.9808 0.8615
1.9078 -37.2713 -0.9824 0.8613
2.9985 -37.2307 -0.9833 0.8612
4.0885 -37.1582 -0.9841 0.8611
4.6330 -37.1098 -0.9845 0.8610
6.2625 -36.9170 -0.9857 0.8609
8.4222 -36.5485 -0.9873 0.8606
2.4832 -9.4985 -0.2584 0.9615
2.5519 -9.2091 -0.2516 0.9625
2.8211 -9.1346 -0.2517 0.9625
3.1112 -9.1199 -0.2537 0.9622
3.4091 -9.1125 -0.2561 0.9618
3.7131 -9.1049 -0.2588 0.9614
4.3421 -9.0891 -0.2652 0.9605
4.6688 -9.0809 -0.2688 0.9600
5.0058 -9.0742 -0.2728 0.9594
5.1794 -9.0728 -0.2750 0.9591
5.3558 -9.0713 -0.2773 0.9587
5.5352 -9.0698 -0.2797 0.9584
5.7178 -9.0682 -0.2822 0.9580
5.9036 -9.0666 -0.2848 0.9576
6.1071 -9.0860 -0.2882 0.9571
21.5899 -31.1286 -0.9972 0.8593
7.7190 -10.4627 -0.3423 0.9493
7.5795 -9.6689 -0.3234 0.9520
7.6234 -9.4377 -0.3194 0.9526
3.6480 -4.0121 -0.1427 0.9785
3.7737 -3.9142 -0.1431 0.9785
4.0426 -3.5171 -0.1411 0.9788
3.9085 -3.3014 -0.1347 0.9797
4.1861 -3.4323 -0.1425 0.9786
4.2054 -3.3466 -0.1415 0.9787
4.2069 -3.2484 -0.1399 0.9790
4.1735 -3.0322 -0.1358 0.9796
13.3334 -8.5439 -0.4169 0.9386
14.4888 -8.6978 -0.4449 0.9346
15.4955 -8.6965 -0.4678 0.9314
8.0532 -4.2152 -0.2393 0.9643
8.1511 -3.9674 -0.2386 0.9644
8.1112 -3.8024 -0.2358 0.9648
8.1466 -3.2531 -0.2309 0.9655
8.2011 -3.1367 -0.2311 0.9655
8.2790 -3.0286 -0.2321 0.9653
10.0923 -3.5255 -0.2814 0.9581
8.7533 -2.9150 -0.2429 0.9638
10.5908 -3.1864 -0.2911 0.9567
11.0582 -2.8048 -0.3003 0.9554
11.3337 -2.6991 -0.3067 0.9545
11.5070 -2.5633 -0.3103 0.9539
11.6846 -2.4243 -0.3141 0.9534
15.3542 -2.9522 -0.4116 0.9394
18.7850 -3.0457 -0.5010 0.9267
19.1621 -2.8201 -0.5099 0.9254
19.7385 -2.6109 -0.5241 0.9234
38.2116 -3.3587 -1.0098 0.8577
38.2578 -2.8002 -1.0098 0.8577
38.8910 -2.2757 -1.0255 0.8557
38.9550 0.5692 -1.0256 0.8557
38.8527 2.8436 -1.0255 0.8557
38.7497 3.9773 -1.0254 0.8557
20.2221 3.2786 -0.5393 0.9213
15.6022 2.9999 -0.4182 0.9384
13.8566 2.8749 -0.3725 0.9449
13.2624 2.9543 -0.3577 0.9471
10.0331 2.5448 -0.2725 0.9594
9.7362 2.6215 -0.2654 0.9605
9.5012 2.7078 -0.2601 0.9612
9.4271 2.9871 -0.2603 0.9612
9.4355 3.2961 -0.2631 0.9608
9.4402 3.4533 -0.2646 0.9606
7.5496 3.0146 -0.2140 0.9680
7.3134 3.0450 -0.2085 0.9688
6.9610 3.1400 -0.2010 0.9699
6.8009 3.1882 -0.1977 0.9704
6.6717 3.3688 -0.1967 0.9705
6.6893 3.5012 -0.1988 0.9702
5.2151 3.1307 -0.1601 0.9760
5.0740 3.1477 -0.1572 0.9764
4.9377 3.1640 -0.1544 0.9768
4.8066 3.1800 -0.1517 0.9772
4.5687 3.2184 -0.1471 0.9779
4.4601 3.2405 -0.1451 0.9782
4.2517 3.2831 -0.1414 0.9787
4.0502 3.3208 -0.1379 0.9793
3.9531 3.3389 -0.1362 0.9795
3.9517 3.5407 -0.1397 0.9790
4.0045 3.9177 -0.1475 0.9778
4.0226 4.0521 -0.1503 0.9774
4.0454 4.1959 -0.1534 0.9769
4.1115 4.6567 -0.1635 0.9754
4.1371 4.8261 -0.1673 0.9749
4.2226 5.3867 -0.1802 0.9730
4.3254 5.8629 -0.1918 0.9713
4.3365 6.0613 -0.1962 0.9706
20.6792 31.7584 -0.9976 0.8593
20.2061 32.0464 -0.9973 0.8593
19.7290 32.3271 -0.9970 0.8594
19.2477 32.6007 -0.9966 0.8594
17.7818 33.3771 -0.9955 0.8596
14.7583 34.7293 -0.9934 0.8599
14.2439 34.9279 -0.9930 0.8599
3.3876 9.4745 -0.2649 0.9605
11.6338 35.8054 -0.9911 0.8602
10.0417 36.2377 -0.9899 0.8603
7.8951 36.7039 -0.9883 0.8605
6.8137 36.8890 -0.9875 0.8606
6.2715 36.9696 -0.9871 0.8607
5.1843 37.1066 -0.9863 0.8608
4.0944 37.2117 -0.9855 0.8609
3.5487 37.2519 -0.9851 0.8609
1.9105 37.3252 -0.9839 0.8611
1.3644 37.3334 -0.9834 0.8612
0.8185 37.3339 -0.9830 0.8612
0.2727 37.3262 -0.9826 0.8613
-0.8174 37.2875 -0.9818 0.8614
-2.4476 37.1689 -0.9806 0.8615
-3.5296 37.0504 -0.9798 0.8616
-4.6069 36.9007 -0.9789 0.8617
-5.1435 36.8145 -0.9785 0.8618
-6.2120 36.6180 -0.9777 0.8619
-6.7435 36.5082 -0.9773 0.8620
-7.2731 36.3906 -0.9769 0.8620
-8.8499 35.9925 -0.9757 0.8622
-10.4059 35.5266 -0.9745 0.8623
-10.9196 35.3566 -0.9741 0.8624
-11.4304 35.1791 -0.9737 0.8624
-11.9384 34.9942 -0.9733 0.8625
-13.9399 34.1825 -0.9718 0.8627
-14.9212 33.7343 -0.9710 0.8628
-15.4064 33.4995 -0.9706 0.8628
-15.8881 33.2579 -0.9703 0.8629
-17.7767 32.2240 -0.9688 0.8631
-18.6968 31.6674 -0.9681 0.8632
-20.0446 30.7839 -0.9670 0.8633
-20.4850 30.4768 -0.9667 0.8633
-20.9206 30.1635 -0.9663 0.8634
-21.3516 29.8440 -0.9660 0.8634
-21.7779 29.5187 -0.9657 0.8635
-22.1992 29.1873 -0.9653 0.8635
-22.6155 28.8499 -0.9650 0.8636
-23.4330 28.1577 -0.9643 0.8637
-24.2298 27.4428 -0.9637 0.8637
-24.6203 27.0772 -0.9634 0.8638
-25.0054 26.7061 -0.9631 0.8638
-25.7587 25.9476 -0.9625 0.8639
-26.1271 25.5606 -0.9622 0.8639
-27.1976 24.3691 -0.9613 0.8641
-27.5429 23.9623 -0.9610 0.8641
-27.8820 23.5505 -0.9608 0.8641
-29.1780 21.8575 -0.9597 0.8643
-0.8869 0.6443 -0.0289 0.9956
-0.7741 0.5452 -0.0249 0.9962
-0.7713 0.5102 -0.0243 0.9963
-0.7683 0.4923 -0.0240 0.9964
-0.7597 0.4411 -0.0231 0.9965
-0.7569 0.4248 -0.0228 0.9965
-0.7542 0.4089 -0.0226 0.9966
-0.7515 0.3933 -0.0223 0.9966
-0.7426 0.3481 -0.0216 0.9967
-0.7393 0.3335 -0.0214 0.9968
-0.7361 0.3191 -0.0211 0.9968
-0.7329 0.3051 -0.0209 0.9968
-0.7297 0.2914 -0.0207 0.9969
-0.7266 0.2779 -0.0205 0.9969
-0.7236 0.2646 -0.0203 0.9969
-0.7205 0.2517 -0.0201 0.9970
-0.7146 0.2264 -0.0197 0.9970
-0.7117 0.2141 -0.0196 0.9970
-0.7088 0.2020 -0.0194 0.9971
-0.7051 0.1788 -0.0191 0.9971
-0.7014 0.1562 -0.0189 0.9971
-0.6996 0.1451 -0.0188 0.9971
-0.6959 0.1233 -0.0186 0.9972
-0.6941 0.1125 -0.0185 0.9972
-0.6923 0.1019 -0.0184 0.9972
-0.6886 0.0809 -0.0183 0.9972
-0.6849 0.0602 -0.0181 0.9973
-0.6831 0.0500 -0.0180 0.9973
-0.6813 0.0398 -0.0180 0.9973
-0.6794 0.0298 -0.0179 0.9973
-0.6776 0.0198 -0.0178 0.9973
-0.6757 0.0099 -0.0178 0.9973
-0.6479 -0.0095 -0.0242 0.9974
-0.6492 -0.0190 -0.0243 0.9974
-0.6539 -0.0479 -0.0245 0.9974
-0.6556 -0.0576 -0.0246 0.9974
-0.6589 -0.0774 -0.0248 0.9973
-0.6605 -0.0874 -0.0249 0.9973
-0.6653 -0.1179 -0.0253 0.9973
-0.6669 -0.1282 -0.0254 0.9973
-0.6701 -0.1493 -0.0257 0.9973
-0.6749 -0.1817 -0.0262 0.9972
-0.6765 -0.1929 -0.0263 0.9972
-0.6786 -0.2042 -0.0265 0.9972
-0.6814 -0.2159 -0.0267 0.9971
-0.6842 -0.2279 -0.0270 0.9971
-0.6871 -0.2401 -0.0272 0.9971
-0.6929 -0.2650 -0.0278 0.9970
-0.6959 -0.2779 -0.0280 0.9970
-0.7016 -0.3042 -0.0286 0.9969
-0.7071 -0.3315 -0.0292 0.9969
-0.7099 -0.3455 -0.0295 0.9968
-0.7128 -0.3599 -0.0299 0.9968
-0.7153 -0.3745 -0.0302 0.9968
-0.7175 -0.3890 -0.0305 0.9967
-0.7197 -0.4039 -0.0309 0.9967
-0.7286 -0.4669 -0.0324 0.9965
-0.7310 -0.4836 -0.0328 0.9965
-0.7333 -0.5007 -0.0332 0.9965
-0.7357 -0.5183 -0.0337 0.9964
-0.7381 -0.5363 -0.0341 0.9964
-0.7541 -0.5649 -0.0353 0.9962
-20.5114 -16.3223 -0.9808 0.9004
-20.2744 -16.6233 -0.9810 0.9004
-19.2833 -17.7927 -0.9817 0.9003
-19.0250 -18.0761 -0.9819 0.9003
-18.4962 -18.6318 -0.9823 0.9002
-17.9470 -18.6149 -0.9675 0.9017
-17.4027 -19.1394 -0.9679 0.9016
-16.2693 -20.1410 -0.9688 0.9016
-15.9768 -20.3811 -0.9690 0.9015
-15.6810 -20.6172 -0.9692 0.9015
-15.3816 -20.8489 -0.9694 0.9015
-15.0789 -21.0764 -0.9697 0.9015
-14.7728 -21.2995 -0.9699 0.9014
-14.1509 -21.7326 -0.9704 0.9014
-12.8700 -22.5445 -0.9713 0.9013
-12.5424 -22.7358 -0.9716 0.9013
-12.2120 -22.9225 -0.9718 0.9013
-11.2045 -23.4539 -0.9726 0.9012
-10.8635 -23.6214 -0.9728 0.9012
-10.5199 -23.7839 -0.9731 0.9011
-9.8258 -24.0940 -0.9736 0.9011
-9.1225 -24.3840 -0.9741 0.9010
-8.7676 -24.5215 -0.9744 0.9010
-7.6910 -24.9028 -0.9752 0.9009
-6.9639 -25.1310 -0.9758 0.9009
-6.5979 -25.2372 -0.9760 0.9009
-3.6177 -25.8937 -0.9783 0.9006
-3.2399 -25.9514 -0.9786 0.9006
-2.8612 -26.0036 -0.9789 0.9006
-1.7205 -26.1268 -0.9797 0.9005
-0.1915 -26.2135 -0.9809 0.9004
0.1916 -26.2212 -0.9812 0.9004
0.9582 -26.2197 -0.9817 0.9003
1.3416 -26.2106 -0.9820 0.9003
2.4911 -26.1497 -0.9829 0.9002
2.8738 -26.1182 -0.9832 0.9002
3.2560 -26.0810 -0.9835 0.9001
4.7796 -25.8765 -0.9846 0.9000
5.1586 -25.8112 -0.9849 0.9000
5.5368 -25.7407 -0.9852 0.9000
2.6712 -9.1196 -0.3556 0.9627
2.8127 -9.1073 -0.3567 0.9626
3.2523 -9.0962 -0.3615 0.9621
3.4016 -9.0924 -0.3632 0.9619
3.5524 -9.0886 -0.3651 0.9617
3.8588 -9.0807 -0.3692 0.9613
4.3321 -9.0683 -0.3760 0.9606
4.6580 -9.0598 -0.3812 0.9600
5.1644 -9.0464 -0.3898 0.9592
5.3384 -9.0418 -0.3929 0.9588
5.5021 -9.0155 -0.3952 0.9586
15.1153 -21.7934 -0.9924 0.8993
7.6324 -10.3453 -0.4810 0.9498
7.5428 -9.9171 -0.4662 0.9513
7.5792 -9.3829 -0.4513 0.9529
7.6220 -9.1589 -0.4458 0.9534
7.6971 -8.9789 -0.4425 0.9538
3.5940 -4.0707 -0.2032 0.9785
3.6568 -4.0217 -0.2034 0.9785
3.7197 -3.9727 -0.2036 0.9785
3.7827 -3.9236 -0.2039 0.9784
3.9096 -3.8248 -0.2047 0.9783
3.9429 -3.7463 -0.2035 0.9785
4.0600 -3.5322 -0.2014 0.9787
4.2268 -3.3636 -0.2021 0.9786
4.2217 -3.2599 -0.1996 0.9789
4.2045 -3.1497 -0.1966 0.9792
4.3013 -3.0301 -0.1969 0.9792
4.6620 -3.1832 -0.2112 0.9777
12.9738 -8.5834 -0.5821 0.9396
14.0088 -8.6905 -0.6168 0.9361
7.8929 -3.7001 -0.3262 0.9657
7.9698 -3.3183 -0.3230 0.9660
8.0392 -3.2102 -0.3239 0.9659
7.8365 -2.9973 -0.3139 0.9670
8.1076 -2.9659 -0.3230 0.9660
10.4374 -3.3072 -0.4097 0.9571
10.0865 -3.0346 -0.3941 0.9587
10.9835 -3.1302 -0.4273 0.9553
11.3658 -2.8829 -0.4387 0.9541
11.6790 -2.7814 -0.4492 0.9531
11.8619 -2.6424 -0.4547 0.9525
11.4729 -2.3804 -0.4384 0.9542
15.2732 -2.9367 -0.5820 0.9396
16.2009 -2.6267 -0.6141 0.9364
26.5208 -3.5080 -1.0010 0.8985
27.1723 -0.0001 -1.0167 0.8969
27.1694 0.3970 -1.0167 0.8969
27.1606 0.7939 -1.0167 0.8969
27.1458 1.1907 -1.0167 0.8969
27.0659 2.3790 -1.0166 0.8969
27.0275 2.7742 -1.0166 0.8970
26.9832 3.1686 -1.0166 0.8970
26.9331 3.5625 -1.0165 0.8970
26.8770 3.9554 -1.0165 0.8970
16.3068 2.8889 -0.6197 0.9359
13.9004 2.8839 -0.5312 0.9448
13.2873 2.9599 -0.5094 0.9470
10.4649 2.4922 -0.4025 0.9579
9.9985 2.5361 -0.3860 0.9596
9.7264 2.6189 -0.3769 0.9605
9.4201 2.8341 -0.3681 0.9614
7.7720 2.9726 -0.3113 0.9672
7.5063 2.9974 -0.3024 0.9682
7.0816 3.0707 -0.2888 0.9696
6.6398 3.2318 -0.2763 0.9709
6.6475 3.3566 -0.2786 0.9706
6.6648 3.4884 -0.2815 0.9703
5.3241 3.0912 -0.2304 0.9757
5.1775 3.1081 -0.2260 0.9761
4.7709 3.1564 -0.2140 0.9774
4.6494 3.1746 -0.2107 0.9777
4.4301 3.2186 -0.2049 0.9783
4.2262 3.2634 -0.1998 0.9789
4.0292 3.3036 -0.1950 0.9794
3.9330 3.4218 -0.1951 0.9793
3.9349 3.5257 -0.1977 0.9791
4.0147 4.0441 -0.2132 0.9774
4.0376 4.1879 -0.2177 0.9770
4.0588 4.3348 -0.2222 0.9765
4.1040 4.6482 -0.2320 0.9755
4.1299 4.8177 -0.2374 0.9749
4.1569 4.9950 -0.2432 0.9743
4.1851 5.1811 -0.2492 0.9737
4.2147 5.3765 -0.2556 0.9730
4.2781 5.7987 -0.2696 0.9716
14.7995 22.0182 -0.9927 0.8993
14.1431 22.4306 -0.9922 0.8993
13.8105 22.6294 -0.9920 0.8993
13.1370 23.0119 -0.9915 0.8994
12.7961 23.1957 -0.9912 0.8994
11.7585 23.7162 -0.9905 0.8995
11.4077 23.8794 -0.9902 0.8995
11.0548 24.0373 -0.9900 0.8995
10.3423 24.3374 -0.9895 0.8996
8.8935 24.8733 -0.9884 0.8997
3.2058 9.3969 -0.3715 0.9610
8.1582 25.1089 -0.9879 0.8997
7.7884 25.2186 -0.9876 0.8997
7.4171 25.3226 -0.9873 0.8998
2.2243 8.5082 -0.3291 0.9654
2.1003 8.5421 -0.3291 0.9654
5.5411 25.7603 -0.9859 0.8999
5.1626 25.8311 -0.9856 0.8999
4.7833 25.8964 -0.9854 0.9000
4.0222 26.0103 -0.9848 0.9000
3.2586 26.1015 -0.9842 0.9001
2.4931 26.1705 -0.9837 0.9001
1.7263 26.2169 -0.9831 0.9002
1.3427 26.2315 -0.9828 0.9002
0.5753 26.2443 -0.9822 0.9003
-0.9576 26.2023 -0.9811 0.9004
-1.3400 26.1777 -0.9808 0.9004
-2.4836 26.0707 -0.9799 0.9005
-3.6205 25.9141 -0.9791 0.9006
-3.9976 25.8509 -0.9788 0.9006
-4.7485 25.7080 -0.9782 0.9006
-5.1222 25.6285 -0.9779 0.9007
-5.4945 25.5434 -0.9776 0.9007
-5.8654 25.4530 -0.9773 0.9007
-6.2349 25.3571 -0.9771 0.9008
-7.3337 25.0379 -0.9762 0.9008
-8.0576 24.7988 -0.9757 0.9009
-8.4168 24.6715 -0.9754 0.9009
-8.7739 24.5389 -0.9751 0.9009
-9.1289 24.4013 -0.9748 0.9010
-10.1809 23.9577 -0.9740 0.9010
-10.5271 23.8000 -0.9738 0.9011
-12.5501 22.7498 -0.9722 0.9012
-13.5244 22.1606 -0.9714 0.9013
-13.8432 21.9549 -0.9712 0.9013
-14.1588 21.7446 -0.9709 0.9013
-15.3895 20.8596 -0.9699 0.9014
-16.2770 20.1505 -0.9692 0.9015
-16.5657 19.9057 -0.9690 0.9015
-16.8508 19.6570 -0.9688 0.9016
-17.1323 19.4042 -0.9686 0.9016
-17.4100 19.1473 -0.9683 0.9016
-18.4825 18.0817 -0.9675 0.9017
-18.9949 17.5265 -0.9671 0.9017
-19.2449 17.2435 -0.9669 0.9017
-19.4908 16.9569 -0.9667 0.9018
-20.2032 16.0770 -0.9661 0.9018
-0.8645 0.6675 -0.0409 0.9956
-0.7540 0.5648 -0.0353 0.9962
-0.7381 0.5362 -0.0341 0.9964
-0.7357 0.5182 -0.0337 0.9964
-0.7333 0.5007 -0.0332 0.9965
-0.7219 0.4191 -0.0312 0.9967
-0.7197 0.4039 -0.0309 0.9967
-0.7043 0.3177 -0.0289 0.9969
-0.7016 0.3042 -0.0286 0.9969
-0.6929 0.2650 -0.0278 0.9970
-0.6871 0.2400 -0.0272 0.9971
-0.6842 0.2279 -0.0270 0.9971
-0.6786 0.2041 -0.0265 0.9972
-0.6733 0.1707 -0.0260 0.9972
-0.6717 0.1599 -0.0258 0.9972
-0.6685 0.1387 -0.0255 0.9973
-0.6669 0.1282 -0.0254 0.9973
-0.6653 0.1178 -0.0253 0.9973
-0.6637 0.1076 -0.0252 0.9973
-0.6492 0.0189 -0.0243 0.9974
-0.6478 0.0095 -0.0242 0.9974
-0.6209 0.0000 -0.0301 0.9975
-0.6221 -0.0091 -0.0302 0.9975
-0.6234 -0.0182 -0.0303 0.9975
-0.6258 -0.0366 -0.0304 0.9975
-0.6315 -0.0742 -0.0309 0.9975
-0.6330 -0.0837 -0.0310 0.9974
-0.6344 -0.0934 -0.0311 0.9974
-0.6358 -0.1031 -0.0313 0.9974
-0.6372 -0.1129 -0.0314 0.9974
-0.6386 -0.1228 -0.0316 0.9974
-0.6400 -0.1328 -0.0317 0.9974
-0.6414 -0.1429 -0.0319 0.9974
-0.6518 -0.2171 -0.0333 0.9973
-0.6540 -0.2285 -0.0336 0.9972
-0.6613 -0.2641 -0.0346 0.9972
-0.6639 -0.2764 -0.0349 0.9971
-0.6664 -0.2889 -0.0352 0.9971
-0.6897 -0.4279 -0.0394 0.9968
-0.6914 -0.4430 -0.0398 0.9967
-0.6931 -0.4585 -0.0403 0.9967
-0.6948 -0.4744 -0.0408 0.9966
-0.6983 -0.5073 -0.0419 0.9965
-0.7347 -0.5846 -0.0456 0.9962
-0.8411 -0.6897 -0.0528 0.9957
-15.5028 -13.0945 -0.9846 0.9219
-14.4950 -13.7720 -0.9701 0.9231
-14.2945 -13.9846 -0.9703 0.9230
-13.8842 -14.4009 -0.9706 0.9230
-13.4619 -14.8053 -0.9709 0.9230
-13.0279 -15.1974 -0.9712 0.9230
-12.5826 -15.5770 -0.9716 0.9229
-10.9402 -16.8016 -0.9728 0.9228
-10.1992 -17.2748 -0.9733 0.9228
-9.6939 -17.5723 -0.9737 0.9228
-9.4380 -17.7155 -0.9739 0.9228
-9.1800 -17.8551 -0.9741 0.9227
-8.9199 -17.9909 -0.9743 0.9227
-8.6578 -18.1230 -0.9745 0.9227
-8.1278 -18.3758 -0.9749 0.9227
-7.8601 -18.4964 -0.9751 0.9227
-7.5906 -18.6132 -0.9753 0.9227
-7.3193 -18.7260 -0.9755 0.9226
-6.4958 -19.0408 -0.9761 0.9226
-6.2182 -19.1378 -0.9763 0.9226
-5.9392 -19.2308 -0.9765 0.9226
-5.6588 -19.3196 -0.9768 0.9225
-5.3771 -19.4045 -0.9770 0.9225
-5.0941 -19.4852 -0.9772 0.9225
-3.9507 -19.7669 -0.9780 0.9224
-3.6622 -19.8268 -0.9783 0.9224
-3.3729 -19.8827 -0.9785 0.9224
-2.2076 -20.0637 -0.9794 0.9223
-1.9147 -20.0984 -0.9796 0.9223
-1.0328 -20.1766 -0.9802 0.9223
-0.4430 -20.2073 -0.9807 0.9222
-0.1477 -20.2162 -0.9809 0.9222
0.1477 -20.2208 -0.9811 0.9222
0.4433 -20.2211 -0.9813 0.9222
0.7388 -20.2170 -0.9816 0.9222
1.3298 -20.1959 -0.9820 0.9221
1.6252 -20.1790 -0.9822 0.9221
1.9203 -20.1576 -0.9825 0.9221
2.5096 -20.1019 -0.9829 0.9221
3.3904 -19.9861 -0.9836 0.9220
3.6829 -19.9389 -0.9838 0.9220
2.3695 -10.2827 -0.5120 0.9586
2.3618 -9.6055 -0.4799 0.9612
2.5308 -9.1330 -0.4598 0.9628
2.6632 -9.0925 -0.4597 0.9628
2.7800 -9.0015 -0.4571 0.9630
2.8972 -8.9166 -0.4549 0.9632
3.0369 -8.9018 -0.4564 0.9630
3.2265 -9.0240 -0.4650 0.9623
3.5445 -9.0684 -0.4724 0.9618
3.6965 -9.0644 -0.4750 0.9616
3.8502 -9.0604 -0.4776 0.9613
4.1630 -9.0520 -0.4834 0.9609
4.3223 -9.0477 -0.4865 0.9606
4.4836 -9.0434 -0.4897 0.9604
5.5648 -8.8256 -0.5062 0.9591
5.7358 -8.8089 -0.5100 0.9588
6.0502 -9.0013 -0.5262 0.9575
11.6259 -16.7623 -0.9898 0.9216
7.5123 -9.8771 -0.6021 0.9515
7.5148 -9.5864 -0.5910 0.9524
3.6027 -4.0804 -0.2641 0.9784
3.7286 -3.9822 -0.2647 0.9784
3.7919 -3.9330 -0.2651 0.9784
3.8553 -3.8836 -0.2655 0.9783
3.9190 -3.8341 -0.2660 0.9783
3.9343 -3.7382 -0.2633 0.9785
4.0472 -3.7344 -0.2672 0.9782
4.0206 -3.4980 -0.2586 0.9789
4.2367 -3.2715 -0.2597 0.9788
4.2192 -3.1607 -0.2558 0.9791
4.3227 -3.0452 -0.2566 0.9790
4.3408 -2.9639 -0.2550 0.9792
12.9719 -8.5821 -0.7547 0.9396
15.7684 -8.8497 -0.8773 0.9301
8.0428 -4.2097 -0.4405 0.9643
7.9711 -3.8798 -0.4301 0.9651
7.8811 -3.2814 -0.4142 0.9664
7.7940 -3.1123 -0.4072 0.9669
8.3830 -3.0666 -0.4331 0.9649
10.0634 -3.5155 -0.5172 0.9582
10.2988 -3.4296 -0.5267 0.9575
11.6694 -3.1421 -0.5864 0.9528
11.9674 -2.8500 -0.5969 0.9519
15.1929 -2.9213 -0.7507 0.9399
15.1425 -2.6828 -0.7461 0.9403
20.3155 -2.9899 -0.9963 0.9211
20.7755 -1.8262 -1.0119 0.9199
20.8479 -0.6095 -1.0120 0.9199
20.8547 -0.3048 -1.0120 0.9199
20.8547 0.3047 -1.0120 0.9199
20.8479 0.6094 -1.0120 0.9199
20.8366 0.9140 -1.0120 0.9199
20.8005 1.5224 -1.0119 0.9199
20.7756 1.8261 -1.0119 0.9199
20.6741 2.7346 -1.0118 0.9199
20.6313 3.0362 -1.0118 0.9199
20.5841 3.3373 -1.0118 0.9199
20.5322 3.6375 -1.0117 0.9199
16.7866 3.2276 -0.8294 0.9338
13.3645 2.9771 -0.6643 0.9466
10.5052 2.5018 -0.5240 0.9577
9.9938 2.5348 -0.5002 0.9596
9.7203 2.6172 -0.4884 0.9605
9.5023 2.7081 -0.4794 0.9612
9.4181 2.9843 -0.4794 0.9612
9.2535 3.2325 -0.4756 0.9615
8.0052 2.9284 -0.4136 0.9664
7.7142 2.9505 -0.4007 0.9675
7.0504 3.0571 -0.3728 0.9697
6.8720 3.0998 -0.3658 0.9703
6.6186 3.2214 -0.3571 0.9710
6.6235 3.3444 -0.3600 0.9707
5.2834 3.0675 -0.2964 0.9758
5.1343 3.0821 -0.2906 0.9763
4.9937 3.0979 -0.2851 0.9767
4.8631 3.1162 -0.2802 0.9771
4.7368 3.1339 -0.2756 0.9775
4.6187 3.1537 -0.2714 0.9779
4.5080 3.1757 -0.2676 0.9782
4.2970 3.2189 -0.2605 0.9787
4.1041 3.2659 -0.2545 0.9792
4.0084 3.2865 -0.2515 0.9795
3.9184 3.5109 -0.2553 0.9792
4.0299 4.1799 -0.2817 0.9770
4.0510 4.3265 -0.2876 0.9765
4.0726 4.4790 -0.2937 0.9760
4.0970 4.6403 -0.3003 0.9755
4.1775 5.1716 -0.3226 0.9737
4.2376 5.5715 -0.3396 0.9724
4.2685 5.7857 -0.3488 0.9716
4.3005 6.0110 -0.3586 0.9708
11.3801 16.9310 -0.9898 0.9216
11.1296 17.0924 -0.9896 0.9216
10.3641 17.5539 -0.9891 0.9216
10.1046 17.7002 -0.9889 0.9216
9.5794 17.9810 -0.9885 0.9216
9.3138 18.1156 -0.9883 0.9217
9.0463 18.2461 -0.9881 0.9217
8.7771 18.3727 -0.9879 0.9217
8.5060 18.4954 -0.9877 0.9217
8.2332 18.6139 -0.9875 0.9217
7.9587 18.7285 -0.9873 0.9217
7.6826 18.8388 -0.9871 0.9218
7.1260 19.0475 -0.9867 0.9218
6.8454 19.1456 -0.9865 0.9218
6.2805 19.3293 -0.9861 0.9218
5.7105 19.4963 -0.9857 0.9219
2.3573 8.5069 -0.4283 0.9653
2.0965 8.5264 -0.4260 0.9654
4.5579 19.7795 -0.9848 0.9219
4.2676 19.8396 -0.9846 0.9219
3.9764 19.8955 -0.9844 0.9220
3.6844 19.9471 -0.9842 0.9220
3.3918 19.9945 -0.9840 0.9220
2.5107 20.1104 -0.9833 0.9220
1.3304 20.2046 -0.9824 0.9221
0.1478 20.2296 -0.9816 0.9222
-0.1478 20.2250 -0.9813 0.9222
-0.4432 20.2161 -0.9811 0.9222
-0.7383 20.2029 -0.9809 0.9222
-1.3278 20.1635 -0.9804 0.9223
-1.6219 20.1374 -0.9802 0.9223
-2.2086 20.0723 -0.9798 0.9223
-2.5011 20.0333 -0.9795 0.9223
-2.7929 19.9901 -0.9793 0.9223
-3.0840 19.9427 -0.9791 0.9224
-3.3743 19.8910 -0.9789 0.9224
-3.6637 19.8351 -0.9787 0.9224
-3.9523 19.7750 -0.9784 0.9224
-4.5264 19.6423 -0.9780 0.9224
-4.8118 19.5696 -0.9778 0.9225
-5.3792 19.4121 -0.9774 0.9225
-5.6610 19.3270 -0.9771 0.9225
-5.9415 19.2380 -0.9769 0.9225
-6.2206 19.1450 -0.9767 0.9225
-6.4982 19.0478 -0.9765 0.9226
-7.0490 18.8416 -0.9761 0.9226
-7.3219 18.7325 -0.9759 0.9226
-8.1306 18.3820 -0.9752 0.9227
-8.3965 18.2573 -0.9750 0.9227
-8.6606 18.1288 -0.9748 0.9227
-8.9227 17.9966 -0.9746 0.9227
-9.1828 17.8605 -0.9744 0.9227
-9.4408 17.7208 -0.9742 0.9227
-9.6967 17.5774 -0.9740 0.9228
-9.9505 17.4302 -0.9738 0.9228
-10.9429 16.8057 -0.9730 0.9228
-11.6621 16.3005 -0.9725 0.9229
-11.8967 16.1253 -0.9723 0.9229
-12.1288 15.9468 -0.9721 0.9229
-12.3582 15.7649 -0.9719 0.9229
-12.8089 15.3914 -0.9716 0.9229
-13.4639 14.8074 -0.9710 0.9230
-13.6764 14.6066 -0.9709 0.9230
-14.6939 13.5580 -0.9701 0.9231
-15.0790 13.1187 -0.9697 0.9231
-0.8411 0.6896 -0.0528 0.9957
-0.7346 0.5845 -0.0456 0.9962
-0.7017 0.5418 -0.0430 0.9965
-0.6913 0.4430 -0.0398 0.9967
-0.6846 0.3841 -0.0381 0.9969
-0.6793 0.3555 -0.0372 0.9969
-0.6767 0.3417 -0.0368 0.9970
-0.6741 0.3280 -0.0364 0.9970
-0.6715 0.3147 -0.0360 0.9970
-0.6664 0.2889 -0.0352 0.9971
-0.6614 0.2640 -0.0346 0.9972
-0.6564 0.2401 -0.0339 0.9972
-0.6540 0.2284 -0.0336 0.9972
-0.6518 0.2170 -0.0333 0.9973
-0.6500 0.2060 -0.0331 0.9973
-0.6483 0.1950 -0.0328 0.9973
-0.6468 0.1843 -0.0326 0.9973
-0.6441 0.1634 -0.0322 0.9973
-0.6428 0.1530 -0.0321 0.9974
-0.6414 0.1429 -0.0319 0.9974
-0.6400 0.1327 -0.0317 0.9974
-0.6386 0.1227 -0.0316 0.9974
-0.6358 0.1031 -0.0313 0.9974
-0.6344 0.0934 -0.0311 0.9974
-0.6315 0.0741 -0.0309 0.9975
-0.6301 0.0646 -0.0307 0.9975
-0.6271 0.0459 -0.0305 0.9975
-0.6246 0.0274 -0.0303 0.9975
-0.6234 0.0182 -0.0303 0.9975
-0.6221 0.0091 -0.0302 0.9975
-0.5972 -0.0000 -0.0356 0.9976
-0.5984 -0.0088 -0.0357 0.9976
-0.5995 -0.0176 -0.0358 0.9976
-0.6006 -0.0264 -0.0359 0.9976
-0.6017 -0.0352 -0.0359 0.9976
-0.6028 -0.0441 -0.0360 0.9976
-0.6064 -0.0712 -0.0364 0.9976
-0.6076 -0.0804 -0.0366 0.9975
-0.6102 -0.0989 -0.0369 0.9975
-0.6126 -0.1178 -0.0372 0.9975
-0.6173 -0.1566 -0.0380 0.9975
-0.6196 -0.1766 -0.0384 0.9974
-0.6220 -0.1971 -0.0389 0.9974
-0.6250 -0.2184 -0.0395 0.9974
-0.6280 -0.2402 -0.0401 0.9973
-0.6406 -0.3118 -0.0425 0.9971
-0.6427 -0.3246 -0.0429 0.9971
-0.6449 -0.3375 -0.0434 0.9971
-0.6557 -0.4068 -0.0460 0.9969
-0.6570 -0.4210 -0.0465 0.9969
-0.6606 -0.4654 -0.0482 0.9968
-0.6654 -0.5295 -0.0507 0.9966
-0.6665 -0.5465 -0.0514 0.9966
-0.7163 -0.6050 -0.0559 0.9962
-12.3267 -11.0448 -0.9870 0.9358
-12.1655 -11.2251 -0.9871 0.9358
-11.7847 -11.1970 -0.9694 0.9369
-11.6214 -11.3694 -0.9695 0.9369
-11.4555 -11.5395 -0.9696 0.9369
-11.1163 -11.8724 -0.9699 0.9369
-10.9431 -12.0353 -0.9700 0.9369
-10.5897 -12.3532 -0.9703 0.9369
-10.4095 -12.5084 -0.9704 0.9369
-10.2271 -12.6610 -0.9706 0.9369
-9.8556 -12.9580 -0.9708 0.9368
-9.2824 -13.3835 -0.9713 0.9368
-9.0872 -13.5197 -0.9714 0.9368
-8.6910 -13.7837 -0.9717 0.9368
-8.2871 -14.0362 -0.9720 0.9368
-7.8759 -14.2768 -0.9723 0.9368
-7.6677 -14.3927 -0.9725 0.9367
-6.8183 -14.8257 -0.9731 0.9367
-6.6021 -14.9263 -0.9733 0.9367
-6.3844 -15.0237 -0.9734 0.9367
-4.8364 -15.6601 -0.9774 0.9364
-4.6079 -15.7318 -0.9776 0.9364
-4.1477 -15.8653 -0.9779 0.9364
-2.9813 -16.1402 -0.9788 0.9363
-2.5093 -16.2264 -0.9791 0.9363
-2.0348 -16.2986 -0.9795 0.9363
-1.7968 -16.3296 -0.9797 0.9363
-1.5583 -16.3571 -0.9798 0.9363
-0.8404 -16.4187 -0.9804 0.9362
-0.6005 -16.4323 -0.9806 0.9362
0.6011 -16.4475 -0.9815 0.9362
0.8415 -16.4400 -0.9817 0.9362
1.5620 -16.3963 -0.9822 0.9361
2.7572 -16.2534 -0.9831 0.9361
2.9949 -16.2144 -0.9833 0.9361
3.2321 -16.1718 -0.9834 0.9361
3.4687 -16.1258 -0.9836 0.9360
2.3412 -9.5220 -0.5847 0.9615
2.6571 -9.0717 -0.5637 0.9628
2.7591 -8.9337 -0.5576 0.9632
2.8781 -8.8581 -0.5554 0.9634
3.1799 -8.8938 -0.5632 0.9629
3.3874 -9.0543 -0.5765 0.9620
3.5377 -9.0511 -0.5795 0.9618
3.6897 -9.0478 -0.5827 0.9616
3.8434 -9.0443 -0.5860 0.9614
3.9989 -9.0410 -0.5895 0.9612
4.1563 -9.0375 -0.5932 0.9609
4.3157 -9.0341 -0.5971 0.9607
4.9758 -9.0196 -0.6143 0.9596
5.3208 -9.0121 -0.6241 0.9589
5.5409 -8.7878 -0.6195 0.9592
5.7049 -8.7615 -0.6235 0.9590
9.6157 -13.4403 -0.9855 0.9359
9.8125 -13.3004 -0.9856 0.9359
7.9439 -10.4445 -0.7825 0.9488
7.6048 -9.1382 -0.7090 0.9535
7.6813 -8.9605 -0.7038 0.9538
7.8610 -8.9035 -0.7083 0.9535
3.6744 -4.0411 -0.3257 0.9784
3.7376 -3.9919 -0.3261 0.9783
3.9870 -3.7882 -0.3280 0.9782
4.0571 -3.7435 -0.3292 0.9781
3.9258 -3.5176 -0.3143 0.9791
4.1272 -3.4861 -0.3222 0.9786
4.2519 -3.2832 -0.3203 0.9787
13.0522 -8.6353 -0.9333 0.9392
14.3505 -8.9025 -1.0071 0.9346
14.4804 -8.6927 -1.0072 0.9346
14.7310 -8.2675 -1.0073 0.9346
7.7915 -3.9342 -0.5205 0.9656
7.8293 -3.8108 -0.5193 0.9657
7.9068 -3.7066 -0.5207 0.9656
8.1383 -3.2497 -0.5226 0.9655
8.6092 -3.1494 -0.5467 0.9639
11.1551 -3.3561 -0.6947 0.9544
11.6930 -2.9659 -0.7194 0.9528
15.5866 -3.7119 -0.9555 0.9378
15.2144 -3.3892 -0.9295 0.9395
16.4026 -2.9060 -0.9934 0.9354
16.4438 -2.6661 -0.9934 0.9354
16.7722 -2.2185 -1.0089 0.9345
16.9183 -0.2473 -1.0090 0.9344
16.9201 0.0000 -1.0090 0.9344
16.9183 0.2472 -1.0090 0.9344
16.9128 0.4944 -1.0090 0.9344
16.9037 0.7415 -1.0090 0.9344
16.8544 1.4814 -1.0090 0.9344
16.8032 1.9732 -1.0089 0.9345
16.6575 2.9511 -1.0088 0.9345
16.6121 3.1941 -1.0088 0.9345
15.5112 3.4553 -0.9477 0.9383
9.3404 3.1105 -0.5871 0.9613
9.2094 3.2171 -0.5817 0.9617
7.6732 2.9348 -0.4899 0.9676
7.2150 3.0040 -0.4660 0.9692
7.0194 3.0437 -0.4562 0.9698
6.6733 3.1284 -0.4395 0.9709
6.5974 3.2111 -0.4375 0.9710
6.5996 3.3324 -0.4409 0.9708
6.5062 3.5274 -0.4413 0.9708
6.4758 3.6344 -0.4428 0.9707
5.2762 3.0633 -0.3638 0.9758
5.1203 3.0737 -0.3561 0.9764
4.8393 3.1009 -0.3427 0.9772
4.7115 3.1171 -0.3369 0.9776
4.4838 3.1586 -0.3271 0.9783
4.3762 3.1795 -0.3226 0.9786
4.2740 3.2017 -0.3185 0.9788
4.1768 3.2252 -0.3147 0.9791
3.9434 3.3308 -0.3078 0.9795
3.9171 3.4079 -0.3096 0.9794
3.9130 3.5061 -0.3133 0.9792
3.9711 3.8850 -0.3313 0.9780
4.0223 4.1720 -0.3456 0.9770
4.0656 4.4713 -0.3604 0.9761
4.1988 5.3564 -0.4059 0.9731
4.2871 5.9923 -0.4394 0.9709
4.3266 6.2380 -0.4527 0.9700
9.2424 13.7504 -0.9880 0.9358
8.6271 14.1360 -0.9876 0.9358
8.4184 14.2584 -0.9874 0.9358
7.9957 14.4938 -0.9871 0.9358
7.5663 14.7167 -0.9868 0.9358
7.1309 14.9267 -0.9865 0.9359
6.6895 15.1238 -0.9862 0.9359
6.4667 15.2174 -0.9860 0.9359
6.2426 15.3077 -0.9858 0.9359
5.7908 15.4784 -0.9855 0.9359
3.3404 9.3426 -0.5917 0.9610
3.1798 9.3206 -0.5873 0.9613
4.8734 15.7795 -0.9848 0.9360
2.3562 8.5027 -0.5262 0.9653
2.0927 8.5109 -0.5226 0.9655
3.7053 16.0791 -0.9840 0.9360
2.9955 16.2173 -0.9835 0.9361
2.7577 16.2564 -0.9833 0.9361
2.5195 16.2921 -0.9831 0.9361
2.2807 16.3242 -0.9829 0.9361
2.0416 16.3528 -0.9827 0.9361
1.8021 16.3779 -0.9826 0.9361
1.3223 16.4176 -0.9822 0.9361
1.0821 16.4322 -0.9820 0.9361
0.8417 16.4432 -0.9818 0.9362
0.6012 16.4507 -0.9817 0.9362
-0.1207 16.4525 -0.9811 0.9362
-0.6007 16.4355 -0.9808 0.9362
-0.8406 16.4221 -0.9806 0.9362
-1.0803 16.4050 -0.9804 0.9362
-1.3196 16.3844 -0.9802 0.9363
-2.0352 16.3018 -0.9797 0.9363
-2.2727 16.2673 -0.9795 0.9363
-3.2168 16.0949 -0.9788 0.9363
-3.4510 16.0432 -0.9786 0.9364
-4.6087 15.7344 -0.9777 0.9364
-4.8372 15.6625 -0.9775 0.9364
-5.0646 15.5874 -0.9774 0.9364
-5.2909 15.5089 -0.9772 0.9364
-5.5160 15.4272 -0.9770 0.9365
-5.7398 15.3422 -0.9768 0.9365
-5.9623 15.2541 -0.9767 0.9365
-6.1835 15.1627 -0.9765 0.9365
-6.6216 14.9703 -0.9762 0.9365
-6.8384 14.8694 -0.9760 0.9365
-7.2675 14.6582 -0.9757 0.9365
-7.4796 14.5479 -0.9755 0.9366
-7.6901 14.4347 -0.9753 0.9366
-7.8989 14.3184 -0.9752 0.9366
-8.1059 14.1991 -0.9750 0.9366
-8.3111 14.0768 -0.9748 0.9366
-8.5145 13.9515 -0.9747 0.9366
-9.1134 13.5585 -0.9742 0.9366
-9.5027 13.2823 -0.9739 0.9367
-9.6942 13.1400 -0.9738 0.9367
-10.2561 12.6968 -0.9733 0.9367
-10.7983 12.2302 -0.9729 0.9367
-10.9744 12.0695 -0.9728 0.9367
-11.1480 11.9063 -0.9727 0.9367
-11.3194 11.7405 -0.9725 0.9367
-11.6546 11.4019 -0.9723 0.9368
-11.9797 11.0536 -0.9720 0.9368
-0.7163 0.6050 -0.0559 0.9962
-0.6665 0.5464 -0.0514 0.9966
-0.6654 0.5295 -0.0507 0.9966
