ply
format ascii 1.0
element vertex 1595
property float32 x
property float32 y
property float32 z
property float32 I
end_header
2.1451 -11.6138 2.0656 0.9532
2.3116 -11.5658 2.0629 0.9532
6.8684 -29.8055 5.3496 0.8832
7.7870 -29.7857 5.3846 0.8825
8.2510 -29.7757 5.4040 0.8821
8.7185 -29.7656 5.4247 0.8817
9.1897 -29.7554 5.4467 0.8812
9.6647 -29.7452 5.4701 0.8807
10.1441 -29.7348 5.4949 0.8802
11.1164 -29.7138 5.5487 0.8791
11.6099 -29.7032 5.5778 0.8785
4.8176 -11.3368 2.1544 0.9512
5.4194 -11.7839 2.2685 0.9487
5.7451 -12.0261 2.3310 0.9473
5.9225 -11.9455 2.3319 0.9473
6.0491 -11.7655 2.3138 0.9477
6.0913 -11.4339 2.2659 0.9488
6.3599 -11.5287 2.3028 0.9479
6.6646 -11.6745 2.3511 0.9469
6.8628 -11.6239 2.3609 0.9467
19.8455 -29.5255 6.2221 0.8655
21.7525 -29.4843 6.4083 0.8618
22.4142 -29.4700 6.4757 0.8604
2.4964 -3.1847 0.7077 0.9837
23.7812 -29.4405 6.6192 0.8575
10.7962 -11.5305 2.7627 0.9379
11.4249 -11.5087 2.8363 0.9363
2.9225 -2.7768 0.7051 0.9838
12.4176 -11.1263 2.9161 0.9345
12.6333 -10.9910 2.9287 0.9343
15.2729 -12.1537 3.4138 0.9238
15.4377 -11.9207 3.4113 0.9239
16.1745 -11.7515 3.4967 0.9220
16.0257 -11.2893 3.4285 0.9235
16.8538 -11.5080 3.5693 0.9205
50.1988 -29.1455 10.1522 0.7900
57.3171 -28.9414 11.2302 0.7705
61.6460 -28.8986 11.9077 0.7585
66.4097 -28.7958 12.6599 0.7453
68.8584 -28.6698 13.0455 0.7387
71.1672 -28.4180 13.4027 0.7326
74.1342 -28.3540 13.8820 0.7245
84.4729 -28.1309 15.5719 0.6966
30.2930 -3.5574 5.3346 0.8835
30.9592 -3.1778 5.4432 0.8813
21.0187 9.1138 4.0069 0.9112
17.3041 8.7373 3.3904 0.9243
11.2603 8.4352 2.4607 0.9445
10.9486 9.2477 2.5066 0.9435
10.8267 9.4192 2.5099 0.9434
9.4528 10.0957 2.4189 0.9454
7.3687 9.1223 2.0510 0.9535
7.2288 9.2216 2.0493 0.9535
6.9725 9.1673 2.0144 0.9543
6.7933 9.2079 2.0013 0.9546
6.1317 8.8407 1.8817 0.9573
6.0573 9.3026 1.9415 0.9559
5.5079 9.3289 1.8948 0.9570
5.3186 9.3166 1.8763 0.9574
2.4980 9.5549 1.7273 0.9607
1.4997 8.8407 1.5683 0.9642
0.9816 8.9208 1.5697 0.9642
-6.2897 9.6595 2.0160 0.9543
-6.9589 9.4323 2.0501 0.9535
-7.9731 9.0303 2.1069 0.9523
-8.1622 8.9767 2.1220 0.9519
-8.3543 8.9225 2.1378 0.9516
-8.4759 8.5380 2.1042 0.9523
-12.4325 9.6000 2.7472 0.9382
-12.4575 9.3320 2.7224 0.9388
-12.7865 9.0074 2.7355 0.9385
-13.0948 8.9412 2.7732 0.9376
-13.7846 8.2750 2.8120 0.9368
-14.5620 8.4547 2.9450 0.9339
-19.0655 9.9790 3.7637 0.9163
-19.0148 9.6012 3.7256 0.9171
-18.3577 8.9352 3.5709 0.9204
-19.7047 8.8883 3.7807 0.9160
-19.8406 8.6030 3.7823 0.9159
-20.1125 8.0311 3.7877 0.9158
-1.6664 0.5280 0.3057 0.9929
-1.6100 0.4588 0.2928 0.9932
-1.5839 0.4264 0.2869 0.9934
-1.5521 0.3696 0.2791 0.9935
-1.5255 0.2702 0.2710 0.9937
-1.5207 0.2237 0.2688 0.9938
-1.5149 0.1779 0.2668 0.9938
-1.5087 0.1326 0.2649 0.9939
-1.5059 0.1102 0.2641 0.9939
-1.5024 0.0659 0.2630 0.9939
-1.5012 0.0439 0.2627 0.9939
-1.4497 -0.0636 0.2373 0.9941
-1.4593 -0.1498 0.2398 0.9941
-1.4652 -0.1938 0.2416 0.9940
-1.4680 -0.2161 0.2426 0.9940
-1.4700 -0.2384 0.2435 0.9940
-1.4722 -0.2609 0.2445 0.9940
-1.4774 -0.3066 0.2467 0.9939
-1.4838 -0.3306 0.2485 0.9939
-1.4975 -0.3798 0.2526 0.9938
-1.5099 -0.4066 0.2557 0.9937
-1.5333 -0.4370 0.2607 0.9936
-1.5579 -0.4687 0.2660 0.9934
-1.5931 -0.5565 0.2759 0.9932
-19.9147 -11.1767 3.7338 0.9116
-19.7347 -11.4580 3.7310 0.9117
-18.4320 -11.8109 3.5793 0.9151
-18.3816 -12.1612 3.6036 0.9145
-18.3299 -12.5159 3.6289 0.9140
-14.8450 -11.4629 3.0665 0.9268
-13.8034 -11.6591 2.9542 0.9294
-13.4622 -11.7121 2.9175 0.9302
-13.6482 -13.7482 3.1674 0.9245
-13.5983 -14.1044 3.2033 0.9237
-13.4516 -14.3665 3.2179 0.9233
-9.8850 -10.8716 2.4024 0.9422
-9.7914 -11.4220 2.4598 0.9408
-10.0982 -12.1343 2.5811 0.9380
-9.5434 -11.8146 2.4831 0.9403
-8.7821 -11.5466 2.3719 0.9429
-8.4554 -11.4608 2.3286 0.9439
-8.7092 -12.1733 2.4473 0.9411
-8.3371 -12.0205 2.3918 0.9424
-8.6027 -12.7987 2.5214 0.9394
-5.0438 -10.9671 1.9737 0.9523
-4.8202 -11.3428 2.0150 0.9513
-4.7048 -11.5368 2.0371 0.9508
-4.5869 -11.7353 2.0601 0.9502
-4.3205 -11.5486 2.0160 0.9513
-4.2127 -11.7820 2.0458 0.9505
-3.2688 -12.5034 2.1130 0.9490
-6.7407 -31.3370 5.2408 0.8782
-5.7844 -31.3164 5.2068 0.8789
-5.3107 -31.3061 5.1917 0.8792
-4.8397 -31.2959 5.1777 0.8795
-3.9046 -31.2758 5.1533 0.8801
-3.4402 -31.2657 5.1428 0.8803
-2.9776 -31.2557 5.1335 0.8805
-2.0569 -31.2359 5.1181 0.8808
-1.5983 -31.2260 5.1121 0.8810
-0.4407 -12.0565 1.9725 0.9523
-0.0879 -12.0299 1.9669 0.9524
0.0883 -12.0848 1.9759 0.9522
0.2651 -12.0943 1.9779 0.9522
0.5974 -11.6714 1.9108 0.9537
0.9351 -11.6099 1.9044 0.9539
1.2604 -11.4554 1.8843 0.9544
1.6037 -11.4789 1.8950 0.9541
1.7738 -11.4706 1.8977 0.9540
6.9708 -30.2500 5.0755 0.8818
7.4118 -30.1437 5.0753 0.8818
7.8511 -30.0309 5.0751 0.8818
8.2510 -29.7757 5.0518 0.8823
9.1896 -29.7554 5.0917 0.8814
10.1441 -29.7348 5.1368 0.8804
11.1164 -29.7138 5.1871 0.8793
12.1088 -29.6925 5.2429 0.8781
4.7997 -11.2948 2.0065 0.9515
5.0912 -11.5106 2.0579 0.9503
5.9080 -11.9162 2.1746 0.9475
6.1301 -11.5065 2.1316 0.9485
7.3770 -12.4947 2.3724 0.9429
7.5577 -12.3839 2.3720 0.9429
7.6639 -12.1548 2.3494 0.9434
19.2338 -29.5387 5.7632 0.8669
21.1042 -29.4983 5.9302 0.8633
21.7524 -29.4843 5.9907 0.8620
22.4142 -29.4700 6.0537 0.8606
23.7811 -29.4405 6.1878 0.8578
11.3050 -13.5845 2.8896 0.9309
10.4122 -12.1462 2.6157 0.9372
10.4757 -11.5212 2.5460 0.9388
2.8209 -2.9260 0.6645 0.9837
2.9195 -2.6159 0.6409 0.9842
12.6041 -10.9656 2.7315 0.9345
15.9547 -11.5918 3.2244 0.9232
16.9605 -11.2210 3.3250 0.9209
48.6081 -29.1798 9.2695 0.7947
51.8676 -29.1095 9.7246 0.7858
53.6212 -29.0717 9.9727 0.7810
59.4694 -28.9455 10.8138 0.7649
61.6460 -28.8985 11.1317 0.7589
63.9549 -28.8487 11.4712 0.7525
66.4097 -28.7957 11.8348 0.7457
69.0257 -28.7393 12.2249 0.7386
77.3219 -28.2852 13.4615 0.7163
80.7576 -28.2111 13.9863 0.7070
84.4729 -28.1309 14.5571 0.6971
88.5051 -28.0439 15.1797 0.6864
92.8988 -27.9491 15.8615 0.6749
30.9383 -4.0923 5.1025 0.8812
30.7736 -3.1587 5.0579 0.8822
30.8921 -2.7154 5.0703 0.8819
31.8573 -2.3317 5.2226 0.8786
20.9727 8.0213 3.6713 0.9130
15.6669 9.4049 2.9877 0.9286
16.1430 10.3441 3.1348 0.9252
11.2201 8.6639 2.3178 0.9442
11.0641 9.0716 2.3393 0.9437
10.6659 9.5566 2.3415 0.9436
10.2980 9.7844 2.3225 0.9441
10.1166 9.8973 2.3140 0.9443
10.6634 10.7415 2.4747 0.9405
6.9751 9.1707 1.8838 0.9544
6.6188 9.2514 1.8599 0.9549
6.1600 8.8816 1.7672 0.9571
5.6716 9.2932 1.7801 0.9568
5.2917 9.2694 1.7451 0.9577
1.6485 9.7178 1.6116 0.9608
1.1463 9.1823 1.5130 0.9632
-6.1046 9.6817 1.8714 0.9547
-7.0494 9.2684 1.9039 0.9539
-7.1484 9.1189 1.8945 0.9541
-7.2465 8.9710 1.8855 0.9543
-7.3428 8.8233 1.8768 0.9545
-7.9344 8.9865 1.9600 0.9526
-8.4677 8.7828 1.9947 0.9518
-12.0816 9.6141 2.5245 0.9393
-12.4044 9.5783 2.5624 0.9385
-12.7371 9.5415 2.6020 0.9375
-12.6606 9.1984 2.5587 0.9385
-13.0860 8.9352 2.5908 0.9378
-13.3546 8.5574 2.5933 0.9377
-18.3170 9.5872 3.3802 0.9196
-18.9421 9.2196 3.4444 0.9182
-19.0468 8.9288 3.4393 0.9183
-19.8897 8.6242 3.5445 0.9159
-1.5810 0.5009 0.2711 0.9933
-1.5579 0.4687 0.2660 0.9934
-1.5099 0.4065 0.2557 0.9937
-1.4746 0.2835 0.2455 0.9939
-1.4722 0.2608 0.2445 0.9940
-1.4680 0.2160 0.2426 0.9940
-1.4566 0.1280 0.2391 0.9941
-1.4540 0.1064 0.2384 0.9941
-1.4517 0.0849 0.2377 0.9941
-1.4497 0.0636 0.2373 0.9941
-1.4486 0.0423 0.2369 0.9941
-1.4476 0.0211 0.2367 0.9941
-1.3988 -0.0205 0.2128 0.9944
-1.3997 -0.0410 0.2130 0.9944
-1.4036 -0.0821 0.2139 0.9943
-1.4058 -0.1029 0.2144 0.9943
-1.4081 -0.1238 0.2151 0.9943
-1.4105 -0.1448 0.2157 0.9943
-1.4189 -0.2089 0.2182 0.9942
-1.4248 -0.2740 0.2207 0.9941
-1.4271 -0.2961 0.2217 0.9941
-1.4295 -0.3185 0.2228 0.9941
-1.4338 -0.3415 0.2242 0.9941
-1.5187 -0.5556 0.2460 0.9935
-19.9594 -11.2017 3.4822 0.9116
-18.4501 -12.9972 3.4336 0.9127
-14.8580 -11.4730 2.8560 0.9269
-13.4841 -12.4418 2.7914 0.9285
-13.0823 -12.4298 2.7455 0.9296
-13.1179 -13.6061 2.8755 0.9264
-13.4746 -14.3911 2.9994 0.9233
-9.7283 -11.0184 2.2363 0.9423
-9.5408 -11.8113 2.3100 0.9404
-9.4005 -11.9919 2.3182 0.9402
-8.9731 -12.5421 2.3463 0.9395
-8.5855 -12.3787 2.2920 0.9409
-8.2131 -12.2192 2.2400 0.9422
-8.4093 -12.9148 2.3447 0.9395
-8.3333 -13.2164 2.3771 0.9387
-8.1426 -13.3422 2.3781 0.9387
-4.8075 -11.3131 1.8702 0.9515
-4.3849 -11.7207 1.9039 0.9506
-4.0064 -11.7437 1.8878 0.9510
-0.9946 -3.0609 0.4897 0.9871
-3.4985 -11.9442 1.8936 0.9509
-3.0834 -12.5402 1.9647 0.9491
-7.2234 -31.3460 4.8940 0.8780
-6.2607 -31.3250 4.8601 0.8788
-5.7841 -31.3146 4.8449 0.8791
-5.3104 -31.3043 4.8308 0.8794
-4.8394 -31.2940 4.8177 0.8797
-3.4400 -31.2636 4.7852 0.8805
-2.9774 -31.2536 4.7765 0.8807
-2.5164 -31.2435 4.7689 0.8809
-2.0567 -31.2336 4.7622 0.8810
-0.4403 -12.0475 1.8342 0.9524
-0.0882 -12.0662 1.8358 0.9524
0.0882 -12.0758 1.8373 0.9523
0.2649 -12.0853 1.8391 0.9523
0.4420 -12.0948 1.8414 0.9522
0.7738 -11.7505 1.7916 0.9535
0.9341 -11.5978 1.7702 0.9540
1.0799 -11.3357 1.7324 0.9550
1.4229 -11.3972 1.7475 0.9546
1.6636 -11.9078 1.8293 0.9525
1.9490 -11.4895 1.7730 0.9539
5.7385 -31.0677 4.8067 0.8800
6.6784 -31.0474 4.8317 0.8794
7.6289 -31.0269 4.8611 0.8787
8.5920 -31.0061 4.8951 0.8779
10.0641 -30.9743 4.9550 0.8765
10.5633 -30.9636 4.9775 0.8760
12.0897 -30.9306 5.0526 0.8743
13.0400 -30.6858 5.0727 0.8738
6.0488 -12.6618 2.1349 0.9448
6.0395 -12.1814 2.0686 0.9465
6.0941 -11.8533 2.0278 0.9475
6.1691 -11.5797 1.9962 0.9483
6.5011 -11.7847 2.0477 0.9470
7.5819 -12.4235 2.2143 0.9428
19.2338 -29.5387 5.3628 0.8671
19.8455 -29.5255 5.4125 0.8659
20.4687 -29.5120 5.4643 0.8647
21.1042 -29.4983 5.5183 0.8635
22.4142 -29.4700 5.6331 0.8609
2.7541 -3.0289 0.6228 0.9836
2.8268 -2.9320 0.6196 0.9837
2.8987 -2.8360 0.6170 0.9837
12.7916 -10.8045 2.5475 0.9345
15.5446 -12.3700 3.0224 0.9228
15.3687 -11.5129 2.9215 0.9252
16.0865 -11.3322 2.9937 0.9235
16.9221 -11.1956 3.0870 0.9212
45.2223 -28.9779 8.1716 0.8047
48.1658 -28.9144 8.5471 0.7967
49.7420 -28.8804 8.7510 0.7924
21.7656 -11.3923 3.7376 0.9054
57.3164 -28.9410 9.7689 0.7712
26.4930 -12.4195 4.4516 0.8884
63.9549 -28.8487 10.6744 0.7529
69.0257 -28.7393 11.3757 0.7390
71.8207 -28.6790 11.7659 0.7313
78.0320 -28.5450 12.6414 0.7145
88.5051 -28.0439 14.1252 0.6868
30.9239 -4.0904 4.7458 0.8814
30.9244 -2.7182 4.7231 0.8820
20.6140 7.8841 3.3578 0.9146
20.2724 8.0950 3.3211 0.9155
19.9694 8.3143 3.2910 0.9162
21.4115 9.2841 3.5507 0.9099
20.2695 9.1431 3.3831 0.9140
15.6438 8.4815 2.7074 0.9305
15.5929 9.6733 2.7918 0.9284
15.4654 9.9100 2.7946 0.9284
11.6995 9.0340 2.2489 0.9419
11.1791 8.8959 2.1736 0.9438
11.0212 9.3090 2.1949 0.9433
10.7013 9.5884 2.1861 0.9435
6.6785 9.3348 1.7463 0.9546
5.8372 9.2575 1.6651 0.9567
5.6425 9.2456 1.6479 0.9571
5.2650 9.2227 1.6157 0.9579
-7.2369 8.9590 1.7522 0.9545
-7.8963 8.9434 1.8151 0.9529
-8.0831 8.8896 1.8280 0.9525
-11.4391 9.6620 2.2781 0.9412
-11.7426 9.6278 2.3103 0.9404
-12.3765 9.5567 2.3790 0.9387
-13.0637 8.9199 2.4067 0.9380
-13.2046 8.4613 2.3860 0.9385
-14.2007 8.5248 2.5199 0.9352
-14.2692 8.2847 2.5103 0.9354
-18.0036 9.4232 3.0916 0.9211
-18.1014 8.8105 3.0629 0.9218
-18.4988 8.3444 3.0875 0.9212
-20.2121 8.0709 3.3112 0.9157
-1.5131 0.5285 0.2438 0.9935
-1.5029 0.4762 0.2399 0.9936
-1.4859 0.4470 0.2361 0.9937
-1.4639 0.4171 0.2316 0.9939
-1.4466 0.3895 0.2279 0.9940
-1.4400 0.3652 0.2260 0.9940
-1.4270 0.2960 0.2217 0.9941
-1.4227 0.2521 0.2198 0.9942
-1.4208 0.2304 0.2190 0.9942
-1.4159 0.1873 0.2173 0.9942
-1.4132 0.1659 0.2165 0.9943
-1.4081 0.1237 0.2151 0.9943
-1.4057 0.1029 0.2144 0.9943
-1.4036 0.0821 0.2139 0.9943
-1.3997 0.0409 0.2130 0.9944
-1.3988 0.0204 0.2128 0.9944
-1.3527 -0.0000 0.1905 0.9946
-1.3535 -0.0198 0.1906 0.9945
-1.3569 -0.0595 0.1913 0.9945
-1.3607 -0.0996 0.1921 0.9945
-1.3629 -0.1198 0.1927 0.9945
-1.3700 -0.1812 0.1946 0.9944
-1.3749 -0.2230 0.1961 0.9944
-1.3766 -0.2439 0.1969 0.9944
-1.3784 -0.2651 0.1977 0.9943
-1.3848 -0.3298 0.2005 0.9943
-1.3872 -0.3519 0.2015 0.9942
-1.3929 -0.3751 0.2031 0.9942
-1.4006 -0.3992 0.2051 0.9941
-1.4206 -0.4274 0.2089 0.9940
-1.4324 -0.4539 0.2116 0.9939
-1.4366 -0.4784 0.2132 0.9939
-23.6447 -11.0842 3.6774 0.8999
-23.8107 -11.5894 3.7292 0.8986
-23.7747 -12.0047 3.7506 0.8980
-20.1851 -10.9437 3.2334 0.9114
-19.8231 -11.5093 3.2280 0.9116
-19.6423 -11.7915 3.2262 0.9116
-19.3935 -12.4271 3.2436 0.9112
-18.1489 -12.3923 3.0947 0.9151
-18.6346 -13.1271 3.2099 0.9120
-13.9927 -11.1350 2.5183 0.9303
-13.4617 -13.5604 2.6908 0.9257
-12.8653 -13.3441 2.6103 0.9279
-9.5721 -11.1661 2.0711 0.9423
-9.4719 -11.7260 2.1227 0.9409
-9.3979 -11.9887 2.1452 0.9403
-9.2536 -12.1666 2.1526 0.9401
-8.7804 -11.9014 2.0827 0.9420
-8.6513 -12.8711 2.1839 0.9393
-8.5350 -13.1077 2.2027 0.9388
-8.3462 -13.2369 2.2037 0.9387
-4.7950 -11.2836 1.7265 0.9517
-4.6800 -11.4760 1.7453 0.9512
-4.0546 -11.3401 1.6960 0.9525
-1.0421 -3.0545 0.4545 0.9870
-0.9536 -3.0875 0.4551 0.9870
-3.6940 -12.6118 1.8506 0.9483
-3.0970 -12.5952 1.8265 0.9490
-7.2228 -31.3433 4.5295 0.8782
-6.7398 -31.3328 4.5133 0.8786
-5.7837 -31.3120 4.4840 0.8793
-5.3100 -31.3016 4.4710 0.8796
-4.8390 -31.2914 4.4589 0.8799
-4.3704 -31.2811 4.4479 0.8802
-3.9040 -31.2711 4.4379 0.8805
-2.9771 -31.2509 4.4208 0.8809
-2.0566 -31.2310 4.4076 0.8812
-0.2642 -12.0479 1.6970 0.9525
-0.0881 -12.0573 1.6980 0.9525
0.2647 -12.0763 1.7010 0.9524
0.4399 -12.0364 1.6961 0.9525
0.6083 -11.8842 1.6758 0.9531
0.7728 -11.7356 1.6562 0.9536
2.9652 -31.1259 4.4031 0.8813
1.6572 -11.8616 1.6866 0.9528
6.6784 -31.0474 4.4722 0.8796
7.6289 -31.0269 4.4994 0.8789
8.5920 -31.0061 4.5309 0.8781
9.0787 -30.9956 4.5483 0.8777
9.5694 -30.9850 4.5668 0.8772
10.0641 -30.9743 4.5864 0.8767
10.5633 -30.9636 4.6071 0.8762
11.0670 -30.9527 4.6291 0.8757
11.5757 -30.9417 4.6523 0.8751
12.6091 -30.9194 4.7023 0.8738
6.0915 -12.7512 1.9900 0.9445
18.7552 -30.7316 5.0700 0.8646
19.2014 -30.4530 5.0698 0.8647
19.6435 -30.1680 5.0696 0.8647
20.4688 -29.5120 5.0577 0.8650
21.7524 -29.4843 5.1598 0.8624
2.9278 -3.8495 0.6811 0.9807
23.7811 -29.4405 5.3295 0.8582
2.7230 -3.0841 0.5794 0.9835
2.7963 -2.9865 0.5761 0.9836
2.8688 -2.8898 0.5734 0.9837
2.9641 -2.7350 0.5680 0.9838
2.9065 -2.6043 0.5496 0.9844
3.6852 -3.2062 0.6879 0.9805
15.3657 -11.8651 2.7339 0.9246
15.5159 -11.6232 2.7301 0.9247
15.3521 -11.1541 2.6723 0.9262
16.0821 -11.3291 2.7703 0.9236
43.8450 -29.0076 7.4034 0.8087
45.2223 -28.9779 7.5636 0.8050
46.6610 -28.9468 7.7327 0.8011
21.8491 -12.2623 3.5283 0.9037
21.3881 -11.5960 3.4261 0.9064
27.0193 -13.6430 4.2625 0.8849
69.0257 -28.7393 10.5293 0.7393
71.8207 -28.6790 10.8906 0.7317
78.0319 -28.5450 11.7009 0.7149
85.2486 -28.3893 12.6532 0.6956
88.5050 -28.0439 13.0743 0.6873
31.0889 -2.7327 4.3949 0.8816
20.5444 8.2036 3.1153 0.9145
20.2371 8.4258 3.0870 0.9153
20.2173 9.1195 3.1233 0.9143
17.4096 8.1613 2.7077 0.9253
16.8298 8.4979 2.6550 0.9267
16.1398 8.7504 2.5854 0.9285
15.9663 8.9607 2.5783 0.9287
15.5841 9.3553 2.5597 0.9292
15.5306 9.9518 2.5976 0.9282
15.3389 10.1481 2.5900 0.9284
11.1371 9.1314 2.0282 0.9435
11.1281 9.3993 2.0513 0.9429
10.9296 9.5087 2.0401 0.9432
10.3986 9.5948 1.9925 0.9444
10.1851 9.9642 2.0065 0.9441
10.0034 10.0767 1.9995 0.9443
9.6433 10.2992 1.9869 0.9446
6.6399 9.2809 1.6070 0.9549
6.2173 8.9641 1.5363 0.9569
6.1816 9.1968 1.5605 0.9562
6.0047 9.2218 1.5497 0.9565
5.6138 9.1986 1.5176 0.9574
5.4245 9.1875 1.5025 0.9578
-7.8586 8.9007 1.6721 0.9532
-12.3488 9.5354 2.1971 0.9389
-12.9956 8.8735 2.2160 0.9384
-13.1751 8.7166 2.2247 0.9382
-14.2528 8.5560 2.3410 0.9351
-14.3239 8.3164 2.3325 0.9353
-17.7896 9.6449 2.8497 0.9215
-18.5320 9.0200 2.9024 0.9201
-18.4410 8.6447 2.8681 0.9210
-18.9342 7.8833 2.8883 0.9205
-1.4457 0.5288 0.2168 0.9938
-1.4366 0.4784 0.2132 0.9939
-1.4324 0.4538 0.2116 0.9939
-1.4206 0.4273 0.2089 0.9940
-1.4006 0.3991 0.2051 0.9941
-1.3929 0.3750 0.2031 0.9942
-1.3825 0.3079 0.1995 0.9943
-1.3784 0.2650 0.1977 0.9943
-1.3766 0.2438 0.1969 0.9944
-1.3749 0.2229 0.1961 0.9944
-1.3727 0.2020 0.1954 0.9944
-1.3651 0.1401 0.1932 0.9945
-1.3628 0.1198 0.1927 0.9945
-1.3607 0.0996 0.1921 0.9945
-1.3551 0.0396 0.1909 0.9945
-1.3535 0.0197 0.1906 0.9945
-1.3080 -0.0000 0.1694 0.9947
-1.3109 -0.0192 0.1698 0.9947
-1.3162 -0.0771 0.1708 0.9947
-1.3182 -0.0965 0.1712 0.9947
-1.3204 -0.1161 0.1717 0.9947
-1.3295 -0.1957 0.1741 0.9946
-1.3320 -0.2160 0.1748 0.9946
-1.3335 -0.2362 0.1754 0.9946
-1.3351 -0.2567 0.1761 0.9945
-1.3368 -0.2773 0.1769 0.9945
-1.3387 -0.2982 0.1777 0.9945
-1.3449 -0.3621 0.1804 0.9944
-1.3608 -0.4095 0.1841 0.9943
-1.3684 -0.4336 0.1859 0.9942
-1.3719 -0.4569 0.1873 0.9942
-1.3756 -0.4806 0.1888 0.9941
-1.3838 -0.5293 0.1919 0.9940
-1.3882 -0.5543 0.1936 0.9940
-23.7522 -11.9932 3.4468 0.8982
-20.2303 -10.9682 2.9810 0.9114
-20.0487 -11.2519 2.9782 0.9114
-19.8674 -11.5351 2.9759 0.9115
-19.6862 -11.8178 2.9743 0.9115
-19.0236 -12.5859 2.9548 0.9121
-18.0536 -12.3271 2.8318 0.9156
-14.5513 -11.5795 2.4090 0.9277
-14.1835 -12.3397 2.4353 0.9270
-13.3092 -12.2804 2.3459 0.9296
-13.1722 -12.8866 2.3871 0.9284
-13.8128 -13.9141 2.5397 0.9240
-13.6677 -14.1764 2.5509 0.9236
-9.2541 -12.1673 1.9802 0.9402
-9.0134 -12.2171 1.9667 0.9406
-4.8951 -11.0670 1.5676 0.9524
-4.7826 -11.2545 1.5841 0.9519
-4.5495 -11.6395 1.6189 0.9508
-1.0417 -3.0536 0.4179 0.9871
-0.9535 -3.0874 0.4186 0.9871
-3.6692 -12.5270 1.6909 0.9487
-3.5163 -12.6893 1.7057 0.9483
-7.9068 -32.1567 4.2896 0.8750
-6.9631 -32.3707 4.2892 0.8750
-5.5369 -32.6397 4.2885 0.8750
-4.5804 -32.7841 4.2881 0.8750
-3.6201 -32.9005 4.2876 0.8750
-2.6569 -32.9888 4.2872 0.8750
-2.1745 -33.0224 4.2870 0.8750
-1.6917 -33.0489 4.2867 0.8750
-0.4397 -12.0296 1.5593 0.9526
-0.2640 -12.0390 1.5599 0.9526
-0.0881 -12.0484 1.5608 0.9526
0.2646 -12.0673 1.5636 0.9525
0.4414 -12.0769 1.5655 0.9524
0.6075 -11.8690 1.5395 0.9532
0.7718 -11.7208 1.5216 0.9537
1.6508 -11.8161 1.5455 0.9530
1.8420 -11.9112 1.5613 0.9525
2.0300 -11.9670 1.5723 0.9522
5.7385 -31.0677 4.0926 0.8804
6.2072 -31.0576 4.1027 0.8801
6.6783 -31.0474 4.1138 0.8798
7.1522 -31.0372 4.1259 0.8794
7.6289 -31.0269 4.1389 0.8791
9.0787 -30.9956 4.1838 0.8779
9.5694 -30.9850 4.2008 0.8774
10.0641 -30.9743 4.2189 0.8769
12.0897 -30.9307 4.3019 0.8746
12.6091 -30.9194 4.3255 0.8740
14.2039 -30.8850 4.4036 0.8719
6.1347 -12.8416 1.8436 0.9442
6.1663 -12.4372 1.7983 0.9455
6.5627 -12.3185 1.8081 0.9453
7.3977 -12.9585 1.9329 0.9416
18.7884 -30.7861 4.6720 0.8646
20.6655 -30.7455 4.7988 0.8612
21.3146 -30.7315 4.8447 0.8600
2.7124 -3.7914 0.6039 0.9814
2.9144 -3.8319 0.6236 0.9808
2.6358 -3.3624 0.5534 0.9829
2.6543 -3.1895 0.5375 0.9834
2.7655 -3.0415 0.5325 0.9836
2.9107 -2.8476 0.5275 0.9837
2.9466 -2.7996 0.5265 0.9837
2.9001 -2.5986 0.5044 0.9844
2.8465 -2.4764 0.4887 0.9849
15.2379 -12.8707 2.5838 0.9227
15.5820 -12.7759 2.6102 0.9219
15.6212 -11.7021 2.5284 0.9243
16.6963 -11.4004 2.6189 0.9217
43.8449 -29.0076 6.8101 0.8089
45.2223 -28.9779 6.9576 0.8052
46.6610 -28.9468 7.1131 0.8013
48.1657 -28.9143 7.2773 0.7972
21.5728 -11.6961 3.1788 0.9058
21.0189 -10.6132 3.0502 0.9094
25.8217 -11.6477 3.6695 0.8920
26.7291 -11.5900 3.7740 0.8891
71.8207 -28.6790 10.0179 0.7320
89.3179 -28.3014 12.1371 0.6853
31.0896 -4.1123 4.0624 0.8812
30.7380 -3.6097 4.0091 0.8826
30.5297 -3.1337 3.9756 0.8836
31.3270 -2.2929 4.0689 0.8810
27.0305 9.4425 3.7090 0.8909
21.0725 8.0595 2.9226 0.9130
20.8228 8.3148 2.9045 0.9135
20.5111 8.5398 2.8781 0.9143
20.1944 8.7564 2.8513 0.9150
16.4974 8.6348 2.4121 0.9276
15.5961 9.9937 2.3995 0.9280
10.9641 9.5387 1.8825 0.9431
10.7746 9.6540 1.8740 0.9433
10.3806 9.5781 1.8297 0.9446
10.4031 9.8843 1.8589 0.9438
5.7776 9.1631 1.4032 0.9572
-7.6366 9.1762 1.5465 0.9530
-12.3213 9.5141 2.0166 0.9391
-12.6505 9.4766 2.0476 0.9382
-12.6879 8.9379 2.0104 0.9393
-13.9895 8.9642 2.1523 0.9352
-14.2328 8.8295 2.1697 0.9347
-14.3047 8.5872 2.1613 0.9349
-18.1673 9.5089 2.6563 0.9206
-19.2779 9.7340 2.7975 0.9166
-18.9129 9.2054 2.7248 0.9187
-19.1371 8.6323 2.7195 0.9188
-1.3838 0.5292 0.1919 0.9940
-1.3756 0.4805 0.1888 0.9941
-1.3719 0.4569 0.1873 0.9942
-1.3684 0.4335 0.1859 0.9942
-1.3608 0.4094 0.1841 0.9943
-1.3487 0.3843 0.1817 0.9944
-1.3449 0.3621 0.1804 0.9944
-1.3427 0.3405 0.1794 0.9944
-1.3387 0.2982 0.1777 0.9945
-1.3368 0.2773 0.1769 0.9945
-1.3351 0.2567 0.1761 0.9945
-1.3335 0.2362 0.1754 0.9946
-1.3320 0.2159 0.1748 0.9946
-1.3295 0.1956 0.1741 0.9946
-1.3271 0.1755 0.1734 0.9946
-1.3248 0.1555 0.1728 0.9946
-1.3226 0.1357 0.1722 0.9947
-1.3204 0.1160 0.1717 0.9947
-1.3162 0.0770 0.1708 0.9947
-1.3125 0.0384 0.1701 0.9947
-1.2648 -0.0185 0.1496 0.9949
-1.2685 -0.0371 0.1501 0.9949
-1.2713 -0.0558 0.1505 0.9949
-1.2749 -0.0934 0.1512 0.9949
-1.2789 -0.1313 0.1521 0.9948
-1.2834 -0.1698 0.1531 0.9948
-1.2858 -0.1893 0.1537 0.9948
-1.2883 -0.2089 0.1544 0.9948
-1.2900 -0.2286 0.1550 0.9947
-1.2918 -0.2484 0.1556 0.9947
-1.2936 -0.2684 0.1563 0.9947
-1.2977 -0.3091 0.1578 0.9946
-1.3047 -0.3719 0.1605 0.9946
-1.3161 -0.4598 0.1649 0.9944
-1.3194 -0.4827 0.1662 0.9944
-1.3305 -0.5540 0.1705 0.9942
-23.8522 -11.1814 3.1160 0.8993
-24.2808 -12.2602 3.2175 0.8962
-24.6329 -12.8930 3.2887 0.8941
-20.0936 -11.2771 2.7256 0.9114
-19.7301 -11.8442 2.7221 0.9115
-18.9808 -12.1627 2.6666 0.9132
-19.0887 -13.0340 2.7341 0.9111
-19.0822 -13.4425 2.7610 0.9103
-13.8091 -11.3223 2.1123 0.9306
-13.4953 -12.4522 2.1720 0.9287
-13.5524 -13.6518 2.2754 0.9254
-13.6912 -14.2008 2.3333 0.9236
-9.6724 -11.6226 1.7886 0.9409
-9.5331 -11.8018 1.7945 0.9407
-9.3929 -11.9822 1.8009 0.9405
-9.2516 -12.1640 1.8077 0.9403
-8.5679 -12.7471 1.8168 0.9400
-8.3886 -12.8830 1.8185 0.9400
-8.2091 -13.0195 1.8206 0.9399
-8.0292 -13.1563 1.8232 0.9398
-4.9927 -10.8561 1.4134 0.9530
-4.8826 -11.0389 1.4278 0.9525
-4.7703 -11.2255 1.4428 0.9521
-12.2951 -31.4561 3.9950 0.8728
-4.2580 -11.9091 1.4960 0.9503
-0.9937 -3.0582 0.3804 0.9871
-0.9535 -3.0873 0.3822 0.9871
-3.5701 -12.8834 1.5814 0.9476
-8.8046 -33.6780 4.1176 0.8692
-7.1067 -35.5581 4.2893 0.8641
-5.5234 -35.7170 4.2751 0.8645
-3.3982 -35.6712 4.2386 0.8656
-2.8721 -35.6598 4.2318 0.8658
-2.3475 -35.6485 4.2259 0.8660
-1.3020 -35.6260 4.2169 0.8662
-0.2602 -35.6036 4.2116 0.8664
0.2278 -31.1814 3.6885 0.8820
1.1389 -31.1627 3.6886 0.8820
0.6396 -12.4954 1.4800 0.9509
2.0508 -31.1443 3.6920 0.8819
3.4238 -31.1167 3.7029 0.8815
1.4706 -11.7795 1.4042 0.9533
4.3447 -31.0977 3.7142 0.8812
4.8074 -31.0878 3.7210 0.8810
6.6783 -31.0473 3.7565 0.8799
7.1522 -31.0372 3.7675 0.8796
7.6289 -31.0268 3.7794 0.8792
9.0787 -30.9956 3.8204 0.8780
9.5694 -30.9850 3.8359 0.8776
10.0641 -30.9743 3.8524 0.8771
11.0670 -30.9527 3.8883 0.8760
11.5758 -30.9417 3.9078 0.8754
12.6092 -30.9194 3.9498 0.8742
13.6660 -30.8966 3.9962 0.8728
14.2039 -30.8850 4.0211 0.8720
6.1784 -12.9330 1.6954 0.9439
20.0286 -30.7593 4.3418 0.8626
20.6655 -30.7455 4.3820 0.8614
2.7992 -3.7942 0.5577 0.9812
2.5843 -3.2968 0.4955 0.9833
2.6599 -3.1962 0.4919 0.9834
2.6973 -3.1464 0.4902 0.9834
2.7343 -3.0970 0.4887 0.9835
2.7712 -3.0478 0.4873 0.9835
2.8079 -2.9989 0.4859 0.9836
2.8805 -2.9017 0.4836 0.9837
2.9167 -2.8534 0.4826 0.9837
2.9526 -2.8054 0.4818 0.9837
2.9506 -2.7226 0.4749 0.9840
2.8937 -2.5928 0.4596 0.9845
2.8404 -2.4712 0.4453 0.9849
3.5529 -2.7435 0.5310 0.9821
15.5982 -11.6848 2.3054 0.9245
15.7190 -11.4206 2.2983 0.9247
43.8449 -29.0076 6.2186 0.8092
45.2223 -28.9779 6.3532 0.8055
46.6610 -28.9468 6.4952 0.8016
48.1657 -28.9143 6.6452 0.7975
20.9225 -11.7423 2.8380 0.9079
21.3725 -11.1866 2.8535 0.9074
21.0778 -10.6430 2.7931 0.9093
25.6833 -11.5852 3.3328 0.8927
32.2401 -12.3309 4.0830 0.8702
32.6885 -11.9578 4.1172 0.8692
81.4992 -28.4701 10.2116 0.7063
37.2287 -12.3978 4.6415 0.8538
89.3178 -28.3014 11.0829 0.6856
30.7747 -3.6140 3.6653 0.8827
30.6913 -3.1503 3.6495 0.8831
31.3530 -2.2948 3.7186 0.8811
26.2648 9.1751 3.2909 0.8940
21.2447 7.7715 2.6759 0.9129
21.0427 8.0481 2.6649 0.9133
20.8660 8.6876 2.6736 0.9130
20.5535 8.9121 2.6499 0.9137
20.2461 9.1325 2.6272 0.9144
17.3237 8.1209 2.2632 0.9258
16.7415 8.7626 2.2352 0.9267
16.5819 8.9901 2.2312 0.9268
16.2174 9.1016 2.1998 0.9278
15.8627 9.2099 2.1697 0.9288
15.9919 9.6000 2.2063 0.9276
15.7074 9.7443 2.1865 0.9283
15.6620 10.0359 2.2003 0.9278
15.4683 10.2337 2.1939 0.9280
11.4013 9.3481 1.7440 0.9423
11.0001 9.5701 1.7247 0.9430
10.8114 9.6870 1.7171 0.9432
6.1424 9.1385 1.3025 0.9566
-7.6427 9.1837 1.4133 0.9530
-13.2776 9.6466 1.9413 0.9360
-12.9919 8.8709 1.8609 0.9386
-14.7228 9.7405 2.0882 0.9314
-13.8927 8.9022 1.9518 0.9357
-17.8929 9.3652 2.3889 0.9219
-18.6841 8.4280 2.4245 0.9208
-1.3346 0.5787 0.1721 0.9942
-1.3266 0.5297 0.1690 0.9943
-1.3100 0.4151 0.1626 0.9945
-1.3047 0.3718 0.1605 0.9946
-1.3022 0.3506 0.1595 0.9946
-1.2901 0.2285 0.1550 0.9947
-1.2857 0.1892 0.1537 0.9948
-1.2811 0.1504 0.1526 0.9948
-1.2789 0.1312 0.1521 0.9948
-1.2769 0.1122 0.1516 0.9949
-1.2730 0.0745 0.1508 0.9949
-1.2713 0.0557 0.1505 0.9949
-1.2685 0.0370 0.1501 0.9949
-1.2648 0.0184 0.1496 0.9949
-1.2178 0.0000 0.1304 0.9951
-1.2245 -0.0358 0.1312 0.9951
-1.2318 -0.0721 0.1321 0.9950
-1.2344 -0.0904 0.1325 0.9950
-1.2380 -0.1271 0.1332 0.9950
-1.2421 -0.1643 0.1341 0.9950
-1.2442 -0.1831 0.1347 0.9950
-1.2465 -0.2022 0.1352 0.9949
-1.2483 -0.2212 0.1357 0.9949
-1.2497 -0.2403 0.1363 0.9949
-1.2513 -0.2596 0.1368 0.9949
-1.2587 -0.3390 0.1396 0.9948
-1.2609 -0.3594 0.1404 0.9947
-1.2631 -0.3800 0.1412 0.9947
-1.2659 -0.4012 0.1422 0.9947
-1.2760 -0.4881 0.1463 0.9945
-1.2812 -0.5334 0.1486 0.9944
-1.2939 -0.5837 0.1520 0.9943
-24.0195 -12.1282 2.8809 0.8974
-20.1384 -11.3023 2.4725 0.9113
-19.7742 -11.8706 2.4693 0.9114
-14.2931 -11.7192 1.9789 0.9283
-14.2436 -12.0309 1.9962 0.9277
-14.1932 -12.3480 2.0142 0.9271
-14.1418 -12.6712 2.0330 0.9265
-13.9693 -13.2726 2.0631 0.9254
-13.8623 -13.5618 2.0763 0.9250
-9.5306 -11.7986 1.6239 0.9408
-9.3904 -11.9790 1.6296 0.9406
-8.8833 -12.4166 1.6346 0.9404
-8.7052 -12.5512 1.6354 0.9404
-8.1698 -12.9571 1.6400 0.9402
-12.2951 -31.4561 3.6160 0.8730
-0.9138 -3.1197 0.3480 0.9870
-8.8047 -33.6783 3.7270 0.8693
-8.7624 -35.6365 3.9291 0.8627
-8.2444 -35.7767 3.9308 0.8627
-7.6932 -35.7649 3.9168 0.8631
-6.6018 -35.7414 3.8914 0.8640
-6.0612 -35.7298 3.8801 0.8643
-5.5236 -35.7182 3.8696 0.8647
-3.9263 -35.6838 3.8436 0.8655
-3.3984 -35.6724 3.8366 0.8658
-2.8722 -35.6611 3.8304 0.8660
-2.3475 -35.6498 3.8251 0.8661
-1.3021 -35.6273 3.8170 0.8664
-0.7808 -35.6160 3.8142 0.8665
0.2278 -31.1818 3.3386 0.8821
0.6833 -31.1720 3.3382 0.8821
1.5946 -31.1535 3.3398 0.8821
2.0508 -31.1443 3.3417 0.8820
2.5076 -31.1351 3.3443 0.8819
3.4238 -31.1167 3.3516 0.8817
4.3447 -31.0977 3.3618 0.8813
5.7384 -31.0676 3.3825 0.8807
6.6784 -31.0474 3.4001 0.8801
7.1522 -31.0371 3.4101 0.8797
9.5694 -30.9850 3.4720 0.8777
10.0641 -30.9743 3.4869 0.8772
10.5633 -30.9635 3.5027 0.8767
11.5758 -30.9417 3.5370 0.8756
12.0897 -30.9306 3.5556 0.8749
12.6091 -30.9194 3.5751 0.8743
13.1345 -30.9081 3.5956 0.8736
13.6659 -30.8966 3.6171 0.8729
6.2225 -13.0255 1.5455 0.9436
6.2496 -12.6052 1.5063 0.9450
15.8606 -30.8492 3.7138 0.8698
6.5068 -12.2136 1.4816 0.9459
17.0046 -30.8245 3.7691 0.8680
17.5896 -30.8119 3.7986 0.8670
18.1841 -30.7991 3.8294 0.8660
2.5014 -3.7216 0.4801 0.9821
2.5815 -3.4991 0.4656 0.9827
2.5898 -3.3038 0.4494 0.9833
2.6277 -3.2531 0.4477 0.9833
2.7028 -3.1530 0.4446 0.9834
2.7400 -3.1034 0.4432 0.9835
2.8136 -3.0051 0.4408 0.9836
2.8502 -2.9563 0.4397 0.9836
2.9439 -2.7164 0.4289 0.9840
3.7474 -3.1654 0.5252 0.9805
3.8220 -3.1337 0.5292 0.9803
3.5137 -2.7961 0.4808 0.9821
3.5622 -2.7507 0.4819 0.9821
3.6110 -2.7051 0.4831 0.9820
42.5244 -29.0361 5.5130 0.8129
45.2223 -28.9779 5.7505 0.8057
48.1657 -28.9144 6.0147 0.7977
49.7419 -28.8803 6.1582 0.7934
21.5677 -11.6933 2.6267 0.9060
21.1393 -10.6740 2.5354 0.9091
25.5413 -12.4318 3.0413 0.8920
25.6308 -12.0153 3.0307 0.8924
25.8489 -11.6599 3.0360 0.8922
26.6050 -11.0772 3.0855 0.8905
31.7969 -12.6970 3.6657 0.8713
31.9066 -12.2033 3.6574 0.8716
36.4162 -12.7213 4.1300 0.8563
37.8278 -11.9862 4.2485 0.8525
30.3102 -4.0093 3.2734 0.8843
30.8114 8.2961 3.4163 0.8795
31.6800 9.5311 3.5420 0.8754
30.2893 9.5975 3.4018 0.8800
21.0131 8.0368 2.4087 0.9135
20.9517 8.3662 2.4154 0.9132
20.8900 8.6976 2.4227 0.9130
20.4071 9.2052 2.3969 0.9139
17.1510 8.3478 2.0422 0.9261
16.9548 8.5610 2.0336 0.9264
16.6892 8.7352 2.0168 0.9270
16.2274 9.1072 1.9923 0.9279
15.6364 9.3866 1.9526 0.9293
11.4377 9.3780 1.5836 0.9422
10.8485 9.7202 1.5595 0.9431
10.6604 9.8363 1.5530 0.9433
10.4739 9.9514 1.5468 0.9435
6.4173 9.5474 1.2316 0.9548
-13.4531 9.1859 1.7441 0.9366
-18.7977 9.8388 2.2716 0.9182
-18.2735 9.2268 2.1917 0.9209
-19.1585 8.9811 2.2654 0.9184
-1.2839 0.5566 0.1498 0.9944
-1.2812 0.5334 0.1486 0.9944
-1.2760 0.4880 0.1463 0.9945
-1.2737 0.4659 0.1452 0.9946
-1.2659 0.4011 0.1422 0.9947
-1.2587 0.3389 0.1396 0.9948
-1.2567 0.3187 0.1388 0.9948
-1.2442 0.1831 0.1346 0.9950
-1.2421 0.1642 0.1341 0.9950
-1.2380 0.1270 0.1332 0.9950
-1.2362 0.1086 0.1329 0.9950
-1.2344 0.0903 0.1325 0.9950
-1.2318 0.0720 0.1321 0.9950
-1.2281 0.0538 0.1316 0.9951
-1.2245 0.0357 0.1312 0.9951
-1.2211 0.0178 0.1307 0.9951
-1.1804 -0.0173 0.1132 0.9953
-1.1836 -0.0346 0.1135 0.9953
-1.1974 -0.1053 0.1152 0.9952
-1.2054 -0.1775 0.1168 0.9951
-1.2092 -0.2142 0.1177 0.9951
-1.2104 -0.2328 0.1182 0.9951
-1.2118 -0.2514 0.1186 0.9950
-1.2133 -0.2703 0.1192 0.9950
-1.2148 -0.2893 0.1197 0.9950
-1.2164 -0.3086 0.1203 0.9950
-1.2219 -0.3677 0.1223 0.9949
-1.2271 -0.4086 0.1240 0.9948
-1.2300 -0.4297 0.1249 0.9948
-1.2331 -0.4511 0.1259 0.9947
-1.2373 -0.4941 0.1277 0.9947
-1.2395 -0.5161 0.1287 0.9946
-1.2418 -0.5385 0.1298 0.9946
-24.0623 -11.2800 2.5477 0.8987
-24.1177 -12.1778 2.5902 0.8971
-23.9858 -12.5544 2.5954 0.8969
-23.8531 -12.9324 2.6013 0.8967
-20.0007 -11.6125 2.2172 0.9113
-18.4268 -11.4314 2.0789 0.9166
-19.0803 -12.2264 2.1725 0.9130
-18.3653 -12.5400 2.1320 0.9145
-14.2979 -11.7230 1.7726 0.9284
-14.1980 -12.3523 1.8042 0.9272
-14.1123 -12.6447 1.8166 0.9267
-13.8820 -12.8090 1.8108 0.9269
-13.6867 -13.7871 1.8625 0.9249
-9.3811 -11.9672 1.4578 0.9407
-9.0184 -12.2240 1.4563 0.9408
-8.6639 -12.4917 1.4574 0.9407
-8.4865 -12.6260 1.4585 0.9407
-12.2951 -31.4561 3.2379 0.8731
-1.0409 -3.0510 0.3090 0.9871
-0.9931 -3.0566 0.3081 0.9872
-0.9534 -3.0870 0.3097 0.9871
-8.8429 -31.9116 3.1746 0.8754
-8.7624 -35.6368 3.5182 0.8629
-8.2446 -35.7772 3.5198 0.8628
-7.6934 -35.7661 3.5073 0.8633
-7.1460 -35.7544 3.4955 0.8637
-6.6020 -35.7427 3.4846 0.8641
-5.5238 -35.7195 3.4651 0.8648
-4.4566 -35.6964 3.4488 0.8654
-2.3476 -35.6510 3.4252 0.8663
-1.8243 -35.6397 3.4212 0.8664
-1.3021 -35.6285 3.4180 0.8665
0.2278 -31.1822 2.9895 0.8822
2.0508 -31.1443 2.9923 0.8821
3.4238 -31.1167 3.0011 0.8818
3.8836 -31.1075 3.0054 0.8816
4.3447 -31.0977 3.0103 0.8815
4.8074 -31.0878 3.0158 0.8813
2.1943 -12.9354 1.2578 0.9486
5.7384 -31.0677 3.0288 0.8808
7.6289 -31.0268 3.0631 0.8795
8.1087 -31.0165 3.0735 0.8791
9.0787 -30.9955 3.0964 0.8783
9.5694 -30.9850 3.1090 0.8778
10.0641 -30.9743 3.1223 0.8773
11.5758 -30.9417 3.1672 0.8757
12.0897 -30.9306 3.1838 0.8751
12.6092 -30.9194 3.2012 0.8744
13.1345 -30.9080 3.2196 0.8738
13.6659 -30.8966 3.2389 0.8731
14.7488 -30.8732 3.2802 0.8715
15.8606 -30.8492 3.3255 0.8699
6.5106 -12.2208 1.3275 0.9459
17.0046 -30.8245 3.3750 0.8681
17.5897 -30.8119 3.4014 0.8671
18.7884 -30.7861 3.4577 0.8651
19.4030 -30.7728 3.4877 0.8640
2.4018 -3.6888 0.4220 0.9825
2.3801 -3.4318 0.4004 0.9834
2.4529 -3.4286 0.4042 0.9832
2.6028 -3.4222 0.4122 0.9829
2.6710 -3.2096 0.4003 0.9834
2.7085 -3.1596 0.3990 0.9834
2.7457 -3.1098 0.3977 0.9835
2.7827 -3.0605 0.3966 0.9835
2.8194 -3.0113 0.3955 0.9836
2.6547 -2.7534 0.3667 0.9847
2.7225 -2.7424 0.3705 0.9846
2.6837 -2.6255 0.3599 0.9850
2.9345 -2.7077 0.3828 0.9841
2.8283 -2.4608 0.3594 0.9850
3.7436 -3.1621 0.4698 0.9805
3.5229 -2.8035 0.4316 0.9821
16.1100 -11.7047 1.9091 0.9231
16.0609 -11.3141 1.8834 0.9241
43.5747 -29.7532 5.0584 0.8089
43.8450 -29.0075 5.0401 0.8096
45.2223 -28.9779 5.1492 0.8059
20.7024 -12.4279 2.3149 0.9075
21.0493 -12.2213 2.3335 0.9068
21.3114 -11.9606 2.3429 0.9065
21.2009 -10.7051 2.2769 0.9090
22.8309 -11.1125 2.4343 0.9030
25.7964 -12.0929 2.7313 0.8918
26.0420 -11.2920 2.7212 0.8922
26.5828 -11.0680 2.7606 0.8907
31.6990 -12.6579 3.2723 0.8718
31.0406 -11.8721 3.1861 0.8750
31.7308 -11.6075 3.2392 0.8730
32.1461 -11.2296 3.2645 0.8721
30.7332 -2.2495 2.9543 0.8835
30.1825 9.0805 3.0217 0.8810
27.5870 8.7412 2.7744 0.8902
25.8920 8.6224 2.6163 0.8961
21.2109 7.7591 2.1653 0.9132
21.1503 8.4455 2.1834 0.9125
20.4205 9.2112 2.1477 0.9139
16.8501 8.8195 1.8233 0.9264
16.1897 9.0861 1.7798 0.9281
16.7553 9.7281 1.8574 0.9251
16.1209 9.6775 1.8026 0.9272
15.5674 9.9753 1.7726 0.9284
11.2702 9.5193 1.4143 0.9424
11.0760 9.6361 1.4075 0.9427
10.8856 9.7536 1.4012 0.9430
2.5317 4.2879 0.4774 0.9802
2.3324 4.2280 0.4629 0.9808
2.2503 4.2239 0.4588 0.9810
1.9685 4.2802 0.4517 0.9812
1.8368 4.3224 0.4503 0.9813
1.7798 4.5534 0.4687 0.9805
1.1487 9.2012 0.8890 0.9634
-13.6523 9.9189 1.6178 0.9344
-1.2442 0.5612 0.1309 0.9945
-1.2352 0.4724 0.1268 0.9947
-1.2300 0.4296 0.1249 0.9948
-1.2270 0.4086 0.1240 0.9948
-1.2242 0.3879 0.1231 0.9949
-1.2200 0.3477 0.1216 0.9949
-1.2182 0.3280 0.1209 0.9949
-1.2148 0.2893 0.1197 0.9950
-1.2133 0.2702 0.1192 0.9950
-1.2118 0.2514 0.1186 0.9950
-1.2105 0.2327 0.1182 0.9951
-1.2092 0.2142 0.1177 0.9951
-1.2075 0.1957 0.1173 0.9951
-1.2054 0.1773 0.1168 0.9951
-1.2016 0.1411 0.1160 0.9952
-1.1998 0.1231 0.1156 0.9952
-1.1869 0.0520 0.1139 0.9952
-1.1395 -0.0000 0.0965 0.9954
-1.1424 -0.0167 0.0968 0.9954
-1.1485 -0.0504 0.0974 0.9954
-1.1516 -0.0675 0.0977 0.9954
-1.1549 -0.0846 0.0981 0.9954
-1.1651 -0.1369 0.0994 0.9953
-1.1673 -0.1545 0.0997 0.9953
-1.1725 -0.2078 0.1009 0.9952
-1.1736 -0.2257 0.1012 0.9952
-1.1748 -0.2438 0.1016 0.9952
-1.1761 -0.2620 0.1021 0.9952
-1.1818 -0.3368 0.1041 0.9951
-1.1852 -0.3756 0.1053 0.9950
-1.1929 -0.4364 0.1076 0.9949
-1.1958 -0.4573 0.1084 0.9949
-1.1986 -0.4786 0.1093 0.9948
-1.2005 -0.4998 0.1101 0.9948
-24.3691 -11.8612 2.2955 0.8969
-24.0916 -12.6097 2.3031 0.8966
-23.9585 -12.9895 2.3083 0.8964
-19.2039 -12.3056 1.9318 0.9125
-19.9363 -13.6127 2.0446 0.9076
-14.2661 -12.0499 1.5817 0.9278
-14.1542 -12.3141 1.5890 0.9275
-14.0455 -12.5848 1.5973 0.9271
-13.9409 -12.8633 1.6066 0.9267
-13.8353 -13.1452 1.6164 0.9263
-13.7284 -13.4307 1.6267 0.9258
-13.6202 -13.7201 1.6374 0.9253
-9.0013 -11.8349 1.2594 0.9421
-8.7996 -12.2996 1.2809 0.9411
-1.0405 -3.0500 0.2730 0.9871
-0.9925 -3.0547 0.2720 0.9872
-0.9137 -3.1195 0.2753 0.9870
-8.2446 -35.7776 3.1097 0.8630
-7.6935 -35.7664 3.0986 0.8634
-7.1462 -35.7554 3.0883 0.8638
-5.5239 -35.7207 3.0614 0.8649
-4.9890 -35.7091 3.0539 0.8652
-3.9266 -35.6863 3.0408 0.8658
-2.8723 -35.6636 3.0304 0.8662
-2.3477 -35.6522 3.0262 0.8664
-1.8244 -35.6409 3.0227 0.8665
-0.2602 -35.6054 3.0158 0.8668
0.2278 -31.1826 2.6412 0.8823
0.6833 -31.1728 2.6409 0.8823
1.1389 -31.1629 2.6412 0.8823
3.4238 -31.1167 2.6514 0.8819
3.8836 -31.1075 2.6552 0.8818
4.3447 -31.0977 2.6595 0.8816
4.8074 -31.0878 2.6644 0.8814
2.1939 -12.9329 1.1110 0.9487
7.1522 -31.0371 2.6977 0.8800
8.1087 -31.0165 2.7153 0.8792
8.5919 -31.0061 2.7251 0.8788
9.0787 -30.9956 2.7355 0.8784
9.5694 -30.9850 2.7467 0.8779
10.1751 -31.3158 2.7889 0.8762
10.6797 -31.3048 2.8015 0.8757
11.1890 -31.2939 2.8148 0.8751
11.7033 -31.2828 2.8289 0.8745
12.7481 -31.2602 2.8594 0.8733
13.2792 -31.2487 2.8758 0.8726
13.8166 -31.2372 2.8930 0.8719
15.8606 -30.8493 2.9380 0.8700
17.0046 -30.8245 2.9817 0.8682
18.1841 -30.7991 3.0293 0.8663
2.0972 -3.4364 0.3410 0.9840
2.1648 -3.4334 0.3438 0.9838
1.9509 -2.9962 0.3028 0.9857
1.9196 -2.8559 0.2914 0.9863
2.3747 -3.4240 0.3529 0.9834
2.4473 -3.4208 0.3562 0.9833
2.5213 -3.4175 0.3597 0.9831
2.6737 -3.4108 0.3671 0.9828
2.5780 -3.1916 0.3475 0.9837
2.6766 -3.2163 0.3544 0.9833
2.7514 -3.1163 0.3521 0.9835
2.7884 -3.0668 0.3511 0.9835
2.8253 -3.0175 0.3501 0.9835
2.6760 -2.7756 0.3266 0.9846
2.7168 -2.6579 0.3219 0.9849
2.8610 -2.2093 0.3062 0.9856
42.9617 -30.2644 4.4510 0.8098
20.7921 -12.4817 2.0540 0.9072
21.1412 -12.2747 2.0705 0.9065
21.4960 -12.0642 2.0878 0.9058
21.5775 -11.6987 2.0789 0.9062
21.5497 -11.2793 2.0601 0.9070
26.0821 -12.6950 2.4569 0.8901
26.0857 -11.7668 2.4238 0.8915
25.9487 -11.2516 2.3955 0.8927
31.2194 -11.9405 2.8310 0.8744
32.4119 -11.3225 2.9079 0.8713
36.0752 -12.0137 3.2205 0.8584
36.8682 -11.6821 3.2757 0.8562
42.5971 -12.1398 3.7515 0.8371
43.7690 -11.7851 3.8392 0.8336
30.5623 -4.0426 2.6111 0.8836
30.6317 -3.5972 2.6123 0.8835
30.4856 -2.6797 2.5920 0.8844
31.1804 -2.2822 2.6480 0.8821
82.6356 -2.4157 7.0020 0.7176
38.5984 9.1921 3.3606 0.8528
31.2096 8.4033 2.7375 0.8783
31.1126 8.8667 2.7401 0.8782
27.3260 8.6586 2.4279 0.8913
26.0038 9.0839 2.3330 0.8953
21.1941 7.7530 1.9114 0.9134
21.1639 8.0945 1.9192 0.9131
21.1334 8.4388 1.9274 0.9127
20.9819 8.7359 1.9250 0.9128
20.6976 8.9745 1.9107 0.9134
20.4085 9.2058 1.8963 0.9140
16.9384 8.5527 1.6072 0.9267
16.8092 8.7980 1.6069 0.9267
16.5175 8.9552 1.5914 0.9273
16.1490 9.0632 1.5685 0.9284
16.0196 9.9380 1.5967 0.9271
11.3070 9.5504 1.2536 0.9423
11.1142 9.6692 1.2477 0.9426
2.4315 3.9841 0.3953 0.9814
2.3501 3.9803 0.3915 0.9816
2.1938 3.9767 0.3847 0.9819
2.1213 3.9816 0.3821 0.9821
2.0498 3.9869 0.3797 0.9822
1.9101 3.9982 0.3753 0.9824
1.7833 4.0318 0.3734 0.9825
1.6974 4.1622 0.3807 0.9821
1.7291 4.4236 0.4023 0.9811
1.7990 4.8086 0.4348 0.9796
1.1540 9.2437 0.7890 0.9633
-1.5947 3.9108 0.3577 0.9832
-1.6065 3.7807 0.3479 0.9836
-1.6604 3.7543 0.3477 0.9837
-1.7331 3.7687 0.3513 0.9835
-1.8074 3.7837 0.3552 0.9833
-1.8833 3.7989 0.3591 0.9831
-2.2061 3.8646 0.3769 0.9823
-7.6984 9.2505 1.0193 0.9528
-18.6827 9.4334 1.7727 0.9194
-18.9866 9.2413 1.7885 0.9187
-1.2298 0.5764 0.1150 0.9946
-1.2024 0.5213 0.1110 0.9948
-1.1986 0.4786 0.1093 0.9948
-1.1902 0.4158 0.1068 0.9950
-1.1852 0.3755 0.1053 0.9950
-1.1835 0.3560 0.1047 0.9951
-1.1774 0.2804 0.1025 0.9952
-1.1748 0.2437 0.1016 0.9952
-1.1725 0.2077 0.1009 0.9952
-1.1709 0.1898 0.1005 0.9952
-1.1673 0.1544 0.0997 0.9953
-1.1616 0.1192 0.0989 0.9953
-1.1582 0.1018 0.0985 0.9953
-1.1549 0.0845 0.0981 0.9954
-1.1485 0.0504 0.0974 0.9954
-1.1454 0.0334 0.0971 0.9954
-1.1069 -0.0162 0.0814 0.9956
-1.1096 -0.0325 0.0816 0.9956
-1.1125 -0.0488 0.0819 0.9955
-1.1154 -0.0653 0.0822 0.9955
-1.1185 -0.0819 0.0825 0.9955
-1.1279 -0.1325 0.0835 0.9955
-1.1346 -0.1670 0.0843 0.9954
-1.1381 -0.2017 0.0850 0.9954
-1.1391 -0.2191 0.0853 0.9954
-1.1412 -0.2542 0.0860 0.9953
-1.1435 -0.2901 0.0868 0.9953
-1.1656 -0.5054 0.0934 0.9949
-1.1672 -0.5266 0.0942 0.9949
-1.1690 -0.5480 0.0950 0.9948
-1.4717 -0.7431 0.1213 0.9934
-1.4753 -0.7999 0.1234 0.9933
-20.1102 -12.0723 1.7251 0.9102
-19.6783 -12.2077 1.7031 0.9113
-19.7018 -13.0346 1.7374 0.9096
-14.0859 -12.2547 1.3732 0.9279
-13.8749 -12.8024 1.3885 0.9271
-9.5478 -12.1798 1.1382 0.9398
-11.7637 -31.4438 2.4691 0.8740
-1.0882 -3.0436 0.2377 0.9871
-1.0402 -3.0492 0.2369 0.9872
-0.9533 -3.0868 0.2376 0.9871
-0.8735 -3.1523 0.2406 0.9870
-8.7626 -35.6375 2.6991 0.8631
-7.6936 -35.7669 2.6907 0.8635
-7.1462 -35.7558 2.6817 0.8639
-6.6024 -35.7448 2.6734 0.8643
-6.0618 -35.7335 2.6656 0.8647
-3.9267 -35.6874 2.6405 0.8659
-2.3478 -35.6534 2.6279 0.8665
-1.8244 -35.6416 2.6248 0.8666
-1.3022 -35.6297 2.6222 0.8668
-0.7808 -35.6178 2.6202 0.8668
-0.2602 -35.6058 2.6188 0.8669
0.6833 -31.1731 2.2932 0.8824
1.5946 -31.1534 2.2942 0.8824
1.1418 -11.9861 0.8855 0.9529
3.4238 -31.1167 2.3023 0.8820
3.8836 -31.1075 2.3056 0.8818
4.8075 -31.0877 2.3136 0.8815
5.7384 -31.0677 2.3236 0.8810
6.6784 -31.0473 2.3357 0.8804
8.1088 -31.0165 2.3578 0.8793
9.0787 -30.9955 2.3754 0.8785
10.1751 -31.3157 2.4217 0.8763
10.6797 -31.3048 2.4327 0.8758
12.2229 -31.2715 2.4694 0.8740
13.2792 -31.2488 2.4971 0.8727
15.3009 -30.8613 2.5334 0.8710
1.8331 -3.4409 0.2867 0.9845
1.8965 -3.4380 0.2888 0.9844
1.9609 -3.4350 0.2909 0.9843
2.0926 -3.4288 0.2954 0.9840
2.2286 -3.4226 0.3004 0.9838
1.9224 -2.8601 0.2535 0.9863
2.3694 -3.4162 0.3058 0.9835
2.4417 -3.4130 0.3086 0.9833
2.5907 -3.4062 0.3147 0.9830
2.6124 -3.2341 0.3058 0.9835
2.6821 -3.2230 0.3084 0.9833
2.7942 -3.0731 0.3055 0.9835
2.6540 -2.6735 0.2771 0.9850
2.9102 -2.7651 0.2952 0.9840
2.7675 -2.3376 0.2664 0.9856
2.8492 -2.2673 0.2678 0.9855
2.9361 -2.1995 0.2698 0.9854
3.7391 -2.6340 0.3364 0.9818
3.8989 -2.5795 0.3438 0.9814
21.3796 -13.2631 1.8504 0.9040
21.4842 -12.8972 1.8429 0.9044
21.2338 -12.3284 1.8058 0.9062
22.7728 -11.4988 1.8763 0.9027
26.5048 -11.9558 2.1385 0.8899
31.0264 -11.3498 2.4298 0.8759
36.1008 -11.4390 2.7852 0.8591
37.4456 -11.2657 2.8759 0.8548
47.4484 -12.0350 3.6002 0.8217
88.9222 -18.4489 6.6792 0.6947
91.1597 -16.1503 6.8089 0.6898
30.6026 -3.5938 2.2662 0.8837
30.3426 -2.6671 2.2402 0.8850
31.2821 -2.2896 2.3069 0.8818
31.5538 -1.8464 2.3247 0.8809
44.3921 7.8646 3.3157 0.8346
39.2019 8.1332 2.9446 0.8517
39.0539 8.6995 2.9427 0.8517
38.3554 9.1342 2.8998 0.8537
31.4190 7.9692 2.3839 0.8781
31.3654 8.4452 2.3890 0.8778
31.3117 8.9234 2.3946 0.8776
27.0130 8.5593 2.0841 0.8926
26.7833 8.9193 2.0762 0.8930
24.8152 9.9090 1.9652 0.8984
20.6809 8.9673 1.6578 0.9136
20.3966 9.2004 1.6457 0.9142
17.1556 8.0422 1.3935 0.9268
16.2524 9.4361 1.3822 0.9274
2.5268 3.7593 0.3331 0.9820
2.0743 3.7600 0.3158 0.9829
2.0064 3.7661 0.3138 0.9830
1.8084 3.7854 0.3085 0.9833
1.7441 3.7923 0.3070 0.9834
1.6805 3.7994 0.3055 0.9835
1.0175 9.2473 0.6842 0.9634
-1.5245 4.4691 0.3473 0.9812
-1.5450 4.1299 0.3243 0.9825
-1.5894 3.7405 0.2989 0.9838
-1.7106 3.7198 0.3011 0.9837
-1.7837 3.7340 0.3043 0.9835
-1.8584 3.7485 0.3077 0.9834
-2.0931 3.7946 0.3187 0.9828
-2.1753 3.8108 0.3227 0.9826
-2.2597 3.8276 0.3269 0.9823
-2.3463 3.8448 0.3313 0.9821
-2.5270 3.8811 0.3406 0.9816
-2.6213 3.9001 0.3456 0.9813
-13.4233 9.1654 1.1954 0.9369
-1.4753 0.7998 0.1234 0.9933
-1.4718 0.7703 0.1222 0.9934
-1.2435 0.6052 0.1017 0.9945
-1.1690 0.5480 0.0950 0.9948
-1.1672 0.5265 0.0942 0.9949
-1.1655 0.5054 0.0934 0.9949
-1.1630 0.4841 0.0926 0.9950
-1.1603 0.4633 0.0919 0.9950
-1.1578 0.4428 0.0912 0.9950
-1.1554 0.4226 0.0905 0.9951
-1.1508 0.3832 0.0892 0.9951
-1.1488 0.3640 0.0886 0.9952
-1.1447 0.3082 0.0872 0.9953
-1.1423 0.2720 0.0864 0.9953
-1.1401 0.2365 0.0856 0.9953
-1.1346 0.1670 0.0843 0.9954
-1.1312 0.1496 0.0839 0.9954
-1.1279 0.1324 0.0835 0.9955
-1.1215 0.0985 0.0828 0.9955
-1.1185 0.0818 0.0825 0.9955
-1.1125 0.0487 0.0819 0.9955
-1.1096 0.0324 0.0816 0.9956
-1.1068 0.0161 0.0814 0.9956
-1.0331 -0.0001 0.0645 0.9959
-1.0375 -0.0152 0.0648 0.9959
-1.0538 -0.0617 0.0659 0.9958
-1.0661 -0.0938 0.0668 0.9957
-1.0726 -0.1101 0.0673 0.9957
-1.0860 -0.1437 0.0684 0.9956
-1.1065 -0.2128 0.0703 0.9955
-1.1074 -0.2298 0.0706 0.9955
-1.1083 -0.2469 0.0709 0.9955
-1.1093 -0.2642 0.0712 0.9954
-1.1102 -0.2816 0.0715 0.9954
-1.1113 -0.2993 0.0718 0.9954
-1.1135 -0.3350 0.0726 0.9954
-1.1147 -0.3532 0.0730 0.9953
-1.1181 -0.3906 0.0739 0.9953
-1.1202 -0.4098 0.0744 0.9952
-1.1267 -0.4691 0.0762 0.9951
-1.1290 -0.4896 0.0768 0.9951
-1.1314 -0.5104 0.0775 0.9950
-1.1337 -0.5315 0.0781 0.9950
-1.1716 -0.5703 0.0813 0.9948
-1.4422 -0.7549 0.1016 0.9935
-1.4447 -0.8108 0.1034 0.9934
-1.4517 -0.8429 0.1048 0.9933
-19.7564 -12.2562 1.4511 0.9110
-19.5170 -12.5062 1.4468 0.9113
-9.5282 -12.1548 0.9639 0.9400
-12.2951 -31.4561 2.1079 0.8734
-11.7637 -31.4438 2.0954 0.8741
-1.0879 -3.0427 0.2017 0.9871
-1.0399 -3.0483 0.2010 0.9872
-0.9136 -3.1192 0.2029 0.9871
-8.8050 -33.6795 2.1727 0.8698
-0.6806 -2.9536 0.1892 0.9879
-6.0619 -35.7343 2.2622 0.8648
-5.5243 -35.7228 2.2561 0.8651
-4.4569 -35.6997 2.2455 0.8657
-3.9268 -35.6882 2.2409 0.8660
-3.3988 -35.6768 2.2368 0.8662
-2.3478 -35.6541 2.2301 0.8666
-0.7808 -35.6182 2.2236 0.8669
0.6833 -31.1736 1.9461 0.8825
1.1389 -31.1637 1.9463 0.8825
1.5947 -31.1539 1.9470 0.8825
2.0508 -31.1443 1.9480 0.8824
2.5076 -31.1351 1.9496 0.8823
3.4238 -31.1167 1.9538 0.8821
3.8836 -31.1075 1.9566 0.8819
4.3447 -31.0977 1.9598 0.8818
5.7384 -31.0677 1.9719 0.8811
8.1087 -31.0165 2.0009 0.8794
9.5694 -30.9850 2.0240 0.8781
10.1751 -31.3158 2.0551 0.8764
10.6797 -31.3049 2.0644 0.8758
11.1890 -31.2939 2.0743 0.8753
12.7482 -31.2602 2.1071 0.8735
1.6445 -3.4424 0.2381 0.9848
1.8292 -3.4337 0.2428 0.9845
1.9567 -3.4276 0.2463 0.9843
2.0880 -3.4214 0.2502 0.9841
2.1553 -3.4182 0.2522 0.9839
2.2237 -3.4151 0.2543 0.9838
1.9252 -2.8643 0.2154 0.9863
2.0119 -2.9008 0.2203 0.9860
2.3547 -3.1917 0.2475 0.9842
2.4077 -3.1657 0.2482 0.9842
2.6477 -3.2779 0.2630 0.9833
2.7254 -3.1793 0.2614 0.9834
2.7628 -3.1293 0.2605 0.9834
2.8000 -3.0795 0.2598 0.9835
2.8370 -3.0300 0.2591 0.9835
2.8624 -2.5648 0.2399 0.9847
2.7619 -2.3329 0.2256 0.9856
3.7992 -2.5942 0.2871 0.9817
3.8480 -2.5458 0.2880 0.9817
47.0910 -30.1753 3.4908 0.7992
21.8237 -13.1009 1.5887 0.9030
21.3270 -12.3826 1.5392 0.9059
21.1211 -11.0550 1.4879 0.9089
26.4317 -12.8651 1.8347 0.8889
65.9916 -29.7674 4.5184 0.7482
68.5245 -29.7128 4.6616 0.7413
31.7487 -11.6141 2.1100 0.8733
36.4841 -12.7451 2.4121 0.8565
36.1547 -12.0402 2.3784 0.8584
36.6640 -11.6174 2.4005 0.8572
41.8938 -12.6040 2.7305 0.8392
41.9592 -11.9579 2.7231 0.8396
42.5404 -11.4542 2.7497 0.8381
48.4477 -11.5378 3.1084 0.8191
62.9982 -13.0704 4.0157 0.7727
64.4895 -11.4253 4.0877 0.7691
30.4598 -4.0290 1.9177 0.8841
30.5849 -3.5917 1.9220 0.8839
30.4665 -3.1272 1.9115 0.8845
30.5151 -2.6823 1.9119 0.8845
31.4481 -1.8402 1.9662 0.8814
82.3227 -2.4066 5.1403 0.7189
60.1790 8.8564 3.7965 0.7837
49.6615 8.0516 3.1401 0.8174
39.4633 8.7908 2.5234 0.8504
31.3238 8.4340 2.0247 0.8781
31.1737 8.8841 2.0231 0.8782
30.7195 9.2421 2.0022 0.8794
30.8683 9.7809 2.0210 0.8783
27.4082 9.1273 1.8030 0.8907
26.1179 9.5541 1.7358 0.8945
25.3246 9.6858 1.6923 0.8970
20.8489 9.4045 1.4275 0.9124
16.2247 9.4200 1.1710 0.9276
6.1222 3.9230 0.4538 0.9713
5.6658 3.9913 0.4326 0.9726
5.5239 4.0134 0.4262 0.9730
5.4056 4.0494 0.4216 0.9733
5.4261 4.4489 0.4380 0.9723
5.4552 4.7460 0.4513 0.9714
5.4951 4.9236 0.4605 0.9709
2.6594 3.6047 0.2796 0.9822
2.5108 3.6201 0.2750 0.9825
2.2967 3.6424 0.2688 0.9829
2.1596 3.6577 0.2651 0.9831
2.0949 3.6696 0.2637 0.9832
2.0309 3.6813 0.2624 0.9833
1.9675 3.6930 0.2612 0.9834
1.9047 3.7046 0.2600 0.9834
1.7807 3.7276 0.2578 0.9836
1.6594 3.7516 0.2560 0.9837
1.6108 3.7905 0.2571 0.9836
1.6281 3.9923 0.2691 0.9829
1.6547 4.2334 0.2837 0.9819
1.6903 4.5181 0.3011 0.9809
1.7648 4.9358 0.3272 0.9792
1.8722 5.4879 0.3619 0.9770
1.0172 9.2451 0.5805 0.9634
-1.4513 4.9553 0.3223 0.9795
-1.4654 4.7454 0.3100 0.9803
-1.5022 4.2020 0.2785 0.9823
-1.5167 4.0545 0.2702 0.9828
-1.5477 3.7955 0.2558 0.9837
-1.5733 3.7025 0.2511 0.9840
-1.6183 3.6591 0.2497 0.9841
-1.7606 3.6857 0.2549 0.9838
-1.8341 3.6995 0.2577 0.9836
-1.9861 3.7282 0.2637 0.9832
-2.0648 3.7432 0.2668 0.9830
-2.1456 3.7587 0.2701 0.9828
-2.4006 3.8076 0.2809 0.9821
-2.4904 3.8250 0.2849 0.9819
-2.6781 3.8615 0.2933 0.9813
-7.7367 9.2966 0.7549 0.9527
-1.4418 0.7817 0.1024 0.9934
-1.1716 0.5702 0.0813 0.9948
-1.1337 0.5314 0.0781 0.9950
-1.1290 0.4895 0.0768 0.9951
-1.1267 0.4691 0.0762 0.9951
-1.1244 0.4490 0.0756 0.9952
-1.1202 0.4097 0.0744 0.9952
-1.1182 0.3905 0.0739 0.9953
-1.1147 0.3531 0.0730 0.9953
-1.1124 0.3170 0.0722 0.9954
-1.1113 0.2991 0.0718 0.9954
-1.1102 0.2816 0.0715 0.9954
-1.1093 0.2641 0.0712 0.9954
-1.1083 0.2469 0.0709 0.9955
-1.1057 0.1959 0.0701 0.9955
-1.1003 0.1784 0.0696 0.9955
-1.0930 0.1608 0.0690 0.9956
-1.0792 0.1267 0.0678 0.9957
-1.0725 0.1101 0.0673 0.9957
-1.0538 0.0616 0.0659 0.9958
-1.0479 0.0459 0.0655 0.9958
-1.0375 0.0151 0.0648 0.9959
-0.9685 -0.0000 0.0497 0.9961
-0.9723 -0.0143 0.0499 0.9961
-0.9763 -0.0286 0.0501 0.9961
-0.9803 -0.0430 0.0503 0.9961
-1.0063 -0.1182 0.0520 0.9959
-1.0121 -0.1339 0.0524 0.9959
-1.0181 -0.1499 0.0528 0.9959
-1.0361 -0.1993 0.0541 0.9958
-1.0569 -0.3349 0.0569 0.9956
-1.0734 -0.3927 0.0586 0.9954
-1.0767 -0.4300 0.0595 0.9954
-1.0845 -0.5084 0.0614 0.9952
-1.4187 -0.7692 0.0828 0.9936
-1.4186 -0.8516 0.0849 0.9934
-1.4486 -0.8987 0.0874 0.9932
-19.5307 -12.5150 1.1899 0.9113
