ply
format ascii 1.0
element vertex 1594
property float32 x
property float32 y
property float32 z
property float32 I
end_header
1.8695 -8.6912 -0.7282 0.9649
2.3352 -8.4270 -0.7163 0.9655
1.0487 -3.0742 -0.2660 0.9870
1.2767 -3.1306 -0.2769 0.9865
1.3367 -3.1455 -0.2799 0.9864
1.3980 -3.1607 -0.2831 0.9862
1.4607 -3.1762 -0.2864 0.9861
1.5907 -3.2084 -0.2933 0.9857
1.6457 -3.2009 -0.2948 0.9857
1.8819 -3.1875 -0.3032 0.9853
1.9430 -3.0816 -0.2984 0.9855
2.0862 -3.2039 -0.3132 0.9848
2.3600 -3.4028 -0.3392 0.9835
2.4150 -3.3756 -0.3400 0.9835
2.4701 -3.3481 -0.3408 0.9834
2.6158 -3.2383 -0.3410 0.9834
2.6385 -3.1705 -0.3379 0.9836
8.0758 -9.1467 -0.9994 0.9522
8.2091 -9.0283 -0.9995 0.9522
8.3406 -8.9079 -0.9995 0.9522
8.4704 -8.7856 -0.9996 0.9522
8.5983 -8.6614 -0.9996 0.9522
4.3355 -3.8846 -0.4768 0.9769
4.2355 -3.6848 -0.4598 0.9777
4.3404 -3.6661 -0.4654 0.9775
4.3843 -3.3854 -0.4537 0.9780
4.4943 -3.3667 -0.4600 0.9777
4.4221 -3.2129 -0.4477 0.9783
4.7292 -3.2292 -0.4690 0.9773
4.9177 -3.2535 -0.4830 0.9766
4.9947 -3.0986 -0.4814 0.9767
5.0253 -3.0167 -0.4801 0.9768
5.0858 -2.8543 -0.4777 0.9769
5.3895 -2.9220 -0.5022 0.9757
5.7476 -2.6943 -0.5199 0.9748
6.7765 -2.9383 -0.6050 0.9708
6.9060 -2.8753 -0.6127 0.9704
9.5378 -3.8086 -0.8412 0.9596
9.6021 -3.6725 -0.8421 0.9596
9.6667 -3.5362 -0.8431 0.9595
9.8624 -3.1251 -0.8474 0.9593
11.5739 -3.2985 -0.9857 0.9528
11.6211 -3.1290 -0.9858 0.9528
11.6658 -2.9589 -0.9858 0.9528
11.7081 -2.7882 -0.9858 0.9528
11.7478 -2.6169 -0.9858 0.9528
11.9681 -2.4830 -1.0012 0.9521
12.0033 -2.3079 -1.0012 0.9521
12.0359 -2.1323 -1.0012 0.9521
12.0660 -1.9563 -1.0012 0.9521
12.0934 -1.7798 -1.0012 0.9521
12.1405 -1.4257 -1.0012 0.9521
12.1771 -1.0704 -1.0013 0.9521
12.1916 -0.8923 -1.0013 0.9521
12.2126 -0.5357 -1.0013 0.9521
12.2191 0.3572 -1.0013 0.9521
12.2126 0.5357 -1.0013 0.9521
12.2034 0.7141 -1.0013 0.9521
12.1916 0.8923 -1.0013 0.9521
12.1772 1.0703 -1.0013 0.9521
12.1602 1.2482 -1.0012 0.9521
12.1183 1.6029 -1.0012 0.9521
12.0034 2.3079 -1.0012 0.9521
11.9681 2.4830 -1.0012 0.9521
11.8901 2.8316 -1.0011 0.9521
11.8472 3.0050 -1.0011 0.9521
11.8018 3.1777 -1.0011 0.9521
11.7539 3.3497 -1.0011 0.9521
11.7034 3.5210 -1.0010 0.9521
11.6505 3.6915 -1.0010 0.9521
11.5950 3.8613 -1.0010 0.9521
11.4137 4.3654 -1.0009 0.9521
11.2104 4.8609 -1.0008 0.9521
11.1378 5.0240 -1.0008 0.9521
11.0629 5.1860 -1.0008 0.9521
6.7018 3.2620 -0.6105 0.9705
5.9695 3.3502 -0.5607 0.9729
5.5319 3.4318 -0.5332 0.9742
5.3624 3.5477 -0.5266 0.9745
5.3516 3.6541 -0.5308 0.9743
5.1481 3.9752 -0.5327 0.9742
5.4626 4.4789 -0.5786 0.9720
5.4859 4.6336 -0.5882 0.9716
5.5361 4.9604 -0.6088 0.9706
5.5630 5.1329 -0.6200 0.9701
2.9626 2.8148 -0.3347 0.9837
2.6693 2.8508 -0.3199 0.9844
2.5998 2.8593 -0.3165 0.9846
2.5318 2.8675 -0.3133 0.9848
2.4004 2.8843 -0.3074 0.9851
2.3402 2.8970 -0.3050 0.9852
2.2808 2.9095 -0.3028 0.9853
2.1646 2.9340 -0.2986 0.9855
2.0514 2.9577 -0.2948 0.9857
1.9410 2.9809 -0.2914 0.9858
1.8867 2.9921 -0.2897 0.9859
1.7330 3.1412 -0.2938 0.9857
1.7079 3.3218 -0.3059 0.9851
1.7158 3.5915 -0.3260 0.9842
1.8025 4.0750 -0.3650 0.9823
1.8323 4.3118 -0.3837 0.9814
1.9025 4.8671 -0.4280 0.9792
1.9909 5.5681 -0.4843 0.9765
2.0445 5.9927 -0.5186 0.9749
3.2017 11.5539 -0.9820 0.9530
2.6917 11.6804 -0.9818 0.9530
2.5205 11.7176 -0.9817 0.9530
2.3488 11.7522 -0.9816 0.9530
1.1129 6.0251 -0.5019 0.9757
1.0050 5.9245 -0.4922 0.9762
0.9109 5.8905 -0.4882 0.9764
0.5547 3.9700 -0.3283 0.9840
0.3782 3.0293 -0.2500 0.9878
0.2812 2.9511 -0.2428 0.9882
0.0638 2.9106 -0.2385 0.9884
0.0213 2.9151 -0.2388 0.9884
-0.0213 2.9196 -0.2391 0.9884
-0.0641 2.9241 -0.2396 0.9883
-0.1070 2.9286 -0.2400 0.9883
-0.1501 2.9332 -0.2406 0.9883
-0.2369 2.9422 -0.2418 0.9882
-0.2807 2.9468 -0.2425 0.9882
-0.3690 2.9559 -0.2440 0.9881
-0.5055 2.9801 -0.2476 0.9879
-0.5992 2.9980 -0.2504 0.9878
-0.6950 3.0163 -0.2535 0.9877
-0.7439 3.0256 -0.2552 0.9876
-0.8436 3.0445 -0.2588 0.9874
-0.8946 3.0542 -0.2607 0.9873
-1.0121 3.1150 -0.2683 0.9869
-1.9889 5.8300 -0.5045 0.9756
-2.0542 5.7452 -0.4998 0.9758
-2.1290 5.6908 -0.4977 0.9759
-2.2564 5.5331 -0.4894 0.9763
-2.3110 5.2250 -0.4680 0.9773
-2.3371 5.0818 -0.4582 0.9778
-2.4526 4.4459 -0.4159 0.9798
-2.4732 4.3324 -0.4086 0.9802
-2.4931 4.2227 -0.4017 0.9805
-2.5123 4.1167 -0.3950 0.9808
-2.5309 4.0140 -0.3887 0.9811
-2.5833 3.7247 -0.3713 0.9820
-2.6049 3.1301 -0.3336 0.9838
-2.7500 3.0245 -0.3348 0.9837
-2.8129 2.8336 -0.3270 0.9841
-0.6767 0.6429 -0.0765 0.9963
-0.6009 0.5545 -0.0670 0.9967
-0.6009 0.5384 -0.0661 0.9968
-0.6008 0.5227 -0.0652 0.9968
-0.6006 0.5073 -0.0644 0.9968
-0.6004 0.4922 -0.0636 0.9969
-0.5995 0.4491 -0.0614 0.9970
-0.5984 0.4348 -0.0606 0.9970
-0.5971 0.4207 -0.0598 0.9971
-0.5945 0.3933 -0.0584 0.9971
-0.5919 0.3672 -0.0570 0.9972
-0.5906 0.3545 -0.0564 0.9972
-0.5893 0.3421 -0.0558 0.9973
-0.5866 0.3180 -0.0547 0.9973
-0.5826 0.2836 -0.0531 0.9974
-0.5793 0.2512 -0.0517 0.9975
-0.5784 0.2408 -0.0513 0.9975
-0.5775 0.2306 -0.0509 0.9975
-0.5766 0.2205 -0.0506 0.9975
-0.5756 0.2105 -0.0502 0.9975
-0.5746 0.2007 -0.0499 0.9976
-0.5736 0.1911 -0.0495 0.9976
-0.5722 0.1721 -0.0489 0.9976
-0.5714 0.1629 -0.0487 0.9976
-0.5699 0.1445 -0.0482 0.9976
-0.5690 0.1355 -0.0479 0.9977
-0.5682 0.1266 -0.0477 0.9977
-0.5664 0.1089 -0.0472 0.9977
-0.5655 0.1002 -0.0470 0.9977
-0.5636 0.0829 -0.0467 0.9977
-0.5628 0.0745 -0.0465 0.9977
-0.5620 0.0660 -0.0464 0.9977
-0.5595 0.0410 -0.0460 0.9978
-0.5577 0.0245 -0.0457 0.9978
-0.5558 0.0081 -0.0455 0.9978
-0.5366 -0.0079 -0.0500 0.9978
-0.5375 -0.0157 -0.0501 0.9978
-0.5384 -0.0236 -0.0502 0.9978
-0.5393 -0.0316 -0.0503 0.9978
-0.5401 -0.0395 -0.0504 0.9978
-0.5430 -0.0718 -0.0510 0.9978
-0.5450 -0.0965 -0.0515 0.9978
-0.5458 -0.1050 -0.0517 0.9978
-0.5465 -0.1134 -0.0520 0.9978
-0.5473 -0.1220 -0.0522 0.9977
-0.5480 -0.1305 -0.0524 0.9977
-0.5494 -0.1479 -0.0530 0.9977
-0.5506 -0.1657 -0.0535 0.9977
-0.5539 -0.2118 -0.0552 0.9976
-0.5553 -0.2312 -0.0560 0.9976
-0.5567 -0.2511 -0.0568 0.9975
-0.5573 -0.2613 -0.0573 0.9975
-0.5585 -0.2820 -0.0582 0.9975
-0.5594 -0.2928 -0.0588 0.9975
-0.5604 -0.3039 -0.0593 0.9974
-0.5615 -0.3151 -0.0599 0.9974
-0.5643 -0.3501 -0.0618 0.9973
-0.5652 -0.3622 -0.0625 0.9973
-0.5670 -0.3871 -0.0639 0.9972
-0.5679 -0.4000 -0.0647 0.9972
-0.5688 -0.4132 -0.0654 0.9972
-0.5712 -0.4546 -0.0679 0.9971
-0.5718 -0.4829 -0.0697 0.9970
-0.5713 -0.5119 -0.0714 0.9969
-0.5706 -0.5421 -0.0733 0.9968
-0.5702 -0.5578 -0.0742 0.9968
-0.6549 -0.6597 -0.0865 0.9963
-2.3792 -2.6166 -0.3292 0.9859
-2.3726 -2.6873 -0.3337 0.9857
-2.4553 -2.9504 -0.3573 0.9847
-2.4036 -3.1603 -0.3696 0.9842
-2.3436 -3.1767 -0.3674 0.9843
-2.4005 -3.3553 -0.3840 0.9836
-2.2424 -3.4438 -0.3825 0.9836
-2.0546 -3.5991 -0.3857 0.9835
-2.0006 -3.6266 -0.3855 0.9835
-1.9469 -3.6544 -0.3854 0.9835
-1.8396 -3.7104 -0.3855 0.9835
-1.7860 -3.7387 -0.3856 0.9835
-1.7326 -3.7672 -0.3859 0.9835
-1.6932 -4.3320 -0.4329 0.9815
-1.6134 -4.3126 -0.4286 0.9817
-1.5351 -4.2934 -0.4244 0.9818
-2.9747 -8.7197 -0.8575 0.9637
-2.6846 -8.6924 -0.8467 0.9641
-2.5775 -8.7996 -0.8534 0.9638
-2.8534 -10.2973 -0.9945 0.9580
-2.5517 -10.3777 -0.9947 0.9580
-2.3999 -10.4146 -0.9947 0.9580
-2.2477 -10.4493 -0.9948 0.9580
-1.7880 -10.5399 -0.9950 0.9580
-1.0989 -8.8018 -0.8256 0.9650
-0.4447 -4.0422 -0.3785 0.9838
-0.8236 -8.6450 -0.8083 0.9657
-0.5569 -8.4573 -0.7889 0.9665
-0.2051 -4.0077 -0.3735 0.9840
-0.3115 -8.5250 -0.7940 0.9663
-0.1908 -8.7032 -0.8102 0.9656
0.0635 -8.7046 -0.8102 0.9656
0.5729 -8.7012 -0.8116 0.9656
0.8287 -8.6996 -0.8134 0.9655
1.0858 -8.6981 -0.8159 0.9654
1.2151 -8.6973 -0.8174 0.9653
1.9450 -10.5303 -0.9967 0.9579
2.0989 -10.5014 -0.9967 0.9579
2.1861 -10.1629 -0.9675 0.9591
1.9942 -8.6541 -0.8266 0.9650
2.0955 -8.5225 -0.8169 0.9654
2.2130 -8.4646 -0.8143 0.9655
2.4958 -8.5210 -0.8264 0.9650
3.1616 -10.2371 -0.9972 0.9579
1.0487 -3.0742 -0.3023 0.9870
1.1040 -3.0879 -0.3052 0.9869
1.3367 -3.1455 -0.3181 0.9864
1.4607 -3.1762 -0.3254 0.9861
1.6453 -3.2002 -0.3349 0.9856
1.6361 -3.0711 -0.3239 0.9861
1.5826 -2.7722 -0.2971 0.9873
1.9261 -3.1560 -0.3441 0.9853
2.0988 -3.2233 -0.3580 0.9847
2.1145 -3.1459 -0.3528 0.9849
2.3066 -3.3256 -0.3767 0.9839
2.3601 -3.2989 -0.3775 0.9838
2.5744 -3.1870 -0.3813 0.9837
2.5970 -3.1206 -0.3779 0.9838
2.6192 -3.0554 -0.3746 0.9840
2.6410 -2.9913 -0.3714 0.9841
7.2210 -7.9416 -0.9990 0.9578
7.3367 -7.8357 -0.9991 0.9578
7.6742 -7.5078 -0.9992 0.9578
4.3449 -3.5625 -0.5230 0.9777
4.5943 -3.5476 -0.5403 0.9770
4.6261 -3.3611 -0.5322 0.9773
4.7112 -3.2168 -0.5310 0.9773
4.8842 -3.2314 -0.5451 0.9767
5.5134 -2.8857 -0.5792 0.9753
5.6830 -2.7661 -0.5883 0.9749
5.7510 -2.6960 -0.5912 0.9748
5.9183 -2.6696 -0.6043 0.9743
6.6997 -2.7895 -0.6755 0.9713
9.6021 -3.6725 -0.9568 0.9595
9.6666 -3.5362 -0.9580 0.9595
9.7313 -3.3995 -0.9594 0.9594
10.0894 -3.1970 -0.9851 0.9584
10.1352 -3.0492 -0.9851 0.9584
10.2204 -2.7519 -0.9851 0.9584
10.4923 -2.3373 -1.0005 0.9577
10.5564 -2.0297 -1.0005 0.9577
10.5851 -1.8753 -1.0005 0.9577
10.6115 -1.7205 -1.0006 0.9577
10.6575 -1.4097 -1.0006 0.9577
10.6770 -1.2539 -1.0006 0.9577
10.6942 -1.0977 -1.0006 0.9577
10.7092 -0.9413 -1.0006 0.9577
10.7403 -0.4711 -1.0006 0.9577
10.7507 0.0000 -1.0006 0.9577
10.7496 0.1571 -1.0006 0.9577
10.7462 0.3142 -1.0006 0.9577
10.7404 0.4711 -1.0006 0.9577
10.7323 0.6280 -1.0006 0.9577
10.7092 0.9413 -1.0006 0.9577
10.6943 1.0977 -1.0006 0.9577
10.6575 1.4097 -1.0006 0.9577
10.6356 1.5652 -1.0006 0.9577
10.6115 1.7205 -1.0006 0.9577
10.5255 2.1837 -1.0005 0.9577
10.4569 2.4903 -1.0005 0.9577
10.3372 2.9460 -1.0004 0.9577
10.2463 3.2466 -1.0004 0.9577
10.1975 3.3959 -1.0004 0.9577
10.0935 3.6923 -1.0003 0.9577
10.0382 3.8393 -1.0003 0.9577
9.9212 4.1307 -1.0003 0.9577
9.8596 4.2752 -1.0002 0.9577
9.7957 4.4186 -1.0002 0.9577
9.6619 4.7027 -1.0001 0.9578
6.5248 3.2946 -0.6803 0.9711
5.9970 3.3657 -0.6401 0.9728
5.6784 3.4088 -0.6164 0.9737
5.5380 3.4356 -0.6066 0.9742
5.3652 3.5496 -0.5988 0.9745
5.2773 3.7176 -0.6008 0.9744
5.1551 3.8617 -0.5995 0.9745
5.1287 3.9603 -0.6031 0.9743
5.4599 4.4767 -0.6572 0.9720
5.4842 4.6321 -0.6681 0.9716
5.5351 4.9595 -0.6917 0.9706
5.5620 5.1320 -0.7044 0.9701
2.8766 2.8142 -0.3746 0.9840
2.7296 2.8312 -0.3660 0.9843
2.4560 2.8650 -0.3512 0.9850
2.3920 2.8743 -0.3480 0.9851
2.3321 2.8871 -0.3454 0.9852
2.2730 2.8996 -0.3429 0.9853
2.2148 2.9119 -0.3405 0.9854
1.9346 2.9710 -0.3300 0.9859
1.8805 2.9824 -0.3282 0.9859
1.7313 3.1383 -0.3336 0.9857
1.6984 3.1879 -0.3362 0.9856
1.7050 3.3162 -0.3471 0.9851
1.7257 3.4807 -0.3616 0.9845
1.6331 3.5510 -0.3638 0.9844
1.6010 3.6196 -0.3684 0.9842
1.8624 4.5667 -0.4590 0.9804
1.9403 5.1862 -0.5154 0.9780
2.0400 5.9799 -0.5881 0.9749
1.9797 6.0927 -0.5963 0.9746
1.9078 6.1773 -0.6018 0.9744
1.8598 6.3496 -0.6158 0.9738
2.6680 10.2054 -0.9818 0.9585
2.5184 10.2426 -0.9817 0.9585
1.1025 5.9686 -0.5649 0.9759
0.9064 5.8612 -0.5520 0.9765
0.4786 3.4255 -0.3219 0.9862
0.2808 2.9477 -0.2756 0.9882
0.2347 2.9143 -0.2721 0.9883
0.1481 2.8927 -0.2696 0.9884
0.1059 2.8971 -0.2698 0.9884
-0.1067 2.9196 -0.2719 0.9883
-0.1497 2.9241 -0.2725 0.9883
-0.2362 2.9332 -0.2739 0.9882
-0.4580 2.9616 -0.2789 0.9880
-0.5039 2.9704 -0.2804 0.9880
-0.5503 2.9792 -0.2820 0.9879
-0.5972 2.9881 -0.2836 0.9878
-0.6447 2.9971 -0.2853 0.9878
-0.6927 3.0062 -0.2871 0.9877
-0.7907 3.0248 -0.2910 0.9875
-0.8408 3.0342 -0.2930 0.9874
-1.1106 3.2555 -0.3202 0.9863
-2.0453 5.7203 -0.5654 0.9759
-2.1203 5.6675 -0.5632 0.9760
-2.2028 5.6356 -0.5632 0.9760
-2.3077 5.2175 -0.5310 0.9773
-2.3338 5.0747 -0.5199 0.9778
-2.3828 4.8061 -0.4993 0.9787
-2.4059 4.6795 -0.4897 0.9791
-2.4494 4.4403 -0.4720 0.9798
-2.4701 4.3270 -0.4637 0.9802
-2.5093 4.1117 -0.4483 0.9808
-2.5279 4.0093 -0.4411 0.9811
-2.5460 3.9101 -0.4343 0.9814
-2.5969 3.6298 -0.4154 0.9822
-2.5214 3.2165 -0.3804 0.9837
-2.6031 3.0366 -0.3723 0.9841
-2.6495 3.0009 -0.3726 0.9840
-2.7053 2.9753 -0.3743 0.9840
-0.5710 0.5269 -0.0723 0.9969
-0.5713 0.5119 -0.0714 0.9969
-0.5716 0.4973 -0.0705 0.9970
-0.5719 0.4689 -0.0688 0.9970
-0.5696 0.4267 -0.0662 0.9971
-0.5688 0.4132 -0.0654 0.9972
-0.5679 0.4000 -0.0647 0.9972
-0.5670 0.3872 -0.0639 0.9972
-0.5661 0.3746 -0.0632 0.9973
-0.5652 0.3622 -0.0625 0.9973
-0.5643 0.3500 -0.0618 0.9973
-0.5634 0.3382 -0.0612 0.9974
-0.5605 0.3038 -0.0593 0.9974
-0.5594 0.2928 -0.0588 0.9975
-0.5585 0.2820 -0.0582 0.9975
-0.5580 0.2715 -0.0578 0.9975
-0.5546 0.2214 -0.0556 0.9976
-0.5531 0.2023 -0.0548 0.9976
-0.5517 0.1837 -0.0541 0.9977
-0.5512 0.1746 -0.0538 0.9977
-0.5500 0.1568 -0.0532 0.9977
-0.5487 0.1391 -0.0527 0.9977
-0.5480 0.1305 -0.0524 0.9977
-0.5466 0.1134 -0.0520 0.9978
-0.5458 0.1050 -0.0517 0.9978
-0.5423 0.0637 -0.0508 0.9978
-0.5393 0.0315 -0.0503 0.9978
-0.5384 0.0236 -0.0502 0.9978
-0.5366 0.0079 -0.0500 0.9978
-0.5179 0.0000 -0.0540 0.9979
-0.5204 -0.0228 -0.0543 0.9979
-0.5233 -0.0537 -0.0548 0.9979
-0.5246 -0.0694 -0.0552 0.9979
-0.5251 -0.0773 -0.0553 0.9979
-0.5278 -0.1176 -0.0564 0.9978
-0.5290 -0.1342 -0.0569 0.9978
-0.5306 -0.1596 -0.0578 0.9978
-0.5310 -0.1683 -0.0581 0.9978
-0.5314 -0.1770 -0.0584 0.9977
-0.5322 -0.1947 -0.0591 0.9977
-0.5329 -0.2038 -0.0595 0.9977
-0.5345 -0.2318 -0.0607 0.9977
-0.5350 -0.2413 -0.0612 0.9976
-0.5358 -0.2608 -0.0621 0.9976
-0.5362 -0.2707 -0.0626 0.9976
-0.5365 -0.2808 -0.0631 0.9976
-0.5368 -0.2911 -0.0637 0.9975
-0.5392 -0.3345 -0.0662 0.9975
-0.5403 -0.3575 -0.0676 0.9974
-0.5429 -0.4192 -0.0715 0.9972
-0.5432 -0.4323 -0.0724 0.9972
-0.5436 -0.4457 -0.0733 0.9972
-0.5439 -0.4594 -0.0742 0.9971
-0.5444 -0.4878 -0.0762 0.9971
-0.5439 -0.5018 -0.0772 0.9970
-0.5432 -0.5161 -0.0781 0.9970
-0.5424 -0.5307 -0.0791 0.9970
-0.5416 -0.5456 -0.0802 0.9969
-0.5419 -0.5621 -0.0814 0.9969
-2.3953 -2.7129 -0.3773 0.9856
-2.4686 -2.9664 -0.4024 0.9846
-2.4804 -3.0707 -0.4116 0.9843
-2.4929 -3.1801 -0.4213 0.9839
-2.3654 -3.4105 -0.4327 0.9834
-2.3651 -3.5188 -0.4421 0.9831
-2.3372 -3.5893 -0.4466 0.9829
-2.2807 -3.6171 -0.4458 0.9830
-2.2245 -3.6450 -0.4452 0.9830
-2.1128 -3.7011 -0.4443 0.9830
-2.0573 -3.7294 -0.4441 0.9830
-2.0020 -3.7579 -0.4439 0.9830
-1.9468 -3.7866 -0.4439 0.9830
-1.8367 -3.8446 -0.4443 0.9830
-1.7817 -3.8741 -0.4446 0.9830
-1.7267 -3.9038 -0.4451 0.9830
-1.6717 -3.9337 -0.4456 0.9830
-1.6559 -4.0605 -0.4572 0.9825
-2.8634 -8.8128 -0.9661 0.9634
-2.7264 -8.8281 -0.9633 0.9635
-2.5476 -9.1935 -0.9947 0.9624
-2.4131 -9.2304 -0.9947 0.9624
-2.2781 -9.2652 -0.9948 0.9624
-2.1426 -9.2980 -0.9949 0.9624
-1.8703 -9.3579 -0.9950 0.9623
-1.7334 -9.3847 -0.9950 0.9623
-1.5962 -9.4096 -0.9951 0.9623
-0.4447 -4.0422 -0.4240 0.9838
-0.9054 -9.5039 -0.9954 0.9623
-0.3133 -3.8896 -0.4069 0.9844
-0.5606 -8.5127 -0.8895 0.9663
-0.1888 -3.6888 -0.3851 0.9853
-0.0698 -9.5503 -0.9958 0.9623
0.2093 -9.5495 -0.9959 0.9623
0.3489 -9.5460 -0.9960 0.9623
0.4884 -9.5405 -0.9960 0.9623
1.0451 -9.4980 -0.9963 0.9623
1.5985 -9.4231 -0.9965 0.9623
1.7362 -9.3993 -0.9966 0.9623
2.2304 -8.5315 -0.9194 0.9652
2.3648 -8.5337 -0.9233 0.9650
2.8219 -9.1371 -0.9971 0.9623
1.2180 -3.1161 -0.3488 0.9866
1.2767 -3.1306 -0.3525 0.9865
1.3980 -3.1607 -0.3603 0.9862
1.5250 -3.1921 -0.3689 0.9859
1.5907 -3.2084 -0.3734 0.9857
1.6104 -3.0227 -0.3571 0.9863
1.9042 -3.2252 -0.3905 0.9851
2.1195 -3.1534 -0.3962 0.9848
2.2553 -3.2518 -0.4126 0.9842
2.3600 -3.1988 -0.4145 0.9841
2.4872 -3.2701 -0.4284 0.9836
2.5109 -3.2030 -0.4243 0.9838
2.5341 -3.1371 -0.4205 0.9839
2.5568 -3.0723 -0.4167 0.9841
2.5790 -3.0084 -0.4132 0.9842
2.6007 -2.9456 -0.4097 0.9843
6.5470 -6.9923 -0.9987 0.9622
6.7491 -6.7986 -0.9988 0.9622
6.8481 -6.6996 -0.9989 0.9622
4.2156 -3.6675 -0.5826 0.9778
4.2960 -3.6285 -0.5863 0.9776
4.4600 -3.5491 -0.5943 0.9773
4.6291 -3.4677 -0.6031 0.9770
4.5617 -3.2135 -0.5818 0.9778
4.6932 -3.2045 -0.5925 0.9774
5.0999 -3.0614 -0.6202 0.9764
5.5872 -2.9244 -0.6575 0.9750
8.7167 -3.6293 -0.9845 0.9627
8.8195 -3.3732 -0.9845 0.9627
8.9594 -2.9836 -0.9846 0.9627
9.2608 -2.4935 -1.0000 0.9622
9.2963 -2.3579 -1.0000 0.9622
9.3300 -2.2219 -1.0000 0.9622
9.3615 -2.0854 -1.0000 0.9622
9.3911 -1.9484 -1.0000 0.9622
9.4188 -1.8110 -1.0000 0.9622
9.4894 -1.3966 -1.0001 0.9622
9.5089 -1.2578 -1.0001 0.9622
9.5263 -1.1187 -1.0001 0.9622
9.5550 -0.8399 -1.0001 0.9622
9.5879 0.2803 -1.0001 0.9622
9.5550 0.8399 -1.0001 0.9622
9.5417 0.9794 -1.0001 0.9622
9.5263 1.1187 -1.0001 0.9622
9.4894 1.3966 -1.0001 0.9622
9.3912 1.9484 -1.0000 0.9622
9.3300 2.2219 -1.0000 0.9622
9.2964 2.3580 -1.0000 0.9622
9.2608 2.4935 -1.0000 0.9622
9.2232 2.6286 -0.9999 0.9622
9.1837 2.7629 -0.9999 0.9622
9.0987 3.0300 -0.9999 0.9622
9.0532 3.1626 -0.9999 0.9622
8.8523 3.6857 -0.9998 0.9622
6.8804 3.4741 -0.8036 0.9695
6.7119 3.5131 -0.7899 0.9700
6.6242 3.5914 -0.7856 0.9702
6.5759 3.6906 -0.7862 0.9701
8.2190 4.9339 -0.9995 0.9622
5.4337 3.4818 -0.6729 0.9744
5.3681 3.5515 -0.6711 0.9744
5.3290 3.6386 -0.6728 0.9744
5.2729 3.7145 -0.6725 0.9744
5.1506 3.8584 -0.6710 0.9745
5.1245 3.9570 -0.6750 0.9743
5.1373 4.0880 -0.6845 0.9739
5.4637 4.4798 -0.7367 0.9720
5.5450 4.9683 -0.7763 0.9705
7.0416 6.4973 -0.9990 0.9622
2.8810 2.8185 -0.4202 0.9839
2.8052 2.8257 -0.4151 0.9841
2.6588 2.8397 -0.4056 0.9845
2.5882 2.8464 -0.4011 0.9846
2.5190 2.8530 -0.3968 0.9848
2.4513 2.8595 -0.3927 0.9850
2.2085 2.9037 -0.3804 0.9854
2.1509 2.9154 -0.3777 0.9855
2.0379 2.9383 -0.3728 0.9857
1.7943 3.0391 -0.3680 0.9859
1.7630 3.0882 -0.3708 0.9858
1.6990 3.1891 -0.3768 0.9856
1.7048 3.3158 -0.3887 0.9851
1.6086 3.4976 -0.4014 0.9846
1.5708 3.5513 -0.4049 0.9845
1.5445 3.6345 -0.4117 0.9842
2.0357 5.9670 -0.6574 0.9750
1.9062 6.1721 -0.6735 0.9744
1.8589 6.3465 -0.6895 0.9738
2.5073 9.0480 -0.9789 0.9629
2.3747 9.0831 -0.9789 0.9629
2.2416 9.1163 -0.9788 0.9629
1.9740 9.1768 -0.9787 0.9630
1.8396 9.2041 -0.9786 0.9630
1.0985 5.9470 -0.6305 0.9760
0.5746 3.3870 -0.3582 0.9863
0.5172 3.3446 -0.3529 0.9865
0.3773 3.0220 -0.3175 0.9878
0.2805 2.9443 -0.3084 0.9882
0.2341 2.9070 -0.3041 0.9883
0.1476 2.8838 -0.3011 0.9885
0.1056 2.8883 -0.3013 0.9884
0.0212 2.8972 -0.3021 0.9884
-0.0212 2.9018 -0.3025 0.9884
-0.0637 2.9062 -0.3031 0.9884
-0.1063 2.9106 -0.3037 0.9884
-0.1922 2.9195 -0.3051 0.9883
-0.2355 2.9240 -0.3059 0.9883
-0.2789 2.9285 -0.3067 0.9882
-0.3667 2.9375 -0.3086 0.9882
-0.4112 2.9434 -0.3099 0.9881
-0.5022 2.9607 -0.3131 0.9880
-0.6904 2.9962 -0.3206 0.9877
-0.7881 3.0145 -0.3249 0.9875
-0.8379 3.0238 -0.3272 0.9875
-1.1087 3.2498 -0.3580 0.9863
-2.0411 5.7086 -0.6321 0.9759
-2.2557 5.5313 -0.6228 0.9763
-2.2821 5.3703 -0.6084 0.9768
-2.4032 4.6743 -0.5480 0.9791
-2.4463 4.4346 -0.5281 0.9798
-2.4670 4.3216 -0.5188 0.9802
-2.5249 4.0045 -0.4936 0.9811
-2.5430 3.9055 -0.4859 0.9814
-2.5940 3.6258 -0.4648 0.9822
-2.6100 3.5378 -0.4584 0.9825
-2.4817 3.2629 -0.4274 0.9836
-2.4851 3.1701 -0.4200 0.9839
-2.5063 3.1027 -0.4159 0.9841
-2.5758 3.0047 -0.4126 0.9842
-2.6214 2.9690 -0.4130 0.9842
-2.6748 2.9418 -0.4146 0.9841
-0.5416 0.5455 -0.0802 0.9969
-0.5432 0.5161 -0.0781 0.9970
-0.5439 0.5018 -0.0772 0.9970
-0.5444 0.4878 -0.0762 0.9971
-0.5442 0.4734 -0.0752 0.9971
-0.5428 0.4192 -0.0715 0.9972
-0.5414 0.3814 -0.0690 0.9973
-0.5398 0.3459 -0.0668 0.9974
-0.5392 0.3345 -0.0662 0.9975
-0.5368 0.2911 -0.0637 0.9975
-0.5358 0.2608 -0.0621 0.9976
-0.5354 0.2510 -0.0617 0.9976
-0.5345 0.2318 -0.0607 0.9977
-0.5340 0.2223 -0.0603 0.9977
-0.5335 0.2130 -0.0599 0.9977
-0.5329 0.2039 -0.0595 0.9977
-0.5318 0.1857 -0.0587 0.9977
-0.5306 0.1596 -0.0578 0.9978
-0.5296 0.1426 -0.0572 0.9978
-0.5285 0.1259 -0.0566 0.9978
-0.5272 0.1094 -0.0561 0.9978
-0.5267 0.1013 -0.0559 0.9978
-0.5262 0.0932 -0.0557 0.9979
-0.5251 0.0773 -0.0553 0.9979
-0.5233 0.0537 -0.0548 0.9979
-0.5219 0.0382 -0.0546 0.9979
-0.5204 0.0228 -0.0543 0.9979
-0.5196 0.0152 -0.0542 0.9979
-0.5187 0.0076 -0.0541 0.9979
-0.5035 -0.0221 -0.0582 0.9980
-0.5055 -0.0444 -0.0586 0.9980
-0.5061 -0.0520 -0.0588 0.9980
-0.5078 -0.0747 -0.0593 0.9979
-0.5083 -0.0824 -0.0595 0.9979
-0.5091 -0.0979 -0.0599 0.9979
-0.5095 -0.1057 -0.0601 0.9979
-0.5107 -0.1295 -0.0608 0.9979
-0.5119 -0.1540 -0.0617 0.9978
-0.5122 -0.1623 -0.0620 0.9978
-0.5128 -0.1791 -0.0627 0.9978
-0.5133 -0.1963 -0.0635 0.9978
-0.5138 -0.2052 -0.0639 0.9978
-0.5158 -0.2797 -0.0678 0.9976
-0.5159 -0.2895 -0.0683 0.9976
-0.5159 -0.2996 -0.0689 0.9976
-0.5159 -0.3097 -0.0695 0.9976
-0.5161 -0.3202 -0.0701 0.9976
-0.5165 -0.3310 -0.0708 0.9975
-0.5168 -0.3419 -0.0716 0.9975
-0.5170 -0.3530 -0.0723 0.9975
-0.5173 -0.3644 -0.0731 0.9975
-0.5174 -0.3759 -0.0739 0.9974
-0.5178 -0.3998 -0.0755 0.9974
-0.5178 -0.4121 -0.0764 0.9973
-0.5179 -0.4246 -0.0773 0.9973
-0.5178 -0.4375 -0.0783 0.9973
-0.5178 -0.4505 -0.0793 0.9972
-0.5177 -0.4638 -0.0803 0.9972
-0.5161 -0.5198 -0.0846 0.9971
-0.5206 -0.5725 -0.0894 0.9969
-0.6077 -0.6882 -0.1060 0.9963
-2.4496 -2.8575 -0.4346 0.9850
-2.4073 -2.8927 -0.4346 0.9850
-2.4912 -3.3768 -0.4846 0.9832
-4.8002 -7.1415 -0.9937 0.9659
-2.2609 -3.5857 -0.4895 0.9831
-2.0911 -3.6630 -0.4871 0.9832
-1.9777 -3.7122 -0.4857 0.9832
-1.8640 -3.7596 -0.4846 0.9832
-2.0076 -4.2025 -0.5378 0.9814
-1.8438 -4.1686 -0.5264 0.9818
-1.7643 -4.1518 -0.5209 0.9820
-3.1349 -8.0203 -0.9944 0.9659
-2.6616 -8.1915 -0.9946 0.9659
-2.5417 -8.2299 -0.9947 0.9659
-2.3004 -8.3016 -0.9948 0.9659
-2.1790 -8.3348 -0.9948 0.9659
-1.8119 -8.4236 -0.9950 0.9659
-1.6888 -8.4496 -0.9951 0.9659
-1.5652 -8.4739 -0.9951 0.9659
-1.4413 -8.4964 -0.9952 0.9659
-1.0678 -8.5528 -0.9953 0.9659
-0.4447 -4.0421 -0.4696 0.9838
-0.8175 -8.5813 -0.9954 0.9659
-0.3135 -3.8928 -0.4510 0.9844
-0.2535 -3.8498 -0.4455 0.9846
-0.1890 -8.6205 -0.9957 0.9659
0.0630 -8.6233 -0.9958 0.9659
0.4409 -8.6137 -0.9960 0.9659
1.0688 -8.5610 -0.9963 0.9659
1.1938 -8.5449 -0.9963 0.9659
1.3186 -8.5271 -0.9964 0.9659
1.4432 -8.5073 -0.9965 0.9659
1.5674 -8.4858 -0.9965 0.9658
1.9381 -8.4104 -0.9967 0.9658
2.0609 -8.3816 -0.9967 0.9658
2.3052 -8.3188 -0.9968 0.9658
2.4266 -8.2846 -0.9969 0.9658
2.6679 -8.2111 -0.9970 0.9658
1.0488 -3.0742 -0.3751 0.9870
1.1041 -3.0879 -0.3787 0.9869
1.2180 -3.1161 -0.3864 0.9866
1.3980 -3.1607 -0.3991 0.9862
1.5853 -2.9758 -0.3894 0.9865
1.5374 -2.6930 -0.3581 0.9876
2.0534 -3.2566 -0.4446 0.9846
2.1045 -3.2320 -0.4454 0.9846
2.2062 -3.1810 -0.4470 0.9845
2.2572 -3.1550 -0.4480 0.9845
2.3083 -3.1289 -0.4490 0.9845
2.4481 -3.2187 -0.4670 0.9838
2.4718 -3.1532 -0.4627 0.9840
2.5616 -2.9013 -0.4469 0.9845
2.5829 -2.8407 -0.4434 0.9847
6.0013 -6.2246 -0.9985 0.9658
6.0919 -6.1365 -0.9985 0.9658
6.1811 -6.0471 -0.9986 0.9658
4.2470 -3.6949 -0.6501 0.9776
4.1273 -3.4861 -0.6239 0.9785
3.8762 -3.1782 -0.5788 0.9800
4.4842 -3.4625 -0.6542 0.9774
4.6587 -3.4898 -0.6722 0.9768
4.8835 -3.2309 -0.6762 0.9767
4.9485 -3.0698 -0.6725 0.9768
5.1904 -3.1158 -0.6991 0.9759
5.4342 -3.1551 -0.7256 0.9750
5.9670 -3.1232 -0.7777 0.9732
5.9286 -2.9935 -0.7670 0.9736
6.0220 -2.9311 -0.7734 0.9734
6.8290 -2.9611 -0.8595 0.9705
7.9143 -3.1603 -0.9841 0.9663
7.9598 -3.0444 -0.9841 0.9663
8.1377 -2.5786 -0.9858 0.9662
8.2884 -2.4936 -0.9995 0.9657
8.3580 -2.2504 -0.9995 0.9657
8.5005 -1.6345 -0.9996 0.9657
8.5236 -1.5101 -0.9996 0.9657
8.5642 -1.2604 -0.9996 0.9657
8.5818 -1.1351 -0.9997 0.9657
8.6114 -0.8839 -0.9997 0.9657
8.6336 -0.6319 -0.9997 0.9657
8.6485 -0.3794 -0.9997 0.9657
8.6531 -0.2530 -0.9997 0.9657
8.6568 0.0000 -0.9997 0.9657
8.6559 0.1265 -0.9997 0.9657
8.6420 0.5057 -0.9997 0.9657
8.6337 0.6319 -0.9997 0.9657
8.5975 1.0096 -0.9997 0.9657
8.5818 1.1352 -0.9997 0.9657
8.5642 1.2604 -0.9996 0.9657
8.5448 1.3854 -0.9996 0.9657
8.5236 1.5100 -0.9996 0.9657
8.4757 1.7584 -0.9996 0.9657
8.4205 2.0053 -0.9996 0.9657
8.3901 2.1281 -0.9996 0.9657
8.2885 2.4936 -0.9995 0.9657
8.1708 2.8543 -0.9995 0.9658
8.1280 2.9733 -0.9995 0.9658
8.0836 3.0917 -0.9994 0.9658
7.9398 3.4427 -0.9994 0.9658
7.8885 3.5583 -0.9993 0.9658
7.7808 3.7871 -0.9993 0.9658
7.7244 3.9003 -0.9993 0.9658
6.6264 3.7189 -0.8775 0.9699
6.6436 3.8573 -0.8871 0.9695
7.3520 4.5609 -0.9991 0.9658
7.2844 4.6677 -0.9991 0.9658
7.2152 4.7735 -0.9990 0.9658
5.3898 3.6802 -0.7537 0.9741
5.2090 3.7846 -0.7435 0.9744
6.6885 5.4839 -0.9988 0.9658
6.6074 5.5809 -0.9988 0.9658
6.5249 5.6766 -0.9987 0.9658
6.4410 5.7712 -0.9987 0.9658
3.4181 3.1539 -0.5371 0.9814
2.8855 2.8229 -0.4662 0.9839
2.8095 2.8301 -0.4605 0.9841
2.7353 2.8371 -0.4551 0.9843
2.6628 2.8439 -0.4499 0.9844
2.5920 2.8506 -0.4449 0.9846
2.4569 2.8660 -0.4359 0.9849
2.3298 2.8842 -0.4282 0.9852
2.2700 2.8957 -0.4249 0.9853
2.2114 2.9075 -0.4218 0.9854
2.0968 2.9307 -0.4161 0.9856
1.8761 2.9754 -0.4062 0.9859
1.7962 3.0422 -0.4080 0.9859
1.7648 3.0914 -0.4111 0.9858
1.7015 3.1938 -0.4179 0.9855
1.7076 3.3213 -0.4313 0.9851
1.6855 3.3996 -0.4382 0.9848
1.6363 3.4251 -0.4384 0.9848
1.5917 3.4609 -0.4399 0.9848
1.5521 3.5090 -0.4431 0.9847
1.8923 4.8414 -0.6003 0.9793
1.9330 5.1667 -0.6370 0.9780
2.0404 5.9807 -0.7297 0.9749
1.9813 6.0979 -0.7404 0.9745
2.1439 8.2000 -0.9788 0.9664
0.5613 3.3090 -0.3876 0.9866
0.3769 3.0186 -0.3513 0.9878
0.3278 2.9790 -0.3461 0.9880
0.2802 2.9408 -0.3411 0.9882
0.2339 2.9036 -0.3364 0.9883
0.1053 2.8795 -0.3327 0.9885
-0.0635 2.8972 -0.3346 0.9884
-0.1487 2.9061 -0.3360 0.9884
-0.1916 2.9105 -0.3368 0.9883
-0.2781 2.9194 -0.3386 0.9883
-0.3217 2.9238 -0.3397 0.9882
-0.3655 2.9282 -0.3408 0.9882
-0.4099 2.9339 -0.3421 0.9881
-0.4550 2.9424 -0.3438 0.9881
-0.5006 2.9510 -0.3456 0.9880
-0.5467 2.9597 -0.3476 0.9880
-0.5933 2.9685 -0.3496 0.9879
-0.6404 2.9773 -0.3517 0.9878
-0.6881 2.9862 -0.3539 0.9877
-0.8854 3.0229 -0.3637 0.9874
-1.0037 3.0891 -0.3751 0.9870
-1.2003 3.5184 -0.4293 0.9851
-2.0414 5.7095 -0.7002 0.9759
-2.1163 5.6568 -0.6975 0.9760
-2.1986 5.6248 -0.6974 0.9760
-2.2586 5.5385 -0.6907 0.9762
-2.2850 5.3771 -0.6747 0.9767
-2.3343 5.0757 -0.6452 0.9778
-2.3574 4.9347 -0.6315 0.9782
-2.3807 4.8018 -0.6189 0.9787
-2.4458 4.4336 -0.5847 0.9798
-2.4659 4.3196 -0.5744 0.9802
-2.5400 3.9009 -0.5376 0.9814
-2.5575 3.8051 -0.5294 0.9817
-2.5911 3.6217 -0.5142 0.9822
-2.4754 3.3553 -0.4815 0.9834
-2.4845 3.0757 -0.4566 0.9842
-2.5166 3.0239 -0.4543 0.9843
-2.5553 2.9808 -0.4534 0.9843
-0.5206 0.5725 -0.0894 0.9969
-0.5136 0.5485 -0.0868 0.9970
-0.5149 0.5340 -0.0857 0.9970
-0.5179 0.4374 -0.0783 0.9973
-0.5179 0.4246 -0.0773 0.9973
-0.5178 0.4121 -0.0764 0.9973
-0.5178 0.3998 -0.0755 0.9974
-0.5176 0.3878 -0.0747 0.9974
-0.5174 0.3759 -0.0739 0.9974
-0.5173 0.3644 -0.0731 0.9975
-0.5170 0.3531 -0.0723 0.9975
-0.5165 0.3309 -0.0708 0.9975
-0.5159 0.3097 -0.0695 0.9976
-0.5159 0.2895 -0.0683 0.9976
-0.5158 0.2797 -0.0678 0.9976
-0.5157 0.2700 -0.0672 0.9977
-0.5154 0.2508 -0.0662 0.9977
-0.5151 0.2414 -0.0657 0.9977
-0.5149 0.2322 -0.0652 0.9977
-0.5142 0.2141 -0.0643 0.9978
-0.5138 0.2051 -0.0639 0.9978
-0.5128 0.1791 -0.0627 0.9978
-0.5115 0.1458 -0.0614 0.9979
-0.5091 0.0979 -0.0599 0.9979
-0.5083 0.0824 -0.0595 0.9979
-0.5078 0.0747 -0.0593 0.9979
-0.5073 0.0671 -0.0591 0.9979
-0.5062 0.0520 -0.0588 0.9980
-0.5049 0.0370 -0.0585 0.9980
-0.5035 0.0221 -0.0582 0.9980
-0.5027 0.0147 -0.0581 0.9980
-0.5020 0.0073 -0.0580 0.9980
-0.4862 -0.0071 -0.0616 0.9980
-0.4876 -0.0214 -0.0619 0.9980
-0.4889 -0.0358 -0.0621 0.9980
-0.4895 -0.0430 -0.0623 0.9980
-0.4905 -0.0576 -0.0626 0.9980
-0.4915 -0.0723 -0.0630 0.9980
-0.4919 -0.0797 -0.0631 0.9980
-0.4926 -0.0947 -0.0636 0.9980
-0.4929 -0.1023 -0.0638 0.9980
-0.4934 -0.1175 -0.0643 0.9980
-0.4936 -0.1252 -0.0645 0.9979
-0.4942 -0.1408 -0.0651 0.9979
-0.4944 -0.1487 -0.0654 0.9979
-0.4949 -0.1648 -0.0661 0.9979
-0.4950 -0.1729 -0.0664 0.9979
-0.4955 -0.1979 -0.0676 0.9979
-0.4959 -0.2150 -0.0685 0.9978
-0.4961 -0.2238 -0.0690 0.9978
-0.4963 -0.2327 -0.0695 0.9978
-0.4963 -0.2416 -0.0700 0.9978
-0.4964 -0.2507 -0.0705 0.9978
-0.4964 -0.2691 -0.0716 0.9977
-0.4963 -0.2786 -0.0721 0.9977
-0.4955 -0.3175 -0.0746 0.9976
-0.4951 -0.3276 -0.0752 0.9976
-0.4952 -0.3488 -0.0768 0.9976
-0.4951 -0.3597 -0.0775 0.9975
-0.4947 -0.3936 -0.0801 0.9975
-0.4941 -0.4174 -0.0820 0.9974
-0.4933 -0.4421 -0.0839 0.9973
-0.4929 -0.4548 -0.0850 0.9973
-0.4923 -0.4677 -0.0861 0.9973
-0.4917 -0.4811 -0.0872 0.9972
-0.4910 -0.4946 -0.0883 0.9972
-0.4902 -0.5085 -0.0895 0.9972
-0.4882 -0.5370 -0.0920 0.9971
-0.4865 -0.5511 -0.0932 0.9970
-0.4977 -0.5806 -0.0969 0.9969
-0.5820 -0.6994 -0.1153 0.9963
-2.6257 -3.6702 -0.5719 0.9820
-4.0862 -6.6954 -0.9940 0.9689
-3.9881 -6.7546 -0.9940 0.9689
-3.8891 -6.8125 -0.9941 0.9689
-2.2071 -4.1427 -0.5948 0.9813
-1.9567 -4.0958 -0.5752 0.9819
-3.1742 -7.1763 -0.9944 0.9689
-3.0692 -7.2223 -0.9944 0.9689
-2.9634 -7.2667 -0.9945 0.9689
-2.4257 -7.4654 -0.9947 0.9688
-2.2067 -7.5339 -0.9948 0.9688
-1.8747 -7.6245 -0.9950 0.9688
-1.6513 -7.6768 -0.9951 0.9688
-1.2003 -7.7617 -0.9953 0.9688
-0.2538 -3.8546 -0.4895 0.9845
-0.1722 -7.8557 -0.9957 0.9688
-0.0574 -7.8578 -0.9958 0.9688
0.0574 -7.8581 -0.9958 0.9688
0.5164 -7.8430 -0.9960 0.9688
0.7455 -7.8254 -0.9961 0.9688
0.8598 -7.8140 -0.9962 0.9688
0.9740 -7.8011 -0.9962 0.9688
1.2016 -7.7700 -0.9964 0.9688
1.4282 -7.7324 -0.9965 0.9688
1.6537 -7.6882 -0.9966 0.9688
1.8779 -7.6373 -0.9967 0.9688
2.3212 -7.5161 -0.9969 0.9688
2.4309 -7.4817 -0.9969 0.9688
1.0487 -3.0742 -0.4116 0.9870
1.1605 -3.1018 -0.4197 0.9867
1.2180 -3.1161 -0.4240 0.9866
1.2767 -3.1307 -0.4284 0.9865
1.3980 -3.1607 -0.4380 0.9862
1.4608 -3.1762 -0.4430 0.9860
1.5249 -3.1921 -0.4483 0.9858
1.5867 -3.0861 -0.4397 0.9861
1.5375 -2.7870 -0.4033 0.9872
1.5157 -2.6550 -0.3874 0.9877
1.9106 -3.2360 -0.4762 0.9850
1.9290 -3.1608 -0.4692 0.9852
2.0101 -3.1879 -0.4776 0.9849
2.0597 -3.1632 -0.4783 0.9849
1.9251 -2.7756 -0.4280 0.9865
2.2089 -3.0875 -0.4811 0.9848
2.4101 -3.1688 -0.5045 0.9841
2.4338 -3.1046 -0.4999 0.9842
2.4569 -3.0416 -0.4955 0.9844
2.5018 -2.9184 -0.4871 0.9846
2.5449 -2.7988 -0.4794 0.9849
5.5500 -5.5907 -0.9983 0.9687
5.7114 -5.4266 -0.9984 0.9687
4.5958 -4.2405 -0.7924 0.9751
4.2790 -3.7227 -0.7187 0.9774
4.1809 -3.4280 -0.6851 0.9784
4.4327 -3.4228 -0.7097 0.9777
4.8616 -3.4248 -0.7536 0.9763
4.8191 -3.1883 -0.7323 0.9770
5.2498 -3.2568 -0.7829 0.9754
5.4358 -3.2632 -0.8034 0.9748
5.4390 -3.0525 -0.7904 0.9752
5.4406 -2.9497 -0.7843 0.9754
6.1121 -2.9750 -0.8614 0.9730
7.0763 -3.1920 -0.9837 0.9692
7.1668 -2.9839 -0.9838 0.9692
7.2098 -2.8789 -0.9838 0.9692
7.2512 -2.7734 -0.9838 0.9692
7.3730 -2.5756 -0.9897 0.9690
7.4807 -2.4912 -0.9992 0.9687
7.5505 -2.2716 -0.9992 0.9687
7.6139 -2.0500 -0.9992 0.9687
7.6967 -1.7145 -0.9993 0.9687
7.7210 -1.6019 -0.9993 0.9687
7.7647 -1.3756 -0.9993 0.9687
7.8017 -1.1482 -0.9993 0.9687
7.8177 -1.0341 -0.9993 0.9687
7.8446 -0.8052 -0.9993 0.9687
7.8556 -0.6905 -0.9993 0.9687
7.8649 -0.5756 -0.9993 0.9687
7.8784 -0.3456 -0.9993 0.9687
7.8860 0.0000 -0.9993 0.9687
7.8851 0.1152 -0.9993 0.9687
7.8784 0.3456 -0.9993 0.9687
7.8725 0.4607 -0.9993 0.9687
7.8649 0.5756 -0.9993 0.9687
7.8556 0.6905 -0.9993 0.9687
7.8446 0.8052 -0.9993 0.9687
7.7840 1.2620 -0.9993 0.9687
7.6967 1.7145 -0.9993 0.9687
7.6431 1.9386 -0.9992 0.9687
7.6139 2.0500 -0.9992 0.9687
7.5505 2.2716 -0.9992 0.9687
7.4045 2.7086 -0.9991 0.9687
7.3639 2.8165 -0.9991 0.9687
7.2782 3.0303 -0.9991 0.9687
7.1380 3.3462 -0.9990 0.9687
7.0882 3.4500 -0.9990 0.9687
6.9297 3.7570 -0.9989 0.9687
6.8739 3.8578 -0.9989 0.9687
6.7579 4.0568 -0.9988 0.9687
6.6977 4.1550 -0.9988 0.9687
5.3108 3.7412 -0.8232 0.9741
5.2336 3.8024 -0.8198 0.9743
5.1848 3.8839 -0.8209 0.9742
6.1660 4.9067 -0.9986 0.9687
5.9444 5.1716 -0.9985 0.9687
5.8680 5.2578 -0.9984 0.9687
3.3761 3.1152 -0.5821 0.9816
2.8138 2.8344 -0.5061 0.9840
2.7394 2.8414 -0.5002 0.9842
2.5291 2.8645 -0.4842 0.9847
2.3986 2.8822 -0.4752 0.9850
2.3357 2.8915 -0.4710 0.9851
2.1565 2.9230 -0.4603 0.9855
2.0995 2.9345 -0.4572 0.9856
1.9876 2.9571 -0.4515 0.9857
1.8784 2.9791 -0.4463 0.9859
1.7667 3.0946 -0.4516 0.9857
1.7041 3.1986 -0.4593 0.9855
1.6729 3.3743 -0.4773 0.9849
1.6241 3.3995 -0.4774 0.9849
1.5389 3.4792 -0.4821 0.9848
1.5043 3.5398 -0.4874 0.9846
1.8890 4.8328 -0.6575 0.9793
1.9293 5.1570 -0.6977 0.9780
1.9750 5.5235 -0.7434 0.9766
1.9913 6.1285 -0.8166 0.9744
2.0625 7.4428 -0.9787 0.9693
1.6239 7.5491 -0.9785 0.9693
0.6089 3.2964 -0.4248 0.9866
0.4523 3.2375 -0.4143 0.9869
0.3775 3.0238 -0.3862 0.9878
0.3280 2.9811 -0.3800 0.9880
0.2802 2.9407 -0.3743 0.9882
0.2337 2.9015 -0.3689 0.9883
0.1467 2.8662 -0.3637 0.9885
0.1049 2.8707 -0.3640 0.9885
-0.0633 2.8883 -0.3661 0.9884
-0.2340 2.9059 -0.3694 0.9883
-0.2772 2.9103 -0.3705 0.9883
-0.3207 2.9147 -0.3716 0.9882
-0.3644 2.9191 -0.3728 0.9882
-0.4535 2.9329 -0.3761 0.9881
-0.5452 2.9521 -0.3804 0.9880
-0.6393 2.9721 -0.3852 0.9878
-0.6872 2.9823 -0.3878 0.9877
-0.7358 2.9927 -0.3905 0.9877
-0.8351 3.0139 -0.3963 0.9875
-0.8859 3.0248 -0.3994 0.9874
-0.9375 3.0357 -0.4026 0.9873
-1.2675 3.5451 -0.4771 0.9849
-2.1210 5.6694 -0.7671 0.9759
-2.2035 5.6374 -0.7670 0.9759
-2.2879 5.3840 -0.7413 0.9767
-2.3371 5.0820 -0.7088 0.9777
-2.3602 4.9406 -0.6939 0.9782
-2.4249 4.5518 -0.6536 0.9794
-2.4659 4.3196 -0.6303 0.9801
-2.4854 4.2096 -0.6195 0.9805
-2.5042 4.1033 -0.6092 0.9808
-2.5399 3.9008 -0.5899 0.9814
-2.5570 3.8043 -0.5809 0.9817
-2.5735 3.7106 -0.5722 0.9820
-2.4428 3.1162 -0.5018 0.9842
-0.4978 0.5807 -0.0969 0.9969
-0.4865 0.5511 -0.0932 0.9970
-0.4894 0.5226 -0.0907 0.9971
-0.4910 0.4946 -0.0883 0.9972
-0.4923 0.4678 -0.0861 0.9973
-0.4934 0.4421 -0.0839 0.9973
-0.4938 0.4296 -0.0829 0.9974
-0.4941 0.4173 -0.0820 0.9974
-0.4946 0.3936 -0.0801 0.9975
-0.4950 0.3707 -0.0784 0.9975
-0.4952 0.3381 -0.0760 0.9976
-0.4951 0.3276 -0.0752 0.9976
-0.4955 0.3175 -0.0746 0.9976
-0.4957 0.3075 -0.0739 0.9977
-0.4960 0.2977 -0.0733 0.9977
-0.4963 0.2786 -0.0721 0.9977
-0.4964 0.2691 -0.0716 0.9977
-0.4961 0.2238 -0.0690 0.9978
-0.4957 0.2064 -0.0680 0.9978
-0.4952 0.1894 -0.0672 0.9979
-0.4951 0.1811 -0.0668 0.9979
-0.4950 0.1729 -0.0664 0.9979
-0.4947 0.1568 -0.0658 0.9979
-0.4938 0.1330 -0.0648 0.9979
-0.4936 0.1252 -0.0645 0.9979
-0.4934 0.1175 -0.0643 0.9980
-0.4926 0.0947 -0.0636 0.9980
-0.4919 0.0797 -0.0631 0.9980
-0.4883 0.0286 -0.0620 0.9980
-0.4862 0.0071 -0.0616 0.9980
-0.4706 0.0000 -0.0649 0.9981
-0.4714 -0.0068 -0.0651 0.9981
-0.4720 -0.0138 -0.0652 0.9981
-0.4733 -0.0277 -0.0654 0.9981
-0.4744 -0.0417 -0.0657 0.9981
-0.4753 -0.0558 -0.0660 0.9981
-0.4758 -0.0629 -0.0662 0.9981
-0.4765 -0.0773 -0.0666 0.9981
-0.4768 -0.0845 -0.0668 0.9980
-0.4771 -0.0917 -0.0670 0.9980
-0.4774 -0.0991 -0.0673 0.9980
-0.4777 -0.1138 -0.0678 0.9980
-0.4781 -0.1438 -0.0689 0.9980
-0.4782 -0.1515 -0.0692 0.9980
-0.4783 -0.1593 -0.0696 0.9980
-0.4784 -0.1671 -0.0699 0.9980
-0.4785 -0.1992 -0.0715 0.9979
-0.4786 -0.2075 -0.0720 0.9979
-0.4786 -0.2159 -0.0725 0.9979
-0.4785 -0.2416 -0.0740 0.9978
-0.4784 -0.2504 -0.0745 0.9978
-0.4783 -0.2593 -0.0751 0.9978
-0.4780 -0.2683 -0.0757 0.9978
-0.4774 -0.2866 -0.0769 0.9978
-0.4767 -0.3054 -0.0781 0.9977
-0.4762 -0.3150 -0.0788 0.9977
-0.4742 -0.3552 -0.0818 0.9976
-0.4738 -0.3659 -0.0826 0.9976
-0.4734 -0.3767 -0.0835 0.9976
-0.4704 -0.4341 -0.0883 0.9974
-0.4688 -0.4586 -0.0905 0.9974
-0.4678 -0.4712 -0.0916 0.9973
-0.4668 -0.4841 -0.0928 0.9973
-0.4632 -0.5246 -0.0966 0.9972
-4.1050 -5.9186 -0.9940 0.9713
-4.0182 -5.9782 -0.9940 0.9713
-3.7528 -6.1493 -0.9941 0.9713
-2.0680 -4.0224 -0.6242 0.9819
-1.9873 -4.0082 -0.6174 0.9821
-2.9152 -6.5907 -0.9945 0.9713
-2.8187 -6.6329 -0.9946 0.9713
-2.7216 -6.6736 -0.9946 0.9713
-2.6239 -6.7131 -0.9946 0.9713
-2.4268 -6.7875 -0.9947 0.9713
-2.3275 -6.8225 -0.9948 0.9713
-2.1274 -6.8882 -0.9949 0.9713
-2.0266 -6.9189 -0.9949 0.9713
-1.9253 -6.9480 -0.9950 0.9713
-1.8237 -6.9757 -0.9950 0.9713
-1.6192 -7.0267 -0.9951 0.9713
-1.5165 -7.0499 -0.9951 0.9713
-1.3100 -7.0919 -0.9952 0.9713
-1.2062 -7.1106 -0.9953 0.9713
-1.1023 -7.1279 -0.9953 0.9713
-0.3142 -3.9011 -0.5401 0.9843
-0.4740 -7.1989 -0.9956 0.9713
-0.1906 -3.7242 -0.5146 0.9851
-0.2635 -7.2105 -0.9957 0.9713
-0.1582 -7.2139 -0.9957 0.9713
-0.0527 -7.2157 -0.9958 0.9713
0.0527 -7.2161 -0.9958 0.9713
0.3690 -7.2079 -0.9960 0.9713
0.4743 -7.2020 -0.9960 0.9713
0.6846 -7.1858 -0.9961 0.9713
0.8943 -7.1634 -0.9962 0.9713
1.1034 -7.1349 -0.9963 0.9713
1.2075 -7.1183 -0.9964 0.9713
1.4151 -7.0806 -0.9964 0.9713
1.6216 -7.0370 -0.9965 0.9713
1.8267 -6.9871 -0.9966 0.9713
2.0303 -6.9314 -0.9967 0.9713
1.1605 -3.1018 -0.4570 0.9867
1.2180 -3.1161 -0.4617 0.9866
1.5880 -3.2028 -0.4933 0.9857
1.5616 -3.0373 -0.4713 0.9863
1.5151 -2.7465 -0.4329 0.9874
1.8227 -3.1929 -0.5074 0.9853
1.9681 -3.1214 -0.5092 0.9852
2.0166 -3.0970 -0.5100 0.9852
2.1625 -3.0226 -0.5129 0.9851
2.3490 -3.1839 -0.5460 0.9842
2.3731 -3.1202 -0.5410 0.9843
2.4199 -2.9958 -0.5314 0.9846
2.4648 -2.8752 -0.5226 0.9848
2.5286 -2.7007 -0.5105 0.9852
5.0955 -5.1328 -0.9981 0.9712
5.1701 -5.0580 -0.9981 0.9712
5.2437 -4.9821 -0.9982 0.9712
4.1492 -3.8285 -0.7791 0.9775
4.2792 -3.7229 -0.7827 0.9774
4.2364 -3.3712 -0.7471 0.9784
4.3823 -3.3839 -0.7641 0.9779
4.5500 -3.4084 -0.7845 0.9773
4.9136 -3.4613 -0.8294 0.9760
5.1112 -3.4900 -0.8541 0.9753
4.8478 -3.2073 -0.8021 0.9768
5.0487 -3.2351 -0.8275 0.9761
5.2387 -3.2499 -0.8507 0.9754
5.4407 -3.1589 -0.8682 0.9749
5.7934 -3.1410 -0.9094 0.9737
6.4077 -3.1188 -0.9834 0.9716
6.4964 -2.9304 -0.9835 0.9716
6.5386 -2.8352 -0.9835 0.9716
6.5795 -2.7394 -0.9835 0.9716
6.6189 -2.6430 -0.9835 0.9716
6.7975 -2.4866 -0.9989 0.9712
6.8675 -2.2870 -0.9989 0.9712
6.9003 -2.1865 -0.9989 0.9712
6.9316 -2.0854 -0.9989 0.9712
6.9615 -1.9839 -0.9989 0.9712
6.9898 -1.8820 -0.9989 0.9712
7.0166 -1.7797 -0.9990 0.9712
7.0420 -1.6770 -0.9990 0.9712
7.1089 -1.3669 -0.9990 0.9712
7.1459 -1.1586 -0.9990 0.9712
7.1621 -1.0541 -0.9990 0.9712
7.2016 -0.7392 -0.9990 0.9712
7.2117 -0.6339 -0.9990 0.9712
7.2202 -0.5285 -0.9990 0.9712
7.2271 -0.4229 -0.9990 0.9712
7.2326 0.3173 -0.9991 0.9712
7.2272 0.4229 -0.9990 0.9712
7.2117 0.6339 -0.9990 0.9712
7.2016 0.7392 -0.9990 0.9712
7.1900 0.8444 -0.9990 0.9712
7.1769 0.9493 -0.9990 0.9712
7.1282 1.2628 -0.9990 0.9712
7.0881 1.4706 -0.9990 0.9712
7.0658 1.5740 -0.9990 0.9712
7.0166 1.7797 -0.9990 0.9712
6.9898 1.8821 -0.9989 0.9712
6.9615 1.9839 -0.9989 0.9712
6.9317 2.0854 -0.9989 0.9712
6.9004 2.1864 -0.9989 0.9712
6.8333 2.3871 -0.9989 0.9712
6.7976 2.4866 -0.9989 0.9712
6.7604 2.5857 -0.9988 0.9712
6.6403 2.8793 -0.9988 0.9712
6.5974 2.9759 -0.9988 0.9712
6.5531 3.0720 -0.9987 0.9712
6.4602 3.2620 -0.9987 0.9712
6.3619 3.4492 -0.9987 0.9712
6.2042 3.7244 -0.9986 0.9712
6.0924 3.9039 -0.9985 0.9712
5.9754 4.0800 -0.9985 0.9712
5.3736 3.7854 -0.9071 0.9738
5.2848 3.8396 -0.9015 0.9740
5.6609 4.5047 -0.9984 0.9712
5.5943 4.5868 -0.9983 0.9712
5.4575 4.7480 -0.9983 0.9712
2.7436 2.8457 -0.5455 0.9842
2.6032 2.8629 -0.5340 0.9845
2.4047 2.8896 -0.5188 0.9849
2.3416 2.8988 -0.5142 0.9851
2.2795 2.9079 -0.5099 0.9852
2.2185 2.9168 -0.5057 0.9853
1.9902 2.9609 -0.4923 0.9857
1.8809 2.9830 -0.4866 0.9859
1.8308 2.9999 -0.4850 0.9859
1.7066 3.2034 -0.5009 0.9855
1.7133 3.3323 -0.5171 0.9850
1.4663 3.5957 -0.5359 0.9844
1.8919 4.8404 -0.7172 0.9792
1.9296 5.1576 -0.7599 0.9780
2.1823 6.1035 -0.8945 0.9742
2.0902 6.1268 -0.8934 0.9742
2.0128 6.1949 -0.8989 0.9740
1.9287 6.9602 -0.9967 0.9713
1.8267 6.9873 -0.9966 0.9713
1.6216 7.0370 -0.9966 0.9713
0.6013 3.2558 -0.4569 0.9867
0.3782 3.0298 -0.4213 0.9877
0.1888 2.8671 -0.3965 0.9885
0.0631 2.8764 -0.3970 0.9884
0.0211 2.8807 -0.3975 0.9884
-0.0210 2.8851 -0.3981 0.9884
-0.1057 2.8939 -0.3996 0.9884
-0.1483 2.8983 -0.4005 0.9884
-0.1911 2.9028 -0.4014 0.9883
-0.2342 2.9073 -0.4025 0.9883
-0.2774 2.9118 -0.4036 0.9883
-0.3209 2.9164 -0.4049 0.9882
-0.3648 2.9219 -0.4063 0.9882
-0.4541 2.9365 -0.4100 0.9881
-0.4998 2.9461 -0.4124 0.9880
-0.5928 2.9659 -0.4174 0.9879
-0.7862 3.0072 -0.4289 0.9875
-0.8871 3.0288 -0.4355 0.9873
-1.0113 3.1123 -0.4516 0.9869
-1.2478 3.4900 -0.5115 0.9851
-2.1315 5.6975 -0.8395 0.9757
-2.3160 5.2361 -0.7901 0.9771
-2.3400 5.0882 -0.7729 0.9776
-2.3630 4.9466 -0.7565 0.9781
-2.4267 4.5551 -0.7122 0.9794
-2.4660 4.3198 -0.6864 0.9801
-2.4854 4.2097 -0.6746 0.9805
-2.5042 4.1034 -0.6634 0.9808
-2.5400 3.9009 -0.6424 0.9814
-2.5570 3.8043 -0.6326 0.9817
-2.5736 3.7107 -0.6232 0.9819
-2.5896 3.6197 -0.6142 0.9822
-0.5518 0.7039 -0.1234 0.9964
-0.4734 0.5861 -0.1040 0.9970
-0.4603 0.5530 -0.0993 0.9971
-0.4632 0.5246 -0.0966 0.9972
-0.4668 0.4842 -0.0928 0.9973
-0.4678 0.4713 -0.0916 0.9973
-0.4696 0.4462 -0.0894 0.9974
-0.4704 0.4341 -0.0883 0.9974
-0.4734 0.3767 -0.0835 0.9976
-0.4738 0.3659 -0.0826 0.9976
-0.4767 0.3054 -0.0781 0.9977
-0.4771 0.2960 -0.0775 0.9977
-0.4778 0.2774 -0.0762 0.9978
-0.4781 0.2683 -0.0757 0.9978
-0.4784 0.2504 -0.0745 0.9978
-0.4786 0.2330 -0.0735 0.9979
-0.4787 0.2159 -0.0725 0.9979
-0.4786 0.2075 -0.0720 0.9979
-0.4785 0.1992 -0.0715 0.9979
-0.4783 0.1593 -0.0696 0.9980
-0.4781 0.1438 -0.0689 0.9980
-0.4780 0.1362 -0.0686 0.9980
-0.4779 0.1212 -0.0680 0.9980
-0.4777 0.1138 -0.0678 0.9980
-0.4776 0.1064 -0.0675 0.9980
-0.4771 0.0918 -0.0670 0.9980
-0.4768 0.0845 -0.0668 0.9980
-0.4765 0.0773 -0.0666 0.9981
-0.4758 0.0629 -0.0662 0.9981
-0.4753 0.0558 -0.0660 0.9981
-0.4749 0.0487 -0.0659 0.9981
-0.4744 0.0417 -0.0657 0.9981
-0.4727 0.0207 -0.0653 0.9981
-0.4720 0.0138 -0.0652 0.9981
-0.4567 0.0000 -0.0682 0.9982
-0.4580 -0.0134 -0.0684 0.9981
-0.4586 -0.0201 -0.0685 0.9981
-0.4591 -0.0269 -0.0687 0.9981
-0.4601 -0.0405 -0.0690 0.9981
-0.4606 -0.0473 -0.0691 0.9981
-0.4610 -0.0541 -0.0693 0.9981
-0.4629 -0.1031 -0.0708 0.9981
-0.4630 -0.1174 -0.0713 0.9981
-0.4631 -0.1246 -0.0716 0.9981
-0.4628 -0.1541 -0.0728 0.9980
-0.4628 -0.1617 -0.0732 0.9980
-0.4628 -0.1693 -0.0736 0.9980
-0.4627 -0.1770 -0.0740 0.9980
-0.4625 -0.1847 -0.0744 0.9980
-0.4624 -0.1925 -0.0748 0.9980
-0.4622 -0.2167 -0.0762 0.9979
-0.4621 -0.2249 -0.0767 0.9979
-0.4619 -0.2332 -0.0773 0.9979
-0.4617 -0.2417 -0.0778 0.9979
-0.4614 -0.2501 -0.0784 0.9979
-0.4610 -0.2588 -0.0789 0.9979
-0.4602 -0.2763 -0.0801 0.9978
-0.4586 -0.3034 -0.0821 0.9978
-0.4572 -0.3221 -0.0835 0.9977
-0.4564 -0.3316 -0.0842 0.9977
-0.4547 -0.3511 -0.0858 0.9977
-0.4539 -0.3612 -0.0866 0.9977
-0.4532 -0.3716 -0.0875 0.9976
-0.4525 -0.3822 -0.0884 0.9976
-0.4517 -0.3930 -0.0894 0.9976
-0.4499 -0.4152 -0.0914 0.9975
-0.4489 -0.4265 -0.0925 0.9975
-0.4467 -0.4500 -0.0947 0.9974
-0.4454 -0.4620 -0.0958 0.9974
-0.4441 -0.4743 -0.0970 0.9974
-0.4412 -0.4996 -0.0995 0.9973
-0.4395 -0.5128 -0.1008 0.9973
-0.4390 -0.5276 -0.1025 0.9972
-0.4385 -0.5429 -0.1042 0.9972
-0.4379 -0.5586 -0.1060 0.9971
-0.5186 -0.7030 -0.1304 0.9965
-3.8740 -5.4148 -0.9941 0.9734
-2.3460 -3.9734 -0.6890 0.9815
-2.2610 -3.9607 -0.6810 0.9817
-2.0168 -3.9226 -0.6586 0.9823
-2.7832 -6.0518 -0.9946 0.9734
-2.6946 -6.0921 -0.9946 0.9734
-2.5157 -6.1688 -0.9947 0.9734
-2.4254 -6.2051 -0.9947 0.9734
-2.3345 -6.2401 -0.9948 0.9734
-2.2432 -6.2738 -0.9948 0.9734
-2.0591 -6.3372 -0.9949 0.9734
-1.9663 -6.3669 -0.9949 0.9734
-1.8732 -6.3952 -0.9950 0.9734
-1.7796 -6.4221 -0.9950 0.9734
-1.6857 -6.4478 -0.9951 0.9734
-1.5913 -6.4720 -0.9951 0.9734
-1.2108 -6.5550 -0.9953 0.9734
-1.1149 -6.5723 -0.9953 0.9734
-0.4767 -3.8184 -0.5746 0.9846
-0.4381 -6.6537 -0.9956 0.9734
0.0487 -6.6694 -0.9958 0.9734
0.8265 -6.6205 -0.9962 0.9734
1.3079 -6.5440 -0.9964 0.9734
1.4987 -6.5035 -0.9965 0.9734
1.8763 -6.4060 -0.9967 0.9734
2.0629 -6.3489 -0.9967 0.9734
1.1041 -3.0879 -0.4896 0.9868
1.2767 -3.1307 -0.5048 0.9864
1.3367 -3.1455 -0.5103 0.9863
1.3980 -3.1607 -0.5160 0.9861
1.5250 -3.1921 -0.5282 0.9858
1.5620 -3.1505 -0.5250 0.9859
1.5372 -2.9898 -0.5020 0.9865
1.5144 -2.8425 -0.4809 0.9871
1.8713 -3.2779 -0.5636 0.9849
1.9277 -3.0574 -0.5397 0.9855
1.9752 -3.0334 -0.5405 0.9855
2.3608 -3.0117 -0.5714 0.9846
2.3839 -2.9512 -0.5665 0.9848
2.4716 -2.7183 -0.5486 0.9853
2.5129 -2.6064 -0.5406 0.9855
4.8456 -4.6039 -0.9980 0.9733
4.1807 -3.8575 -0.8493 0.9773
4.2039 -3.6573 -0.8320 0.9777
4.3145 -3.6443 -0.8432 0.9774
4.4280 -3.6307 -0.8550 0.9771
4.2940 -3.3157 -0.8100 0.9783
4.6024 -3.3438 -0.8494 0.9773
4.6665 -3.2873 -0.8523 0.9772
4.7300 -3.2296 -0.8552 0.9771
4.9161 -3.0497 -0.8638 0.9769
5.7421 -3.2226 -0.9831 0.9737
5.7887 -3.1385 -0.9832 0.9737
6.0420 -2.6198 -0.9833 0.9737
6.1679 -2.5681 -0.9976 0.9733
6.2469 -2.3893 -0.9986 0.9733
6.2812 -2.2978 -0.9986 0.9733
6.3142 -2.2057 -0.9986 0.9733
6.3458 -2.1132 -0.9987 0.9733
6.4050 -1.9270 -0.9987 0.9733
6.4326 -1.8332 -0.9987 0.9733
6.4588 -1.7391 -0.9987 0.9733
6.5070 -1.5496 -0.9987 0.9733
6.5290 -1.4544 -0.9987 0.9733
6.5866 -1.1669 -0.9988 0.9733
6.6030 -1.0706 -0.9988 0.9733
6.6316 -0.8771 -0.9988 0.9733
6.6545 -0.6830 -0.9988 0.9733
6.6638 -0.5857 -0.9988 0.9733
6.6831 -0.2932 -0.9988 0.9733
6.6888 -0.0978 -0.9988 0.9733
6.6895 0.0000 -0.9988 0.9733
6.6867 0.1954 -0.9988 0.9733
6.6716 0.4883 -0.9988 0.9733
6.6638 0.5857 -0.9988 0.9733
6.6544 0.6830 -0.9988 0.9733
6.6437 0.7802 -0.9988 0.9733
6.6316 0.8771 -0.9988 0.9733
6.6180 0.9739 -0.9988 0.9733
6.6030 1.0705 -0.9988 0.9733
6.5070 1.5496 -0.9987 0.9733
6.4836 1.6445 -0.9987 0.9733
6.4588 1.7391 -0.9987 0.9733
6.4326 1.8332 -0.9987 0.9733
6.3459 2.1132 -0.9987 0.9733
6.2812 2.2978 -0.9986 0.9733
6.1359 2.6605 -0.9986 0.9733
6.0963 2.7499 -0.9985 0.9733
6.0553 2.8386 -0.9985 0.9733
5.9696 3.0143 -0.9985 0.9733
5.9247 3.1011 -0.9985 0.9733
5.8787 3.1873 -0.9984 0.9733
5.7330 3.4416 -0.9984 0.9733
5.6298 3.6074 -0.9983 0.9733
5.5763 3.6893 -0.9983 0.9733
5.4088 3.9298 -0.9982 0.9733
5.2915 4.0859 -0.9982 0.9733
5.1695 4.2386 -0.9981 0.9733
2.9775 2.8290 -0.6132 0.9835
2.8990 2.8361 -0.6055 0.9837
2.8225 2.8432 -0.5982 0.9839
2.7498 2.8521 -0.5915 0.9841
2.6792 2.8614 -0.5853 0.9843
2.5424 2.8795 -0.5735 0.9846
2.4109 2.8970 -0.5627 0.9849
2.3475 2.9061 -0.5578 0.9850
2.2240 2.9241 -0.5485 0.9853
2.0485 2.9536 -0.5367 0.9856
1.9928 2.9647 -0.5334 0.9857
1.9377 2.9758 -0.5302 0.9857
1.6569 3.3418 -0.5569 0.9850
1.5227 3.4425 -0.5620 0.9849
1.4864 3.4978 -0.5675 0.9847
1.4563 3.7257 -0.5973 0.9840
2.3395 6.2532 -0.9969 0.9734
2.1556 6.3185 -0.9968 0.9734
1.5936 6.4812 -0.9965 0.9734
0.5960 3.2265 -0.4899 0.9868
0.3790 3.0358 -0.4568 0.9877
0.3289 2.9892 -0.4490 0.9879
0.2809 2.9485 -0.4422 0.9881
0.1891 2.8708 -0.4296 0.9884
0.1470 2.8712 -0.4293 0.9884
0.1051 2.8755 -0.4296 0.9884
0.0632 2.8798 -0.4301 0.9884
-0.0211 2.8886 -0.4313 0.9884
-0.0634 2.8929 -0.4320 0.9884
-0.1485 2.9018 -0.4338 0.9883
-0.1914 2.9063 -0.4349 0.9883
-0.3656 2.9285 -0.4406 0.9881
-0.4101 2.9357 -0.4426 0.9881
-0.4552 2.9432 -0.4447 0.9880
-0.6410 2.9800 -0.4551 0.9877
-0.8883 3.0329 -0.4719 0.9873
-0.9401 3.0441 -0.4757 0.9872
-1.0151 3.1241 -0.4905 0.9868
-1.1650 3.4147 -0.5387 0.9855
-2.1511 5.7498 -0.9166 0.9755
-2.6946 6.0922 -0.9946 0.9734
-2.7833 6.0519 -0.9946 0.9734
-2.4091 4.6858 -0.7867 0.9789
-2.4490 4.4395 -0.7570 0.9797
-2.4679 4.3232 -0.7433 0.9801
-2.4861 4.2109 -0.7301 0.9804
-2.5224 4.0006 -0.7061 0.9811
-2.5571 3.8044 -0.6844 0.9816
-2.5897 3.6198 -0.6645 0.9822
-0.5187 0.7031 -0.1304 0.9965
-0.4614 0.6066 -0.1138 0.9969
-0.4379 0.5586 -0.1060 0.9971
-0.4390 0.5275 -0.1025 0.9972
-0.4427 0.4868 -0.0983 0.9973
-0.4441 0.4743 -0.0970 0.9974
-0.4454 0.4620 -0.0958 0.9974
-0.4479 0.4382 -0.0935 0.9975
-0.4499 0.4152 -0.0914 0.9975
-0.4508 0.4039 -0.0904 0.9976
-0.4525 0.3821 -0.0884 0.9976
-0.4532 0.3716 -0.0875 0.9976
-0.4539 0.3612 -0.0866 0.9977
-0.4546 0.3511 -0.0858 0.9977
-0.4572 0.3221 -0.0835 0.9977
-0.4586 0.3034 -0.0821 0.9978
-0.4592 0.2943 -0.0814 0.9978
-0.4602 0.2763 -0.0801 0.9978
-0.4607 0.2675 -0.0795 0.9978
-0.4611 0.2588 -0.0789 0.9979
-0.4614 0.2502 -0.0784 0.9979
-0.4619 0.2332 -0.0773 0.9979
-0.4622 0.2167 -0.0762 0.9979
-0.4624 0.2086 -0.0757 0.9980
-0.4624 0.2005 -0.0752 0.9980
-0.4627 0.1770 -0.0740 0.9980
-0.4628 0.1541 -0.0728 0.9980
-0.4629 0.1466 -0.0725 0.9980
-0.4630 0.1246 -0.0716 0.9981
-0.4630 0.1175 -0.0713 0.9981
-0.4630 0.1102 -0.0711 0.9981
-0.4628 0.1031 -0.0708 0.9981
-0.4627 0.0960 -0.0706 0.9981
-0.4625 0.0889 -0.0703 0.9981
-0.4617 0.0679 -0.0697 0.9981
-0.4614 0.0611 -0.0695 0.9981
-0.4610 0.0541 -0.0693 0.9981
-0.4601 0.0404 -0.0690 0.9981
-0.4591 0.0269 -0.0687 0.9981
-0.4580 0.0134 -0.0684 0.9981
-0.4573 0.0067 -0.0683 0.9982
-0.4435 0.0000 -0.0712 0.9982
-0.4458 -0.0261 -0.0717 0.9982
