ply
format ascii 1.0
element vertex 1596
property float32 x
property float32 y
property float32 z
property float32 I
end_header
-0.3470 0.0827 -0.1073 0.9985
-0.3473 0.0721 -0.1067 0.9985
-0.3474 0.0668 -0.1064 0.9985
-0.3475 0.0616 -0.1062 0.9985
-0.3475 0.0512 -0.1057 0.9985
-0.3475 0.0460 -0.1055 0.9985
-0.3475 0.0408 -0.1053 0.9985
-0.3474 0.0357 -0.1051 0.9985
-0.3473 0.0305 -0.1049 0.9985
-0.3468 0.0152 -0.1045 0.9986
-0.3463 0.0051 -0.1042 0.9986
-0.3404 0.0000 -0.1066 0.9986
-0.3407 -0.0050 -0.1067 0.9986
-0.3410 -0.0099 -0.1068 0.9986
-0.3412 -0.0149 -0.1069 0.9986
-0.3414 -0.0199 -0.1070 0.9986
-0.3415 -0.0250 -0.1072 0.9986
-0.3416 -0.0300 -0.1073 0.9986
-0.3418 -0.0401 -0.1077 0.9986
-0.3418 -0.0502 -0.1081 0.9986
-0.3417 -0.0605 -0.1086 0.9985
-0.3415 -0.0708 -0.1092 0.9985
-0.3413 -0.0760 -0.1095 0.9985
-0.3397 -0.1076 -0.1115 0.9985
-0.3368 -0.1402 -0.1142 0.9985
-0.3355 -0.1513 -0.1152 0.9985
-0.3348 -0.1569 -0.1157 0.9985
-0.3331 -0.1681 -0.1168 0.9984
-0.3321 -0.1738 -0.1173 0.9984
-0.3311 -0.1795 -0.1179 0.9984
-0.3281 -0.1970 -0.1198 0.9984
-0.3265 -0.2092 -0.1214 0.9984
-0.3257 -0.2154 -0.1222 0.9984
-0.3247 -0.2217 -0.1231 0.9984
-0.3206 -0.2475 -0.1268 0.9983
-0.3195 -0.2541 -0.1278 0.9983
-0.3169 -0.2677 -0.1299 0.9983
-0.3142 -0.2815 -0.1321 0.9982
-0.3127 -0.2885 -0.1332 0.9982
-0.3063 -0.3177 -0.1381 0.9982
-0.3045 -0.3252 -0.1394 0.9981
-0.3023 -0.3325 -0.1407 0.9981
-0.2976 -0.3471 -0.1431 0.9981
-0.2899 -0.3698 -0.1471 0.9980
-0.2843 -0.3853 -0.1499 0.9980
-0.2723 -0.4181 -0.1562 0.9979
-0.2690 -0.4266 -0.1579 0.9979
-0.2586 -0.4530 -0.1633 0.9978
-0.2549 -0.4620 -0.1652 0.9978
-0.2510 -0.4712 -0.1671 0.9978
-0.2355 -0.5120 -0.1764 0.9976
-0.2314 -0.5231 -0.1791 0.9976
-0.2271 -0.5344 -0.1818 0.9976
-0.2227 -0.5459 -0.1846 0.9975
-0.2180 -0.5577 -0.1875 0.9975
-0.2132 -0.5698 -0.1904 0.9975
-0.2225 -0.6521 -0.2157 0.9971
-0.9674 -2.9773 -0.9799 0.9870
-0.9238 -2.9911 -0.9799 0.9870
-0.7919 -3.0288 -0.9799 0.9870
-0.6584 -3.0607 -0.9800 0.9870
-0.6136 -3.0700 -0.9800 0.9870
-0.4785 -3.0940 -0.9800 0.9870
-0.3879 -3.1067 -0.9800 0.9870
-0.2747 -2.8835 -0.9067 0.9879
-0.1551 -3.0297 -0.9496 0.9874
-0.0540 -2.4639 -0.7715 0.9897
0.0544 -2.4837 -0.7776 0.9896
0.0910 -2.4898 -0.7799 0.9896
0.1647 -2.5014 -0.7847 0.9895
0.2969 -3.1171 -0.9801 0.9870
0.3425 -3.1125 -0.9802 0.9870
0.3879 -3.1072 -0.9802 0.9870
0.4333 -3.1012 -0.9802 0.9870
0.6137 -3.0707 -0.9802 0.9870
0.7032 -3.0516 -0.9802 0.9870
0.7477 -3.0410 -0.9802 0.9870
0.8363 -3.0179 -0.9802 0.9870
1.0112 -2.9640 -0.9803 0.9870
1.1401 -2.9169 -0.9803 0.9870
1.2249 -2.8824 -0.9803 0.9870
1.3086 -2.8454 -0.9803 0.9870
1.3500 -2.8260 -0.9803 0.9870
1.3912 -2.8060 -0.9804 0.9870
1.4321 -2.7854 -0.9804 0.9870
1.4726 -2.7642 -0.9804 0.9870
1.5129 -2.7424 -0.9804 0.9870
1.6316 -2.6735 -0.9804 0.9870
1.6705 -2.6494 -0.9804 0.9870
1.7091 -2.6248 -0.9804 0.9870
1.7473 -2.5995 -0.9804 0.9870
1.7851 -2.5738 -0.9804 0.9870
1.8225 -2.5473 -0.9804 0.9870
1.8962 -2.4930 -0.9805 0.9870
1.9683 -2.4366 -0.9805 0.9870
2.1054 -2.3846 -0.9957 0.9868
2.1400 -2.3536 -0.9957 0.9868
2.2079 -2.2901 -0.9958 0.9868
2.3380 -2.1573 -0.9958 0.9868
2.3693 -2.1229 -0.9958 0.9868
2.4001 -2.0880 -0.9958 0.9868
2.4303 -2.0528 -0.9958 0.9868
2.4893 -1.9809 -0.9958 0.9868
2.6008 -1.8321 -0.9958 0.9868
2.6533 -1.7554 -0.9958 0.9868
2.7277 -1.6375 -0.9959 0.9868
2.7744 -1.5570 -0.9959 0.9868
2.8400 -1.4340 -0.9959 0.9868
2.8607 -1.3923 -0.9959 0.9868
2.9190 -1.2657 -0.9959 0.9868
2.9717 -1.1365 -0.9959 0.9868
2.9880 -1.0930 -0.9959 0.9868
3.0187 -1.0052 -0.9959 0.9868
3.0723 -0.8272 -0.9959 0.9868
3.1245 -0.6007 -0.9959 0.9868
3.1329 -0.5550 -0.9959 0.9868
3.1478 -0.4632 -0.9959 0.9868
3.1600 -0.3711 -0.9959 0.9868
3.1651 -0.3248 -0.9959 0.9868
3.1695 -0.2786 -0.9959 0.9868
3.1732 -0.2322 -0.9959 0.9868
3.1804 -0.0929 -0.9959 0.9868
3.1814 -0.0465 -0.9959 0.9868
3.1817 0.0000 -0.9959 0.9868
3.1804 0.0930 -0.9959 0.9868
3.1732 0.2323 -0.9959 0.9868
3.1651 0.3249 -0.9959 0.9868
3.1542 0.4173 -0.9959 0.9868
3.1478 0.4633 -0.9959 0.9868
3.1329 0.5551 -0.9959 0.9868
3.1154 0.6464 -0.9959 0.9868
3.1056 0.6919 -0.9959 0.9868
3.0951 0.7371 -0.9959 0.9868
3.0840 0.7823 -0.9959 0.9868
3.0723 0.8273 -0.9959 0.9868
3.0468 0.9167 -0.9959 0.9868
3.0330 0.9611 -0.9959 0.9868
3.0186 1.0053 -0.9959 0.9868
3.0036 1.0493 -0.9959 0.9868
2.9880 1.0930 -0.9959 0.9868
2.9717 1.1366 -0.9959 0.9868
2.9372 1.2229 -0.9959 0.9868
2.9002 1.3082 -0.9959 0.9868
2.8400 1.4341 -0.9959 0.9868
2.8188 1.4754 -0.9959 0.9868
2.7969 1.5164 -0.9959 0.9868
2.7513 1.5975 -0.9959 0.9868
2.7277 1.6375 -0.9959 0.9868
2.6274 1.7940 -0.9958 0.9868
2.6008 1.8322 -0.9958 0.9868
2.5738 1.8700 -0.9958 0.9868
2.5180 1.9444 -0.9958 0.9868
2.4893 1.9809 -0.9958 0.9868
2.4601 2.0171 -0.9958 0.9868
2.3693 2.1229 -0.9958 0.9868
2.3380 2.1573 -0.9958 0.9868
2.2412 2.2577 -0.9958 0.9868
2.2080 2.2902 -0.9958 0.9868
2.0704 2.4151 -0.9957 0.9868
1.9989 2.4746 -0.9957 0.9868
1.8508 2.5871 -0.9957 0.9868
1.8128 2.6138 -0.9957 0.9868
1.7744 2.6400 -0.9957 0.9868
1.7357 2.6656 -0.9957 0.9868
1.6965 2.6907 -0.9957 0.9868
1.6570 2.7152 -0.9956 0.9868
1.5769 2.7624 -0.9956 0.9868
1.5364 2.7851 -0.9956 0.9868
1.3289 2.8897 -0.9956 0.9868
1.2010 2.9451 -0.9956 0.9868
1.1578 2.9623 -0.9956 0.9868
1.0708 2.9948 -0.9955 0.9868
1.0269 3.0101 -0.9955 0.9868
0.9385 3.0388 -0.9955 0.9868
0.8493 3.0649 -0.9955 0.9868
0.7594 3.0884 -0.9955 0.9868
0.7141 3.0991 -0.9955 0.9868
0.6688 3.1091 -0.9955 0.9868
0.6233 3.1185 -0.9955 0.9868
0.5319 3.1354 -0.9954 0.9868
0.4860 3.1428 -0.9954 0.9868
0.4400 3.1495 -0.9954 0.9868
0.3478 3.1610 -0.9954 0.9868
0.2089 3.1731 -0.9954 0.9868
0.1161 3.1778 -0.9954 0.9868
0.0233 3.1798 -0.9953 0.9868
-0.2553 3.1694 -0.9953 0.9868
-0.3016 3.1653 -0.9953 0.9868
-0.3478 3.1605 -0.9953 0.9868
-0.3939 3.1551 -0.9953 0.9868
-0.4400 3.1489 -0.9952 0.9868
-0.5318 3.1347 -0.9952 0.9868
-0.5775 3.1266 -0.9952 0.9868
-0.6231 3.1178 -0.9952 0.9868
-0.7140 3.0982 -0.9952 0.9868
-0.7591 3.0874 -0.9952 0.9868
-0.8490 3.0638 -0.9952 0.9868
-0.8937 3.0511 -0.9952 0.9868
-0.9381 3.0377 -0.9952 0.9868
-0.2225 0.6522 -0.2157 0.9971
-0.2176 0.6085 -0.2023 0.9973
-0.2180 0.5578 -0.1875 0.9975
-0.2227 0.5460 -0.1846 0.9975
-0.2355 0.5121 -0.1764 0.9976
-0.2395 0.5013 -0.1739 0.9977
-0.2471 0.4806 -0.1691 0.9977
-0.2510 0.4712 -0.1671 0.9978
-0.2549 0.4620 -0.1652 0.9978
-0.2622 0.4441 -0.1614 0.9978
-0.2691 0.4267 -0.1579 0.9979
-0.2723 0.4182 -0.1562 0.9979
-0.2785 0.4016 -0.1529 0.9980
-0.2815 0.3934 -0.1514 0.9980
-0.2951 0.3546 -0.1444 0.9981
-0.3045 0.3252 -0.1394 0.9981
-0.3063 0.3177 -0.1381 0.9982
-0.3128 0.2886 -0.1332 0.9982
-0.3142 0.2816 -0.1321 0.9982
-0.3156 0.2746 -0.1309 0.9982
-0.3182 0.2609 -0.1288 0.9983
-0.3194 0.2543 -0.1278 0.9983
-0.3217 0.2411 -0.1258 0.9983
-0.3228 0.2346 -0.1249 0.9983
-0.3238 0.2281 -0.1240 0.9983
-0.3291 0.1911 -0.1191 0.9984
-0.3301 0.1853 -0.1185 0.9984
-0.3331 0.1682 -0.1168 0.9984
-0.3340 0.1626 -0.1163 0.9984
-0.3356 0.1514 -0.1152 0.9985
-0.3379 0.1293 -0.1132 0.9985
-0.3384 0.1238 -0.1128 0.9985
-0.3397 0.1077 -0.1115 0.9985
-0.3407 0.0918 -0.1104 0.9985
-0.3409 0.0865 -0.1101 0.9985
-0.3415 0.0709 -0.1092 0.9985
-0.3417 0.0605 -0.1086 0.9985
-0.3418 0.0554 -0.1084 0.9985
-0.3418 0.0452 -0.1079 0.9986
-0.3418 0.0402 -0.1077 0.9986
-0.3417 0.0351 -0.1075 0.9986
-0.3416 0.0301 -0.1073 0.9986
-0.3414 0.0200 -0.1070 0.9986
-0.3412 0.0150 -0.1069 0.9986
-0.3410 0.0100 -0.1068 0.9986
-0.3407 0.0050 -0.1067 0.9986
-0.3352 -0.0048 -0.1090 0.9986
-0.3355 -0.0098 -0.1091 0.9986
-0.3362 -0.0395 -0.1101 0.9986
-0.3361 -0.0595 -0.1110 0.9986
-0.3357 -0.0748 -0.1119 0.9986
-0.3355 -0.0798 -0.1122 0.9986
-0.3350 -0.0902 -0.1128 0.9985
-0.3343 -0.1005 -0.1136 0.9985
-0.3336 -0.1110 -0.1143 0.9985
-0.3326 -0.1216 -0.1152 0.9985
-0.3322 -0.1270 -0.1157 0.9985
-0.3316 -0.1324 -0.1161 0.9985
-0.3304 -0.1432 -0.1171 0.9985
-0.3297 -0.1487 -0.1176 0.9985
-0.3290 -0.1541 -0.1182 0.9985
-0.3281 -0.1597 -0.1187 0.9985
-0.3272 -0.1652 -0.1192 0.9985
-0.3253 -0.1763 -0.1203 0.9984
-0.3242 -0.1819 -0.1209 0.9984
-0.3232 -0.1876 -0.1215 0.9984
-0.3203 -0.2052 -0.1237 0.9984
-0.3194 -0.2113 -0.1246 0.9984
-0.3185 -0.2174 -0.1254 0.9984
-0.3175 -0.2236 -0.1263 0.9984
-0.3154 -0.2362 -0.1281 0.9983
-0.3142 -0.2426 -0.1291 0.9983
-0.3130 -0.2491 -0.1301 0.9983
-0.3105 -0.2622 -0.1322 0.9983
-0.3091 -0.2689 -0.1333 0.9983
-0.3077 -0.2757 -0.1344 0.9983
-0.3047 -0.2895 -0.1367 0.9982
-0.3014 -0.3036 -0.1391 0.9982
-0.2997 -0.3107 -0.1404 0.9982
-0.2935 -0.3325 -0.1442 0.9981
-0.2834 -0.3615 -0.1494 0.9981
-0.2806 -0.3689 -0.1508 0.9981
-0.2778 -0.3765 -0.1522 0.9980
-0.2749 -0.3842 -0.1536 0.9980
-0.2625 -0.4163 -0.1601 0.9979
-0.2592 -0.4246 -0.1618 0.9979
-0.2557 -0.4330 -0.1636 0.9979
-0.2521 -0.4416 -0.1654 0.9979
-0.2407 -0.4681 -0.1712 0.9978
-0.2366 -0.4771 -0.1732 0.9978
-0.2281 -0.4960 -0.1776 0.9977
-0.2241 -0.5065 -0.1801 0.9977
-0.2154 -0.5280 -0.1855 0.9976
-0.2108 -0.5392 -0.1883 0.9976
-0.2019 -0.6212 -0.2124 0.9973
-0.2055 -0.6654 -0.2265 0.9971
-0.8470 -2.8916 -0.9799 0.9874
-0.8047 -2.9037 -0.9799 0.9874
-0.7621 -2.9152 -0.9799 0.9874
-0.6766 -2.9362 -0.9800 0.9874
-0.6337 -2.9457 -0.9800 0.9874
-0.5906 -2.9548 -0.9800 0.9874
-0.5040 -2.9708 -0.9800 0.9874
-0.2858 -2.9998 -0.9800 0.9874
-0.2390 -2.9674 -0.9682 0.9876
-0.1541 -3.0095 -0.9801 0.9874
-0.0661 -3.0128 -0.9801 0.9874
0.0534 -2.4372 -0.7928 0.9898
0.0893 -2.4431 -0.7951 0.9898
0.1616 -2.4542 -0.7999 0.9897
0.2419 -3.0039 -0.9801 0.9874
0.2858 -3.0001 -0.9801 0.9874
0.3296 -2.9956 -0.9802 0.9874
0.5040 -2.9714 -0.9802 0.9874
0.5907 -2.9554 -0.9802 0.9874
0.6768 -2.9370 -0.9802 0.9874
0.8472 -2.8925 -0.9803 0.9874
0.9314 -2.8666 -0.9803 0.9874
0.9732 -2.8527 -0.9803 0.9874
1.0148 -2.8382 -0.9803 0.9874
1.0561 -2.8231 -0.9803 0.9874
1.1382 -2.7910 -0.9803 0.9874
1.1789 -2.7741 -0.9803 0.9874
1.2193 -2.7566 -0.9803 0.9874
1.2993 -2.7198 -0.9803 0.9874
1.3783 -2.6808 -0.9804 0.9874
1.4560 -2.6395 -0.9804 0.9874
1.5326 -2.5957 -0.9804 0.9874
1.7180 -2.4770 -0.9804 0.9874
1.7897 -2.4258 -0.9804 0.9874
1.9584 -2.3532 -0.9957 0.9872
1.9926 -2.3244 -0.9957 0.9872
2.0597 -2.2652 -0.9957 0.9872
2.0926 -2.2349 -0.9957 0.9872
2.1886 -2.1411 -0.9957 0.9872
2.2803 -2.0432 -0.9958 0.9872
2.3391 -1.9757 -0.9958 0.9872
2.3958 -1.9065 -0.9958 0.9872
2.4234 -1.8712 -0.9958 0.9872
2.4505 -1.8357 -0.9958 0.9872
2.5031 -1.7633 -0.9958 0.9872
2.5536 -1.6895 -0.9958 0.9872
2.5781 -1.6520 -0.9958 0.9872
2.6019 -1.6141 -0.9958 0.9872
2.6480 -1.5374 -0.9958 0.9872
2.6918 -1.4594 -0.9958 0.9872
2.7129 -1.4199 -0.9958 0.9872
2.7334 -1.3802 -0.9959 0.9872
2.7532 -1.3400 -0.9959 0.9872
2.8269 -1.1770 -0.9959 0.9872
2.8438 -1.1355 -0.9959 0.9872
2.8757 -1.0519 -0.9959 0.9872
2.9323 -0.8822 -0.9959 0.9872
2.9449 -0.8392 -0.9959 0.9872
2.9568 -0.7961 -0.9959 0.9872
2.9682 -0.7528 -0.9959 0.9872
2.9889 -0.6658 -0.9959 0.9872
3.0152 -0.5341 -0.9959 0.9872
3.0296 -0.4459 -0.9959 0.9872
3.0413 -0.3571 -0.9959 0.9872
3.0504 -0.2681 -0.9959 0.9872
3.0570 -0.1788 -0.9959 0.9872
3.0593 -0.1342 -0.9959 0.9872
3.0609 -0.0894 -0.9959 0.9872
3.0619 -0.0447 -0.9959 0.9872
3.0609 0.0895 -0.9959 0.9872
3.0357 0.4016 -0.9959 0.9872
3.0296 0.4459 -0.9959 0.9872
3.0227 0.4901 -0.9959 0.9872
3.0152 0.5342 -0.9959 0.9872
3.0071 0.5782 -0.9959 0.9872
2.9983 0.6221 -0.9959 0.9872
2.9889 0.6659 -0.9959 0.9872
2.9789 0.7095 -0.9959 0.9872
2.9568 0.7962 -0.9959 0.9872
2.9323 0.8823 -0.9959 0.9872
2.9191 0.9249 -0.9959 0.9872
2.9052 0.9675 -0.9959 0.9872
2.8757 1.0520 -0.9959 0.9872
2.8600 1.0939 -0.9959 0.9872
2.8268 1.1770 -0.9959 0.9872
2.8093 1.2182 -0.9959 0.9872
2.7912 1.2591 -0.9959 0.9872
2.7725 1.2997 -0.9959 0.9872
2.7532 1.3401 -0.9959 0.9872
2.7333 1.3802 -0.9959 0.9872
2.6918 1.4595 -0.9958 0.9872
2.6480 1.5375 -0.9958 0.9872
2.6253 1.5760 -0.9958 0.9872
2.5287 1.7266 -0.9958 0.9872
2.5032 1.7634 -0.9958 0.9872
2.4505 1.8357 -0.9958 0.9872
2.3958 1.9065 -0.9958 0.9872
2.3390 1.9757 -0.9958 0.9872
2.3099 2.0097 -0.9958 0.9872
2.2502 2.0763 -0.9958 0.9872
2.1885 2.1412 -0.9957 0.9872
2.1250 2.2041 -0.9957 0.9872
2.0597 2.2653 -0.9957 0.9872
2.0264 2.2951 -0.9957 0.9872
1.9926 2.3245 -0.9957 0.9872
1.9584 2.3533 -0.9957 0.9872
1.9238 2.3816 -0.9957 0.9872
1.8888 2.4095 -0.9957 0.9872
1.8534 2.4368 -0.9957 0.9872
1.8175 2.4637 -0.9957 0.9872
1.7447 2.5156 -0.9957 0.9872
1.7078 2.5409 -0.9957 0.9872
1.6328 2.5896 -0.9956 0.9872
1.5564 2.6362 -0.9956 0.9872
1.3598 2.7427 -0.9956 0.9872
1.3196 2.7623 -0.9956 0.9872
1.2791 2.7812 -0.9956 0.9872
1.2383 2.7995 -0.9956 0.9872
1.1559 2.8345 -0.9956 0.9872
1.0305 2.8824 -0.9955 0.9872
0.9883 2.8971 -0.9955 0.9872
0.9032 2.9247 -0.9955 0.9872
0.8604 2.9375 -0.9955 0.9872
0.7308 2.9723 -0.9955 0.9872
0.6436 2.9924 -0.9955 0.9872
0.4677 3.0248 -0.9954 0.9872
0.3792 3.0371 -0.9954 0.9872
0.2902 3.0468 -0.9954 0.9872
0.2457 3.0507 -0.9954 0.9872
0.1565 3.0566 -0.9954 0.9872
0.0671 3.0598 -0.9953 0.9872
-0.0224 3.0604 -0.9953 0.9872
-0.0671 3.0597 -0.9953 0.9872
-0.1118 3.0583 -0.9953 0.9872
-0.1564 3.0564 -0.9953 0.9872
-0.2457 3.0505 -0.9953 0.9872
-0.2902 3.0465 -0.9953 0.9872
-0.3791 3.0366 -0.9953 0.9872
-0.4677 3.0243 -0.9952 0.9872
-0.5558 3.0092 -0.9952 0.9872
-0.5997 3.0008 -0.9952 0.9872
-0.6435 2.9917 -0.9952 0.9872
-0.6872 2.9819 -0.9952 0.9872
-0.7307 2.9715 -0.9952 0.9872
-0.8172 2.9489 -0.9952 0.9872
-0.8601 2.9366 -0.9952 0.9872
-0.2019 0.6214 -0.2125 0.9973
-0.2010 0.5623 -0.1942 0.9975
-0.2108 0.5393 -0.1883 0.9976
-0.2241 0.5066 -0.1801 0.9977
-0.2282 0.4961 -0.1776 0.9977
-0.2324 0.4865 -0.1753 0.9977
-0.2407 0.4681 -0.1712 0.9978
-0.2521 0.4416 -0.1654 0.9979
-0.2592 0.4246 -0.1618 0.9979
-0.2719 0.3921 -0.1552 0.9980
-0.2806 0.3690 -0.1508 0.9981
-0.2861 0.3541 -0.1480 0.9981
-0.2935 0.3325 -0.1442 0.9981
-0.2959 0.3255 -0.1430 0.9982
-0.2979 0.3182 -0.1417 0.9982
-0.2997 0.3108 -0.1404 0.9982
-0.3047 0.2895 -0.1367 0.9982
-0.3077 0.2757 -0.1344 0.9983
-0.3091 0.2689 -0.1333 0.9983
-0.3105 0.2623 -0.1322 0.9983
-0.3130 0.2491 -0.1301 0.9983
-0.3142 0.2427 -0.1291 0.9983
-0.3154 0.2362 -0.1281 0.9983
-0.3194 0.2113 -0.1246 0.9984
-0.3203 0.2053 -0.1237 0.9984
-0.3220 0.1933 -0.1221 0.9984
-0.3231 0.1877 -0.1215 0.9984
-0.3242 0.1820 -0.1209 0.9984
-0.3252 0.1764 -0.1203 0.9984
-0.3262 0.1708 -0.1198 0.9985
-0.3272 0.1652 -0.1192 0.9985
-0.3281 0.1597 -0.1187 0.9985
-0.3290 0.1543 -0.1182 0.9985
-0.3310 0.1379 -0.1166 0.9985
-0.3316 0.1325 -0.1161 0.9985
-0.3321 0.1270 -0.1157 0.9985
-0.3326 0.1217 -0.1152 0.9985
-0.3336 0.1111 -0.1143 0.9985
-0.3340 0.1059 -0.1139 0.9985
-0.3347 0.0954 -0.1132 0.9985
-0.3350 0.0902 -0.1128 0.9985
-0.3359 0.0697 -0.1116 0.9986
-0.3360 0.0646 -0.1113 0.9986
-0.3362 0.0545 -0.1108 0.9986
-0.3362 0.0495 -0.1105 0.9986
-0.3362 0.0395 -0.1101 0.9986
-0.3362 0.0345 -0.1099 0.9986
-0.3361 0.0296 -0.1097 0.9986
-0.3355 0.0098 -0.1091 0.9986
-0.3352 0.0049 -0.1090 0.9986
-0.3296 0.0000 -0.1113 0.9986
-0.3299 -0.0048 -0.1114 0.9986
-0.3301 -0.0096 -0.1115 0.9986
-0.3303 -0.0145 -0.1116 0.9986
-0.3305 -0.0193 -0.1117 0.9986
-0.3306 -0.0242 -0.1119 0.9986
-0.3307 -0.0290 -0.1120 0.9986
-0.3308 -0.0339 -0.1122 0.9986
-0.3308 -0.0487 -0.1129 0.9986
-0.3307 -0.0586 -0.1133 0.9986
-0.3292 -0.0938 -0.1155 0.9986
-0.3288 -0.0989 -0.1159 0.9986
-0.3284 -0.1040 -0.1163 0.9985
-0.3280 -0.1092 -0.1167 0.9985
-0.3270 -0.1196 -0.1175 0.9985
-0.3265 -0.1248 -0.1180 0.9985
-0.3260 -0.1301 -0.1185 0.9985
-0.3247 -0.1408 -0.1195 0.9985
-0.3224 -0.1569 -0.1210 0.9985
-0.3195 -0.1732 -0.1227 0.9985
-0.3163 -0.1898 -0.1245 0.9984
-0.3152 -0.1955 -0.1252 0.9984
-0.3124 -0.2133 -0.1277 0.9984
-0.3114 -0.2193 -0.1286 0.9984
-0.3103 -0.2254 -0.1295 0.9984
-0.3092 -0.2316 -0.1304 0.9984
-0.3042 -0.2570 -0.1344 0.9983
-0.3029 -0.2634 -0.1355 0.9983
-0.2983 -0.2834 -0.1389 0.9983
-0.2967 -0.2903 -0.1401 0.9982
-0.2933 -0.3041 -0.1426 0.9982
-0.2896 -0.3184 -0.1453 0.9982
-0.2849 -0.3323 -0.1477 0.9982
-0.2824 -0.3393 -0.1490 0.9981
-0.2687 -0.3755 -0.1558 0.9981
-0.2657 -0.3830 -0.1573 0.9980
-0.2529 -0.4144 -0.1639 0.9980
-0.2459 -0.4307 -0.1674 0.9979
-0.2385 -0.4475 -0.1712 0.9979
-0.2305 -0.4649 -0.1751 0.9978
-0.2264 -0.4737 -0.1772 0.9978
-0.2220 -0.4827 -0.1794 0.9978
-0.2130 -0.5012 -0.1838 0.9977
-0.1943 -0.5435 -0.1948 0.9976
-0.1893 -0.5547 -0.1978 0.9975
-0.1840 -0.5661 -0.2009 0.9975
-0.6106 -2.8385 -0.9800 0.9878
-0.5690 -2.8471 -0.9800 0.9878
-0.4018 -2.8755 -0.9800 0.9878
-0.3597 -2.8812 -0.9800 0.9878
-0.3176 -2.8862 -0.9800 0.9878
-0.2754 -2.8905 -0.9800 0.9878
-0.2331 -2.8942 -0.9800 0.9878
-0.1484 -2.8998 -0.9801 0.9878
-0.1060 -2.9017 -0.9801 0.9878
-0.0637 -2.9030 -0.9801 0.9878
-0.0212 -2.9037 -0.9801 0.9878
0.0524 -2.3920 -0.8076 0.9899
0.2754 -2.8908 -0.9801 0.9878
0.3176 -2.8865 -0.9801 0.9878
0.3597 -2.8816 -0.9802 0.9878
0.4438 -2.8698 -0.9802 0.9878
0.5275 -2.8557 -0.9802 0.9878
0.5691 -2.8477 -0.9802 0.9878
0.6107 -2.8391 -0.9802 0.9878
0.6521 -2.8299 -0.9802 0.9878
0.7346 -2.8097 -0.9802 0.9878
0.8163 -2.7871 -0.9802 0.9878
0.8570 -2.7749 -0.9803 0.9878
0.8975 -2.7621 -0.9803 0.9878
0.9377 -2.7487 -0.9803 0.9878
0.9778 -2.7348 -0.9803 0.9878
1.0176 -2.7202 -0.9803 0.9878
1.0573 -2.7050 -0.9803 0.9878
1.1749 -2.6562 -0.9803 0.9878
1.2135 -2.6387 -0.9803 0.9878
1.2520 -2.6207 -0.9803 0.9878
1.2901 -2.6022 -0.9803 0.9878
1.4030 -2.5432 -0.9804 0.9878
1.4400 -2.5225 -0.9804 0.9878
1.4767 -2.5011 -0.9804 0.9878
1.5131 -2.4793 -0.9804 0.9878
1.5492 -2.4570 -0.9804 0.9878
1.6252 -2.4179 -0.9833 0.9878
1.6699 -2.4077 -0.9890 0.9877
1.7858 -2.3480 -0.9957 0.9876
1.9199 -2.2397 -0.9957 0.9876
1.9525 -2.2114 -0.9957 0.9876
2.0475 -2.1237 -0.9957 0.9876
2.0784 -2.0936 -0.9957 0.9876
2.1387 -2.0320 -0.9957 0.9876
2.1682 -2.0006 -0.9957 0.9876
2.2257 -1.9364 -0.9958 0.9876
2.2814 -1.8705 -0.9958 0.9876
2.3085 -1.8370 -0.9958 0.9876
2.3351 -1.8030 -0.9958 0.9876
2.3612 -1.7687 -0.9958 0.9876
2.3868 -1.7341 -0.9958 0.9876
2.5937 -1.4062 -0.9958 0.9876
2.6337 -1.3298 -0.9958 0.9876
2.6528 -1.2912 -0.9958 0.9876
2.6715 -1.2523 -0.9958 0.9876
2.7238 -1.1340 -0.9959 0.9876
2.7401 -1.0941 -0.9959 0.9876
2.7709 -1.0136 -0.9959 0.9876
2.8254 -0.8500 -0.9959 0.9876
2.8703 -0.6835 -0.9959 0.9876
2.8799 -0.6415 -0.9959 0.9876
2.9053 -0.5147 -0.9959 0.9876
2.9251 -0.3869 -0.9959 0.9876
2.9351 -0.3012 -0.9959 0.9876
2.9392 -0.2584 -0.9959 0.9876
2.9427 -0.2154 -0.9959 0.9876
2.9455 -0.1723 -0.9959 0.9876
2.9493 -0.0862 -0.9959 0.9876
2.9502 -0.0431 -0.9959 0.9876
2.9502 0.0431 -0.9959 0.9876
2.9493 0.0862 -0.9959 0.9876
2.9455 0.1724 -0.9959 0.9876
2.9427 0.2154 -0.9959 0.9876
2.9392 0.2584 -0.9959 0.9876
2.9352 0.3013 -0.9959 0.9876
2.9304 0.3441 -0.9959 0.9876
2.9251 0.3870 -0.9959 0.9876
2.9125 0.4722 -0.9959 0.9876
2.9053 0.5147 -0.9959 0.9876
2.8890 0.5995 -0.9959 0.9876
2.8800 0.6416 -0.9959 0.9876
2.7854 0.9730 -0.9959 0.9876
2.7709 1.0136 -0.9959 0.9876
2.7558 1.0540 -0.9959 0.9876
2.7401 1.0942 -0.9959 0.9876
2.7238 1.1341 -0.9959 0.9876
2.6895 1.2132 -0.9958 0.9876
2.6715 1.2523 -0.9958 0.9876
2.6529 1.2913 -0.9958 0.9876
2.6140 1.3682 -0.9958 0.9876
2.5937 1.4063 -0.9958 0.9876
2.5729 1.4440 -0.9958 0.9876
2.5515 1.4814 -0.9958 0.9876
2.5295 1.5186 -0.9958 0.9876
2.5071 1.5554 -0.9958 0.9876
2.4841 1.5918 -0.9958 0.9876
2.4119 1.6991 -0.9958 0.9876
2.3612 1.7688 -0.9958 0.9876
2.2538 1.9037 -0.9958 0.9876
2.2257 1.9364 -0.9958 0.9876
2.1972 1.9688 -0.9958 0.9876
2.1387 2.0321 -0.9957 0.9876
2.0784 2.0937 -0.9957 0.9876
2.0163 2.1535 -0.9957 0.9876
1.9525 2.2114 -0.9957 0.9876
1.8537 2.2948 -0.9957 0.9876
1.8200 2.3216 -0.9957 0.9876
1.7858 2.3480 -0.9957 0.9876
1.7164 2.3991 -0.9957 0.9876
1.6455 2.4482 -0.9956 0.9876
1.5733 2.4952 -0.9956 0.9876
1.5367 2.5179 -0.9956 0.9876
1.4997 2.5401 -0.9956 0.9876
1.4624 2.5617 -0.9956 0.9876
1.4248 2.5828 -0.9956 0.9876
1.3869 2.6034 -0.9956 0.9876
1.2715 2.6616 -0.9956 0.9876
1.2325 2.6798 -0.9956 0.9876
1.1931 2.6975 -0.9956 0.9876
1.1536 2.7146 -0.9956 0.9876
1.1138 2.7312 -0.9955 0.9876
0.9930 2.7773 -0.9955 0.9876
0.9523 2.7915 -0.9955 0.9876
0.9114 2.8051 -0.9955 0.9876
0.8703 2.8181 -0.9955 0.9876
0.7876 2.8423 -0.9955 0.9876
0.7460 2.8535 -0.9955 0.9876
0.7042 2.8640 -0.9955 0.9876
0.6623 2.8740 -0.9955 0.9876
0.6202 2.8834 -0.9955 0.9876
0.5780 2.8921 -0.9954 0.9876
0.5357 2.9002 -0.9954 0.9876
0.4933 2.9077 -0.9954 0.9876
0.3653 2.9264 -0.9954 0.9876
0.2367 2.9396 -0.9954 0.9876
0.1507 2.9452 -0.9954 0.9876
0.0215 2.9489 -0.9953 0.9876
-0.1077 2.9470 -0.9953 0.9876
-0.1508 2.9450 -0.9953 0.9876
-0.2367 2.9393 -0.9953 0.9876
-0.2796 2.9355 -0.9953 0.9876
-0.3225 2.9311 -0.9953 0.9876
-0.4932 2.9071 -0.9952 0.9876
-0.5779 2.8914 -0.9952 0.9876
-0.6201 2.8826 -0.9952 0.9876
-0.6621 2.8732 -0.9952 0.9876
-0.7458 2.8527 -0.9952 0.9876
-0.7874 2.8414 -0.9952 0.9876
-0.1830 0.5927 -0.2094 0.9974
-0.1944 0.5436 -0.1948 0.9976
-0.1993 0.5326 -0.1919 0.9976
-0.2040 0.5218 -0.1891 0.9976
-0.2085 0.5113 -0.1864 0.9977
-0.2130 0.5012 -0.1838 0.9977
-0.2305 0.4649 -0.1751 0.9978
-0.2384 0.4476 -0.1712 0.9979
-0.2495 0.4225 -0.1656 0.9979
-0.2563 0.4064 -0.1622 0.9980
-0.2595 0.3985 -0.1605 0.9980
-0.2626 0.3907 -0.1589 0.9980
-0.2657 0.3830 -0.1573 0.9980
-0.2687 0.3755 -0.1558 0.9981
-0.2771 0.3536 -0.1516 0.9981
-0.2798 0.3464 -0.1503 0.9981
-0.2849 0.3323 -0.1477 0.9982
-0.2896 0.3184 -0.1453 0.9982
-0.2933 0.3042 -0.1426 0.9982
-0.3014 0.2701 -0.1366 0.9983
-0.3068 0.2442 -0.1324 0.9983
-0.3080 0.2379 -0.1314 0.9984
-0.3114 0.2194 -0.1286 0.9984
-0.3124 0.2133 -0.1277 0.9984
-0.3143 0.2014 -0.1260 0.9984
-0.3151 0.1955 -0.1252 0.9984
-0.3163 0.1899 -0.1245 0.9984
-0.3205 0.1678 -0.1221 0.9985
-0.3224 0.1570 -0.1210 0.9985
-0.3233 0.1516 -0.1205 0.9985
-0.3247 0.1409 -0.1195 0.9985
-0.3254 0.1355 -0.1190 0.9985
-0.3259 0.1302 -0.1185 0.9985
-0.3280 0.1093 -0.1167 0.9985
-0.3284 0.1041 -0.1163 0.9985
-0.3288 0.0989 -0.1159 0.9986
-0.3292 0.0938 -0.1155 0.9986
-0.3298 0.0837 -0.1148 0.9986
-0.3302 0.0736 -0.1142 0.9986
-0.3305 0.0636 -0.1136 0.9986
-0.3307 0.0586 -0.1133 0.9986
-0.3308 0.0537 -0.1131 0.9986
-0.3308 0.0438 -0.1126 0.9986
-0.3308 0.0340 -0.1122 0.9986
-0.3307 0.0291 -0.1120 0.9986
-0.3306 0.0242 -0.1119 0.9986
-0.3305 0.0194 -0.1117 0.9986
-0.3303 0.0145 -0.1116 0.9986
-0.3301 0.0096 -0.1115 0.9986
-0.3299 0.0049 -0.1114 0.9986
-0.3244 0.0000 -0.1135 0.9986
-0.3251 -0.0142 -0.1139 0.9986
-0.3254 -0.0286 -0.1143 0.9986
-0.3255 -0.0334 -0.1145 0.9986
-0.3253 -0.0576 -0.1156 0.9986
-0.3244 -0.0823 -0.1171 0.9986
-0.3241 -0.0873 -0.1174 0.9986
-0.3237 -0.0922 -0.1178 0.9986
-0.3234 -0.0973 -0.1182 0.9986
-0.3230 -0.1023 -0.1186 0.9986
-0.3226 -0.1074 -0.1190 0.9986
-0.3221 -0.1125 -0.1194 0.9986
-0.3205 -0.1279 -0.1208 0.9985
-0.3168 -0.1542 -0.1233 0.9985
-0.3118 -0.1810 -0.1262 0.9985
-0.3107 -0.1864 -0.1268 0.9985
-0.3075 -0.2034 -0.1290 0.9984
-0.3044 -0.2211 -0.1317 0.9984
-0.3033 -0.2271 -0.1326 0.9984
-0.3021 -0.2332 -0.1335 0.9984
-0.2982 -0.2519 -0.1366 0.9983
-0.2968 -0.2582 -0.1377 0.9983
-0.2953 -0.2646 -0.1388 0.9983
-0.2922 -0.2777 -0.1410 0.9983
-0.2889 -0.2910 -0.1435 0.9983
-0.2833 -0.3116 -0.1474 0.9982
-0.2813 -0.3186 -0.1487 0.9982
-0.2764 -0.3321 -0.1512 0.9982
-0.2738 -0.3389 -0.1525 0.9982
-0.2712 -0.3459 -0.1538 0.9981
-0.2656 -0.3600 -0.1565 0.9981
-0.2627 -0.3671 -0.1580 0.9981
-0.2597 -0.3744 -0.1594 0.9981
-0.2566 -0.3817 -0.1609 0.9981
-0.2502 -0.3968 -0.1642 0.9980
-0.2469 -0.4046 -0.1658 0.9980
-0.2435 -0.4123 -0.1676 0.9980
-0.2400 -0.4203 -0.1694 0.9980
-0.2247 -0.4531 -0.1770 0.9979
-0.2206 -0.4616 -0.1790 0.9978
-0.2163 -0.4702 -0.1811 0.9978
-0.2074 -0.4879 -0.1855 0.9978
-0.2027 -0.4970 -0.1878 0.9977
-0.1979 -0.5061 -0.1902 0.9977
-0.1929 -0.5155 -0.1926 0.9977
-0.1724 -0.5582 -0.2044 0.9975
-0.7084 -2.7095 -0.9800 0.9882
-0.6687 -2.7195 -0.9800 0.9882
-0.6289 -2.7290 -0.9800 0.9882
-0.5890 -2.7380 -0.9800 0.9882
-0.5489 -2.7463 -0.9800 0.9882
-0.4280 -2.7678 -0.9800 0.9882
-0.3470 -2.7791 -0.9800 0.9882
-0.1023 -2.7990 -0.9801 0.9882
-0.0614 -2.8002 -0.9801 0.9882
-0.0205 -2.8008 -0.9801 0.9882
0.0204 -2.8008 -0.9801 0.9882
0.0614 -2.8002 -0.9801 0.9882
0.1023 -2.7991 -0.9801 0.9882
0.2249 -2.7920 -0.9801 0.9882
0.3470 -2.7795 -0.9802 0.9882
0.3876 -2.7742 -0.9802 0.9882
0.4281 -2.7682 -0.9802 0.9882
0.5088 -2.7546 -0.9802 0.9882
0.5490 -2.7469 -0.9802 0.9882
0.5891 -2.7386 -0.9802 0.9882
0.6688 -2.7203 -0.9802 0.9882
0.7481 -2.6996 -0.9802 0.9882
0.8657 -2.6642 -0.9803 0.9882
0.9045 -2.6513 -0.9803 0.9882
0.9432 -2.6379 -0.9803 0.9882
1.1332 -2.5621 -0.9803 0.9882
1.2445 -2.5100 -0.9803 0.9882
1.2810 -2.4916 -0.9803 0.9882
1.3173 -2.4726 -0.9803 0.9882
1.5526 -2.3844 -0.9956 0.9880
1.6556 -2.3141 -0.9956 0.9880
1.7225 -2.2648 -0.9957 0.9880
1.9750 -2.0485 -0.9957 0.9880
2.0341 -1.9900 -0.9957 0.9880
2.0914 -1.9297 -0.9957 0.9880
2.1193 -1.8989 -0.9957 0.9880
2.1469 -1.8677 -0.9957 0.9880
2.2775 -1.7061 -0.9958 0.9880
2.3734 -1.5702 -0.9958 0.9880
2.3961 -1.5353 -0.9958 0.9880
2.4611 -1.4289 -0.9958 0.9880
2.4817 -1.3927 -0.9958 0.9880
2.5404 -1.2827 -0.9958 0.9880
2.5589 -1.2454 -0.9958 0.9880
2.5942 -1.1702 -0.9958 0.9880
2.6110 -1.1321 -0.9958 0.9880
2.6273 -1.0939 -0.9958 0.9880
2.6430 -1.0554 -0.9958 0.9880
2.6727 -0.9777 -0.9958 0.9880
2.6867 -0.9385 -0.9958 0.9880
2.7253 -0.8199 -0.9959 0.9880
2.7586 -0.6997 -0.9959 0.9880
2.7685 -0.6593 -0.9959 0.9880
2.7948 -0.5373 -0.9959 0.9880
2.8024 -0.4965 -0.9959 0.9880
2.8093 -0.4554 -0.9959 0.9880
2.8157 -0.4144 -0.9959 0.9880
2.8214 -0.3732 -0.9959 0.9880
2.8412 -0.1662 -0.9959 0.9880
2.8448 -0.0831 -0.9959 0.9880
2.8457 -0.0416 -0.9959 0.9880
2.8448 0.0832 -0.9959 0.9880
2.8351 0.2492 -0.9959 0.9880
2.8311 0.2906 -0.9959 0.9880
2.8214 0.3732 -0.9959 0.9880
2.8024 0.4965 -0.9959 0.9880
2.7948 0.5374 -0.9959 0.9880
2.7867 0.5782 -0.9959 0.9880
2.7779 0.6188 -0.9959 0.9880
2.7586 0.6997 -0.9959 0.9880
2.7481 0.7400 -0.9959 0.9880
2.7370 0.7800 -0.9959 0.9880
2.7253 0.8199 -0.9959 0.9880
2.7130 0.8597 -0.9958 0.9880
2.6867 0.9386 -0.9958 0.9880
2.6581 1.0167 -0.9958 0.9880
2.6273 1.0939 -0.9958 0.9880
2.5768 1.2080 -0.9958 0.9880
2.5404 1.2828 -0.9958 0.9880
2.5214 1.3198 -0.9958 0.9880
2.4817 1.3929 -0.9958 0.9880
2.4611 1.4289 -0.9958 0.9880
2.4399 1.4648 -0.9958 0.9880
2.4183 1.5002 -0.9958 0.9880
2.3734 1.5702 -0.9958 0.9880
2.3502 1.6047 -0.9958 0.9880
2.3023 1.6727 -0.9958 0.9880
2.2776 1.7062 -0.9958 0.9880
2.1740 1.8363 -0.9957 0.9880
2.0341 1.9900 -0.9957 0.9880
1.8833 2.1331 -0.9957 0.9880
1.8519 2.1604 -0.9957 0.9880
1.6892 2.2897 -0.9957 0.9880
1.6556 2.3141 -0.9956 0.9880
1.6216 2.3381 -0.9956 0.9880
1.5872 2.3615 -0.9956 0.9880
1.5526 2.3845 -0.9956 0.9880
1.4822 2.4288 -0.9956 0.9880
1.4106 2.4710 -0.9956 0.9880
1.3378 2.5112 -0.9956 0.9880
1.3009 2.5304 -0.9956 0.9880
1.2638 2.5491 -0.9956 0.9880
1.1127 2.6185 -0.9955 0.9880
1.0357 2.6498 -0.9955 0.9880
0.9578 2.6790 -0.9955 0.9880
0.9186 2.6926 -0.9955 0.9880
0.8791 2.7057 -0.9955 0.9880
0.8395 2.7183 -0.9955 0.9880
0.7597 2.7416 -0.9955 0.9880
0.7195 2.7524 -0.9955 0.9880
0.6793 2.7626 -0.9955 0.9880
0.6388 2.7723 -0.9955 0.9880
0.5575 2.7897 -0.9954 0.9880
0.4347 2.8113 -0.9954 0.9880
0.3936 2.8174 -0.9954 0.9880
0.3524 2.8228 -0.9954 0.9880
0.3111 2.8276 -0.9954 0.9880
0.0623 2.8439 -0.9953 0.9880
-0.0624 2.8438 -0.9953 0.9880
-0.1869 2.8382 -0.9953 0.9880
-0.2284 2.8352 -0.9953 0.9880
-0.2698 2.8316 -0.9953 0.9880
-0.3111 2.8273 -0.9953 0.9880
-0.3936 2.8170 -0.9953 0.9880
-0.4347 2.8109 -0.9952 0.9880
-0.5574 2.7891 -0.9952 0.9880
-0.6387 2.7716 -0.9952 0.9880
-0.6791 2.7619 -0.9952 0.9880
-0.1667 0.6016 -0.2184 0.9974
-0.1668 0.5694 -0.2076 0.9975
-0.1880 0.5259 -0.1954 0.9976
-0.1929 0.5155 -0.1926 0.9977
-0.1979 0.5062 -0.1902 0.9977
-0.2074 0.4880 -0.1855 0.9978
-0.2163 0.4703 -0.1811 0.9978
-0.2247 0.4532 -0.1770 0.9979
-0.2287 0.4448 -0.1750 0.9979
-0.2326 0.4365 -0.1731 0.9979
-0.2502 0.3969 -0.1642 0.9980
-0.2535 0.3892 -0.1625 0.9980
-0.2566 0.3818 -0.1609 0.9981
-0.2597 0.3744 -0.1594 0.9981
-0.2656 0.3600 -0.1565 0.9981
-0.2684 0.3529 -0.1551 0.9981
-0.2738 0.3389 -0.1525 0.9982
-0.2789 0.3253 -0.1499 0.9982
-0.2813 0.3186 -0.1487 0.9982
-0.2833 0.3116 -0.1474 0.9982
-0.2853 0.3046 -0.1460 0.9982
-0.2871 0.2978 -0.1447 0.9982
-0.2889 0.2910 -0.1435 0.9983
-0.2922 0.2777 -0.1411 0.9983
-0.2938 0.2711 -0.1399 0.9983
-0.2968 0.2582 -0.1377 0.9983
-0.2996 0.2456 -0.1355 0.9984
-0.3021 0.2332 -0.1335 0.9984
-0.3033 0.2272 -0.1326 0.9984
-0.3055 0.2152 -0.1307 0.9984
-0.3075 0.2035 -0.1290 0.9984
-0.3095 0.1920 -0.1274 0.9985
-0.3118 0.1811 -0.1262 0.9985
-0.3129 0.1757 -0.1256 0.9985
-0.3140 0.1703 -0.1250 0.9985
-0.3159 0.1596 -0.1238 0.9985
-0.3186 0.1437 -0.1223 0.9985
-0.3192 0.1384 -0.1217 0.9985
-0.3199 0.1332 -0.1212 0.9985
-0.3205 0.1280 -0.1208 0.9985
-0.3211 0.1228 -0.1203 0.9985
-0.3216 0.1177 -0.1198 0.9985
-0.3234 0.0973 -0.1182 0.9986
-0.3237 0.0923 -0.1178 0.9986
-0.3241 0.0873 -0.1174 0.9986
-0.3244 0.0823 -0.1171 0.9986
-0.3246 0.0773 -0.1168 0.9986
-0.3250 0.0675 -0.1162 0.9986
-0.3252 0.0626 -0.1159 0.9986
-0.3253 0.0577 -0.1156 0.9986
-0.3255 0.0479 -0.1151 0.9986
-0.3255 0.0431 -0.1149 0.9986
-0.3255 0.0382 -0.1147 0.9986
-0.3254 0.0286 -0.1143 0.9986
-0.3254 0.0239 -0.1141 0.9986
-0.3252 0.0191 -0.1140 0.9986
-0.3251 0.0143 -0.1139 0.9986
-0.3249 0.0095 -0.1137 0.9986
-0.3193 0.0000 -0.1157 0.9986
-0.3196 -0.0046 -0.1158 0.9986
-0.3200 -0.0140 -0.1161 0.9986
-0.3201 -0.0187 -0.1162 0.9986
-0.3202 -0.0234 -0.1164 0.9986
-0.3204 -0.0376 -0.1169 0.9986
-0.3204 -0.0423 -0.1171 0.9986
-0.3203 -0.0471 -0.1173 0.9986
-0.3202 -0.0519 -0.1176 0.9986
-0.3201 -0.0567 -0.1178 0.9986
-0.3198 -0.0663 -0.1184 0.9986
-0.3196 -0.0711 -0.1187 0.9986
-0.3194 -0.0761 -0.1190 0.9986
-0.3191 -0.0809 -0.1193 0.9986
-0.3188 -0.0858 -0.1197 0.9986
-0.3185 -0.0907 -0.1200 0.9986
-0.3163 -0.1157 -0.1220 0.9986
-0.3158 -0.1207 -0.1225 0.9986
-0.3151 -0.1258 -0.1230 0.9986
-0.3145 -0.1309 -0.1235 0.9986
-0.3139 -0.1361 -0.1240 0.9985
-0.3124 -0.1464 -0.1250 0.9985
-0.3105 -0.1568 -0.1261 0.9985
-0.3075 -0.1725 -0.1278 0.9985
-0.3064 -0.1779 -0.1284 0.9985
-0.3052 -0.1832 -0.1290 0.9985
-0.3040 -0.1886 -0.1297 0.9985
-0.3028 -0.1940 -0.1303 0.9985
-0.3018 -0.1996 -0.1311 0.9985
-0.2975 -0.2228 -0.1347 0.9984
-0.2963 -0.2287 -0.1357 0.9984
-0.2950 -0.2348 -0.1366 0.9984
-0.2937 -0.2408 -0.1376 0.9984
-0.2909 -0.2530 -0.1397 0.9984
-0.2895 -0.2593 -0.1408 0.9983
-0.2879 -0.2656 -0.1420 0.9983
-0.2846 -0.2785 -0.1443 0.9983
-0.2811 -0.2916 -0.1468 0.9983
-0.2793 -0.2982 -0.1481 0.9983
-0.2598 -0.3521 -0.1586 0.9981
-0.2508 -0.3732 -0.1630 0.9981
-0.2411 -0.3951 -0.1678 0.9980
-0.2342 -0.4103 -0.1712 0.9980
-0.2306 -0.4180 -0.1730 0.9980
-0.2191 -0.4418 -0.1787 0.9979
-0.2020 -0.4752 -0.1871 0.9978
-0.1877 -0.5016 -0.1941 0.9977
-0.1826 -0.5106 -0.1965 0.9977
-0.1774 -0.5198 -0.1991 0.9977
-0.1498 -0.5730 -0.2146 0.9975
-0.1496 -0.6082 -0.2270 0.9973
-0.5687 -2.6437 -0.9800 0.9886
-0.4912 -2.6591 -0.9800 0.9886
-0.4523 -2.6661 -0.9800 0.9886
-0.4133 -2.6724 -0.9800 0.9886
-0.3742 -2.6782 -0.9800 0.9886
-0.2565 -2.6921 -0.9800 0.9886
-0.2171 -2.6955 -0.9800 0.9886
-0.1777 -2.6985 -0.9801 0.9886
-0.0198 -2.7043 -0.9801 0.9886
0.1382 -2.7009 -0.9801 0.9886
0.3350 -2.6837 -0.9802 0.9886
0.3742 -2.6786 -0.9802 0.9886
0.4523 -2.6665 -0.9802 0.9886
0.4912 -2.6596 -0.9802 0.9886
0.5301 -2.6523 -0.9802 0.9886
0.5688 -2.6442 -0.9802 0.9886
0.6073 -2.6357 -0.9802 0.9886
0.6841 -2.6168 -0.9802 0.9886
0.7223 -2.6065 -0.9802 0.9886
0.7603 -2.5957 -0.9802 0.9886
0.9107 -2.5470 -0.9803 0.9886
0.9478 -2.5334 -0.9803 0.9886
0.9847 -2.5193 -0.9803 0.9886
1.0579 -2.4895 -0.9803 0.9886
1.1303 -2.4575 -0.9803 0.9886
1.2022 -2.4248 -0.9808 0.9886
1.2428 -2.4172 -0.9850 0.9885
1.2836 -2.4094 -0.9893 0.9885
1.3247 -2.4012 -0.9938 0.9884
1.4653 -2.3239 -0.9956 0.9884
1.5985 -2.2343 -0.9956 0.9884
1.6632 -2.1867 -0.9956 0.9884
1.6949 -2.1622 -0.9957 0.9884
1.7264 -2.1372 -0.9957 0.9884
1.7574 -2.1118 -0.9957 0.9884
1.8483 -2.0327 -0.9957 0.9884
1.9639 -1.9213 -0.9957 0.9884
2.0463 -1.8335 -0.9957 0.9884
2.1747 -1.6793 -0.9957 0.9884
2.1991 -1.6473 -0.9957 0.9884
2.2229 -1.6150 -0.9958 0.9884
2.2692 -1.5494 -0.9958 0.9884
2.2915 -1.5161 -0.9958 0.9884
2.3135 -1.4824 -0.9958 0.9884
2.3558 -1.4142 -0.9958 0.9884
2.3763 -1.3796 -0.9958 0.9884
2.4156 -1.3096 -0.9958 0.9884
2.5048 -1.1298 -0.9958 0.9884
2.5210 -1.0931 -0.9958 0.9884
2.5367 -1.0562 -0.9958 0.9884
2.6313 -0.7916 -0.9958 0.9884
2.6534 -0.7144 -0.9958 0.9884
2.6731 -0.6366 -0.9958 0.9884
2.6984 -0.5188 -0.9958 0.9884
2.7186 -0.4001 -0.9958 0.9884
2.7374 -0.2406 -0.9959 0.9884
2.7467 -0.0802 -0.9959 0.9884
2.7476 -0.0401 -0.9959 0.9884
2.7479 0.0000 -0.9959 0.9884
2.7467 0.0804 -0.9959 0.9884
2.7432 0.1605 -0.9959 0.9884
2.7373 0.2406 -0.9959 0.9884
2.7335 0.2806 -0.9959 0.9884
2.7292 0.3205 -0.9959 0.9884
2.7186 0.4002 -0.9958 0.9884
2.7125 0.4398 -0.9958 0.9884
2.6985 0.5189 -0.9958 0.9884
2.6906 0.5582 -0.9958 0.9884
2.6426 0.7532 -0.9958 0.9884
2.6313 0.7917 -0.9958 0.9884
2.6071 0.8682 -0.9958 0.9884
2.5941 0.9062 -0.9958 0.9884
2.5806 0.9441 -0.9958 0.9884
2.5665 0.9816 -0.9958 0.9884
2.5519 1.0190 -0.9958 0.9884
2.5048 1.1299 -0.9958 0.9884
2.4707 1.2026 -0.9958 0.9884
2.4528 1.2385 -0.9958 0.9884
2.4344 1.2743 -0.9958 0.9884
2.4156 1.3097 -0.9958 0.9884
2.2915 1.5161 -0.9958 0.9884
2.0990 1.7730 -0.9957 0.9884
2.0463 1.8335 -0.9957 0.9884
2.0193 1.8632 -0.9957 0.9884
1.8184 2.0596 -0.9957 0.9884
1.7881 2.0859 -0.9957 0.9884
1.7575 2.1118 -0.9957 0.9884
1.6950 2.1622 -0.9957 0.9884
1.6310 2.2108 -0.9956 0.9884
1.5657 2.2575 -0.9956 0.9884
1.4991 2.3023 -0.9956 0.9884
1.4653 2.3239 -0.9956 0.9884
1.4311 2.3450 -0.9956 0.9884
1.3270 2.4054 -0.9956 0.9884
1.2917 2.4246 -0.9956 0.9884
1.2203 2.4612 -0.9956 0.9884
1.0744 2.5282 -0.9955 0.9884
1.0373 2.5437 -0.9955 0.9884
0.9625 2.5729 -0.9955 0.9884
0.9248 2.5866 -0.9955 0.9884
0.8488 2.6125 -0.9955 0.9884
0.8106 2.6246 -0.9955 0.9884
0.6948 2.6576 -0.9955 0.9884
0.5383 2.6935 -0.9954 0.9884
0.4989 2.7011 -0.9954 0.9884
0.4198 2.7145 -0.9954 0.9884
0.3800 2.7203 -0.9954 0.9884
0.3004 2.7302 -0.9954 0.9884
0.2604 2.7343 -0.9954 0.9884
0.1804 2.7407 -0.9954 0.9884
0.1404 2.7430 -0.9954 0.9884
0.1003 2.7447 -0.9954 0.9884
0.0602 2.7459 -0.9953 0.9884
0.0201 2.7464 -0.9953 0.9884
-0.0602 2.7458 -0.9953 0.9884
-0.1003 2.7446 -0.9953 0.9884
-0.1805 2.7405 -0.9953 0.9884
-0.2205 2.7375 -0.9953 0.9884
-0.3402 2.7252 -0.9953 0.9884
-0.3800 2.7199 -0.9953 0.9884
-0.4197 2.7140 -0.9953 0.9884
-0.4593 2.7075 -0.9952 0.9884
-0.4988 2.7006 -0.9952 0.9884
-0.6167 2.6760 -0.9952 0.9884
-0.1496 0.6084 -0.2270 0.9973
-0.1555 0.5611 -0.2110 0.9975
-0.1720 0.5294 -0.2017 0.9976
-0.1826 0.5107 -0.1965 0.9977
-0.1877 0.5016 -0.1941 0.9977
-0.1926 0.4927 -0.1917 0.9978
-0.2020 0.4752 -0.1871 0.9978
-0.2065 0.4668 -0.1849 0.9978
-0.2108 0.4584 -0.1828 0.9979
-0.2191 0.4419 -0.1787 0.9979
-0.2231 0.4338 -0.1768 0.9979
-0.2306 0.4181 -0.1730 0.9980
-0.2343 0.4103 -0.1712 0.9980
-0.2378 0.4027 -0.1695 0.9980
-0.2412 0.3952 -0.1678 0.9980
-0.2539 0.3661 -0.1615 0.9981
-0.2598 0.3521 -0.1586 0.9981
-0.2626 0.3453 -0.1572 0.9982
-0.2654 0.3385 -0.1559 0.9982
-0.2706 0.3252 -0.1533 0.9982
-0.2731 0.3185 -0.1520 0.9982
-0.2753 0.3119 -0.1508 0.9982
-0.2774 0.3050 -0.1494 0.9982
-0.2811 0.2916 -0.1468 0.9983
-0.2879 0.2657 -0.1420 0.9983
-0.2909 0.2531 -0.1398 0.9984
-0.2924 0.2470 -0.1387 0.9984
-0.2950 0.2348 -0.1366 0.9984
-0.2963 0.2288 -0.1357 0.9984
-0.2975 0.2229 -0.1347 0.9984
-0.2986 0.2170 -0.1338 0.9984
-0.3028 0.1941 -0.1303 0.9985
-0.3040 0.1886 -0.1297 0.9985
-0.3115 0.1516 -0.1255 0.9985
-0.3123 0.1465 -0.1250 0.9985
-0.3132 0.1413 -0.1245 0.9985
-0.3145 0.1310 -0.1235 0.9986
-0.3151 0.1259 -0.1230 0.9986
-0.3157 0.1208 -0.1225 0.9986
-0.3163 0.1158 -0.1220 0.9986
-0.3177 0.1007 -0.1208 0.9986
-0.3185 0.0908 -0.1200 0.9986
-0.3188 0.0859 -0.1197 0.9986
-0.3196 0.0712 -0.1187 0.9986
-0.3201 0.0568 -0.1178 0.9986
-0.3202 0.0520 -0.1176 0.9986
-0.3203 0.0472 -0.1173 0.9986
-0.3203 0.0282 -0.1165 0.9986
-0.3201 0.0187 -0.1162 0.9986
-0.3196 0.0047 -0.1158 0.9986
-0.3146 -0.0046 -0.1180 0.9987
-0.3151 -0.0184 -0.1184 0.9987
-0.3153 -0.0277 -0.1187 0.9986
-0.3153 -0.0323 -0.1189 0.9986
-0.3151 -0.0558 -0.1200 0.9986
-0.3143 -0.0748 -0.1211 0.9986
-0.3140 -0.0796 -0.1215 0.9986
-0.3137 -0.0844 -0.1218 0.9986
-0.3134 -0.0893 -0.1222 0.9986
-0.3126 -0.0990 -0.1229 0.9986
-0.3116 -0.1088 -0.1238 0.9986
-0.3105 -0.1187 -0.1247 0.9986
-0.3100 -0.1237 -0.1251 0.9986
-0.3033 -0.1644 -0.1294 0.9985
-0.3011 -0.1748 -0.1306 0.9985
-0.2987 -0.1853 -0.1318 0.9985
-0.2962 -0.1960 -0.1332 0.9985
-0.2942 -0.2072 -0.1349 0.9985
-0.2930 -0.2129 -0.1358 0.9985
-0.2919 -0.2186 -0.1368 0.9984
-0.2907 -0.2244 -0.1377 0.9984
-0.2894 -0.2303 -0.1387 0.9984
-0.2881 -0.2362 -0.1397 0.9984
-0.2867 -0.2421 -0.1407 0.9984
-0.2853 -0.2482 -0.1418 0.9984
-0.2772 -0.2792 -0.1475 0.9983
-0.2735 -0.2921 -0.1501 0.9983
-0.2716 -0.2987 -0.1514 0.9983
-0.2624 -0.3248 -0.1566 0.9982
-0.2598 -0.3313 -0.1579 0.9982
-0.2514 -0.3512 -0.1620 0.9982
-0.2484 -0.3581 -0.1634 0.9981
-0.2453 -0.3649 -0.1649 0.9981
-0.2288 -0.4006 -0.1730 0.9980
-0.2252 -0.4081 -0.1748 0.9980
-0.2177 -0.4233 -0.1785 0.9980
-0.2138 -0.4311 -0.1804 0.9979
-0.1875 -0.4797 -0.1932 0.9978
-0.1672 -0.5146 -0.2029 0.9977
-0.1617 -0.5237 -0.2055 0.9977
-0.1561 -0.5329 -0.2082 0.9976
-0.1385 -0.5632 -0.2175 0.9975
-0.1332 -0.5780 -0.2225 0.9975
-0.5496 -2.5548 -0.9800 0.9889
-0.5122 -2.5627 -0.9800 0.9889
-0.4747 -2.5699 -0.9800 0.9889
-0.3994 -2.5827 -0.9800 0.9889
-0.1717 -2.6079 -0.9801 0.9889
-0.1336 -2.6102 -0.9801 0.9889
-0.0573 -2.6130 -0.9801 0.9889
0.0191 -2.6135 -0.9801 0.9889
0.0955 -2.6119 -0.9801 0.9889
0.1717 -2.6080 -0.9801 0.9889
0.2098 -2.6053 -0.9801 0.9889
0.2479 -2.6020 -0.9801 0.9889
0.2859 -2.5981 -0.9801 0.9889
0.3617 -2.5886 -0.9802 0.9889
0.6241 -2.5383 -0.9802 0.9889
0.6612 -2.5290 -0.9802 0.9889
0.8078 -2.4861 -0.9802 0.9889
0.8801 -2.4615 -0.9803 0.9889
0.9160 -2.4484 -0.9803 0.9889
0.9887 -2.4244 -0.9818 0.9889
1.0276 -2.4181 -0.9852 0.9888
1.1059 -2.4048 -0.9926 0.9888
1.2824 -2.3247 -0.9956 0.9887
1.3498 -2.2862 -0.9956 0.9887
1.4487 -2.2249 -0.9956 0.9887
1.4811 -2.2036 -0.9956 0.9887
1.5132 -2.1816 -0.9956 0.9887
1.5449 -2.1593 -0.9956 0.9887
1.6380 -2.0896 -0.9956 0.9887
1.6984 -2.0408 -0.9957 0.9887
1.7281 -2.0158 -0.9957 0.9887
1.7573 -1.9904 -0.9957 0.9887
1.8429 -1.9115 -0.9957 0.9887
1.8706 -1.8844 -0.9957 0.9887
1.8980 -1.8568 -0.9957 0.9887
1.9250 -1.8289 -0.9957 0.9887
1.9515 -1.8006 -0.9957 0.9887
1.9776 -1.7719 -0.9957 0.9887
2.0033 -1.7428 -0.9957 0.9887
2.0285 -1.7134 -0.9957 0.9887
2.0533 -1.6836 -0.9957 0.9887
2.0777 -1.6534 -0.9957 0.9887
2.1017 -1.6229 -0.9957 0.9887
2.1482 -1.5608 -0.9957 0.9887
2.1708 -1.5292 -0.9957 0.9887
2.1930 -1.4973 -0.9957 0.9887
2.2146 -1.4652 -0.9958 0.9887
2.2965 -1.3333 -0.9958 0.9887
2.3157 -1.2996 -0.9958 0.9887
2.3345 -1.2656 -0.9958 0.9887
2.3704 -1.1969 -0.9958 0.9887
2.3877 -1.1621 -0.9958 0.9887
2.4363 -1.0563 -0.9958 0.9887
2.4515 -1.0207 -0.9958 0.9887
2.4662 -0.9847 -0.9958 0.9887
2.4803 -0.9486 -0.9958 0.9887
2.4939 -0.9123 -0.9958 0.9887
2.5070 -0.8757 -0.9958 0.9887
2.5195 -0.8390 -0.9958 0.9887
2.5315 -0.8021 -0.9958 0.9887
2.5921 -0.5773 -0.9958 0.9887
2.6214 -0.4250 -0.9958 0.9887
2.6273 -0.3866 -0.9958 0.9887
2.6327 -0.3482 -0.9958 0.9887
2.6375 -0.3097 -0.9958 0.9887
2.6545 -0.0775 -0.9958 0.9887
2.6545 0.0776 -0.9958 0.9887
2.6454 0.2325 -0.9958 0.9887
2.6417 0.2712 -0.9958 0.9887
2.6375 0.3098 -0.9958 0.9887
2.6273 0.3867 -0.9958 0.9887
2.6149 0.4633 -0.9958 0.9887
2.6078 0.5014 -0.9958 0.9887
2.5921 0.5774 -0.9958 0.9887
2.5833 0.6152 -0.9958 0.9887
2.5642 0.6905 -0.9958 0.9887
2.5315 0.8022 -0.9958 0.9887
2.5195 0.8391 -0.9958 0.9887
2.5070 0.8758 -0.9958 0.9887
2.4939 0.9123 -0.9958 0.9887
2.4515 1.0207 -0.9958 0.9887
2.4363 1.0564 -0.9958 0.9887
2.4044 1.1272 -0.9958 0.9887
2.3527 1.2314 -0.9958 0.9887
2.3344 1.2657 -0.9958 0.9887
2.3157 1.2996 -0.9958 0.9887
2.2358 1.4327 -0.9958 0.9887
2.2146 1.4652 -0.9958 0.9887
2.1483 1.5608 -0.9957 0.9887
1.9776 1.7720 -0.9957 0.9887
1.9515 1.8006 -0.9957 0.9887
1.8980 1.8569 -0.9957 0.9887
1.8707 1.8844 -0.9957 0.9887
1.8429 1.9115 -0.9957 0.9887
1.8148 1.9382 -0.9957 0.9887
1.7863 1.9645 -0.9957 0.9887
1.7281 2.0159 -0.9957 0.9887
1.6380 2.0896 -0.9956 0.9887
1.6073 2.1133 -0.9956 0.9887
1.5763 2.1366 -0.9956 0.9887
1.4487 2.2249 -0.9956 0.9887
1.4160 2.2459 -0.9956 0.9887
1.3498 2.2863 -0.9956 0.9887
1.2139 2.3611 -0.9956 0.9887
1.1793 2.3786 -0.9956 0.9887
1.1444 2.3956 -0.9956 0.9887
1.1093 2.4120 -0.9955 0.9887
1.0739 2.4280 -0.9955 0.9887
1.0383 2.4434 -0.9955 0.9887
1.0025 2.4583 -0.9955 0.9887
0.9302 2.4865 -0.9955 0.9887
0.8572 2.5126 -0.9955 0.9887
0.8203 2.5248 -0.9955 0.9887
0.6714 2.5683 -0.9955 0.9887
0.6338 2.5779 -0.9955 0.9887
0.5961 2.5868 -0.9954 0.9887
0.5203 2.6031 -0.9954 0.9887
0.4057 2.6234 -0.9954 0.9887
0.2903 2.6386 -0.9954 0.9887
0.1357 2.6509 -0.9954 0.9887
-0.0194 2.6542 -0.9953 0.9887
-0.0969 2.6525 -0.9953 0.9887
-0.3673 2.6286 -0.9953 0.9887
-0.4056 2.6229 -0.9953 0.9887
-0.4439 2.6167 -0.9952 0.9887
-0.4821 2.6099 -0.9952 0.9887
-0.5202 2.6026 -0.9952 0.9887
-0.5581 2.5947 -0.9952 0.9887
-0.1332 0.5782 -0.2225 0.9975
-0.1445 0.5527 -0.2142 0.9976
-0.1561 0.5329 -0.2082 0.9976
-0.1617 0.5237 -0.2055 0.9977
-0.1725 0.5057 -0.2004 0.9977
-0.1777 0.4970 -0.1979 0.9977
-0.1922 0.4714 -0.1909 0.9978
-0.1968 0.4631 -0.1887 0.9979
-0.2012 0.4550 -0.1865 0.9979
-0.2137 0.4311 -0.1804 0.9979
-0.2177 0.4234 -0.1785 0.9980
-0.2288 0.4007 -0.1730 0.9980
-0.2322 0.3934 -0.1713 0.9981
-0.2356 0.3861 -0.1696 0.9981
-0.2389 0.3789 -0.1680 0.9981
-0.2422 0.3720 -0.1664 0.9981
-0.2484 0.3581 -0.1634 0.9981
-0.2514 0.3513 -0.1620 0.9982
-0.2570 0.3379 -0.1592 0.9982
-0.2624 0.3248 -0.1566 0.9982
-0.2650 0.3184 -0.1553 0.9982
-0.2696 0.3053 -0.1527 0.9983
-0.2716 0.2987 -0.1514 0.9983
-0.2754 0.2856 -0.1488 0.9983
-0.2772 0.2792 -0.1475 0.9983
-0.2789 0.2729 -0.1463 0.9983
-0.2806 0.2666 -0.1451 0.9983
-0.2853 0.2482 -0.1418 0.9984
-0.2881 0.2362 -0.1397 0.9984
-0.2894 0.2303 -0.1387 0.9984
-0.2907 0.2245 -0.1377 0.9984
-0.2919 0.2187 -0.1368 0.9984
-0.2930 0.2129 -0.1358 0.9985
-0.2942 0.2072 -0.1349 0.9985
-0.2952 0.2016 -0.1341 0.9985
-0.2975 0.1907 -0.1325 0.9985
-0.2999 0.1801 -0.1312 0.9985
-0.3033 0.1645 -0.1294 0.9985
-0.3062 0.1491 -0.1277 0.9985
-0.3079 0.1389 -0.1267 0.9986
-0.3093 0.1288 -0.1256 0.9986
-0.3099 0.1238 -0.1251 0.9986
-0.3125 0.0991 -0.1229 0.9986
-0.3134 0.0893 -0.1222 0.9986
-0.3137 0.0845 -0.1218 0.9986
-0.3147 0.0653 -0.1205 0.9986
-0.3153 0.0464 -0.1195 0.9986
-0.3153 0.0418 -0.1193 0.9986
-0.3154 0.0371 -0.1191 0.9986
-0.3150 0.0139 -0.1182 0.9987
-0.3148 0.0092 -0.1181 0.9987
-0.3095 0.0000 -0.1200 0.9987
-0.3097 -0.0045 -0.1201 0.9987
-0.3103 -0.0227 -0.1206 0.9987
-0.3104 -0.0318 -0.1210 0.9987
-0.3104 -0.0364 -0.1212 0.9987
-0.3104 -0.0410 -0.1214 0.9987
-0.3103 -0.0456 -0.1216 0.9987
-0.3101 -0.0549 -0.1221 0.9986
-0.3100 -0.0595 -0.1224 0.9986
-0.3098 -0.0642 -0.1227 0.9986
-0.3093 -0.0736 -0.1233 0.9986
-0.3083 -0.0879 -0.1243 0.9986
-0.3075 -0.0974 -0.1251 0.9986
-0.3071 -0.1022 -0.1255 0.9986
-0.3042 -0.1266 -0.1278 0.9986
-0.3035 -0.1316 -0.1283 0.9986
-0.2948 -0.1769 -0.1333 0.9985
-0.2936 -0.1821 -0.1339 0.9985
-0.2876 -0.2089 -0.1378 0.9985
-0.2864 -0.2146 -0.1387 0.9985
-0.2826 -0.2316 -0.1417 0.9984
-0.2812 -0.2375 -0.1427 0.9984
-0.2797 -0.2434 -0.1437 0.9984
-0.2750 -0.2613 -0.1471 0.9984
-0.2716 -0.2736 -0.1495 0.9983
-0.2698 -0.2798 -0.1507 0.9983
-0.2679 -0.2861 -0.1520 0.9983
-0.2640 -0.2989 -0.1546 0.9983
-0.2595 -0.3118 -0.1573 0.9983
-0.2570 -0.3180 -0.1585 0.9982
-0.2544 -0.3244 -0.1598 0.9982
-0.2488 -0.3373 -0.1625 0.9982
-0.2460 -0.3438 -0.1639 0.9982
-0.2400 -0.3570 -0.1668 0.9982
-0.2369 -0.3637 -0.1683 0.9981
-0.2303 -0.3773 -0.1714 0.9981
-0.2235 -0.3914 -0.1747 0.9981
-0.2199 -0.3986 -0.1765 0.9980
-0.2163 -0.4059 -0.1783 0.9980
-0.2125 -0.4132 -0.1801 0.9980
-0.2005 -0.4359 -0.1860 0.9979
-0.1962 -0.4436 -0.1881 0.9979
-0.1919 -0.4514 -0.1902 0.9979
-0.1827 -0.4674 -0.1946 0.9978
-0.1779 -0.4756 -0.1969 0.9978
-0.1573 -0.5093 -0.2067 0.9977
-0.1518 -0.5181 -0.2093 0.9977
-0.1460 -0.5270 -0.2120 0.9977
-0.1341 -0.5452 -0.2177 0.9976
-0.1215 -0.5647 -0.2239 0.9975
-0.4592 -2.4858 -0.9800 0.9892
-0.4228 -2.4922 -0.9800 0.9892
-0.3863 -2.4982 -0.9800 0.9892
-0.2765 -2.5128 -0.9800 0.9892
-0.2398 -2.5165 -0.9800 0.9892
-0.1292 -2.5247 -0.9801 0.9892
-0.0554 -2.5274 -0.9801 0.9892
0.0184 -2.5280 -0.9801 0.9892
0.0554 -2.5275 -0.9801 0.9892
0.1292 -2.5248 -0.9801 0.9892
0.1661 -2.5227 -0.9801 0.9892
0.2029 -2.5200 -0.9801 0.9892
0.2765 -2.5130 -0.9801 0.9892
0.3132 -2.5087 -0.9801 0.9892
0.4955 -2.4793 -0.9802 0.9892
0.5317 -2.4718 -0.9802 0.9892
0.6037 -2.4552 -0.9802 0.9892
0.6752 -2.4366 -0.9802 0.9892
0.7111 -2.4277 -0.9808 0.9892
0.7858 -2.4184 -0.9858 0.9892
0.8234 -2.4134 -0.9886 0.9891
0.9696 -2.3777 -0.9955 0.9890
1.0387 -2.3484 -0.9955 0.9890
1.1407 -2.3007 -0.9955 0.9890
1.1742 -2.2838 -0.9956 0.9890
1.2074 -2.2664 -0.9956 0.9890
1.2404 -2.2485 -0.9956 0.9890
1.4013 -2.1520 -0.9956 0.9890
1.4326 -2.1313 -0.9956 0.9890
1.5247 -2.0666 -0.9956 0.9890
1.5547 -2.0441 -0.9956 0.9890
1.6138 -1.9978 -0.9956 0.9890
1.6428 -1.9740 -0.9956 0.9890
1.6715 -1.9498 -0.9956 0.9890
1.7553 -1.8747 -0.9957 0.9890
1.7825 -1.8489 -0.9957 0.9890
1.8094 -1.8227 -0.9957 0.9890
1.8358 -1.7960 -0.9957 0.9890
1.8619 -1.7690 -0.9957 0.9890
1.8875 -1.7416 -0.9957 0.9890
1.9376 -1.6857 -0.9957 0.9890
2.0097 -1.5993 -0.9957 0.9890
2.0329 -1.5697 -0.9957 0.9890
2.0997 -1.4791 -0.9957 0.9890
2.1211 -1.4483 -0.9957 0.9890
2.1625 -1.3857 -0.9957 0.9890
2.1826 -1.3540 -0.9957 0.9890
2.2212 -1.2896 -0.9958 0.9890
2.2398 -1.2570 -0.9958 0.9890
2.2580 -1.2242 -0.9958 0.9890
2.2757 -1.1911 -0.9958 0.9890
2.3256 -1.0902 -0.9958 0.9890
2.3566 -1.0218 -0.9958 0.9890
2.4122 -0.8824 -0.9958 0.9890
2.4248 -0.8471 -0.9958 0.9890
2.4370 -0.8115 -0.9958 0.9890
2.4486 -0.7758 -0.9958 0.9890
2.4597 -0.7400 -0.9958 0.9890
2.5072 -0.5585 -0.9958 0.9890
2.5224 -0.4850 -0.9958 0.9890
2.5292 -0.4480 -0.9958 0.9890
2.5412 -0.3739 -0.9958 0.9890
2.5511 -0.2996 -0.9958 0.9890
2.5618 -0.1874 -0.9958 0.9890
2.5683 -0.0375 -0.9958 0.9890
2.5686 0.0000 -0.9958 0.9890
2.5662 0.1126 -0.9958 0.9890
2.5642 0.1501 -0.9958 0.9890
2.5618 0.1875 -0.9958 0.9890
2.5511 0.2996 -0.9958 0.9890
2.5464 0.3369 -0.9958 0.9890
2.5412 0.3740 -0.9958 0.9890
2.5355 0.4111 -0.9958 0.9890
2.5292 0.4481 -0.9958 0.9890
2.5224 0.4850 -0.9958 0.9890
2.5150 0.5218 -0.9958 0.9890
2.5072 0.5585 -0.9958 0.9890
2.4898 0.6316 -0.9958 0.9890
2.4803 0.6679 -0.9958 0.9890
2.4702 0.7040 -0.9958 0.9890
2.4370 0.8116 -0.9958 0.9890
2.3854 0.9525 -0.9958 0.9890
2.3712 0.9873 -0.9958 0.9890
2.3566 1.0218 -0.9958 0.9890
2.3413 1.0562 -0.9958 0.9890
2.3257 1.0902 -0.9958 0.9890
2.3095 1.1241 -0.9958 0.9890
2.2580 1.2242 -0.9958 0.9890
2.2398 1.2571 -0.9958 0.9890
2.1826 1.3540 -0.9957 0.9890
2.1626 1.3858 -0.9957 0.9890
2.1211 1.4484 -0.9957 0.9890
2.0997 1.4792 -0.9957 0.9890
2.0556 1.5399 -0.9957 0.9890
2.0097 1.5993 -0.9957 0.9890
1.9861 1.6285 -0.9957 0.9890
1.9621 1.6573 -0.9957 0.9890
1.8875 1.7417 -0.9957 0.9890
1.8619 1.7691 -0.9957 0.9890
1.8358 1.7961 -0.9957 0.9890
1.7826 1.8489 -0.9957 0.9890
1.7553 1.8748 -0.9957 0.9890
1.7277 1.9002 -0.9957 0.9890
1.6998 1.9252 -0.9957 0.9890
1.6428 1.9741 -0.9956 0.9890
1.5844 2.0212 -0.9956 0.9890
1.5247 2.0666 -0.9956 0.9890
1.4636 2.1103 -0.9956 0.9890
1.4326 2.1314 -0.9956 0.9890
1.4013 2.1521 -0.9956 0.9890
1.3378 2.1921 -0.9956 0.9890
1.3056 2.2114 -0.9956 0.9890
1.2731 2.2302 -0.9956 0.9890
1.2075 2.2664 -0.9956 0.9890
1.1407 2.3007 -0.9955 0.9890
1.0729 2.3330 -0.9955 0.9890
0.9696 2.3778 -0.9955 0.9890
0.8998 2.4050 -0.9955 0.9890
0.8645 2.4179 -0.9955 0.9890
0.8291 2.4303 -0.9955 0.9890
0.7935 2.4421 -0.9955 0.9890
0.7217 2.4642 -0.9955 0.9890
0.6857 2.4745 -0.9955 0.9890
0.6495 2.4842 -0.9955 0.9890
0.6131 2.4934 -0.9954 0.9890
0.5766 2.5021 -0.9954 0.9890
0.5399 2.5103 -0.9954 0.9890
0.5032 2.5179 -0.9954 0.9890
0.4664 2.5249 -0.9954 0.9890
0.3924 2.5375 -0.9954 0.9890
0.2808 2.5521 -0.9954 0.9890
