ply
format ascii 1.0
element vertex 1584
property float32 x
property float32 y
property float32 z
property float32 I
end_header
64.6603 -2.8363 0.4483 0.7719
46.0149 4.0446 0.3199 0.8313
29.0991 3.4171 0.2029 0.8894
26.6875 3.5300 0.1864 0.8979
16.8547 3.4968 0.1192 0.9335
16.8301 3.7491 0.1194 0.9334
16.9444 4.5624 0.1215 0.9322
12.8149 3.6521 0.0923 0.9481
12.3748 3.7230 0.0895 0.9496
11.7715 4.1121 0.0864 0.9513
11.8174 4.3229 0.0872 0.9509
8.9282 3.5652 0.0666 0.9623
8.2227 3.7091 0.0625 0.9646
8.2011 3.9917 0.0632 0.9642
8.2053 4.1431 0.0637 0.9639
8.2095 4.2970 0.0642 0.9636
8.2157 4.4543 0.0647 0.9633
8.3073 4.9870 0.0671 0.9620
8.3405 5.1741 0.0680 0.9615
8.3746 5.3663 0.0689 0.9610
8.4097 5.5637 0.0698 0.9605
4.7041 3.5238 0.0407 0.9768
4.4718 3.5585 0.0396 0.9774
4.3604 3.5752 0.0391 0.9777
4.2519 3.5913 0.0385 0.9780
4.1462 3.6071 0.0381 0.9783
3.7726 3.6907 0.0366 0.9791
3.7618 3.9017 0.0375 0.9786
3.7661 4.0222 0.0382 0.9782
3.7891 4.1671 0.0390 0.9777
3.8645 4.6436 0.0418 0.9761
4.0000 5.4217 0.0467 0.9734
4.0477 5.6575 0.0482 0.9726
2.8309 9.1660 0.0664 0.9624
-0.1316 6.0043 0.0416 0.9763
-0.2001 5.4771 0.0380 0.9783
-0.2576 5.0346 0.0349 0.9800
-0.3066 4.6577 0.0323 0.9815
-0.4321 3.9276 0.0274 0.9843
-0.4724 3.7846 0.0264 0.9849
-0.6208 3.3616 0.0237 0.9864
-0.8303 3.3773 0.0241 0.9862
-0.9381 3.3857 0.0243 0.9860
-1.0482 3.3942 0.0246 0.9859
-1.3421 3.4339 0.0255 0.9854
-1.4721 3.4644 0.0261 0.9851
-1.5392 3.4801 0.0264 0.9849
-1.6078 3.4961 0.0267 0.9847
-3.7891 5.6373 0.0470 0.9732
-3.8089 5.4918 0.0463 0.9736
-3.8281 5.3507 0.0456 0.9740
-3.8648 5.0813 0.0442 0.9748
-3.8851 4.9561 0.0436 0.9751
-3.9244 4.7156 0.0425 0.9758
-3.9617 4.4870 0.0415 0.9763
-3.9796 4.3768 0.0410 0.9766
-3.9972 4.2691 0.0405 0.9769
-4.0144 4.1639 0.0401 0.9771
-4.0313 4.0609 0.0396 0.9774
-4.0477 3.9600 0.0392 0.9776
-4.0639 3.8612 0.0388 0.9778
-4.0797 3.7644 0.0384 0.9780
-4.1255 3.4846 0.0374 0.9786
-4.1403 3.3947 0.0371 0.9788
-4.1548 3.3062 0.0368 0.9790
-4.2451 3.0842 0.0363 0.9792
-4.2961 3.0264 0.0364 0.9792
-4.3643 2.9800 0.0366 0.9791
-4.5251 2.9937 0.0376 0.9785
-4.6947 3.0083 0.0386 0.9779
-0.8895 0.5340 0.0072 0.9959
-0.8887 0.4988 0.0071 0.9959
-0.8859 0.4637 0.0069 0.9960
-0.8810 0.4448 0.0068 0.9961
-0.8717 0.4087 0.0067 0.9962
-0.8580 0.3573 0.0064 0.9963
-0.8528 0.3405 0.0064 0.9963
-0.8478 0.3243 0.0063 0.9964
-0.8429 0.3083 0.0062 0.9964
-0.8287 0.2626 0.0060 0.9965
-0.8242 0.2480 0.0060 0.9966
-0.8219 0.2212 0.0059 0.9966
-0.8209 0.2082 0.0059 0.9966
-0.8200 0.1953 0.0058 0.9966
-0.8131 0.1687 0.0058 0.9967
-0.8096 0.1557 0.0057 0.9967
-0.8061 0.1428 0.0057 0.9967
-0.8032 0.1302 0.0056 0.9968
-0.7978 0.1055 0.0056 0.9968
-0.7925 0.0813 0.0055 0.9968
-0.7900 0.0694 0.0055 0.9968
-0.7874 0.0576 0.0055 0.9968
-0.7824 0.0343 0.0054 0.9969
-0.7799 0.0228 0.0054 0.9969
-0.7774 0.0114 0.0054 0.9969
-0.7381 0.0000 -0.0031 0.9971
-0.7426 -0.0218 -0.0031 0.9970
-0.7470 -0.0437 -0.0031 0.9970
-0.7493 -0.0548 -0.0031 0.9970
-0.7539 -0.0774 -0.0031 0.9970
-0.7562 -0.0888 -0.0032 0.9970
-0.7632 -0.1237 -0.0032 0.9969
-0.7656 -0.1356 -0.0032 0.9969
-0.7680 -0.1477 -0.0033 0.9969
-0.7706 -0.1599 -0.0033 0.9969
-0.7769 -0.1850 -0.0033 0.9968
-0.7798 -0.2100 -0.0034 0.9968
-0.7829 -0.2356 -0.0034 0.9967
-0.7908 -0.2634 -0.0035 0.9967
-0.7948 -0.2777 -0.0035 0.9966
-0.7990 -0.2923 -0.0035 0.9966
-0.8074 -0.3224 -0.0036 0.9965
-0.8163 -0.3540 -0.0037 0.9964
-0.8207 -0.3702 -0.0037 0.9964
-0.8282 -0.4031 -0.0038 0.9963
-0.8360 -0.4377 -0.0039 0.9962
-0.8401 -0.4555 -0.0040 0.9962
-0.8443 -0.4739 -0.0040 0.9961
-0.8485 -0.4927 -0.0041 0.9961
-0.8486 -0.5095 -0.0041 0.9960
-0.8486 -0.5438 -0.0042 0.9960
-5.4945 -3.6351 -0.0274 0.9740
-5.2744 -3.6014 -0.0265 0.9748
-5.0673 -3.5697 -0.0258 0.9755
-12.3498 -8.9726 -0.0634 0.9408
-11.9598 -8.9591 -0.0621 0.9420
-11.5950 -8.9533 -0.0609 0.9431
-11.2476 -8.9504 -0.0597 0.9441
-10.5902 -8.9450 -0.0576 0.9461
-9.9775 -8.9398 -0.0557 0.9478
-9.7045 -8.9543 -0.0549 0.9486
-9.5753 -9.0976 -0.0549 0.9485
-9.5408 -9.6107 -0.0563 0.9473
-9.5420 -9.8970 -0.0571 0.9465
-3.0911 -3.3013 -0.0188 0.9821
-3.0468 -3.3509 -0.0188 0.9820
-2.3224 -2.6304 -0.0146 0.9861
-2.2145 -2.6610 -0.0144 0.9862
-2.1616 -2.6761 -0.0143 0.9863
-2.0578 -2.7056 -0.0141 0.9865
-1.9397 -2.7112 -0.0139 0.9868
-1.8521 -2.6704 -0.0135 0.9871
-1.8496 -2.7518 -0.0138 0.9868
-1.7536 -2.7812 -0.0137 0.9869
-1.6979 -2.7822 -0.0135 0.9870
-1.5930 -2.7905 -0.0134 0.9872
-1.5012 -2.7214 -0.0129 0.9876
-1.4692 -2.8576 -0.0134 0.9872
-1.3971 -2.8179 -0.0131 0.9875
-1.3737 -2.8756 -0.0132 0.9873
-1.3105 -2.8495 -0.0130 0.9875
-1.2761 -2.8852 -0.0131 0.9875
-1.2252 -2.8833 -0.0130 0.9875
-1.1804 -2.8945 -0.0130 0.9876
-1.1332 -2.8991 -0.0129 0.9876
-1.0310 -2.8834 -0.0127 0.9878
-0.9479 -2.9174 -0.0127 0.9878
-0.8669 -3.3161 -0.0142 0.9864
-0.7610 -3.3023 -0.0141 0.9865
-0.6919 -3.4617 -0.0147 0.9860
-1.5277 -9.0055 -0.0380 0.9641
-1.3922 -9.0027 -0.0379 0.9642
-0.9896 -8.9940 -0.0376 0.9645
-0.8565 -8.9912 -0.0375 0.9645
-0.7239 -8.9885 -0.0375 0.9646
-0.5921 -8.9925 -0.0375 0.9646
-0.4609 -9.0059 -0.0375 0.9646
-0.3296 -9.0194 -0.0375 0.9645
-0.0661 -9.0464 -0.0376 0.9645
1.3054 -35.7188 -0.1485 0.8668
2.3506 -35.6962 -0.1487 0.8667
2.8741 -35.6849 -0.1488 0.8666
3.3984 -35.6736 -0.1489 0.8665
3.9240 -35.6622 -0.1491 0.8663
4.4508 -35.6508 -0.1493 0.8661
1.3371 -9.5703 -0.0402 0.9621
1.3968 -9.0326 -0.0380 0.9641
1.5160 -8.9369 -0.0377 0.9644
1.6429 -8.8944 -0.0376 0.9645
1.7743 -8.8774 -0.0376 0.9644
1.9059 -8.8603 -0.0377 0.9644
2.5870 -8.8320 -0.0382 0.9639
2.7268 -8.8290 -0.0384 0.9637
3.1535 -8.8198 -0.0389 0.9632
3.2985 -8.8167 -0.0391 0.9630
3.4449 -8.8135 -0.0393 0.9629
3.8947 -8.8054 -0.0400 0.9622
4.2210 -8.8356 -0.0407 0.9616
4.3892 -8.8528 -0.0411 0.9612
16.5037 -30.9783 -0.1459 0.8690
17.0825 -30.9658 -0.1470 0.8681
17.6702 -30.9530 -0.1481 0.8671
18.2674 -30.9401 -0.1493 0.8661
18.8745 -30.9270 -0.1506 0.8651
2.2814 -3.2894 -0.0166 0.9841
2.3008 -3.2159 -0.0164 0.9843
2.2710 -3.0782 -0.0159 0.9848
2.3382 -3.0743 -0.0161 0.9847
2.5318 -3.1343 -0.0167 0.9840
2.5595 -3.0755 -0.0166 0.9841
2.6406 -2.9041 -0.0163 0.9844
2.9043 -2.6022 -0.0162 0.9845
2.9077 -2.5296 -0.0160 0.9847
4.3889 -3.7071 -0.0239 0.9773
11.1039 -9.1042 -0.0597 0.9442
11.1410 -8.8656 -0.0592 0.9446
11.2329 -8.6737 -0.0590 0.9448
11.7576 -8.5423 -0.0604 0.9435
5.5866 -3.5798 -0.0276 0.9738
13.8323 -8.5811 -0.0676 0.9370
16.2470 -9.4330 -0.0781 0.9276
5.6600 -3.1766 -0.0270 0.9744
9.0510 -4.4055 -0.0418 0.9605
8.9332 -3.2678 -0.0395 0.9627
8.9551 -2.9822 -0.0392 0.9629
8.9145 -2.8246 -0.0389 0.9633
8.8493 -2.2445 -0.0379 0.9641
10.0576 -2.2405 -0.0428 0.9596
16.2562 -3.1257 -0.0688 0.9359
17.5115 -3.1025 -0.0739 0.9313
18.9981 -2.5130 -0.0796 0.9262
25.7952 -2.6477 -0.1078 0.9015
46.2405 -2.7059 -0.1925 0.8309
67.0983 2.9432 -0.2791 0.7644
49.4633 2.8944 -0.2059 0.8202
45.7620 4.0223 -0.1909 0.8321
28.9216 2.9686 -0.1208 0.8902
17.3144 3.0675 -0.0731 0.9321
16.7539 3.2213 -0.0709 0.9340
16.7209 3.7248 -0.0712 0.9338
16.7949 4.2599 -0.0720 0.9330
16.8325 4.5322 -0.0724 0.9326
12.2322 3.6801 -0.0531 0.9502
11.6811 3.8900 -0.0512 0.9519
11.7061 4.0893 -0.0515 0.9516
11.7316 4.2916 -0.0519 0.9513
9.1881 3.5142 -0.0409 0.9614
8.8618 3.5386 -0.0397 0.9626
8.3945 3.6399 -0.0380 0.9641
8.1786 4.1296 -0.0381 0.9640
8.2481 4.7889 -0.0396 0.9626
8.3039 5.1514 -0.0406 0.9617
5.1354 3.3975 -0.0256 0.9757
5.0056 3.4179 -0.0252 0.9760
4.8798 3.4375 -0.0248 0.9764
4.6391 3.4752 -0.0241 0.9771
4.0926 3.5605 -0.0225 0.9785
3.9914 3.5763 -0.0223 0.9788
3.7395 3.6584 -0.0217 0.9793
3.7338 3.7611 -0.0220 0.9790
3.7279 3.8666 -0.0223 0.9787
3.7894 4.4204 -0.0242 0.9770
3.8403 4.7541 -0.0254 0.9759
3.9666 5.5441 -0.0283 0.9731
4.0738 6.0608 -0.0303 0.9712
2.8307 9.1654 -0.0399 0.9624
-0.1276 5.8225 -0.0242 0.9770
-0.1946 5.3254 -0.0221 0.9789
-0.2527 4.9374 -0.0205 0.9804
-0.3480 4.3210 -0.0180 0.9828
-0.3875 4.0684 -0.0170 0.9838
-0.4292 3.9014 -0.0163 0.9844
-0.4694 3.7602 -0.0157 0.9850
-0.5069 3.6285 -0.0152 0.9855
-0.5420 3.5052 -0.0147 0.9859
-0.5749 3.3894 -0.0143 0.9863
-0.7750 3.3634 -0.0143 0.9863
-0.9897 3.3793 -0.0146 0.9860
-1.1006 3.3874 -0.0148 0.9859
-1.1570 3.3916 -0.0149 0.9858
-1.3371 3.4212 -0.0153 0.9854
-1.4013 3.4362 -0.0154 0.9853
-1.5336 3.4674 -0.0158 0.9849
-1.6020 3.4835 -0.0159 0.9848
-1.7435 3.5168 -0.0163 0.9844
-1.8169 3.5341 -0.0165 0.9842
-3.7555 5.5873 -0.0280 0.9734
-3.7952 5.3047 -0.0271 0.9742
-3.8141 5.1698 -0.0267 0.9746
-3.8337 5.0405 -0.0263 0.9750
-3.8544 4.9170 -0.0260 0.9753
-4.0190 3.9318 -0.0234 0.9778
-4.0353 3.8340 -0.0231 0.9780
-4.0824 3.5517 -0.0225 0.9786
-4.0976 3.4610 -0.0223 0.9788
-4.1124 3.3718 -0.0221 0.9790
-4.1270 3.2842 -0.0219 0.9791
-4.1559 3.1132 -0.0216 0.9794
-4.1877 3.0425 -0.0215 0.9795
-4.2380 2.9854 -0.0215 0.9795
-4.3913 2.9052 -0.0219 0.9792
-0.8486 0.5438 -0.0042 0.9960
-0.8486 0.4927 -0.0041 0.9961
-0.8321 0.4201 -0.0039 0.9963
-0.8282 0.4031 -0.0038 0.9963
-0.8207 0.3702 -0.0037 0.9964
-0.8163 0.3539 -0.0037 0.9964
-0.8118 0.3380 -0.0037 0.9965
-0.8074 0.3224 -0.0036 0.9965
-0.8032 0.3072 -0.0036 0.9966
-0.7948 0.2777 -0.0035 0.9966
-0.7869 0.2493 -0.0034 0.9967
-0.7829 0.2356 -0.0034 0.9967
-0.7798 0.2100 -0.0034 0.9968
-0.7737 0.1723 -0.0033 0.9968
-0.7680 0.1477 -0.0033 0.9969
-0.7656 0.1356 -0.0032 0.9969
-0.7632 0.1237 -0.0032 0.9969
-0.7609 0.1120 -0.0032 0.9969
-0.7539 0.0773 -0.0031 0.9970
-0.7516 0.0661 -0.0031 0.9970
-0.7470 0.0437 -0.0031 0.9970
-0.7426 0.0217 -0.0031 0.9970
-0.7047 0.0000 -0.0107 0.9972
-0.7087 -0.0207 -0.0108 0.9972
-0.7147 -0.0523 -0.0109 0.9971
-0.7188 -0.0738 -0.0110 0.9971
-0.7270 -0.1179 -0.0112 0.9971
-0.7291 -0.1291 -0.0113 0.9970
-0.7312 -0.1406 -0.0113 0.9970
-0.7333 -0.1521 -0.0114 0.9970
-0.7355 -0.1638 -0.0115 0.9970
-0.7377 -0.1757 -0.0116 0.9970
-0.7405 -0.1879 -0.0116 0.9969
-0.7419 -0.1997 -0.0117 0.9969
-0.7424 -0.2116 -0.0118 0.9969
-0.7490 -0.2373 -0.0120 0.9969
-0.7524 -0.2505 -0.0121 0.9968
-0.7666 -0.3061 -0.0126 0.9967
-0.7703 -0.3207 -0.0127 0.9967
-0.7819 -0.3665 -0.0132 0.9966
-0.7851 -0.3821 -0.0133 0.9965
-0.7883 -0.3980 -0.0135 0.9965
-0.7948 -0.4309 -0.0138 0.9964
-0.7982 -0.4480 -0.0139 0.9963
-0.8017 -0.4655 -0.0141 0.9963
-0.8052 -0.4834 -0.0143 0.9963
-0.8107 -0.5195 -0.0147 0.9962
-0.8104 -0.5361 -0.0148 0.9961
-11.8946 -8.9103 -0.2265 0.9423
-11.5408 -8.9114 -0.2222 0.9433
-10.5547 -8.9149 -0.2105 0.9462
-9.9534 -8.9182 -0.2036 0.9479
-9.5481 -9.0718 -0.2007 0.9487
-9.5194 -9.3129 -0.2029 0.9481
-9.5015 -9.5711 -0.2055 0.9475
-2.5361 -2.7086 -0.0565 0.9853
-2.4028 -2.6426 -0.0544 0.9858
-2.3470 -2.6582 -0.0540 0.9859
-2.2919 -2.6737 -0.0537 0.9860
-2.2376 -2.6888 -0.0533 0.9861
-2.1841 -2.7039 -0.0530 0.9862
-2.1312 -2.7187 -0.0526 0.9863
-2.0789 -2.7334 -0.0523 0.9864
-2.0273 -2.7479 -0.0520 0.9864
-1.9762 -2.7623 -0.0518 0.9865
-1.8361 -2.7317 -0.0502 0.9869
-1.7605 -2.7037 -0.0492 0.9872
-1.6406 -2.7786 -0.0492 0.9872
-1.5373 -2.6930 -0.0473 0.9877
-1.5254 -2.7651 -0.0481 0.9874
-1.3030 -2.6282 -0.0447 0.9883
-1.2562 -2.6296 -0.0444 0.9884
-1.2347 -2.6847 -0.0450 0.9882
-1.2392 -2.9162 -0.0483 0.9874
-1.1709 -2.9957 -0.0490 0.9872
-1.0742 -3.0045 -0.0486 0.9873
-1.0265 -3.0088 -0.0484 0.9874
-0.9755 -3.0024 -0.0481 0.9875
-0.9319 -3.0175 -0.0481 0.9874
-0.7462 -3.0349 -0.0476 0.9876
-0.7907 -3.4312 -0.0537 0.9860
-0.7440 -3.4591 -0.0539 0.9859
-0.6970 -3.4872 -0.0542 0.9859
-1.6621 -8.9984 -0.1394 0.9641
-1.5260 -8.9955 -0.1390 0.9642
-1.3906 -8.9927 -0.1387 0.9643
-1.2560 -8.9898 -0.1383 0.9643
-0.9885 -8.9841 -0.1377 0.9645
-0.8556 -8.9812 -0.1375 0.9646
-0.7231 -8.9784 -0.1373 0.9646
-0.5912 -8.9785 -0.1371 0.9646
-0.3288 -8.9966 -0.1372 0.9646
-0.1975 -9.0101 -0.1373 0.9646
-0.0659 -9.0235 -0.1375 0.9645
0.7833 -35.7301 -0.5446 0.8668
1.3054 -35.7188 -0.5446 0.8668
1.8278 -35.7075 -0.5448 0.8667
3.3985 -35.6736 -0.5461 0.8664
1.3764 -8.9006 -0.1372 0.9646
1.6375 -8.8653 -0.1374 0.9646
1.7684 -8.8483 -0.1375 0.9645
1.9009 -8.8370 -0.1377 0.9645
2.1714 -8.8311 -0.1386 0.9643
2.3080 -8.8281 -0.1390 0.9642
2.4455 -8.8251 -0.1395 0.9640
2.5840 -8.8220 -0.1401 0.9639
2.7237 -8.8190 -0.1406 0.9637
2.8645 -8.8159 -0.1413 0.9636
3.0065 -8.8128 -0.1419 0.9634
3.2946 -8.8064 -0.1433 0.9631
3.7382 -8.7967 -0.1456 0.9625
3.8900 -8.7946 -0.1465 0.9623
4.0457 -8.7969 -0.1475 0.9620
4.2086 -8.8096 -0.1488 0.9617
4.3761 -8.8265 -0.1501 0.9614
4.5468 -8.8437 -0.1515 0.9610
17.6703 -30.9530 -0.5431 0.8671
5.8763 -9.9529 -0.1761 0.9548
2.0671 -2.9804 -0.0553 0.9856
2.3876 -2.9557 -0.0579 0.9849
2.5595 -3.0755 -0.0610 0.9841
2.5869 -3.0177 -0.0606 0.9842
2.6139 -2.9605 -0.0602 0.9843
2.8680 -3.1542 -0.0650 0.9831
2.8722 -3.0675 -0.0640 0.9833
2.8802 -2.9014 -0.0623 0.9838
2.8878 -2.7438 -0.0607 0.9842
2.8915 -2.6679 -0.0600 0.9844
2.9020 -2.4511 -0.0579 0.9849
10.9195 -8.9531 -0.2152 0.9451
11.3763 -8.5221 -0.2166 0.9447
12.4872 -8.5263 -0.2304 0.9413
5.5842 -3.5783 -0.1011 0.9738
5.5390 -3.2159 -0.0976 0.9747
5.6509 -3.1714 -0.0987 0.9744
5.6076 -3.0402 -0.0972 0.9748
9.0781 -4.0949 -0.1518 0.9609
8.4586 -3.5218 -0.1396 0.9640
8.5782 -3.4254 -0.1408 0.9637
8.7680 -3.3535 -0.1430 0.9631
8.9944 -2.7060 -0.1431 0.9631
8.9536 -2.5517 -0.1419 0.9634
9.0744 -2.4434 -0.1432 0.9631
9.0626 -2.2987 -0.1425 0.9633
17.6169 -3.6551 -0.2742 0.9306
16.2115 -3.1171 -0.2516 0.9361
17.6842 -3.1330 -0.2737 0.9307
18.2680 -2.6885 -0.2814 0.9288
25.3458 -2.9764 -0.3889 0.9029
25.2821 -2.5950 -0.3873 0.9033
30.1079 -2.6464 -0.4606 0.8861
46.1402 -2.7000 -0.7043 0.8312
53.5032 -2.3469 -0.8161 0.8072
67.9101 -1.9852 -1.0353 0.7620
67.9329 -0.9927 -1.0353 0.7620
67.9407 0.0000 -1.0353 0.7620
67.9335 0.9927 -1.0353 0.7620
67.9106 1.9852 -1.0353 0.7620
67.8733 2.9772 -1.0353 0.7620
49.3137 2.8857 -0.7527 0.8207
45.7069 3.3453 -0.6984 0.8325
28.8940 2.9657 -0.4426 0.8903
28.7826 3.3800 -0.4416 0.8905
16.7074 3.2124 -0.2593 0.9342
16.6948 3.7189 -0.2606 0.9339
16.7284 3.9838 -0.2620 0.9335
13.0516 3.5142 -0.2060 0.9474
12.1174 3.6455 -0.1928 0.9506
11.7040 4.2814 -0.1899 0.9514
8.8096 3.5179 -0.1445 0.9628
8.5755 3.5705 -0.1415 0.9635
8.1618 3.6817 -0.1364 0.9648
8.1510 3.9673 -0.1381 0.9644
8.1551 4.1178 -0.1392 0.9641
8.2097 4.6076 -0.1435 0.9630
8.2365 4.7821 -0.1451 0.9626
8.2638 4.9609 -0.1469 0.9622
8.2919 5.1439 -0.1487 0.9617
8.3206 5.3318 -0.1506 0.9612
5.0750 3.3575 -0.0927 0.9760
4.9469 3.3778 -0.0913 0.9763
4.8228 3.3974 -0.0899 0.9767
4.7023 3.4164 -0.0886 0.9770
4.5853 3.4348 -0.0873 0.9773
4.4716 3.4527 -0.0861 0.9777
4.3609 3.4702 -0.0849 0.9780
4.2532 3.4872 -0.0838 0.9782
4.1482 3.5037 -0.0827 0.9785
4.0458 3.5198 -0.0817 0.9788
3.9460 3.5355 -0.0807 0.9790
3.7070 3.6266 -0.0790 0.9795
3.6947 3.8321 -0.0811 0.9789
3.6883 3.9391 -0.0822 0.9786
3.6982 4.0671 -0.0838 0.9782
3.7195 4.2127 -0.0856 0.9778
3.7897 4.6915 -0.0919 0.9762
3.8154 4.8671 -0.0942 0.9756
3.8425 5.0520 -0.0967 0.9749
3.8710 5.2468 -0.0994 0.9743
3.9011 5.4527 -0.1022 0.9735
4.0419 6.2072 -0.1129 0.9708
4.1199 6.5339 -0.1177 0.9696
33.4472 56.6504 -1.0025 0.7686
32.6005 57.1062 -1.0020 0.7687
31.7479 57.5498 -1.0015 0.7688
30.8888 57.9797 -1.0011 0.7689
30.0241 58.3972 -1.0006 0.7690
29.1533 58.8018 -1.0001 0.7691
28.2774 59.1927 -0.9996 0.7692
27.3960 59.5707 -0.9991 0.7693
26.5104 59.9349 -0.9987 0.7694
25.6187 60.2856 -0.9982 0.7695
22.9179 61.2586 -0.9967 0.7698
22.0092 61.5559 -0.9962 0.7699
20.1802 62.1081 -0.9951 0.7701
16.4834 63.0499 -0.9931 0.7705
15.5522 63.2502 -0.9925 0.7706
14.6185 63.4375 -0.9920 0.7707
13.6826 63.6097 -0.9915 0.7708
10.8644 64.0447 -0.9899 0.7712
9.9222 64.1618 -0.9893 0.7713
8.0346 64.3545 -0.9883 0.7715
6.1439 64.4921 -0.9872 0.7717
1.4160 64.5896 -0.9845 0.7722
0.4718 64.5683 -0.9839 0.7724
-0.2513 4.9110 -0.0749 0.9805
-0.3859 4.0515 -0.0620 0.9839
-0.4264 3.8755 -0.0594 0.9845
-0.5387 3.4842 -0.0537 0.9860
-0.5716 3.3698 -0.0521 0.9864
-0.6173 3.3424 -0.0518 0.9865
-0.7205 3.3499 -0.0522 0.9864
-0.8255 3.3575 -0.0527 0.9863
-0.8787 3.3614 -0.0529 0.9862
-0.9325 3.3653 -0.0532 0.9861
-1.0417 3.3732 -0.0538 0.9860
-1.1535 3.3814 -0.0544 0.9858
-1.2106 3.3860 -0.0548 0.9857
-1.3326 3.4096 -0.0558 0.9855
-1.3965 3.4246 -0.0564 0.9853
-1.5283 3.4554 -0.0576 0.9850
-1.8103 3.5212 -0.0603 0.9843
-29.8095 55.9541 -0.9661 0.7760
-31.4000 55.0034 -0.9651 0.7762
-3.6566 6.1933 -0.1096 0.9716
-3.6566 5.9916 -0.1070 0.9723
-3.7224 5.5381 -0.1017 0.9737
-3.7429 5.3966 -0.1001 0.9741
-3.7820 5.1264 -0.0971 0.9748
-3.8033 5.0005 -0.0957 0.9752
-3.8837 4.5304 -0.0909 0.9764
-3.9390 4.2069 -0.0878 0.9772
-3.9566 4.1038 -0.0869 0.9775
-3.9906 3.9041 -0.0851 0.9779
-4.0071 3.8072 -0.0842 0.9781
-4.0233 3.7123 -0.0834 0.9783
-4.0391 3.6191 -0.0826 0.9785
-4.0699 3.4377 -0.0812 0.9789
-4.0849 3.3493 -0.0805 0.9791
-4.0997 3.2624 -0.0798 0.9793
-4.1285 3.0927 -0.0786 0.9796
-4.1972 2.9566 -0.0782 0.9797
-0.8104 0.5361 -0.0148 0.9961
-0.8107 0.5195 -0.0147 0.9962
-0.8088 0.5018 -0.0145 0.9962
-0.7949 0.4309 -0.0138 0.9964
-0.7915 0.4143 -0.0136 0.9964
-0.7851 0.3821 -0.0133 0.9965
-0.7819 0.3666 -0.0132 0.9966
-0.7780 0.3509 -0.0130 0.9966
-0.7741 0.3357 -0.0129 0.9966
-0.7703 0.3207 -0.0127 0.9967
-0.7524 0.2505 -0.0121 0.9968
-0.7490 0.2373 -0.0120 0.9969
-0.7456 0.2243 -0.0119 0.9969
-0.7419 0.1997 -0.0117 0.9969
-0.7377 0.1757 -0.0116 0.9970
-0.7333 0.1521 -0.0114 0.9970
-0.7312 0.1406 -0.0113 0.9970
-0.7291 0.1291 -0.0113 0.9970
-0.7249 0.1067 -0.0112 0.9971
-0.7188 0.0737 -0.0110 0.9971
-0.7127 0.0417 -0.0109 0.9971
-0.7107 0.0312 -0.0108 0.9972
-0.6743 0.0000 -0.0177 0.9973
-0.6775 -0.0198 -0.0178 0.9973
-0.6794 -0.0298 -0.0179 0.9973
-0.6813 -0.0398 -0.0180 0.9973
-0.6831 -0.0500 -0.0180 0.9973
-0.6849 -0.0602 -0.0181 0.9973
-0.6867 -0.0705 -0.0182 0.9972
-0.6886 -0.0809 -0.0183 0.9972
-0.6904 -0.0913 -0.0183 0.9972
-0.6923 -0.1019 -0.0184 0.9972
-0.6996 -0.1452 -0.0188 0.9971
-0.7033 -0.1675 -0.0190 0.9971
-0.7051 -0.1789 -0.0191 0.9971
-0.7088 -0.2020 -0.0194 0.9971
-0.7117 -0.2141 -0.0196 0.9970
-0.7146 -0.2264 -0.0197 0.9970
-0.7205 -0.2517 -0.0201 0.9970
-0.7235 -0.2647 -0.0203 0.9969
-0.7266 -0.2779 -0.0205 0.9969
-0.7297 -0.2914 -0.0207 0.9969
-0.7489 -0.3781 -0.0221 0.9966
-0.7515 -0.3934 -0.0223 0.9966
-0.7569 -0.4248 -0.0228 0.9965
-0.7713 -0.5103 -0.0243 0.9963
-0.7743 -0.5287 -0.0247 0.9963
-0.7740 -0.5453 -0.0249 0.9962
-0.8870 -0.6445 -0.0289 0.9956
-9.9450 -8.9107 -0.3515 0.9480
-9.5266 -9.0513 -0.3459 0.9488
-9.4809 -9.2753 -0.3492 0.9483
-9.4626 -9.5319 -0.3536 0.9477
-2.2613 -2.7173 -0.0931 0.9860
-2.2070 -2.7323 -0.0925 0.9860
-2.1534 -2.7471 -0.0919 0.9861
-2.1005 -2.7618 -0.0913 0.9862
-1.8461 -2.6618 -0.0853 0.9871
-1.7671 -2.6291 -0.0834 0.9874
-1.6614 -2.7224 -0.0840 0.9873
-1.5620 -2.7362 -0.0829 0.9875
-1.5235 -2.8597 -0.0853 0.9871
-1.2504 -2.6174 -0.0764 0.9885
-1.2174 -2.6472 -0.0767 0.9884
-1.2899 -2.9163 -0.0839 0.9873
-1.2412 -2.9207 -0.0835 0.9874
-1.1291 -3.0181 -0.0848 0.9872
-1.0766 -3.0112 -0.0842 0.9873
-0.9924 -3.0544 -0.0845 0.9872
-0.7978 -3.0516 -0.0830 0.9875
-0.7522 -4.0726 -0.1090 0.9836
-0.4051 -3.2452 -0.0861 0.9870
-0.9874 -8.9742 -0.2377 0.9645
-0.4591 -8.9685 -0.2364 0.9647
-0.0658 -9.0008 -0.2369 0.9646
0.0661 -9.0463 -0.2381 0.9644
1.7914 -34.9970 -0.9225 0.8692
2.8150 -34.9520 -0.9231 0.8691
1.2529 -8.9673 -0.2384 0.9644
1.3717 -8.8702 -0.2363 0.9647
1.7648 -8.8301 -0.2370 0.9646
2.4427 -8.8152 -0.2408 0.9641
2.5811 -8.8120 -0.2417 0.9639
2.8612 -8.8059 -0.2437 0.9636
3.0031 -8.8027 -0.2448 0.9635
3.1463 -8.7995 -0.2460 0.9633
3.2908 -8.7963 -0.2472 0.9631
3.4369 -8.7930 -0.2485 0.9629
3.7338 -8.7863 -0.2513 0.9625
4.0397 -8.7837 -0.2545 0.9621
4.1986 -8.7887 -0.2564 0.9618
4.3632 -8.8003 -0.2586 0.9615
2.0907 -4.0665 -0.1204 0.9819
2.1263 -3.9912 -0.1190 0.9821
2.1612 -3.9175 -0.1178 0.9823
1.7983 -2.8520 -0.0888 0.9866
2.2676 -3.0736 -0.1005 0.9848
2.3658 -3.1106 -0.1029 0.9845
2.3838 -3.0410 -0.1017 0.9847
2.5595 -3.0755 -0.1053 0.9841
2.5869 -3.0177 -0.1046 0.9842
2.6139 -2.9605 -0.1040 0.9843
2.8580 -3.1432 -0.1118 0.9831
2.8707 -2.8917 -0.1073 0.9838
2.8746 -2.8123 -0.1059 0.9840
2.8822 -2.6595 -0.1032 0.9844
2.8930 -2.4436 -0.0997 0.9850
2.8964 -2.3748 -0.0986 0.9851
10.9229 -8.6920 -0.3675 0.9457
11.3987 -8.2816 -0.3709 0.9452
12.1019 -8.5252 -0.3897 0.9425
12.8717 -8.5158 -0.4063 0.9401
5.5818 -3.5768 -0.1745 0.9738
9.6344 -4.8648 -0.2841 0.9577
5.5924 -2.7220 -0.1637 0.9754
8.5382 -3.8514 -0.2466 0.9632
8.4033 -3.6438 -0.2411 0.9640
8.6435 -3.4515 -0.2450 0.9634
8.7667 -3.3530 -0.2471 0.9631
9.0039 -3.2937 -0.2524 0.9624
9.1801 -3.2069 -0.2560 0.9618
9.2047 -3.0653 -0.2554 0.9619
9.1606 -2.9027 -0.2530 0.9623
9.4025 -2.8288 -0.2585 0.9615
9.3133 -2.6542 -0.2549 0.9620
9.2998 -2.5041 -0.2535 0.9622
9.2736 -2.2085 -0.2510 0.9626
17.5688 -3.6450 -0.4723 0.9307
16.1798 -3.1109 -0.4337 0.9362
18.9655 -2.5086 -0.5036 0.9263
27.8163 -3.2666 -0.7373 0.8940
32.1680 -2.8275 -0.8501 0.8788
37.9908 -2.7806 -1.0028 0.8586
38.6189 -2.2598 -1.0184 0.8566
38.6485 -1.6953 -1.0184 0.8566
38.6697 -1.1305 -1.0184 0.8566
38.6823 -0.5654 -1.0184 0.8566
38.6866 0.0000 -1.0184 0.8566
38.6823 0.5653 -1.0184 0.8566
38.6487 1.6953 -1.0184 0.8566
38.5813 2.8238 -1.0183 0.8566
38.5348 3.3871 -1.0183 0.8566
30.2437 3.1043 -0.8003 0.8855
21.6424 3.1851 -0.5759 0.9162
16.7057 3.2121 -0.4478 0.9342
16.6581 3.4561 -0.4479 0.9342
12.9335 3.4823 -0.3526 0.9478
12.0023 3.6109 -0.3299 0.9511
11.6704 3.6979 -0.3223 0.9522
9.4088 3.4418 -0.2637 0.9607
9.0716 3.4697 -0.2557 0.9619
8.7667 3.5007 -0.2485 0.9629
8.5365 3.5543 -0.2434 0.9637
8.1435 3.6734 -0.2352 0.9649
8.1239 3.8083 -0.2362 0.9647
8.1513 4.2665 -0.2422 0.9639
8.1727 4.4310 -0.2447 0.9635
8.1982 4.6011 -0.2475 0.9631
8.2248 4.7754 -0.2504 0.9627
8.2520 4.9538 -0.2534 0.9622
8.3084 5.3239 -0.2598 0.9613
5.0463 3.3386 -0.1593 0.9761
4.9194 3.3590 -0.1568 0.9764
4.7963 3.3787 -0.1544 0.9768
4.6769 3.3979 -0.1522 0.9771
4.5609 3.4166 -0.1500 0.9775
4.4481 3.4346 -0.1479 0.9778
4.2314 3.4694 -0.1440 0.9783
3.6860 3.6061 -0.1357 0.9796
3.6552 3.9037 -0.1408 0.9788
3.6543 4.0189 -0.1430 0.9785
3.7404 4.6305 -0.1567 0.9765
3.8448 5.3740 -0.1739 0.9739
3.9061 5.8111 -0.1843 0.9724
3.9431 6.0555 -0.1902 0.9715
4.0089 6.3578 -0.1979 0.9704
18.2106 33.0106 -0.9924 0.8600
16.2335 33.9809 -0.9914 0.8601
14.7163 34.6302 -0.9905 0.8602
14.2046 34.8315 -0.9902 0.8603
13.6902 35.0253 -0.9900 0.8603
13.1732 35.2115 -0.9897 0.8603
12.1315 35.5603 -0.9891 0.8604
11.6072 35.7232 -0.9888 0.8605
10.5520 36.0255 -0.9882 0.8605
8.9551 36.4202 -0.9873 0.8606
8.4194 36.5360 -0.9870 0.8607
7.8822 36.6439 -0.9867 0.8607
6.2630 36.9196 -0.9858 0.8608
3.5458 37.2201 -0.9842 0.8610
3.0006 37.2560 -0.9839 0.8611
2.4551 37.2841 -0.9836 0.8611
0.8181 37.3201 -0.9827 0.8613
-0.1246 5.6850 -0.1497 0.9775
-0.2500 4.8850 -0.1288 0.9806
-0.3004 4.5632 -0.1204 0.9819
-0.3843 4.0348 -0.1067 0.9839
-0.4236 3.8507 -0.1020 0.9846
-0.4634 3.7124 -0.0985 0.9851
-0.5006 3.5838 -0.0953 0.9856
-0.5683 3.3503 -0.0895 0.9865
-0.6155 3.3328 -0.0892 0.9865
-0.6668 3.3365 -0.0896 0.9865
-0.7185 3.3402 -0.0899 0.9864
-0.7705 3.3440 -0.0903 0.9864
-0.8231 3.3478 -0.0908 0.9863
-0.9297 3.3554 -0.0917 0.9862
-0.9839 3.3593 -0.0921 0.9861
-1.0386 3.3632 -0.0927 0.9860
-1.0940 3.3672 -0.0932 0.9859
-1.1502 3.3717 -0.0938 0.9858
-1.2071 3.3763 -0.0944 0.9858
-1.2663 3.3849 -0.0951 0.9856
-1.3918 3.4129 -0.0970 0.9854
-1.5230 3.4434 -0.0991 0.9850
-1.7310 3.4916 -0.1026 0.9845
-17.3602 32.5859 -0.9719 0.8627
-17.8292 32.3192 -0.9717 0.8627
-3.5744 6.2613 -0.1898 0.9716
-3.5992 6.0960 -0.1864 0.9721
-3.6461 5.7827 -0.1800 0.9730
-3.6684 5.6338 -0.1770 0.9735
-3.6916 5.4922 -0.1742 0.9739
-3.7372 5.2236 -0.1691 0.9746
-3.7601 5.0966 -0.1667 0.9750
-3.8039 4.8526 -0.1623 0.9756
-3.8656 4.5093 -0.1564 0.9765
-3.9047 4.2944 -0.1528 0.9770
-3.9236 4.1905 -0.1511 0.9773
-3.9603 3.9893 -0.1480 0.9778
-4.0126 3.7024 -0.1437 0.9784
-4.0293 3.6103 -0.1424 0.9786
-4.0779 3.3435 -0.1388 0.9791
-4.1241 3.0894 -0.1356 0.9796
-0.8869 0.6444 -0.0289 0.9956
-0.7743 0.5287 -0.0247 0.9963
-0.7713 0.5102 -0.0243 0.9963
-0.7654 0.4748 -0.0237 0.9964
-0.7625 0.4577 -0.0234 0.9964
-0.7542 0.4089 -0.0226 0.9966
-0.7489 0.3781 -0.0221 0.9966
-0.7460 0.3631 -0.0218 0.9967
-0.7426 0.3481 -0.0216 0.9967
-0.7393 0.3335 -0.0214 0.9968
-0.7361 0.3191 -0.0211 0.9968
-0.7329 0.3052 -0.0209 0.9968
-0.7297 0.2914 -0.0207 0.9969
-0.7146 0.2264 -0.0197 0.9970
-0.7117 0.2141 -0.0196 0.9970
-0.7088 0.2020 -0.0194 0.9971
-0.7071 0.1904 -0.0193 0.9971
-0.7051 0.1788 -0.0191 0.9971
-0.7014 0.1562 -0.0189 0.9971
-0.6996 0.1452 -0.0188 0.9971
-0.6977 0.1341 -0.0187 0.9972
-0.6941 0.1125 -0.0185 0.9972
-0.6904 0.0913 -0.0183 0.9972
-0.6886 0.0809 -0.0183 0.9972
-0.6867 0.0705 -0.0182 0.9972
-0.6831 0.0500 -0.0180 0.9973
-0.6812 0.0399 -0.0180 0.9973
-0.6794 0.0298 -0.0179 0.9973
-0.6757 0.0099 -0.0178 0.9973
-0.6465 0.0000 -0.0242 0.9974
-0.6492 -0.0190 -0.0243 0.9974
-0.6506 -0.0286 -0.0244 0.9974
-0.6522 -0.0382 -0.0244 0.9974
-0.6539 -0.0479 -0.0245 0.9974
-0.6556 -0.0577 -0.0246 0.9974
-0.6572 -0.0675 -0.0247 0.9974
-0.6588 -0.0773 -0.0248 0.9973
-0.6605 -0.0873 -0.0249 0.9973
-0.6621 -0.0975 -0.0250 0.9973
-0.6637 -0.1076 -0.0252 0.9973
-0.6653 -0.1179 -0.0253 0.9973
-0.6685 -0.1387 -0.0255 0.9973
-0.6701 -0.1493 -0.0257 0.9973
-0.6717 -0.1600 -0.0258 0.9972
-0.6733 -0.1708 -0.0260 0.9972
-0.6749 -0.1817 -0.0262 0.9972
-0.6786 -0.2041 -0.0265 0.9972
-0.6814 -0.2159 -0.0267 0.9971
-0.6842 -0.2279 -0.0270 0.9971
-0.6871 -0.2400 -0.0272 0.9971
-0.6959 -0.2779 -0.0280 0.9970
-0.7016 -0.3042 -0.0286 0.9969
-0.7071 -0.3315 -0.0292 0.9969
-0.7127 -0.3599 -0.0299 0.9968
-0.7175 -0.3890 -0.0305 0.9967
-0.7196 -0.4039 -0.0309 0.9967
-0.7263 -0.4506 -0.0320 0.9966
-0.7309 -0.4836 -0.0328 0.9965
-0.7541 -0.5649 -0.0353 0.9962
-10.8568 -8.9016 -0.5253 0.9454
-9.9810 -8.6835 -0.4950 0.9484
-9.8574 -8.8323 -0.4952 0.9484
-9.6843 -8.9356 -0.4930 0.9486
-9.4894 -9.2835 -0.4967 0.9482
-9.4719 -9.8243 -0.5106 0.9468
-2.5136 -2.6845 -0.1376 0.9854
-2.3979 -2.7159 -0.1356 0.9856
-2.3413 -2.7312 -0.1346 0.9857
-2.2855 -2.7463 -0.1337 0.9858
-2.1762 -2.7761 -0.1320 0.9860
-2.1225 -2.7907 -0.1312 0.9861
-1.9540 -2.7311 -0.1257 0.9866
-1.7524 -2.6071 -0.1175 0.9875
-1.7309 -2.6582 -0.1187 0.9874
-1.7089 -2.7103 -0.1199 0.9873
-1.6476 -2.6997 -0.1183 0.9874
-1.5956 -2.7026 -0.1174 0.9875
-1.5376 -2.8862 -0.1224 0.9870
-1.4659 -2.9567 -0.1235 0.9869
-1.2516 -2.6200 -0.1086 0.9884
-1.3413 -2.9165 -0.1201 0.9872
-1.3275 -3.0014 -0.1228 0.9869
-1.1283 -2.6553 -0.1080 0.9885
-1.0872 -2.6659 -0.1077 0.9885
-1.0544 -2.6977 -0.1084 0.9885
-1.0437 -3.0593 -0.1209 0.9871
-0.9263 -2.9994 -0.1175 0.9875
-0.8513 -3.0721 -0.1193 0.9873
-0.7980 -3.2454 -0.1250 0.9867
-0.7488 -3.2496 -0.1248 0.9867
-0.6999 -3.2539 -0.1245 0.9868
-1.1195 -8.9671 -0.3381 0.9645
-0.5899 -8.9585 -0.3359 0.9647
-0.3275 -8.9603 -0.3355 0.9647
-0.0656 -8.9781 -0.3359 0.9647
0.0659 -9.0160 -0.3374 0.9646
0.5747 -26.2148 -0.9811 0.9004
1.7241 -26.1821 -0.9818 0.9003
2.1069 -26.1601 -0.9820 0.9003
2.4895 -26.1323 -0.9822 0.9003
2.8717 -26.0990 -0.9825 0.9002
1.1443 -9.1658 -0.3456 0.9637
1.3673 -8.8413 -0.3348 0.9648
1.6257 -8.8016 -0.3349 0.9648
1.8967 -8.8173 -0.3375 0.9645
2.1666 -8.8114 -0.3395 0.9643
2.3028 -8.8083 -0.3407 0.9642
2.5782 -8.8021 -0.3432 0.9640
2.8580 -8.7958 -0.3461 0.9637
3.4329 -8.7828 -0.3528 0.9630
2.1263 -3.9912 -0.1692 0.9821
2.1612 -3.9176 -0.1674 0.9823
1.5644 -2.7403 -0.1181 0.9874
1.7161 -2.8119 -0.1233 0.9869
1.7971 -2.8501 -0.1261 0.9866
1.8819 -2.8901 -0.1290 0.9863
2.0642 -2.9761 -0.1355 0.9856
2.5868 -3.0177 -0.1487 0.9842
2.8570 -2.9632 -0.1540 0.9837
2.8805 -2.5060 -0.1429 0.9848
2.8876 -2.3676 -0.1397 0.9852
2.8910 -2.3006 -0.1382 0.9853
11.1180 -8.5850 -0.5256 0.9453
11.1926 -8.3845 -0.5233 0.9456
11.3455 -8.2430 -0.5247 0.9454
11.6503 -8.2070 -0.5332 0.9446
5.6084 -3.4793 -0.2470 0.9739
5.6027 -3.0376 -0.2385 0.9748
5.6144 -2.9386 -0.2371 0.9750
9.5674 -4.8309 -0.4010 0.9580
7.3039 -3.5550 -0.3039 0.9680
8.6123 -4.0373 -0.3559 0.9626
8.6410 -3.8978 -0.3547 0.9628
8.4668 -3.6712 -0.3453 0.9637
8.5873 -3.5754 -0.3481 0.9635
8.8996 -3.1089 -0.3527 0.9630
9.4803 -3.0039 -0.3721 0.9610
9.4735 -2.8502 -0.3702 0.9612
9.5369 -2.5678 -0.3696 0.9612
9.5221 -2.4152 -0.3676 0.9614
9.4933 -2.1147 -0.3639 0.9618
17.7060 -3.6735 -0.6766 0.9302
10.1777 -1.9569 -0.3878 0.9594
9.9644 -1.7653 -0.3786 0.9603
18.2286 -2.9555 -0.6910 0.9287
19.1442 -2.5323 -0.7226 0.9256
26.9322 -2.3673 -1.0116 0.8974
26.9908 -1.5794 -1.0117 0.8974
27.0113 -1.1848 -1.0117 0.8974
27.0348 -0.3951 -1.0117 0.8974
27.0378 0.0000 -1.0117 0.8974
27.0348 0.3950 -1.0117 0.8974
27.0261 0.7900 -1.0117 0.8974
27.0115 1.1848 -1.0117 0.8974
26.9910 1.5794 -1.0117 0.8974
26.9325 2.3673 -1.0116 0.8974
17.1923 3.0459 -0.6533 0.9325
16.7250 3.2158 -0.6373 0.9341
16.4035 3.6540 -0.6288 0.9349
16.4311 3.9130 -0.6320 0.9346
12.3815 3.5286 -0.4817 0.9498
9.3466 3.4191 -0.3724 0.9609
9.0172 3.4488 -0.3612 0.9621
8.4981 3.5382 -0.3444 0.9638
8.1253 3.6652 -0.3335 0.9649
8.1010 3.7977 -0.3348 0.9648
8.1090 3.9469 -0.3374 0.9645
8.1077 4.0938 -0.3398 0.9643
8.1615 4.4249 -0.3474 0.9635
8.1868 4.5947 -0.3513 0.9631
8.2132 4.7686 -0.3554 0.9627
8.2402 4.9467 -0.3596 0.9623
8.2679 5.1291 -0.3641 0.9618
5.1722 3.3142 -0.2298 0.9757
5.0179 3.3198 -0.2251 0.9762
4.7702 3.3604 -0.2183 0.9769
4.5367 3.3985 -0.2121 0.9776
4.4248 3.4167 -0.2092 0.9779
4.0057 3.4849 -0.1987 0.9790
3.8112 3.5165 -0.1940 0.9795
3.6540 3.6807 -0.1941 0.9795
3.6404 3.7757 -0.1962 0.9792
3.6708 4.4109 -0.2147 0.9773
3.6924 4.5711 -0.2199 0.9768
3.7150 4.7391 -0.2253 0.9762
3.7388 4.9156 -0.2311 0.9756
3.7940 5.3029 -0.2440 0.9742
3.8586 5.7405 -0.2588 0.9727
4.0263 6.5973 -0.2892 0.9695
12.7643 23.1380 -0.9888 0.8996
12.0781 23.4920 -0.9884 0.8997
11.0307 23.9849 -0.9878 0.8997
10.6769 24.1388 -0.9876 0.8997
9.9631 24.4307 -0.9872 0.8998
9.2412 24.7013 -0.9868 0.8998
8.1448 25.0672 -0.9862 0.8999
6.2867 25.5676 -0.9852 0.9000
5.5345 25.7293 -0.9847 0.9000
4.7783 25.8688 -0.9843 0.9001
4.0185 25.9861 -0.9839 0.9001
3.6377 26.0361 -0.9837 0.9001
3.2561 26.0807 -0.9834 0.9001
1.7254 26.2030 -0.9826 0.9002
0.1917 26.2355 -0.9817 0.9003
-0.0449 6.1501 -0.2301 0.9757
-0.1238 5.6502 -0.2115 0.9776
-0.2487 4.8591 -0.1821 0.9807
-0.2990 4.5406 -0.1703 0.9820
-0.3431 4.2608 -0.1599 0.9830
-0.4214 3.8305 -0.1442 0.9847
-0.4605 3.6889 -0.1391 0.9852
-0.4976 3.5619 -0.1346 0.9857
-0.5669 3.3420 -0.1268 0.9865
-0.8207 3.3381 -0.1286 0.9863
-0.8736 3.3418 -0.1292 0.9863
-0.9270 3.3456 -0.1299 0.9862
-0.9810 3.3495 -0.1306 0.9861
-1.0356 3.3533 -0.1313 0.9861
-1.0909 3.3577 -0.1321 0.9860
-1.1469 3.3621 -0.1329 0.9859
-1.3242 3.3880 -0.1361 0.9855
-1.4517 3.4163 -0.1389 0.9853
-1.5852 3.4470 -0.1420 0.9849
-1.6542 3.4629 -0.1436 0.9848
-1.7249 3.4791 -0.1453 0.9846
-1.8781 3.5254 -0.1495 0.9841
-3.5874 6.0762 -0.2640 0.9722
-3.6135 5.9210 -0.2595 0.9726
-3.6388 5.7711 -0.2553 0.9731
-3.6632 5.6259 -0.2512 0.9735
-3.7115 5.3512 -0.2437 0.9743
-3.7579 5.0936 -0.2368 0.9750
-3.7801 4.9701 -0.2336 0.9753
-3.8635 4.5069 -0.2221 0.9765
-3.8831 4.3980 -0.2195 0.9768
-3.9209 4.1877 -0.2147 0.9773
-3.9393 4.0859 -0.2124 0.9775
-3.9573 3.9864 -0.2102 0.9778
-3.9926 3.7934 -0.2061 0.9782
-4.0264 3.6077 -0.2023 0.9786
-4.0429 3.5173 -0.2005 0.9788
-4.0591 3.4285 -0.1988 0.9790
-4.0750 3.3412 -0.1972 0.9791
-4.0907 3.2552 -0.1956 0.9793
-0.7381 0.5363 -0.0341 0.9964
-0.7333 0.5007 -0.0332 0.9965
-0.7286 0.4669 -0.0324 0.9965
-0.7241 0.4347 -0.0316 0.9966
-0.7219 0.4191 -0.0312 0.9967
-0.7175 0.3890 -0.0305 0.9967
-0.7071 0.3315 -0.0292 0.9969
-0.7043 0.3177 -0.0289 0.9969
-0.6988 0.2910 -0.0283 0.9970
-0.6959 0.2779 -0.0280 0.9970
-0.6900 0.2524 -0.0275 0.9971
-0.6814 0.2159 -0.0267 0.9971
-0.6765 0.1928 -0.0263 0.9972
-0.6733 0.1708 -0.0260 0.9972
-0.6637 0.1076 -0.0252 0.9973
-0.6621 0.0974 -0.0250 0.9973
-0.6604 0.0873 -0.0249 0.9973
-0.6588 0.0773 -0.0248 0.9973
-0.6572 0.0675 -0.0247 0.9974
-0.6539 0.0479 -0.0245 0.9974
-0.6234 -0.0182 -0.0303 0.9975
-0.6246 -0.0274 -0.0303 0.9975
-0.6258 -0.0366 -0.0304 0.9975
-0.6271 -0.0459 -0.0305 0.9975
-0.6300 -0.0647 -0.0307 0.9975
-0.6315 -0.0741 -0.0309 0.9975
-0.6358 -0.1031 -0.0313 0.9974
-0.6455 -0.1738 -0.0324 0.9973
-0.6482 -0.1950 -0.0328 0.9973
-0.6500 -0.2059 -0.0331 0.9973
-0.6518 -0.2171 -0.0333 0.9973
-0.6539 -0.2284 -0.0336 0.9972
-0.6564 -0.2401 -0.0339 0.9972
-0.6588 -0.2520 -0.0342 0.9972
-0.6767 -0.3417 -0.0368 0.9970
-0.6846 -0.3842 -0.0381 0.9969
-0.6862 -0.3984 -0.0385 0.9968
-0.6879 -0.4130 -0.0389 0.9968
-0.6947 -0.4744 -0.0408 0.9966
-0.6982 -0.5073 -0.0419 0.9965
-0.7000 -0.5243 -0.0424 0.9965
-0.7017 -0.5418 -0.0430 0.9965
-0.7347 -0.5846 -0.0456 0.9962
-0.8411 -0.6896 -0.0528 0.9957
-9.9518 -8.6580 -0.6400 0.9485
-9.8281 -8.8060 -0.6403 0.9485
-9.5098 -9.3035 -0.6455 0.9481
-2.4824 -2.7302 -0.1790 0.9853
-2.4241 -2.7456 -0.1777 0.9854
-2.3668 -2.7609 -0.1764 0.9855
-2.1735 -2.7727 -0.1709 0.9860
-2.1451 -2.8204 -0.1719 0.9859
-1.9054 -2.7472 -0.1622 0.9867
-1.7379 -2.5856 -0.1512 0.9876
-1.6381 -2.5980 -0.1490 0.9878
-1.5940 -2.6119 -0.1485 0.9878
-1.5562 -2.6358 -0.1485 0.9878
-1.3646 -2.6541 -0.1448 0.9881
-1.2998 -2.6218 -0.1420 0.9883
-1.3481 -2.8221 -0.1517 0.9876
-1.3781 -2.9965 -0.1600 0.9869
-1.3273 -3.0009 -0.1592 0.9869
-1.1217 -2.6395 -0.1392 0.9886
-1.0760 -2.6385 -0.1383 0.9887
-1.0346 -2.6469 -0.1379 0.9887
-1.0084 -2.6954 -0.1396 0.9885
-1.0624 -3.1143 -0.1597 0.9869
-0.9145 -2.9611 -0.1504 0.9877
-0.8473 -3.0576 -0.1539 0.9874
-0.7555 -3.0728 -0.1535 0.9874
-0.7739 -3.3581 -0.1672 0.9863
-0.7522 -3.4969 -0.1735 0.9858
-0.5880 -3.1836 -0.1571 0.9871
-0.5494 -3.2389 -0.1594 0.9869
-1.1185 -8.9591 -0.4381 0.9645
-0.9855 -8.9563 -0.4372 0.9646
-0.8529 -8.9535 -0.4364 0.9646
-0.7209 -8.9508 -0.4357 0.9647
-0.3210 -8.7830 -0.4264 0.9654
-0.1949 -8.8919 -0.4315 0.9650
-0.0655 -8.9608 -0.4348 0.9647
0.0657 -8.9925 -0.4363 0.9646
0.4432 -20.2151 -0.9811 0.9222
0.7386 -20.2100 -0.9812 0.9222
1.0340 -20.2005 -0.9814 0.9222
1.6244 -20.1687 -0.9817 0.9222
1.2415 -8.8862 -0.4353 0.9647
1.4758 -8.6997 -0.4281 0.9653
2.0292 -8.8055 -0.4384 0.9645
2.3006 -8.7997 -0.4413 0.9642
2.4377 -8.7967 -0.4429 0.9641
2.7150 -8.7907 -0.4464 0.9638
3.4299 -8.7752 -0.4571 0.9630
3.5773 -8.7720 -0.4596 0.9628
3.7263 -8.7687 -0.4623 0.9626
3.8771 -8.7654 -0.4650 0.9623
4.0897 -8.5609 -0.4603 0.9627
1.9693 -3.9720 -0.2151 0.9824
2.0592 -4.0051 -0.2185 0.9821
2.1611 -3.9175 -0.2171 0.9822
1.5634 -2.7387 -0.1530 0.9875
1.6376 -2.7736 -0.1563 0.9872
1.7150 -2.8101 -0.1597 0.9869
1.7959 -2.8482 -0.1634 0.9866
2.0627 -2.9740 -0.1756 0.9856
2.3734 -3.1205 -0.1902 0.9844
2.4466 -2.9399 -0.1856 0.9848
2.5868 -3.0176 -0.1928 0.9842
2.8429 -3.0362 -0.2018 0.9835
2.8474 -2.9533 -0.1990 0.9837
2.8559 -2.7940 -0.1938 0.9841
2.8639 -2.6425 -0.1891 0.9845
2.8715 -2.4983 -0.1847 0.9849
2.8648 -2.3489 -0.1797 0.9853
11.1950 -8.3862 -0.6787 0.9455
11.3487 -8.2453 -0.6806 0.9454
5.6048 -3.4770 -0.3200 0.9739
5.5586 -3.3369 -0.3146 0.9744
5.1314 -2.9793 -0.2879 0.9765
5.6182 -2.9406 -0.3077 0.9749
7.3000 -3.5531 -0.3939 0.9680
8.6533 -3.6029 -0.4548 0.9632
8.7774 -3.5049 -0.4586 0.9629
9.0321 -3.3040 -0.4666 0.9622
9.1153 -3.1843 -0.4685 0.9621
9.4551 -2.9959 -0.4812 0.9611
9.8268 -2.9564 -0.4979 0.9597
14.0190 -3.9953 -0.7073 0.9433
12.1816 -3.0898 -0.6098 0.9509
9.9375 -2.0618 -0.4924 0.9602
18.1349 -2.9403 -0.8914 0.9291
20.2798 -2.6825 -0.9925 0.9213
20.6666 -2.1213 -1.0080 0.9202
20.6958 -1.8191 -1.0080 0.9202
20.7406 -1.2137 -1.0080 0.9202
20.7676 -0.6071 -1.0081 0.9202
20.7743 -0.3036 -1.0081 0.9202
20.7766 -0.0000 -1.0081 0.9202
20.7743 0.3036 -1.0081 0.9202
20.6959 1.8191 -1.0080 0.9202
20.6332 2.4230 -1.0080 0.9202
20.5527 3.0247 -1.0079 0.9202
20.5058 3.3246 -1.0079 0.9202
20.4544 3.6237 -1.0079 0.9202
17.9379 3.4490 -0.8863 0.9295
16.6610 3.4567 -0.8256 0.9341
16.4363 3.6613 -0.8170 0.9348
16.4813 3.9250 -0.8220 0.9344
20.1316 5.1062 -1.0077 0.9202
12.9279 3.4809 -0.6496 0.9478
12.4145 3.5380 -0.6263 0.9496
11.6678 3.6971 -0.5939 0.9522
11.6077 3.8656 -0.5936 0.9522
11.6439 4.0675 -0.5984 0.9518
8.9875 3.4375 -0.4669 0.9622
8.6988 3.4736 -0.4545 0.9632
8.0826 3.7890 -0.4331 0.9649
8.0637 3.9248 -0.4351 0.9647
8.1524 4.4200 -0.4499 0.9635
8.1783 4.5898 -0.4550 0.9631
8.2317 4.9416 -0.4658 0.9623
5.1185 3.2798 -0.2949 0.9759
4.9898 3.3012 -0.2903 0.9763
4.8652 3.3220 -0.2858 0.9767
4.7443 3.3421 -0.2816 0.9770
4.5128 3.3805 -0.2736 0.9777
4.4018 3.3989 -0.2698 0.9780
4.2938 3.4169 -0.2662 0.9783
3.9859 3.4677 -0.2563 0.9791
3.8882 3.4838 -0.2533 0.9793
3.7928 3.4995 -0.2504 0.9795
3.7047 3.5198 -0.2479 0.9797
3.6487 3.5695 -0.2477 0.9798
3.6353 3.6619 -0.2503 0.9795
3.5992 3.9583 -0.2596 0.9788
3.6134 4.0925 -0.2649 0.9784
3.7911 5.2989 -0.3161 0.9742
3.8224 5.5110 -0.3254 0.9735
3.8918 5.9767 -0.3460 0.9718
3.8629 6.3295 -0.3598 0.9707
9.5612 17.9467 -0.9866 0.9218
9.2965 18.0818 -0.9865 0.9218
8.4914 18.4636 -0.9860 0.9218
7.9458 18.6981 -0.9857 0.9219
7.6706 18.8093 -0.9856 0.9219
7.3938 18.9164 -0.9854 0.9219
6.5546 19.2131 -0.9850 0.9219
2.8090 9.0955 -0.4619 0.9626
4.8424 19.6940 -0.9840 0.9220
4.2635 19.8205 -0.9837 0.9220
3.3891 19.9783 -0.9832 0.9221
3.0963 20.0223 -0.9830 0.9221
2.5090 20.0973 -0.9827 0.9221
2.2148 20.1284 -0.9825 0.9221
1.9201 20.1552 -0.9823 0.9221
1.0345 20.2095 -0.9818 0.9222
0.7389 20.2189 -0.9817 0.9222
-0.1231 5.6157 -0.2725 0.9778
-0.1898 5.1956 -0.2523 0.9794
-0.2474 4.8336 -0.2348 0.9808
-0.3812 4.0017 -0.1950 0.9840
-0.4576 3.6657 -0.1792 0.9853
-0.5292 3.4225 -0.1680 0.9862
-0.5656 3.3345 -0.1641 0.9865
-0.6121 3.3139 -0.1635 0.9866
-0.6630 3.3175 -0.1641 0.9865
-0.7143 3.3211 -0.1648 0.9865
-0.8183 3.3284 -0.1663 0.9864
-0.8711 3.3321 -0.1671 0.9863
-0.9243 3.3359 -0.1680 0.9862
-1.0878 3.3481 -0.1708 0.9860
-1.3200 3.3773 -0.1759 0.9856
-1.5797 3.4351 -0.1834 0.9850
-1.6484 3.4507 -0.1855 0.9848
-1.7187 3.4668 -0.1877 0.9846
-1.7907 3.4831 -0.1900 0.9844
-3.5274 6.3941 -0.3543 0.9712
-3.5554 6.2281 -0.3480 0.9717
-3.6087 5.9130 -0.3361 0.9726
-3.6600 5.6209 -0.3254 0.9735
-3.6850 5.4825 -0.3205 0.9739
-3.8207 4.7300 -0.2950 0.9759
-3.8413 4.6159 -0.2914 0.9762
-3.8614 4.5045 -0.2879 0.9765
-3.9002 4.2894 -0.2813 0.9771
-3.9189 4.1855 -0.2782 0.9773
-3.9900 3.7910 -0.2670 0.9782
-4.0235 3.6051 -0.2621 0.9786
-4.0400 3.5148 -0.2598 0.9788
-0.7346 0.5846 -0.0456 0.9962
-0.7017 0.5418 -0.0430 0.9965
-0.6965 0.4906 -0.0413 0.9966
-0.6879 0.4130 -0.0389 0.9968
-0.6793 0.3555 -0.0372 0.9969
-0.6767 0.3417 -0.0368 0.9970
-0.6740 0.3281 -0.0364 0.9970
-0.6715 0.3148 -0.0360 0.9970
-0.6689 0.3018 -0.0356 0.9971
-0.6663 0.2889 -0.0352 0.9971
-0.6638 0.2764 -0.0349 0.9971
-0.6588 0.2520 -0.0342 0.9972
-0.6518 0.2170 -0.0333 0.9973
-0.6482 0.1950 -0.0328 0.9973
-0.6441 0.1634 -0.0322 0.9973
-0.6400 0.1328 -0.0317 0.9974
-0.6358 0.1031 -0.0313 0.9974
-0.6329 0.0837 -0.0310 0.9974
-0.6286 0.0552 -0.0306 0.9975
-0.6271 0.0459 -0.0305 0.9975
-0.6258 0.0366 -0.0304 0.9975
-0.6246 0.0274 -0.0303 0.9975
-0.6234 0.0182 -0.0303 0.9975
-0.6221 0.0091 -0.0302 0.9975
-0.5972 0.0000 -0.0356 0.9976
-0.6038 -0.0531 -0.0361 0.9976
-0.6050 -0.0621 -0.0363 0.9976
-0.6089 -0.0896 -0.0367 0.9975
-0.6126 -0.1178 -0.0372 0.9975
-0.6138 -0.1273 -0.0374 0.9975
-0.6150 -0.1370 -0.0376 0.9975
-0.6162 -0.1468 -0.0378 0.9975
-0.6173 -0.1566 -0.0380 0.9975
-0.6185 -0.1666 -0.0382 0.9974
-0.6207 -0.1868 -0.0387 0.9974
-0.6220 -0.1971 -0.0389 0.9974
-0.6249 -0.2184 -0.0395 0.9974
-0.6280 -0.2402 -0.0401 0.9973
-0.6321 -0.2632 -0.0408 0.9973
-0.6384 -0.2993 -0.0420 0.9972
-0.6406 -0.3118 -0.0425 0.9971
-0.6448 -0.3375 -0.0434 0.9971
-0.6470 -0.3507 -0.0439 0.9971
-0.6491 -0.3643 -0.0444 0.9970
-0.6536 -0.3923 -0.0455 0.9970
-0.6569 -0.4209 -0.0465 0.9969
-0.6606 -0.4653 -0.0482 0.9968
-0.6618 -0.4808 -0.0488 0.9967
-0.6630 -0.4966 -0.0494 0.9967
-0.6642 -0.5129 -0.0500 0.9966
-0.6653 -0.5295 -0.0507 0.9966
-11.6431 -11.3907 -0.9713 0.9368
-10.0711 -10.1450 -0.8525 0.9443
-9.8855 -10.2534 -0.8493 0.9445
-2.5102 -2.7607 -0.2225 0.9852
-2.4511 -2.7762 -0.2208 0.9853
-2.3929 -2.7914 -0.2192 0.9854
-2.3355 -2.8065 -0.2177 0.9855
-2.2790 -2.8213 -0.2163 0.9856
-2.1137 -2.8651 -0.2123 0.9858
-1.7446 -2.5154 -0.1825 0.9878
-1.7236 -2.5643 -0.1843 0.9877
-1.4570 -2.5523 -0.1753 0.9883
-1.4017 -2.5409 -0.1730 0.9884
-1.3428 -2.5205 -0.1703 0.9886
-1.3215 -2.5704 -0.1724 0.9885
-1.2310 -2.7830 -0.1815 0.9879
-1.1092 -2.6102 -0.1691 0.9887
-1.0651 -2.6117 -0.1682 0.9888
-0.9971 -2.6652 -0.1697 0.9887
-1.0649 -2.9784 -0.1886 0.9874
-1.0454 -3.0643 -0.1931 0.9871
-0.9456 -3.0619 -0.1911 0.9872
-0.8651 -2.9536 -0.1835 0.9877
-0.8087 -3.0936 -0.1907 0.9873
-0.7146 -3.1009 -0.1898 0.9873
-0.6412 -3.2082 -0.1951 0.9870
-0.6029 -3.2644 -0.1980 0.9868
-0.5230 -3.3821 -0.2041 0.9864
-1.1179 -8.9542 -0.5381 0.9645
-0.8525 -8.9486 -0.5361 0.9646
-0.5761 -8.7489 -0.5229 0.9655
-0.3185 -8.7160 -0.5201 0.9657
-0.0654 -8.9445 -0.5334 0.9648
0.0658 -9.0002 -0.5367 0.9646
0.3605 -16.4469 -0.9810 0.9362
0.6009 -16.4421 -0.9812 0.9362
1.0814 -16.4222 -0.9814 0.9362
1.5612 -16.3882 -0.9817 0.9362
1.2409 -8.8820 -0.5348 0.9647
1.3549 -8.7612 -0.5287 0.9651
1.8647 -8.6688 -0.5288 0.9651
2.1635 -8.7990 -0.5403 0.9643
2.2995 -8.7958 -0.5422 0.9642
2.5744 -8.7891 -0.5461 0.9640
2.7134 -8.7858 -0.5483 0.9638
2.8537 -8.7827 -0.5507 0.9637
2.9952 -8.7796 -0.5532 0.9635
3.1380 -8.7765 -0.5558 0.9633
3.2823 -8.7734 -0.5586 0.9632
3.4280 -8.7701 -0.5615 0.9630
3.9433 -8.5743 -0.5628 0.9629
4.0667 -8.5127 -0.5626 0.9629
1.9243 -3.8812 -0.2583 0.9828
2.0113 -3.9121 -0.2623 0.9825
2.1011 -3.9438 -0.2665 0.9823
2.1611 -3.9175 -0.2668 0.9822
1.6365 -2.7718 -0.1920 0.9872
1.7947 -2.8464 -0.2007 0.9866
1.8794 -2.8863 -0.2054 0.9863
1.9681 -2.9280 -0.2104 0.9860
2.0612 -2.9719 -0.2157 0.9856
2.2625 -3.0667 -0.2273 0.9848
2.3715 -3.1181 -0.2336 0.9844
2.6138 -2.9605 -0.2355 0.9843
2.8333 -3.0260 -0.2472 0.9835
2.8357 -2.9412 -0.2436 0.9838
2.8316 -2.8523 -0.2397 0.9840
2.7999 -2.5834 -0.2272 0.9849
2.7898 -2.4997 -0.2234 0.9851
2.9320 -2.3332 -0.2234 0.9851
11.2074 -8.6540 -0.8444 0.9448
11.2512 -8.4284 -0.8383 0.9452
5.5771 -3.5738 -0.3950 0.9738
5.1711 -3.0024 -0.3566 0.9763
5.3600 -2.9060 -0.3636 0.9759
5.6220 -2.9426 -0.3784 0.9749
5.5397 -2.7972 -0.3701 0.9754
7.2961 -3.5512 -0.4839 0.9680
7.4629 -3.4984 -0.4915 0.9675
5.7640 -2.6000 -0.3771 0.9750
8.4866 -3.6799 -0.5516 0.9636
8.7911 -3.5104 -0.5645 0.9628
8.9071 -3.4067 -0.5687 0.9625
9.0110 -3.2964 -0.5722 0.9623
9.4796 -3.1568 -0.5958 0.9608
9.8242 -3.1129 -0.6146 0.9595
16.2145 -4.6209 -1.0054 0.9347
14.0385 -3.7799 -0.8670 0.9434
12.1688 -3.0866 -0.7486 0.9509
9.9083 -2.3596 -0.6074 0.9600
16.2073 -3.6103 -0.9902 0.9356
16.2588 -3.3732 -0.9902 0.9356
16.3923 -2.6577 -0.9903 0.9356
16.6850 -2.4555 -1.0057 0.9347
16.7195 -2.2115 -1.0057 0.9347
16.8211 -1.2311 -1.0058 0.9346
16.8375 -0.9852 -1.0058 0.9346
16.8502 -0.7391 -1.0058 0.9346
16.8648 -0.2465 -1.0058 0.9346
16.8593 0.4929 -1.0058 0.9346
16.8502 0.7391 -1.0058 0.9346
16.8012 1.4768 -1.0058 0.9346
16.7776 1.7221 -1.0058 0.9347
16.7504 1.9670 -1.0057 0.9347
16.6851 2.4555 -1.0057 0.9347
16.6472 2.6990 -1.0057 0.9347
16.6056 2.9419 -1.0057 0.9347
16.5604 3.1841 -1.0056 0.9347
16.4593 3.6665 -1.0056 0.9347
16.4035 3.9064 -1.0055 0.9347
16.2812 4.3838 -1.0055 0.9347
13.0362 3.9220 -0.8118 0.9469
11.6076 3.8655 -0.7296 0.9522
8.4787 3.5302 -0.5477 0.9639
7.9962 3.8920 -0.5303 0.9650
7.9059 3.9920 -0.5281 0.9651
7.8664 4.1173 -0.5295 0.9650
7.8956 4.2807 -0.5356 0.9647
8.2259 4.9380 -0.5721 0.9623
8.2535 5.1202 -0.5792 0.9618
4.8385 3.3038 -0.3494 0.9768
4.7187 3.3241 -0.3442 0.9771
4.3790 3.3813 -0.3299 0.9781
4.2719 3.3994 -0.3255 0.9784
4.1674 3.4169 -0.3214 0.9786
4.0656 3.4340 -0.3173 0.9789
3.9663 3.4506 -0.3135 0.9792
3.8693 3.4668 -0.3098 0.9794
3.7745 3.4827 -0.3063 0.9796
3.6320 3.5532 -0.3030 0.9798
3.6168 3.6432 -0.3061 0.9796
3.6029 3.7369 -0.3095 0.9794
3.5993 3.8440 -0.3140 0.9791
3.6557 4.3926 -0.3408 0.9774
3.7046 4.7258 -0.3581 0.9762
3.7311 4.9055 -0.3675 0.9756
3.8195 5.5068 -0.3996 0.9735
3.8907 5.9751 -0.4252 0.9718
3.8895 6.1686 -0.4349 0.9712
3.7690 6.3837 -0.4421 0.9707
7.7695 14.5837 -0.9854 0.9359
7.3383 14.8010 -0.9852 0.9359
7.1204 14.9048 -0.9850 0.9360
6.9010 15.0054 -0.9849 0.9360
6.4580 15.1969 -0.9847 0.9360
5.7836 15.4594 -0.9843 0.9360
5.5564 15.5403 -0.9842 0.9360
2.8077 9.0909 -0.5674 0.9626
4.1711 15.9546 -0.9834 0.9361
3.7021 16.0653 -0.9831 0.9361
2.9933 16.2055 -0.9827 0.9361
1.8012 16.3695 -0.9821 0.9361
1.5616 16.3918 -0.9819 0.9361
-0.0443 6.0690 -0.3619 0.9760
-0.2461 4.8083 -0.2871 0.9809
-0.4170 3.7905 -0.2274 0.9848
-0.4547 3.6427 -0.2189 0.9854
-0.4915 3.5187 -0.2119 0.9859
-0.5261 3.4024 -0.2053 0.9863
-0.6611 3.3080 -0.2012 0.9866
-0.7123 3.3116 -0.2020 0.9865
-0.7639 3.3152 -0.2029 0.9865
-0.8160 3.3188 -0.2038 0.9864
-0.9216 3.3261 -0.2058 0.9863
-0.9754 3.3302 -0.2069 0.9862
-1.0847 3.3386 -0.2093 0.9860
-1.1967 3.3472 -0.2120 0.9859
-1.2544 3.3532 -0.2135 0.9858
-1.3158 3.3666 -0.2156 0.9856
-1.3785 3.3804 -0.2177 0.9855
-1.4424 3.3943 -0.2199 0.9853
-1.5076 3.4086 -0.2223 0.9852
-1.5742 3.4231 -0.2247 0.9850
-1.7126 3.4544 -0.2299 0.9847
-1.8577 3.4872 -0.2356 0.9843
-3.5224 6.3851 -0.4349 0.9712
-3.4437 6.0324 -0.4142 0.9725
-3.5092 5.9436 -0.4116 0.9727
-3.6578 5.6175 -0.3997 0.9735
-3.6828 5.4791 -0.3937 0.9739
-3.7071 5.3449 -0.3879 0.9743
-3.7306 5.2145 -0.3823 0.9746
-3.7758 4.9645 -0.3719 0.9753
-3.7975 4.8444 -0.3671 0.9756
-3.8981 4.2871 -0.3455 0.9770
-3.9169 4.1833 -0.3417 0.9773
-3.9352 4.0816 -0.3381 0.9775
-3.9531 3.9821 -0.3346 0.9778
-4.0215 3.6032 -0.3220 0.9786
-0.6665 0.5465 -0.0514 0.9966
-0.6653 0.5295 -0.0507 0.9966
-0.6642 0.5129 -0.0500 0.9966
-0.6630 0.4966 -0.0494 0.9967
-0.6606 0.4654 -0.0482 0.9968
-0.6594 0.4502 -0.0476 0.9968
-0.6581 0.4354 -0.0471 0.9968
-0.6569 0.4209 -0.0465 0.9969
-0.6557 0.4068 -0.0460 0.9969
-0.6536 0.3923 -0.0455 0.9969
-0.6427 0.3245 -0.0429 0.9971
-0.6363 0.2870 -0.0416 0.9972
-0.6322 0.2632 -0.0408 0.9973
-0.6301 0.2516 -0.0405 0.9973
-0.6264 0.2291 -0.0398 0.9973
-0.6249 0.2183 -0.0395 0.9974
-0.6220 0.1971 -0.0389 0.9974
-0.6207 0.1868 -0.0387 0.9974
-0.6173 0.1566 -0.0380 0.9975
-0.6150 0.1370 -0.0376 0.9975
-0.6126 0.1178 -0.0372 0.9975
-0.6102 0.0989 -0.0369 0.9975
-0.6089 0.0896 -0.0367 0.9975
-0.6076 0.0804 -0.0366 0.9975
-0.6063 0.0712 -0.0364 0.9976
-0.6050 0.0621 -0.0363 0.9976
-0.6038 0.0531 -0.0361 0.9976
-0.6017 0.0352 -0.0359 0.9976
-0.6006 0.0264 -0.0359 0.9976
-0.5995 0.0175 -0.0358 0.9976
-0.5752 0.0000 -0.0407 0.9977
-0.5763 -0.0084 -0.0408 0.9977
-0.5773 -0.0169 -0.0409 0.9977
-0.5784 -0.0254 -0.0410 0.9977
-0.5813 -0.0511 -0.0413 0.9977
-0.5842 -0.0773 -0.0417 0.9976
-0.5864 -0.0951 -0.0420 0.9976
-0.5876 -0.1041 -0.0422 0.9976
-0.5907 -0.1316 -0.0428 0.9976
-0.5917 -0.1409 -0.0430 0.9976
-0.5936 -0.1598 -0.0435 0.9975
-0.5946 -0.1695 -0.0437 0.9975
-0.5955 -0.1791 -0.0440 0.9975
-0.5963 -0.1890 -0.0443 0.9975
-0.5975 -0.1990 -0.0446 0.9975
-0.5987 -0.2091 -0.0449 0.9975
-0.5999 -0.2195 -0.0452 0.9974
-0.6011 -0.2299 -0.0455 0.9974
-0.6023 -0.2405 -0.0459 0.9974
-0.6050 -0.2624 -0.0467 0.9974
-0.6068 -0.2738 -0.0471 0.9973
-0.6102 -0.2970 -0.0480 0.9973
-0.6119 -0.3090 -0.0485 0.9973
-0.6137 -0.3212 -0.0490 0.9972
-0.6154 -0.3336 -0.0495 0.9972
-0.6205 -0.3725 -0.0512 0.9971
-0.6274 -0.4284 -0.0538 0.9970
-0.6289 -0.4570 -0.0550 0.9969
-0.6317 -0.5180 -0.0578 0.9967
-0.6329 -0.5507 -0.0594 0.9966
-0.6970 -0.6246 -0.0662 0.9963
-0.7910 -0.7298 -0.0762 0.9957
-10.1446 -9.6386 -0.9902 0.9454
-10.0035 -9.7866 -0.9903 0.9454
-9.8603 -9.9326 -0.9904 0.9454
-7.9461 -8.4866 -0.8227 0.9545
-2.5386 -2.7920 -0.2670 0.9850
-2.3041 -2.8524 -0.2595 0.9854
-2.2475 -2.8671 -0.2578 0.9855
-1.8120 -2.6126 -0.2250 0.9873
-1.7095 -2.5434 -0.2169 0.9878
-1.6398 -2.6008 -0.2176 0.9877
-1.3447 -2.5240 -0.2024 0.9886
-1.3022 -2.5328 -0.2015 0.9886
-1.2664 -2.5543 -0.2017 0.9886
-1.2776 -2.6745 -0.2097 0.9882
-1.2180 -2.6484 -0.2063 0.9884
-1.2167 -2.8630 -0.2201 0.9876
-1.0599 -2.5990 -0.1986 0.9888
-0.9961 -2.6625 -0.2012 0.9887
-1.0685 -2.9883 -0.2246 0.9874
-0.9729 -2.8519 -0.2132 0.9880
-0.9453 -3.0607 -0.2267 0.9872
-0.8863 -3.1984 -0.2348 0.9868
