ply
format ascii 1.0
element vertex 1593
property float32 x
property float32 y
property float32 z
property float32 I
end_header
0.0831 3.7907 0.1103 0.9849
-0.0279 3.8169 0.1111 0.9848
-0.0840 3.8302 0.1115 0.9848
-0.1405 3.8437 0.1119 0.9847
-2.0897 5.8446 0.1806 0.9755
-2.1360 5.4649 0.1707 0.9768
-2.1573 5.2902 0.1662 0.9774
-2.1776 5.1243 0.1620 0.9780
-2.2152 4.8167 0.1543 0.9790
-2.2327 4.6737 0.1507 0.9795
-2.2502 4.5386 0.1474 0.9799
-2.2672 4.4098 0.1443 0.9804
-2.3525 3.9845 0.1346 0.9817
-2.3773 3.8955 0.1328 0.9819
-2.4016 3.8089 0.1310 0.9821
-2.4252 3.7245 0.1293 0.9824
-2.4481 3.6423 0.1277 0.9826
-2.7990 3.5707 0.1320 0.9820
-2.8921 3.5804 0.1339 0.9818
-3.0909 3.6057 0.1382 0.9812
-3.3207 3.6521 0.1436 0.9804
-3.5806 3.7139 0.1501 0.9796
-6.5922 5.4052 0.2481 0.9665
-6.6069 5.2577 0.2457 0.9668
-6.6356 4.9709 0.2412 0.9674
-6.6634 4.6942 0.2372 0.9679
-6.6904 4.4265 0.2334 0.9684
-1.4230 0.8827 0.0487 0.9933
-1.4151 0.8495 0.0480 0.9934
-0.9804 0.5315 0.0324 0.9955
-0.9792 0.5125 0.0322 0.9956
-0.9780 0.4938 0.0319 0.9956
-0.9758 0.4574 0.0314 0.9957
-0.9748 0.4397 0.0311 0.9957
-0.9719 0.4214 0.0308 0.9958
-0.9657 0.4020 0.0304 0.9958
-0.9539 0.3648 0.0297 0.9959
-0.9470 0.3464 0.0293 0.9960
-0.9403 0.3284 0.0290 0.9960
-0.9275 0.2939 0.0283 0.9961
-0.9197 0.2332 0.0276 0.9962
-0.9140 0.1896 0.0272 0.9963
-0.9092 0.1748 0.0269 0.9963
-0.8999 0.1459 0.0265 0.9964
-0.8911 0.1178 0.0262 0.9964
-0.8766 0.0641 0.0256 0.9965
-0.8733 0.0511 0.0255 0.9965
-0.8702 0.0381 0.0253 0.9965
-0.8670 0.0253 0.0252 0.9965
-0.8157 0.0000 0.0147 0.9967
-0.8211 -0.0241 0.0148 0.9967
-0.8239 -0.0362 0.0149 0.9967
-0.8267 -0.0484 0.0149 0.9967
-0.8354 -0.0858 0.0151 0.9966
-0.8414 -0.1113 0.0153 0.9966
-0.8485 -0.1376 0.0155 0.9966
-0.8565 -0.1647 0.0157 0.9965
-0.8606 -0.1786 0.0158 0.9965
-0.8648 -0.1927 0.0160 0.9965
-0.8663 -0.2063 0.0160 0.9964
-0.8688 -0.2340 0.0162 0.9964
-0.8701 -0.2480 0.0163 0.9964
-0.8754 -0.2774 0.0165 0.9963
-0.8863 -0.3096 0.0169 0.9963
-0.9090 -0.3785 0.0177 0.9961
-0.9141 -0.3964 0.0179 0.9960
-0.9194 -0.4147 0.0182 0.9960
-0.9299 -0.4527 0.0186 0.9959
-0.9306 -0.4699 0.0188 0.9958
-0.9321 -0.5054 0.0191 0.9958
-0.9337 -0.5421 0.0194 0.9957
-1.1483 -0.6894 0.0241 0.9947
-19.6191 -12.1711 0.4158 0.9118
-13.8330 -9.1518 0.2987 0.9358
-13.3735 -9.1316 0.2916 0.9373
-12.5449 -9.1144 0.2793 0.9398
-2.4203 -1.9260 0.0557 0.9877
-2.3918 -1.9611 0.0557 0.9877
-2.3633 -1.9962 0.0557 0.9877
-2.3348 -2.0313 0.0557 0.9877
-2.3210 -2.0796 0.0561 0.9876
-2.3118 -2.2618 0.0582 0.9871
-2.3086 -2.3256 0.0590 0.9870
-1.8007 -2.1006 0.0498 0.9890
-2.2593 -2.7149 0.0636 0.9860
-2.2836 -2.8271 0.0654 0.9856
-2.1885 -2.7918 0.0639 0.9859
-2.1990 -2.8913 0.0654 0.9856
-2.1267 -2.8827 0.0645 0.9858
-1.9968 -2.8790 0.0631 0.9861
-1.9682 -2.9283 0.0635 0.9860
-1.9393 -2.9783 0.0640 0.9859
-1.7281 -2.9270 0.0612 0.9865
-1.4980 -2.7155 0.0558 0.9877
-1.3974 -2.6229 0.0535 0.9882
-1.2193 -2.4592 0.0494 0.9891
-1.3542 -3.0616 0.0603 0.9867
-1.2892 -3.0337 0.0594 0.9869
-1.2261 -3.0066 0.0585 0.9871
-1.1649 -2.9804 0.0576 0.9873
-1.2226 -3.4195 0.0654 0.9856
-1.1443 -3.5217 0.0667 0.9853
-1.0206 -3.6830 0.0688 0.9848
-8.7729 -35.6794 0.6617 0.8633
-8.2192 -35.6675 0.6592 0.8638
-6.0425 -35.6201 0.6507 0.8654
-4.3549 -31.1704 0.5668 0.8817
-2.0493 -31.1211 0.5617 0.8827
-0.4525 -8.8375 0.1594 0.9652
-0.3188 -8.7202 0.1572 0.9657
-0.1889 -8.6122 0.1551 0.9661
-0.0630 -8.6055 0.1550 0.9662
0.3137 -8.5882 0.1548 0.9662
0.4396 -8.5907 0.1549 0.9662
0.5657 -8.5931 0.1551 0.9661
0.6922 -8.5956 0.1553 0.9661
0.9462 -8.6005 0.1558 0.9660
1.2022 -8.6056 0.1565 0.9658
1.5909 -8.6133 0.1577 0.9656
1.7219 -8.6159 0.1582 0.9655
1.8538 -8.6185 0.1588 0.9653
2.1204 -8.6238 0.1599 0.9651
9.1458 -31.2246 0.5860 0.8779
10.5249 -30.8511 0.5870 0.8777
11.5337 -30.8293 0.5928 0.8766
12.0458 -30.8183 0.5959 0.8760
13.6164 -30.7844 0.6062 0.8740
14.6953 -30.7611 0.6140 0.8725
15.2454 -30.7493 0.6181 0.8717
6.3241 -12.3005 0.2491 0.9462
5.2891 -9.9279 0.2026 0.9560
2.1579 -3.9117 0.0805 0.9823
2.1460 -3.7591 0.0780 0.9828
2.0417 -3.4582 0.0723 0.9841
2.2488 -3.4537 0.0742 0.9836
6.5385 -8.8626 0.1983 0.9569
7.3599 -8.8438 0.2072 0.9550
26.3315 -30.7164 0.7286 0.8506
26.9266 -30.4973 0.7327 0.8498
30.2050 -30.4266 0.7721 0.8424
31.9834 -30.3882 0.7945 0.8382
32.9123 -30.3682 0.8065 0.8360
34.8577 -30.3262 0.8321 0.8312
12.1047 -9.9248 0.2819 0.9393
12.0705 -9.0421 0.2716 0.9414
5.4030 -3.8062 0.1190 0.9739
5.0364 -3.3321 0.1088 0.9761
5.3491 -3.2112 0.1124 0.9753
5.4581 -3.1690 0.1137 0.9751
5.5695 -3.1258 0.1150 0.9748
5.9710 -3.2373 0.1223 0.9732
5.9593 -2.6881 0.1177 0.9742
5.9771 -2.5918 0.1173 0.9743
6.8181 -2.6077 0.1315 0.9712
7.0491 -2.5787 0.1352 0.9704
13.4822 -2.7972 0.2480 0.9464
14.1040 -2.4987 0.2580 0.9443
25.5196 -3.3755 0.4636 0.9021
25.8661 -2.6550 0.4683 0.9012
30.6982 -2.6984 0.5550 0.8840
65.7586 -2.8845 1.1854 0.7685
66.6277 -1.9477 1.2004 0.7659
80.2347 9.4220 1.4549 0.7238
17.8092 3.4242 0.3266 0.9300
17.2941 3.5880 0.3181 0.9318
17.2912 3.8517 0.3190 0.9316
17.3349 4.1283 0.3209 0.9312
9.4819 3.4685 0.1818 0.9604
9.1290 3.4915 0.1760 0.9617
8.6754 3.6120 0.1692 0.9631
8.5744 3.7179 0.1683 0.9633
8.5967 3.8777 0.1698 0.9630
8.6662 4.3758 0.1748 0.9619
8.6914 4.5491 0.1767 0.9615
5.9967 3.2512 0.1228 0.9731
5.7885 3.2486 0.1195 0.9738
5.6107 3.2576 0.1168 0.9744
5.4557 3.2750 0.1146 0.9749
5.3209 3.3008 0.1128 0.9753
5.1932 3.3277 0.1111 0.9756
5.0694 3.3538 0.1095 0.9760
4.9694 4.0745 0.1157 0.9746
4.9900 4.2147 0.1176 0.9742
5.0113 4.3598 0.1196 0.9738
5.0333 4.5098 0.1217 0.9733
5.0561 4.6652 0.1239 0.9729
5.1044 4.9938 0.1286 0.9718
5.1595 5.3515 0.1339 0.9707
5.1944 5.5477 0.1369 0.9701
5.9249 9.7083 0.2048 0.9555
1.1732 3.6107 0.0684 0.9849
1.1161 3.6138 0.0681 0.9850
1.0594 3.6170 0.0679 0.9850
1.0032 3.6201 0.0677 0.9851
0.9472 3.6232 0.0674 0.9851
0.7303 3.6542 0.0671 0.9852
0.6232 3.6738 0.0671 0.9852
0.3538 3.7142 0.0672 0.9852
0.2997 3.7210 0.0672 0.9852
0.2455 3.7278 0.0673 0.9852
0.1368 3.7420 0.0674 0.9851
0.0275 3.7694 0.0679 0.9850
-0.0832 3.7977 0.0684 0.9849
-0.1393 3.8121 0.0687 0.9849
-2.0920 5.5919 0.1075 0.9764
-2.1149 5.4108 0.1046 0.9770
-2.1365 5.2391 0.1019 0.9776
-2.1571 5.0762 0.0993 0.9782
-2.1767 4.9212 0.0969 0.9787
-2.2880 4.1475 0.0853 0.9812
-2.3400 3.9633 0.0829 0.9818
-2.3649 3.8751 0.0818 0.9820
-2.3891 3.7892 0.0807 0.9822
-2.4128 3.7055 0.0796 0.9825
-2.4358 3.6240 0.0786 0.9827
-2.6109 3.5390 0.0792 0.9826
-2.6969 3.5460 0.0802 0.9823
-2.7852 3.5531 0.0813 0.9821
-2.8760 3.5605 0.0824 0.9819
-2.9703 3.5692 0.0836 0.9816
-3.0700 3.5813 0.0850 0.9813
-3.2983 3.6275 0.0883 0.9806
-3.4247 3.6576 0.0902 0.9802
-3.5567 3.6891 0.0923 0.9797
-3.6948 3.7220 0.0945 0.9792
-6.5009 5.6559 0.1552 0.9661
-6.5256 5.3506 0.1520 0.9668
-6.5407 5.2050 0.1505 0.9671
-6.5847 4.7842 0.1466 0.9680
-6.5989 4.6488 0.1454 0.9682
-6.6349 4.3897 0.1433 0.9687
-6.6722 4.1393 0.1414 0.9691
-1.1482 0.6893 0.0241 0.9947
-0.9337 0.5421 0.0194 0.9957
-0.9329 0.5235 0.0193 0.9957
-0.9313 0.4874 0.0189 0.9958
-0.9307 0.4698 0.0188 0.9958
-0.9248 0.4335 0.0184 0.9959
-0.9090 0.3784 0.0177 0.9961
-0.8714 0.2621 0.0164 0.9964
-0.8701 0.2479 0.0163 0.9964
-0.8688 0.2339 0.0162 0.9964
-0.8565 0.1647 0.0157 0.9965
-0.8485 0.1375 0.0155 0.9966
-0.8414 0.1112 0.0153 0.9966
-0.8384 0.0984 0.0152 0.9966
-0.8296 0.0607 0.0150 0.9967
-0.8239 0.0361 0.0149 0.9967
-0.8212 0.0240 0.0148 0.9967
-0.8184 0.0120 0.0147 0.9967
-0.7750 -0.0000 0.0054 0.9969
-0.7799 -0.0229 0.0054 0.9969
-0.7849 -0.0459 0.0054 0.9969
-0.7874 -0.0577 0.0055 0.9968
-0.7926 -0.0814 0.0055 0.9968
-0.7978 -0.1055 0.0056 0.9968
-0.8005 -0.1178 0.0056 0.9968
-0.8096 -0.1557 0.0057 0.9967
-0.8131 -0.1688 0.0058 0.9967
-0.8200 -0.1953 0.0058 0.9966
-0.8229 -0.2345 0.0059 0.9966
-0.8242 -0.2480 0.0060 0.9966
-0.8287 -0.2626 0.0060 0.9965
-0.8334 -0.2775 0.0061 0.9965
-0.8380 -0.2928 0.0061 0.9965
-0.8478 -0.3243 0.0063 0.9964
-0.8581 -0.3573 0.0064 0.9963
-0.8629 -0.3742 0.0065 0.9962
-0.8672 -0.3912 0.0066 0.9962
-0.8717 -0.4086 0.0067 0.9962
-0.8859 -0.4637 0.0069 0.9960
-0.8884 -0.4816 0.0070 0.9960
-0.8891 -0.5163 0.0071 0.9959
-0.9723 -0.6032 0.0079 0.9954
-13.2503 -9.0474 0.1111 0.9378
-12.8163 -9.0284 0.1086 0.9392
-12.1091 -9.0711 0.1048 0.9413
-2.4361 -1.9385 0.0216 0.9876
-2.4074 -1.9738 0.0216 0.9876
-2.3787 -2.0092 0.0216 0.9876
-2.3500 -2.0445 0.0216 0.9876
-2.3092 -2.1940 0.0221 0.9873
-2.3028 -2.3196 0.0226 0.9870
-2.2187 -2.3012 0.0221 0.9873
-2.2423 -2.4661 0.0231 0.9868
-1.8921 -2.2072 0.0201 0.9884
-1.7484 -2.1010 0.0189 0.9891
-2.2339 -2.7655 0.0246 0.9859
-2.1467 -2.9097 0.0250 0.9856
-1.9541 -3.0010 0.0248 0.9858
-1.7156 -2.7209 0.0223 0.9872
-1.7440 -2.9538 0.0238 0.9864
-1.6219 -2.8410 0.0227 0.9870
-1.4085 -2.6439 0.0207 0.9881
-1.3148 -2.5573 0.0199 0.9886
-1.2283 -2.4773 0.0192 0.9890
-1.4886 -3.1159 0.0239 0.9863
-1.2875 -3.0298 0.0228 0.9869
-1.2246 -3.0028 0.0225 0.9871
-1.3152 -3.3649 0.0250 0.9857
-1.1193 -3.6241 0.0263 0.9849
-1.0776 -3.6791 0.0266 0.9848
-1.0351 -3.7354 0.0268 0.9846
-0.9916 -3.7929 0.0272 0.9844
-8.2192 -35.6674 0.2535 0.8638
-6.5816 -35.6321 0.2510 0.8651
-6.0426 -35.6205 0.2502 0.8654
-4.8219 -31.1809 0.2185 0.8814
-4.3550 -31.1708 0.2180 0.8817
-3.8903 -31.1608 0.2175 0.8820
-3.4276 -31.1508 0.2171 0.8822
-2.9667 -31.1409 0.2167 0.8824
-2.5073 -31.1309 0.2163 0.8826
-0.1880 -8.5724 0.0594 0.9663
-0.0627 -8.5657 0.0593 0.9663
0.0625 -8.5665 0.0593 0.9663
0.5646 -8.5762 0.0595 0.9662
0.8174 -8.5811 0.0597 0.9661
0.9444 -8.5836 0.0598 0.9660
1.1998 -8.5885 0.0601 0.9659
1.3284 -8.5910 0.0602 0.9658
1.4577 -8.5935 0.0604 0.9657
1.9825 -8.6037 0.0612 0.9653
2.2506 -8.6090 0.0616 0.9650
2.3862 -8.6116 0.0619 0.9649
10.5249 -30.8511 0.2258 0.8778
11.0269 -30.8402 0.2268 0.8772
11.5337 -30.8293 0.2280 0.8766
12.5634 -30.8071 0.2304 0.8754
14.1524 -30.7728 0.2346 0.8733
15.2454 -30.7492 0.2377 0.8717
5.0202 -9.4232 0.0739 0.9582
2.1459 -3.7589 0.0300 0.9828
2.0498 -3.4719 0.0279 0.9840
2.2155 -3.6302 0.0295 0.9831
2.2493 -3.5675 0.0292 0.9833
6.4978 -8.8074 0.0758 0.9572
7.0863 -8.7726 0.0781 0.9559
7.2907 -8.7607 0.0789 0.9554
26.3314 -30.7164 0.2802 0.8506
26.9266 -30.4973 0.2818 0.8498
28.5228 -30.4628 0.2890 0.8463
29.3526 -30.4449 0.2929 0.8444
30.2050 -30.4265 0.2969 0.8424
32.9123 -30.3681 0.3102 0.8360
33.8698 -30.3475 0.3150 0.8337
11.5725 -9.2089 0.1024 0.9426
12.1716 -8.8431 0.1042 0.9416
4.9587 -3.4932 0.0420 0.9760
5.1643 -3.4167 0.0429 0.9755
5.2704 -3.3772 0.0434 0.9753
5.4896 -3.2955 0.0443 0.9747
5.5213 -3.0987 0.0439 0.9750
5.8384 -3.1655 0.0460 0.9738
5.9606 -3.1199 0.0466 0.9734
6.0860 -3.0730 0.0472 0.9731
6.0407 -2.9402 0.0465 0.9735
5.9725 -2.7998 0.0457 0.9740
6.0768 -2.7412 0.0462 0.9737
6.1123 -2.5449 0.0459 0.9739
6.8350 -2.6142 0.0507 0.9712
6.6383 -2.4284 0.0490 0.9721
7.3365 -2.4432 0.0536 0.9695
13.7954 -4.3712 0.1002 0.9438
11.1587 -3.3572 0.0807 0.9545
12.6951 -3.6180 0.0914 0.9486
13.2858 -3.5773 0.0953 0.9464
13.2389 -3.3580 0.0946 0.9468
13.3180 -3.1716 0.0948 0.9467
13.4665 -2.7939 0.0953 0.9465
13.6341 -2.6215 0.0962 0.9460
17.9714 -3.1839 0.1264 0.9296
56.7099 -9.1945 0.3979 0.7947
26.1632 -3.8505 0.1832 0.8996
25.6043 -3.3868 0.1789 0.9018
34.4614 -2.5223 0.2393 0.8709
41.7166 -2.4411 0.2894 0.8461
52.8724 -2.3192 0.3665 0.8092
66.6031 -1.9470 0.4615 0.7660
55.0071 4.0260 0.3820 0.8020
34.5042 3.5416 0.2402 0.8704
34.0522 3.9988 0.2375 0.8718
34.1244 4.5137 0.2384 0.8714
17.1168 3.0325 0.1204 0.9328
14.5840 3.4731 0.1038 0.9418
14.0215 3.5565 0.1002 0.9438
13.5762 3.6555 0.0974 0.9453
13.5650 3.8659 0.0977 0.9451
13.5979 4.0910 0.0983 0.9448
13.6338 4.3200 0.0991 0.9444
9.3477 3.4195 0.0689 0.9610
8.8196 3.5217 0.0658 0.9627
8.6071 3.5836 0.0646 0.9634
8.5441 3.7048 0.0645 0.9634
8.5884 4.0261 0.0657 0.9628
8.6112 4.1913 0.0663 0.9624
5.5878 3.1360 0.0444 0.9747
5.3027 3.1832 0.0428 0.9756
5.1769 3.2115 0.0422 0.9759
5.0547 3.2389 0.0416 0.9763
4.8684 3.4295 0.0412 0.9765
4.8518 3.5250 0.0415 0.9763
4.8871 3.7737 0.0428 0.9756
4.9056 3.9036 0.0434 0.9752
4.9246 4.0377 0.0441 0.9748
4.9442 4.1761 0.0448 0.9744
5.0299 4.7790 0.0481 0.9726
5.0533 4.9437 0.0490 0.9721
5.2094 5.9001 0.0545 0.9690
5.9157 9.6933 0.0787 0.9556
1.2247 3.5900 0.0263 0.9849
1.1675 3.5933 0.0262 0.9850
1.0543 3.5996 0.0260 0.9851
0.6738 3.6482 0.0257 0.9853
0.5667 3.6648 0.0257 0.9853
0.4596 3.6813 0.0257 0.9853
0.3522 3.6978 0.0257 0.9853
0.2985 3.7060 0.0258 0.9852
0.1905 3.7225 0.0258 0.9852
0.1363 3.7307 0.0259 0.9852
0.0820 3.7412 0.0259 0.9851
-0.0275 3.7653 0.0261 0.9851
-0.0829 3.7794 0.0262 0.9850
-0.1387 3.7936 0.0263 0.9849
-0.1949 3.8080 0.0264 0.9849
-1.9930 6.1338 0.0447 0.9745
-2.0464 5.7236 0.0421 0.9760
-2.0942 5.3577 0.0398 0.9773
-2.1161 5.1891 0.0388 0.9778
-2.1370 5.0289 0.0378 0.9784
-2.1569 4.8765 0.0369 0.9789
-2.1940 4.5927 0.0353 0.9798
-2.2123 4.4622 0.0345 0.9803
-2.2311 4.3396 0.0338 0.9807
-2.2769 4.1274 0.0326 0.9813
-2.3031 4.0345 0.0322 0.9816
-2.3287 3.9441 0.0317 0.9818
-2.3535 3.8563 0.0313 0.9821
-2.4465 3.5273 0.0297 0.9830
-2.6839 3.5289 0.0307 0.9824
-3.0499 3.5579 0.0325 0.9814
-3.1576 3.5763 0.0330 0.9811
-3.5331 3.6645 0.0353 0.9798
-6.4180 5.7507 0.0597 0.9661
-6.5270 4.7423 0.0559 0.9682
-6.5663 4.4837 0.0551 0.9687
-6.5855 4.3571 0.0547 0.9689
-6.6045 4.2322 0.0543 0.9691
-0.9721 0.6030 0.0079 0.9954
-0.8887 0.4987 0.0071 0.9959
-0.8810 0.4448 0.0068 0.9961
-0.8763 0.4265 0.0067 0.9961
-0.8717 0.4086 0.0067 0.9962
-0.8629 0.3741 0.0065 0.9962
-0.8529 0.3405 0.0064 0.9963
-0.8429 0.3083 0.0062 0.9964
-0.8381 0.2927 0.0061 0.9965
-0.8287 0.2625 0.0060 0.9965
-0.8242 0.2480 0.0060 0.9966
-0.8229 0.2345 0.0059 0.9966
-0.8210 0.2082 0.0059 0.9966
-0.8200 0.1952 0.0058 0.9966
-0.8168 0.1819 0.0058 0.9967
-0.8096 0.1556 0.0057 0.9967
-0.8032 0.1302 0.0056 0.9968
-0.8005 0.1178 0.0056 0.9968
-0.7952 0.0934 0.0055 0.9968
-0.7926 0.0813 0.0055 0.9968
-0.7900 0.0694 0.0055 0.9968
-0.7874 0.0576 0.0055 0.9968
-0.7824 0.0343 0.0054 0.9969
-0.7774 0.0113 0.0054 0.9969
-0.7448 -0.0327 -0.0031 0.9970
-0.7493 -0.0548 -0.0031 0.9970
-0.7562 -0.0889 -0.0032 0.9970
-0.7585 -0.1004 -0.0032 0.9969
-0.7609 -0.1120 -0.0032 0.9969
-0.7680 -0.1477 -0.0033 0.9969
-0.7737 -0.1724 -0.0033 0.9968
-0.7769 -0.1851 -0.0033 0.9968
-0.7791 -0.1977 -0.0033 0.9968
-0.7798 -0.2100 -0.0034 0.9968
-0.7990 -0.2923 -0.0035 0.9966
-0.8032 -0.3072 -0.0036 0.9966
-0.8118 -0.3380 -0.0037 0.9965
-0.8443 -0.4738 -0.0040 0.9961
-0.8486 -0.4927 -0.0041 0.9961
-0.8486 -0.5095 -0.0041 0.9960
-13.1764 -8.9970 -0.0663 0.9382
-12.7591 -8.9881 -0.0649 0.9395
-3.0414 -2.2784 -0.0158 0.9849
-2.9632 -2.2881 -0.0156 0.9851
-2.4520 -1.9512 -0.0130 0.9875
-2.4232 -1.9868 -0.0130 0.9875
-2.3654 -2.0579 -0.0130 0.9875
-2.3365 -2.0935 -0.0130 0.9875
-2.3067 -2.1284 -0.0130 0.9875
-2.3035 -2.1886 -0.0132 0.9874
-2.3003 -2.2504 -0.0134 0.9872
-2.2900 -2.4458 -0.0139 0.9867
-2.1730 -2.4611 -0.0136 0.9870
-1.9932 -2.3251 -0.0127 0.9878
-1.6973 -2.1013 -0.0112 0.9893
-1.9943 -2.5441 -0.0134 0.9872
-1.5805 -2.1423 -0.0111 0.9894
-1.5545 -2.2413 -0.0113 0.9891
-1.5130 -2.3996 -0.0118 0.9887
-1.4984 -2.4552 -0.0120 0.9886
-1.4834 -2.5125 -0.0121 0.9884
-1.4199 -2.6653 -0.0125 0.9880
-1.3250 -2.5771 -0.0120 0.9885
-1.2374 -2.4958 -0.0116 0.9889
-1.2859 -3.0259 -0.0137 0.9869
-1.3703 -3.3601 -0.0151 0.9856
-1.1762 -3.6201 -0.0158 0.9849
-1.1351 -3.6752 -0.0160 0.9847
-1.0500 -3.7893 -0.0163 0.9844
-2.3079 -9.3862 -0.0402 0.9621
-7.1239 -35.6438 -0.1511 0.8647
-6.5816 -35.6321 -0.1506 0.8651
-4.8220 -31.1812 -0.1311 0.8814
-4.3550 -31.1712 -0.1308 0.8817
-3.8903 -31.1612 -0.1305 0.8820
-3.4276 -31.1512 -0.1302 0.8822
-0.4375 -8.5462 -0.0356 0.9663
-0.3123 -8.5425 -0.0355 0.9664
-0.1874 -8.5449 -0.0355 0.9664
-0.0626 -8.5473 -0.0355 0.9664
0.0623 -8.5497 -0.0355 0.9664
0.1874 -8.5521 -0.0355 0.9664
0.4379 -8.5569 -0.0356 0.9663
0.5635 -8.5593 -0.0356 0.9663
0.9425 -8.5666 -0.0358 0.9661
1.3258 -8.5739 -0.0361 0.9659
1.9785 -8.5863 -0.0366 0.9654
2.2460 -8.5914 -0.0369 0.9651
2.3814 -8.5940 -0.0371 0.9650
10.0276 -30.8618 -0.1348 0.8783
10.5249 -30.8511 -0.1355 0.8778
11.0268 -30.8402 -0.1361 0.8772
11.5337 -30.8293 -0.1368 0.8766
12.0458 -30.8183 -0.1375 0.8760
13.0868 -30.7958 -0.1390 0.8747
13.6164 -30.7844 -0.1399 0.8740
4.4903 -9.0568 -0.0420 0.9604
4.5690 -8.8869 -0.0415 0.9608
4.7117 -8.8441 -0.0416 0.9607
2.1458 -3.7588 -0.0180 0.9828
2.0957 -3.4340 -0.0167 0.9840
2.2492 -3.5673 -0.0175 0.9833
2.2539 -3.4615 -0.0172 0.9836
2.3896 -3.5552 -0.0178 0.9830
6.8346 -8.7188 -0.0460 0.9567
7.2502 -8.7121 -0.0471 0.9557
7.4707 -8.7148 -0.0477 0.9551
26.9266 -30.4973 -0.1691 0.8498
29.3526 -30.4450 -0.1757 0.8444
31.0815 -30.4077 -0.1807 0.8404
31.9834 -30.3882 -0.1833 0.8382
32.9123 -30.3682 -0.1861 0.8360
11.7091 -8.7714 -0.0608 0.9432
5.0852 -3.5823 -0.0258 0.9754
5.6024 -3.2528 -0.0269 0.9744
5.5858 -3.1350 -0.0266 0.9747
5.7604 -3.0151 -0.0270 0.9743
6.1443 -3.1025 -0.0286 0.9728
6.1812 -2.8977 -0.0284 0.9731
6.1990 -2.7962 -0.0283 0.9732
6.2344 -2.5957 -0.0281 0.9733
6.5604 -2.6197 -0.0294 0.9721
7.0008 -2.5610 -0.0310 0.9706
7.1567 -2.5001 -0.0315 0.9701
7.3914 -2.4615 -0.0324 0.9693
11.0536 -3.5025 -0.0482 0.9547
12.9670 -3.6955 -0.0560 0.9475
12.7247 -3.4262 -0.0548 0.9487
13.3909 -3.1891 -0.0572 0.9464
13.4509 -2.7907 -0.0571 0.9465
14.0258 -2.4849 -0.0592 0.9446
52.3888 -8.4937 -0.2205 0.8087
22.1224 -2.9262 -0.0927 0.9146
34.4370 -2.5205 -0.1435 0.8710
37.9103 -2.2183 -0.1578 0.8591
53.0447 -2.3268 -0.2206 0.8087
94.9670 2.7761 -0.3948 0.6838
54.3366 3.1795 -0.2262 0.8044
38.0369 2.7840 -0.1585 0.8585
33.7949 3.4688 -0.1412 0.8729
33.8595 3.9762 -0.1417 0.8725
17.3116 2.8067 -0.0729 0.9323
17.0388 3.0186 -0.0719 0.9331
17.0494 3.2781 -0.0721 0.9329
17.0600 3.5395 -0.0724 0.9327
14.2040 3.3827 -0.0607 0.9433
13.6687 3.4670 -0.0586 0.9452
13.4735 3.8398 -0.0582 0.9455
13.5317 4.2877 -0.0590 0.9448
13.5671 4.5181 -0.0594 0.9444
9.6228 3.3615 -0.0424 0.9600
9.2173 3.3718 -0.0408 0.9615
8.9671 3.4295 -0.0399 0.9623
8.7497 3.4938 -0.0392 0.9630
8.5577 4.0116 -0.0393 0.9629
8.5801 4.1761 -0.0397 0.9625
5.9659 3.0123 -0.0278 0.9736
5.7917 3.0314 -0.0272 0.9742
5.6250 3.0497 -0.0266 0.9747
5.4658 3.0675 -0.0260 0.9752
5.3303 3.0948 -0.0256 0.9756
5.0723 3.1467 -0.0248 0.9764
4.8722 3.2234 -0.0243 0.9769
4.8624 3.8693 -0.0258 0.9755
4.9387 4.4251 -0.0276 0.9738
4.9595 4.5761 -0.0280 0.9734
4.9810 4.7325 -0.0286 0.9729
5.0032 4.8947 -0.0291 0.9724
5.0264 5.0631 -0.0296 0.9719
5.1161 5.6266 -0.0316 0.9700
5.1872 6.0510 -0.0331 0.9686
1.2189 3.5728 -0.0157 0.9850
1.0503 3.5856 -0.0155 0.9852
0.9953 3.5918 -0.0155 0.9852
0.9406 3.5980 -0.0155 0.9852
0.7253 3.6289 -0.0154 0.9853
0.6719 3.6373 -0.0154 0.9853
0.6183 3.6446 -0.0154 0.9853
0.3512 3.6867 -0.0154 0.9853
0.1359 3.7195 -0.0155 0.9852
0.0818 3.7298 -0.0155 0.9852
0.0273 3.7405 -0.0155 0.9851
-0.0825 3.7620 -0.0156 0.9851
-0.1940 3.7895 -0.0158 0.9849
-1.9546 6.3288 -0.0275 0.9739
-2.0255 5.6650 -0.0250 0.9762
-2.0503 5.4805 -0.0243 0.9769
-2.0757 5.3105 -0.0237 0.9775
-2.1004 5.1505 -0.0231 0.9780
-2.1240 4.9981 -0.0226 0.9785
-2.1679 4.7139 -0.0216 0.9795
-2.2270 4.3316 -0.0202 0.9807
-2.2456 4.2151 -0.0198 0.9811
-2.3206 3.9304 -0.0190 0.9819
-2.4161 3.5946 -0.0180 0.9828
-2.4385 3.5159 -0.0178 0.9830
-2.5061 3.5029 -0.0179 0.9829
-2.6736 3.5152 -0.0184 0.9825
-3.2597 3.5850 -0.0201 0.9808
-6.3249 6.0096 -0.0363 0.9657
-6.3632 5.5362 -0.0350 0.9668
-6.3799 5.3890 -0.0347 0.9671
-6.4575 4.8375 -0.0335 0.9682
-6.4978 4.5775 -0.0330 0.9687
-6.5369 4.3249 -0.0326 0.9691
-0.8487 0.5437 -0.0042 0.9960
-0.8486 0.5264 -0.0041 0.9960
-0.8486 0.5094 -0.0041 0.9960
-0.8486 0.4927 -0.0041 0.9961
-0.8321 0.4201 -0.0039 0.9963
-0.8074 0.3224 -0.0036 0.9965
-0.8032 0.3072 -0.0036 0.9966
-0.7990 0.2922 -0.0035 0.9966
-0.7948 0.2776 -0.0035 0.9966
-0.7869 0.2493 -0.0034 0.9967
-0.7806 0.2224 -0.0034 0.9968
-0.7798 0.2100 -0.0034 0.9968
-0.7769 0.1850 -0.0033 0.9968
-0.7706 0.1598 -0.0033 0.9969
-0.7681 0.1477 -0.0033 0.9969
-0.7656 0.1356 -0.0032 0.9969
-0.7608 0.1120 -0.0032 0.9969
-0.7585 0.1003 -0.0032 0.9969
-0.7516 0.0660 -0.0031 0.9970
-0.7471 0.0437 -0.0031 0.9970
-0.7448 0.0327 -0.0031 0.9970
-0.7426 0.0217 -0.0031 0.9970
-0.7067 -0.0104 -0.0108 0.9972
-0.7087 -0.0207 -0.0108 0.9972
-0.7107 -0.0312 -0.0108 0.9972
-0.7127 -0.0417 -0.0109 0.9971
-0.7168 -0.0630 -0.0110 0.9971
-0.7188 -0.0738 -0.0110 0.9971
-0.7208 -0.0847 -0.0111 0.9971
-0.7250 -0.1067 -0.0112 0.9971
-0.7271 -0.1179 -0.0112 0.9971
-0.7333 -0.1522 -0.0114 0.9970
-0.7405 -0.1878 -0.0116 0.9969
-0.7419 -0.1998 -0.0117 0.9969
-0.7424 -0.2116 -0.0118 0.9969
-0.7456 -0.2244 -0.0119 0.9969
-0.7524 -0.2506 -0.0121 0.9968
-0.7559 -0.2641 -0.0122 0.9968
-0.7594 -0.2779 -0.0123 0.9968
-0.7630 -0.2918 -0.0124 0.9967
-0.7666 -0.3062 -0.0126 0.9967
-0.7741 -0.3357 -0.0129 0.9966
-0.7780 -0.3509 -0.0130 0.9966
-0.7851 -0.3822 -0.0133 0.9965
-0.7915 -0.4143 -0.0136 0.9964
-0.7982 -0.4480 -0.0139 0.9963
-0.8017 -0.4655 -0.0141 0.9963
-0.8052 -0.4834 -0.0143 0.9963
-0.8088 -0.5018 -0.0145 0.9962
-0.8107 -0.5195 -0.0147 0.9962
-0.8104 -0.5362 -0.0148 0.9961
-3.1423 -2.2830 -0.0592 0.9846
-3.0742 -2.3029 -0.0585 0.9848
-2.3895 -1.9016 -0.0465 0.9879
-2.4184 -1.9829 -0.0477 0.9876
-2.4101 -2.0357 -0.0481 0.9875
-2.3810 -2.0715 -0.0481 0.9875
-2.3519 -2.1074 -0.0481 0.9874
-2.3228 -2.1432 -0.0482 0.9874
-2.2936 -2.1792 -0.0482 0.9874
-2.2840 -2.4394 -0.0509 0.9867
-1.9842 -2.3146 -0.0465 0.9879
-1.6449 -2.1627 -0.0414 0.9892
-1.6326 -2.2128 -0.0419 0.9891
-1.5662 -2.4839 -0.0447 0.9883
-1.5518 -2.5429 -0.0454 0.9882
-1.5371 -2.6035 -0.0461 0.9880
-1.4315 -2.6870 -0.0464 0.9879
-1.3353 -2.5972 -0.0445 0.9884
-1.2467 -2.5145 -0.0428 0.9888
-1.1439 -2.4874 -0.0417 0.9891
-1.3489 -3.0496 -0.0508 0.9867
-1.4258 -3.3552 -0.0556 0.9855
-1.3511 -3.4566 -0.0566 0.9853
-1.2735 -3.5619 -0.0576 0.9850
-1.2336 -3.6160 -0.0582 0.9848
-1.1929 -3.6714 -0.0588 0.9847
-7.6697 -35.6556 -0.5558 0.8642
-7.1239 -35.6438 -0.5539 0.8647
-6.5816 -35.6321 -0.5522 0.8651
-6.0426 -35.6205 -0.5505 0.8654
-4.3551 -31.1716 -0.4796 0.8817
-3.8904 -31.1616 -0.4785 0.8819
-0.8483 -8.9033 -0.1363 0.9649
-0.6915 -8.5843 -0.1312 0.9661
-0.5612 -8.5209 -0.1301 0.9664
-0.4364 -8.5234 -0.1301 0.9664
-0.3117 -8.5258 -0.1300 0.9664
-0.1871 -8.5282 -0.1300 0.9665
-0.0624 -8.5305 -0.1300 0.9664
0.1870 -8.5353 -0.1301 0.9664
0.5624 -8.5425 -0.1305 0.9663
0.8141 -8.5473 -0.1308 0.9662
0.9406 -8.5496 -0.1311 0.9662
1.0676 -8.5520 -0.1313 0.9661
1.3231 -8.5568 -0.1319 0.9660
1.4519 -8.5592 -0.1323 0.9659
1.5813 -8.5617 -0.1327 0.9658
1.8426 -8.5666 -0.1335 0.9656
2.1075 -8.5714 -0.1345 0.9653
2.2414 -8.5739 -0.1350 0.9652
2.5127 -8.5789 -0.1362 0.9649
9.5347 -30.8724 -0.4924 0.8787
10.5249 -30.8511 -0.4967 0.8777
11.0269 -30.8403 -0.4991 0.8772
11.5338 -30.8293 -0.5016 0.8766
12.0458 -30.8183 -0.5042 0.8760
12.5634 -30.8071 -0.5070 0.8754
4.2514 -9.2442 -0.1550 0.9601
4.4029 -8.8804 -0.1510 0.9611
2.1535 -3.9037 -0.0679 0.9823
2.1457 -3.7586 -0.0660 0.9828
2.0662 -3.4996 -0.0619 0.9839
2.2565 -3.4654 -0.0630 0.9836
2.3045 -3.4286 -0.0630 0.9836
6.4171 -8.6980 -0.1647 0.9577
7.2223 -8.6786 -0.1720 0.9558
30.2050 -30.4266 -0.6533 0.8424
31.0815 -30.4077 -0.6626 0.8403
10.7220 -9.8931 -0.2223 0.9433
10.9686 -8.7284 -0.2136 0.9455
11.2769 -8.7077 -0.2171 0.9446
11.6192 -8.7039 -0.2212 0.9436
11.9756 -8.7008 -0.2256 0.9425
5.4700 -3.8534 -0.1020 0.9736
5.6382 -3.7302 -0.1030 0.9733
5.6638 -3.6293 -0.1025 0.9734
5.9839 -3.1320 -0.1029 0.9733
5.9400 -2.9993 -0.1014 0.9737
6.2508 -3.0425 -0.1059 0.9726
6.3024 -2.9545 -0.1061 0.9725
6.2317 -2.8110 -0.1042 0.9730
6.3439 -2.7508 -0.1054 0.9727
6.3614 -2.6486 -0.1050 0.9728
6.3788 -2.5472 -0.1047 0.9729
10.8887 -3.6261 -0.1749 0.9551
10.5519 -3.3435 -0.1687 0.9567
13.0193 -3.7104 -0.2063 0.9473
12.9967 -3.4995 -0.2051 0.9476
12.8135 -3.2501 -0.2014 0.9485
13.1621 -3.1345 -0.2062 0.9473
13.1599 -2.9315 -0.2054 0.9475
13.0554 -2.7086 -0.2032 0.9481
14.0312 -2.6979 -0.2177 0.9444
21.2061 -3.4382 -0.3274 0.9176
21.4312 -2.8348 -0.3294 0.9172
21.7585 -2.2334 -0.3333 0.9162
34.4095 -3.0246 -0.5264 0.8709
38.2392 -2.2376 -0.5837 0.8579
65.9859 -0.0000 -1.0055 0.7680
33.9082 4.4851 -0.5212 0.8721
17.2486 2.7965 -0.2663 0.9325
17.0158 3.5303 -0.2648 0.9328
14.6137 3.2553 -0.2281 0.9419
13.3875 3.8153 -0.2121 0.9458
13.3973 4.0306 -0.2132 0.9456
13.4312 4.2558 -0.2147 0.9452
9.4962 3.3173 -0.1533 0.9606
9.1270 3.3387 -0.1481 0.9619
8.8982 3.4033 -0.1452 0.9626
8.6833 3.4673 -0.1425 0.9633
8.4762 3.5291 -0.1399 0.9639
8.4842 3.6787 -0.1409 0.9637
8.5055 3.8366 -0.1422 0.9634
8.5271 3.9973 -0.1435 0.9630
8.5492 4.1611 -0.1449 0.9627
5.5945 3.0331 -0.0970 0.9749
5.4398 3.0530 -0.0951 0.9754
5.1754 3.1068 -0.0920 0.9761
5.0495 3.1324 -0.0905 0.9765
4.7946 3.2737 -0.0885 0.9770
4.7590 3.3525 -0.0887 0.9770
4.7737 3.4683 -0.0899 0.9767
4.8043 3.7097 -0.0925 0.9760
4.8928 4.3839 -0.1001 0.9741
4.9329 4.6868 -0.1037 0.9731
4.9541 4.8466 -0.1056 0.9727
4.9761 5.0125 -0.1076 0.9721
4.9989 5.1848 -0.1097 0.9716
5.0936 5.7689 -0.1173 0.9697
40.0033 51.0309 -0.9881 0.7715
39.2504 51.6060 -0.9880 0.7715
36.9416 53.2626 -0.9877 0.7716
35.3633 54.3098 -0.9876 0.7716
5.9302 9.7170 -0.1735 0.9555
5.7691 9.7714 -0.1729 0.9556
31.2899 56.7196 -0.9871 0.7717
30.4545 57.1645 -0.9870 0.7717
28.7656 58.0187 -0.9868 0.7718
27.9117 58.4265 -0.9867 0.7718
27.0523 58.8220 -0.9866 0.7718
26.1870 59.2045 -0.9865 0.7718
24.4404 59.9305 -0.9862 0.7719
23.5591 60.2745 -0.9861 0.7719
22.6729 60.6043 -0.9860 0.7719
21.7823 60.9214 -0.9859 0.7720
1.2131 3.5559 -0.0573 0.9851
1.1574 3.5622 -0.0571 0.9851
1.1021 3.5685 -0.0569 0.9852
0.8299 3.6015 -0.0563 0.9853
0.7765 3.6098 -0.0563 0.9853
0.5623 3.6359 -0.0561 0.9854
0.5088 3.6418 -0.0560 0.9854
0.4559 3.6516 -0.0561 0.9854
0.4029 3.6620 -0.0561 0.9854
0.1894 3.7002 -0.0565 0.9853
-0.0822 3.7505 -0.0572 0.9851
-4.2344 64.3090 -0.9821 0.7727
-5.1731 64.2316 -0.9819 0.7728
-6.1102 64.1394 -0.9818 0.7728
-8.9109 63.7803 -0.9813 0.7729
-13.5326 62.9120 -0.9806 0.7730
-15.3603 62.4702 -0.9803 0.7731
-16.2690 62.2298 -0.9801 0.7731
-1.9213 6.5596 -0.1042 0.9730
-1.9886 5.8293 -0.0939 0.9757
-2.0451 5.4665 -0.0889 0.9769
-2.1196 4.9878 -0.0826 0.9786
-2.1421 4.8430 -0.0807 0.9790
-2.1636 4.7045 -0.0789 0.9795
-2.1842 4.5721 -0.0772 0.9799
-2.2039 4.4453 -0.0756 0.9803
-2.2415 4.2075 -0.0726 0.9811
-2.2621 4.1006 -0.0714 0.9814
-2.2869 4.0061 -0.0703 0.9817
-2.4081 3.5828 -0.0658 0.9829
-2.6637 3.5023 -0.0671 0.9826
-2.7502 3.5084 -0.0679 0.9823
-2.8391 3.5148 -0.0688 0.9821
-3.6310 3.6577 -0.0785 0.9796
-6.2409 6.1058 -0.1330 0.9657
-6.2521 5.9405 -0.1314 0.9661
-6.2821 5.6289 -0.1285 0.9668
-6.3233 5.3412 -0.1261 0.9674
-6.3880 4.9329 -0.1230 0.9682
-6.4089 4.8011 -0.1220 0.9685
-6.4495 4.5436 -0.1202 0.9689
-0.8550 0.5838 -0.0158 0.9959
-0.8104 0.5361 -0.0148 0.9961
-0.8107 0.5195 -0.0147 0.9962
-0.8088 0.5017 -0.0145 0.9962
-0.8052 0.4834 -0.0143 0.9963
-0.8017 0.4654 -0.0141 0.9963
-0.7949 0.4309 -0.0138 0.9964
-0.7915 0.4143 -0.0136 0.9964
-0.7851 0.3821 -0.0133 0.9965
-0.7819 0.3665 -0.0132 0.9966
-0.7780 0.3509 -0.0130 0.9966
-0.7666 0.3061 -0.0126 0.9967
-0.7630 0.2918 -0.0124 0.9967
-0.7594 0.2778 -0.0123 0.9968
-0.7559 0.2640 -0.0122 0.9968
-0.7457 0.2243 -0.0119 0.9969
-0.7424 0.2115 -0.0118 0.9969
-0.7419 0.1997 -0.0117 0.9969
-0.7405 0.1878 -0.0116 0.9969
-0.7291 0.1291 -0.0113 0.9970
-0.7229 0.0956 -0.0111 0.9971
-0.7188 0.0737 -0.0110 0.9971
-0.7168 0.0629 -0.0110 0.9971
-0.7147 0.0523 -0.0109 0.9971
-0.7107 0.0312 -0.0108 0.9972
-0.7087 0.0207 -0.0108 0.9972
-0.7067 0.0103 -0.0108 0.9972
-0.6758 -0.0099 -0.0178 0.9973
-0.6776 -0.0198 -0.0178 0.9973
-0.6794 -0.0298 -0.0179 0.9973
-0.6849 -0.0602 -0.0181 0.9973
-0.6868 -0.0705 -0.0182 0.9972
-0.6886 -0.0809 -0.0183 0.9972
-0.6941 -0.1126 -0.0185 0.9972
-0.6978 -0.1342 -0.0187 0.9972
-0.7033 -0.1675 -0.0190 0.9971
-0.7071 -0.1904 -0.0193 0.9971
-0.7088 -0.2021 -0.0194 0.9971
-0.7146 -0.2264 -0.0197 0.9970
-0.7175 -0.2389 -0.0199 0.9970
-0.7235 -0.2647 -0.0203 0.9969
-0.7266 -0.2780 -0.0205 0.9969
-0.7460 -0.3631 -0.0218 0.9967
-0.7489 -0.3782 -0.0221 0.9966
-0.7542 -0.4089 -0.0226 0.9966
-0.7683 -0.4923 -0.0240 0.9964
-0.7713 -0.5103 -0.0243 0.9963
-0.7740 -0.5453 -0.0249 0.9962
-3.1138 -2.3326 -0.1024 0.9846
-2.3318 -1.8006 -0.0776 0.9883
-2.4150 -2.0398 -0.0832 0.9874
-2.3676 -2.1213 -0.0837 0.9874
-2.2888 -2.2392 -0.0843 0.9873
-2.2853 -2.3021 -0.0854 0.9871
-2.2818 -2.3667 -0.0865 0.9869
-2.2781 -2.4331 -0.0877 0.9868
-2.2705 -2.5716 -0.0903 0.9864
-2.1973 -2.5632 -0.0889 0.9866
-1.8740 -2.3200 -0.0785 0.9881
-1.6939 -2.1608 -0.0723 0.9891
-1.7002 -2.2355 -0.0739 0.9888
-1.6502 -2.4552 -0.0779 0.9882
-1.6369 -2.5140 -0.0790 0.9881
-1.3458 -2.6177 -0.0775 0.9883
-1.2712 -2.5641 -0.0753 0.9886
-1.2226 -2.5592 -0.0747 0.9887
-1.1278 -2.5498 -0.0734 0.9889
-1.4078 -3.4520 -0.0981 0.9852
-1.3697 -3.5043 -0.0990 0.9851
-1.3310 -3.5576 -0.1000 0.9849
-1.2915 -3.6120 -0.1010 0.9848
-1.2511 -3.6675 -0.1020 0.9846
-2.5666 -8.7625 -0.2404 0.9641
-2.2617 -9.1979 -0.2493 0.9628
-6.8465 -34.2561 -0.9196 0.8695
-5.8436 -34.4474 -0.9198 0.8695
-4.8221 -31.1821 -0.8306 0.8814
-4.3551 -31.1720 -0.8286 0.8817
-0.8349 -8.7627 -0.2317 0.9654
-0.5615 -8.5263 -0.2249 0.9664
-0.1860 -8.4831 -0.2234 0.9666
0.5613 -8.5257 -0.2249 0.9664
0.6868 -8.5280 -0.2252 0.9663
0.9388 -8.5328 -0.2260 0.9662
1.1927 -8.5375 -0.2269 0.9661
1.3205 -8.5398 -0.2275 0.9660
1.7081 -8.5470 -0.2294 0.9657
1.9230 -8.3449 -0.2254 0.9663
2.3717 -8.5589 -0.2338 0.9651
2.5076 -8.5613 -0.2348 0.9649
10.0276 -30.8618 -0.8542 0.8782
12.5634 -30.8071 -0.8758 0.8754
4.1824 -9.4557 -0.2722 0.9595
4.2105 -9.1554 -0.2653 0.9605
4.3789 -8.8320 -0.2595 0.9613
2.1520 -3.9010 -0.1173 0.9823
2.1137 -3.4634 -0.1068 0.9839
2.2491 -3.5670 -0.1110 0.9833
2.2590 -3.4694 -0.1090 0.9836
2.3071 -3.4325 -0.1089 0.9836
6.0308 -8.6953 -0.2786 0.9585
6.2176 -8.6907 -0.2813 0.9581
6.4085 -8.6864 -0.2842 0.9577
6.8036 -8.6792 -0.2903 0.9568
7.0012 -8.6674 -0.2933 0.9564
7.2039 -8.6564 -0.2965 0.9559
11.2305 -12.3512 -0.4395 0.9354
25.5476 -27.2852 -0.9840 0.8611
10.5700 -9.4708 -0.3736 0.9448
10.6136 -9.2338 -0.3703 0.9453
10.7234 -8.7922 -0.3650 0.9460
10.9317 -8.6991 -0.3678 0.9456
11.1665 -8.6225 -0.3714 0.9451
11.9669 -8.6945 -0.3894 0.9425
5.4642 -3.8493 -0.1760 0.9736
5.5482 -3.7884 -0.1769 0.9735
5.7194 -3.2099 -0.1727 0.9741
5.6613 -3.0694 -0.1695 0.9746
5.6835 -2.9748 -0.1689 0.9747
6.0545 -3.0571 -0.1785 0.9732
6.1285 -2.9830 -0.1794 0.9731
6.1525 -2.8842 -0.1789 0.9732
6.6184 -2.5313 -0.1865 0.9720
7.0216 -2.4529 -0.1958 0.9707
10.5461 -3.3417 -0.2912 0.9567
13.3488 -3.3859 -0.3625 0.9464
13.5041 -3.2160 -0.3654 0.9460
13.4217 -2.9898 -0.3620 0.9465
18.1905 -3.2227 -0.4863 0.9287
21.2414 -2.8097 -0.5640 0.9178
21.8204 -2.5625 -0.5784 0.9158
22.0632 -2.2646 -0.5839 0.9151
37.3487 -2.7337 -0.9858 0.8608
37.9949 -1.6667 -1.0012 0.8588
38.0317 0.0000 -1.0012 0.8588
37.8849 3.3299 -1.0011 0.8588
35.1115 3.6038 -0.9291 0.8683
33.6729 3.9542 -0.8925 0.8731
17.2321 2.7939 -0.4595 0.9325
16.9995 3.2686 -0.4557 0.9331
13.9076 3.3121 -0.3763 0.9444
13.4456 3.4104 -0.3652 0.9460
13.2713 3.7822 -0.3633 0.9463
13.3768 4.0245 -0.3677 0.9456
9.3885 3.2796 -0.2618 0.9610
9.0827 3.3225 -0.2546 0.9620
8.8365 3.3796 -0.2490 0.9629
8.6241 3.4437 -0.2445 0.9635
8.4458 3.5164 -0.2408 0.9641
8.4546 3.6659 -0.2426 0.9638
8.4755 3.8230 -0.2448 0.9635
8.5184 4.1461 -0.2494 0.9628
5.8987 2.9784 -0.1739 0.9739
5.5643 3.0168 -0.1666 0.9750
5.4142 3.0385 -0.1634 0.9755
5.2808 3.0660 -0.1607 0.9759
4.9055 3.1433 -0.1534 0.9770
4.7550 3.3496 -0.1531 0.9770
4.8000 3.7064 -0.1596 0.9760
4.8323 3.9620 -0.1645 0.9753
4.8492 4.0958 -0.1671 0.9749
4.8846 4.3766 -0.1726 0.9741
4.9032 4.5241 -0.1756 0.9737
4.9225 4.6769 -0.1787 0.9732
5.0090 5.3496 -0.1929 0.9711
5.0866 5.9337 -0.2057 0.9692
5.1168 6.1484 -0.2106 0.9685
5.1484 6.3736 -0.2157 0.9677
22.6382 29.7644 -0.9844 0.8610
22.1997 30.0905 -0.9844 0.8610
21.7565 30.4100 -0.9843 0.8610
21.3088 30.7231 -0.9843 0.8610
20.3997 31.3292 -0.9841 0.8611
5.9117 9.6868 -0.2987 0.9556
5.7453 9.7309 -0.2975 0.9558
18.0532 32.7252 -0.9839 0.8611
17.0871 33.2345 -0.9837 0.8611
16.5986 33.4785 -0.9837 0.8611
16.1066 33.7152 -0.9836 0.8611
15.1125 34.1670 -0.9835 0.8611
14.6107 34.3817 -0.9834 0.8612
14.1058 34.5893 -0.9833 0.8612
13.5980 34.7893 -0.9833 0.8612
1.2087 3.5429 -0.0985 0.9851
0.9893 3.5702 -0.0975 0.9853
0.9350 3.5764 -0.0973 0.9853
0.6133 3.6153 -0.0965 0.9854
0.5600 3.6213 -0.0965 0.9854
0.4541 3.6370 -0.0965 0.9854
0.4013 3.6473 -0.0966 0.9854
0.3484 3.6577 -0.0967 0.9854
0.2422 3.6786 -0.0970 0.9854
0.1888 3.6890 -0.0972 0.9853
-0.0273 3.7284 -0.0982 0.9852
-0.1370 3.7484 -0.0987 0.9851
-0.1924 3.7584 -0.0991 0.9851
-2.9912 37.1398 -0.9809 0.8615
-3.5333 37.0889 -0.9808 0.8615
-4.0745 37.0302 -0.9807 0.8615
-5.1538 36.8885 -0.9805 0.8615
-5.6918 36.8062 -0.9804 0.8615
-6.2284 36.7159 -0.9803 0.8616
-9.4142 36.0099 -0.9798 0.8616
-1.9023 6.4949 -0.1782 0.9733
-1.9208 6.2194 -0.1714 0.9743
-1.9840 5.8157 -0.1618 0.9757
-2.0130 5.6302 -0.1574 0.9764
-2.1152 4.9775 -0.1424 0.9786
-2.1799 4.5633 -0.1331 0.9800
-2.1997 4.4369 -0.1304 0.9804
-2.2187 4.3155 -0.1277 0.9808
-2.2569 4.0912 -0.1230 0.9815
-2.3045 3.9033 -0.1193 0.9820
-2.3772 3.6509 -0.1147 0.9827
-2.4881 3.4778 -0.1126 0.9830
-2.6539 3.4894 -0.1154 0.9826
-2.7400 3.4954 -0.1169 0.9824
-2.8284 3.5015 -0.1185 0.9822
-2.9193 3.5080 -0.1201 0.9819
-3.0134 3.5153 -0.1219 0.9816
-3.1123 3.5250 -0.1238 0.9814
-3.6121 3.6387 -0.1350 0.9797
-6.2518 5.4392 -0.2181 0.9674
-6.2966 5.1629 -0.2144 0.9679
-6.3184 5.0281 -0.2126 0.9682
-6.3398 4.8956 -0.2109 0.9685
-6.3608 4.7652 -0.2092 0.9687
-0.7743 0.5287 -0.0247 0.9963
-0.7713 0.5102 -0.0243 0.9963
-0.7683 0.4923 -0.0240 0.9964
-0.7597 0.4410 -0.0231 0.9965
-0.7569 0.4248 -0.0228 0.9965
-0.7489 0.3781 -0.0221 0.9966
-0.7460 0.3631 -0.0218 0.9967
-0.7426 0.3481 -0.0216 0.9967
-0.7205 0.2516 -0.0201 0.9970
-0.7175 0.2389 -0.0199 0.9970
-0.7146 0.2264 -0.0197 0.9970
-0.7117 0.2141 -0.0196 0.9970
-0.7088 0.2020 -0.0194 0.9971
-0.7071 0.1904 -0.0193 0.9971
-0.7014 0.1562 -0.0189 0.9971
-0.6977 0.1341 -0.0187 0.9972
-0.6904 0.0913 -0.0183 0.9972
-0.6868 0.0705 -0.0182 0.9972
-0.6849 0.0602 -0.0181 0.9973
-0.6794 0.0298 -0.0179 0.9973
-0.6478 -0.0095 -0.0242 0.9974
-0.6506 -0.0286 -0.0244 0.9974
-0.6522 -0.0382 -0.0244 0.9974
-0.6539 -0.0479 -0.0245 0.9974
-0.6572 -0.0675 -0.0247 0.9974
-0.6605 -0.0874 -0.0249 0.9973
-0.6749 -0.1818 -0.0262 0.9972
-0.6765 -0.1928 -0.0263 0.9972
-0.6786 -0.2042 -0.0265 0.9972
-0.6814 -0.2159 -0.0267 0.9971
-0.6871 -0.2401 -0.0272 0.9971
-0.6900 -0.2524 -0.0275 0.9971
-0.6929 -0.2650 -0.0278 0.9970
-0.6988 -0.2910 -0.0283 0.9970
-0.7099 -0.3455 -0.0295 0.9968
-0.7128 -0.3599 -0.0299 0.9968
-0.7153 -0.3745 -0.0302 0.9968
-0.7197 -0.4039 -0.0309 0.9967
-0.7219 -0.4191 -0.0312 0.9967
-0.7264 -0.4506 -0.0320 0.9966
-0.7286 -0.4669 -0.0324 0.9965
-0.7309 -0.4836 -0.0328 0.9965
-0.7357 -0.5183 -0.0337 0.9964
-0.7541 -0.5649 -0.0353 0.9962
-2.3544 -1.9304 -0.1139 0.9879
-2.3823 -2.0122 -0.1167 0.9876
-2.3834 -2.1355 -0.1197 0.9873
-2.3244 -2.2085 -0.1200 0.9872
-2.2948 -2.2451 -0.1201 0.9872
-2.2796 -2.2963 -0.1211 0.9871
-2.2760 -2.3607 -0.1227 0.9870
-2.2722 -2.4268 -0.1244 0.9868
-2.2684 -2.4948 -0.1262 0.9866
-2.2644 -2.5647 -0.1280 0.9864
-1.7594 -2.3133 -0.1087 0.9884
-1.7477 -2.3690 -0.1102 0.9883
-1.7357 -2.4262 -0.1116 0.9881
-1.7235 -2.4849 -0.1132 0.9880
-1.7109 -2.5454 -0.1148 0.9878
-1.6848 -2.6720 -0.1182 0.9874
-1.6572 -2.8069 -0.1220 0.9870
-1.6428 -2.8777 -0.1240 0.9868
-1.5628 -2.8329 -0.1211 0.9871
-1.3565 -2.6384 -0.1110 0.9882
-1.2568 -2.6307 -0.1091 0.9884
-1.2073 -2.6252 -0.1081 0.9885
-1.1111 -2.6147 -0.1063 0.9887
-1.3498 -3.6079 -0.1441 0.9847
-1.3099 -3.6636 -0.1456 0.9845
-2.9556 -8.6636 -0.3425 0.9640
-2.4303 -8.7702 -0.3405 0.9642
-2.2092 -9.5866 -0.3681 0.9614
-5.5030 -25.5833 -0.9792 0.9006
-4.7538 -25.7362 -0.9793 0.9005
-3.6220 -25.9246 -0.9794 0.9005
-3.2430 -25.9762 -0.9795 0.9005
-0.9479 -8.6138 -0.3243 0.9659
-0.8314 -8.7260 -0.3280 0.9655
-0.5501 -8.3534 -0.3132 0.9670
-0.3032 -8.2959 -0.3106 0.9673
-0.1829 -8.3419 -0.3122 0.9672
0.6856 -8.5147 -0.3196 0.9664
1.0634 -8.5183 -0.3212 0.9662
1.3179 -8.5229 -0.3227 0.9661
1.4461 -8.5253 -0.3236 0.9660
1.6756 -8.3838 -0.3199 0.9664
1.8990 -8.2407 -0.3164 0.9667
2.1760 -8.3233 -0.3219 0.9662
2.3668 -8.5415 -0.3316 0.9651
2.5025 -8.5439 -0.3331 0.9650
7.7382 -25.0557 -0.9812 0.9004
8.1040 -24.9414 -0.9813 0.9003
8.4680 -24.8216 -0.9813 0.9003
8.8303 -24.6968 -0.9814 0.9003
4.1332 -9.7263 -0.3954 0.9586
4.1321 -9.3421 -0.3822 0.9599
4.1818 -9.0930 -0.3745 0.9607
1.8481 -3.8687 -0.1604 0.9830
4.3614 -8.7968 -0.3674 0.9615
4.4918 -8.7366 -0.3676 0.9614
4.6376 -8.7052 -0.3691 0.9613
2.1455 -3.7583 -0.1619 0.9828
2.1241 -3.4806 -0.1526 0.9838
2.2616 -3.4733 -0.1551 0.9835
2.1543 -3.2052 -0.1445 0.9847
6.2108 -8.6812 -0.3994 0.9582
6.4011 -8.6763 -0.4034 0.9578
6.7945 -8.6675 -0.4121 0.9569
7.1999 -8.6516 -0.4212 0.9559
7.4559 -8.6975 -0.4286 0.9552
18.5064 -18.6421 -0.9829 0.9002
18.7776 -18.3705 -0.9829 0.9002
10.6164 -10.0869 -0.5479 0.9431
10.5333 -9.7190 -0.5363 0.9442
10.5167 -9.4230 -0.5284 0.9450
10.6035 -8.9563 -0.5193 0.9460
10.6816 -8.7580 -0.5168 0.9462
11.9582 -8.6881 -0.5531 0.9426
5.5423 -3.7844 -0.2511 0.9735
5.6472 -3.5034 -0.2487 0.9737
5.6715 -3.2929 -0.2454 0.9741
5.7886 -3.2488 -0.2484 0.9738
5.7805 -3.0256 -0.2441 0.9742
5.9515 -3.0052 -0.2495 0.9737
6.2103 -2.8014 -0.2549 0.9731
6.3502 -2.7535 -0.2590 0.9727
6.0638 -2.5247 -0.2458 0.9741
6.4289 -2.5672 -0.2590 0.9727
6.6441 -2.5412 -0.2662 0.9719
6.9031 -2.5253 -0.2750 0.9710
7.1603 -2.3845 -0.2824 0.9702
7.2526 -2.2981 -0.2847 0.9700
11.1107 -3.1665 -0.4323 0.9548
13.0942 -3.5257 -0.5074 0.9472
13.5690 -3.4417 -0.5238 0.9455
13.4774 -3.2096 -0.5184 0.9461
13.3447 -2.9727 -0.5116 0.9467
13.0868 -2.5163 -0.4986 0.9481
14.0251 -2.4848 -0.5330 0.9446
21.3124 -3.4554 -0.8079 0.9172
20.3119 -2.9893 -0.7682 0.9211
21.5871 -2.8554 -0.8148 0.9165
21.9986 -2.2580 -0.8275 0.9153
26.4924 -2.3286 -0.9951 0.8990
26.6381 -1.9497 -0.9994 0.8986
26.6983 -0.7805 -0.9994 0.8986
26.6983 0.7805 -0.9994 0.8986
26.6841 1.1705 -0.9994 0.8986
26.6639 1.5602 -0.9994 0.8986
26.6382 1.9496 -0.9994 0.8986
26.6068 2.3387 -0.9994 0.8986
26.5695 2.7271 -0.9994 0.8986
26.5267 3.1151 -0.9994 0.8986
16.9242 3.2541 -0.6449 0.9333
16.7237 3.4696 -0.6391 0.9339
14.4052 3.2089 -0.5522 0.9426
13.8427 3.2966 -0.5324 0.9446
13.4218 3.4044 -0.5181 0.9461
9.6849 3.2252 -0.3819 0.9600
9.3353 3.2611 -0.3700 0.9612
8.7797 3.3579 -0.3517 0.9631
8.5658 3.4204 -0.3451 0.9638
8.4184 3.5050 -0.3412 0.9642
8.4879 4.1312 -0.3532 0.9629
5.8655 2.9617 -0.2459 0.9740
5.6964 2.9815 -0.2406 0.9746
5.1283 3.0785 -0.2238 0.9763
5.0042 3.1044 -0.2203 0.9767
4.8882 3.1322 -0.2172 0.9770
4.8281 3.1942 -0.2166 0.9771
4.7785 3.2627 -0.2165 0.9771
4.7656 3.4623 -0.2204 0.9767
4.7805 3.5811 -0.2235 0.9764
4.8280 3.9585 -0.2336 0.9753
4.8447 4.0921 -0.2373 0.9749
4.8805 4.3729 -0.2452 0.9741
4.9191 4.6737 -0.2539 0.9732
4.9395 4.8323 -0.2586 0.9727
5.0290 5.5308 -0.2797 0.9705
5.0538 5.7239 -0.2857 0.9699
5.0796 5.9255 -0.2920 0.9692
5.1081 6.1380 -0.2988 0.9685
5.1395 6.3626 -0.3060 0.9678
15.2833 21.3622 -0.9828 0.9002
14.9690 21.5824 -0.9828 0.9002
14.6515 21.7980 -0.9827 0.9002
14.3309 22.0089 -0.9827 0.9002
5.8576 9.5980 -0.4207 0.9560
13.3510 22.6131 -0.9826 0.9002
13.0187 22.8047 -0.9825 0.9002
12.6836 22.9916 -0.9825 0.9002
12.3457 23.1734 -0.9825 0.9002
11.6623 23.5222 -0.9824 0.9002
11.3168 23.6890 -0.9823 0.9002
10.6188 24.0073 -0.9822 0.9003
10.2664 24.1588 -0.9822 0.9003
9.9118 24.3050 -0.9821 0.9003
9.5552 24.4461 -0.9821 0.9003
9.1965 24.5820 -0.9821 0.9003
1.2038 3.5286 -0.1395 0.9852
1.1489 3.5357 -0.1391 0.9852
1.0942 3.5428 -0.1387 0.9853
1.0398 3.5499 -0.1384 0.9853
0.9856 3.5569 -0.1381 0.9853
0.8240 3.5759 -0.1373 0.9854
0.7705 3.5821 -0.1371 0.9854
0.6639 3.5944 -0.1368 0.9855
0.6108 3.6004 -0.1366 0.9855
0.3470 3.6425 -0.1369 0.9855
0.2942 3.6527 -0.1371 0.9854
0.2412 3.6629 -0.1374 0.9854
0.1346 3.6835 -0.1379 0.9854
-0.0271 3.7137 -0.1390 0.9852
-0.0816 3.7234 -0.1394 0.9852
-1.7217 26.1465 -0.9805 0.9004
-3.6246 25.9431 -0.9802 0.9005
-4.0030 25.8859 -0.9801 0.9005
-6.2518 25.4262 -0.9797 0.9005
-6.6223 25.3306 -0.9797 0.9005
-1.8837 6.4314 -0.2508 0.9735
-1.9160 6.2040 -0.2430 0.9743
-1.9486 5.9972 -0.2359 0.9751
-1.9793 5.8020 -0.2294 0.9758
-2.0084 5.6173 -0.2232 0.9764
-2.0360 5.4423 -0.2174 0.9770
-2.0622 5.2760 -0.2120 0.9776
-2.0871 5.1179 -0.2068 0.9781
-2.1551 4.6860 -0.1930 0.9796
-2.1757 4.5545 -0.1889 0.9800
-2.2146 4.3075 -0.1812 0.9808
-2.2529 4.0839 -0.1745 0.9815
-2.2968 3.8903 -0.1690 0.9821
-2.3694 3.6388 -0.1625 0.9828
-2.3924 3.5593 -0.1605 0.9830
-2.4792 3.4654 -0.1594 0.9831
-2.6442 3.4766 -0.1634 0.9827
-2.7298 3.4824 -0.1656 0.9824
-2.8177 3.4884 -0.1678 0.9822
-2.9086 3.4951 -0.1701 0.9820
-3.2139 3.5347 -0.1788 0.9811
-3.3343 3.5611 -0.1825 0.9807
-3.4608 3.5896 -0.1866 0.9802
-3.5934 3.6198 -0.1909 0.9798
-6.1502 6.0168 -0.3219 0.9661
-6.1704 5.8628 -0.3185 0.9665
-6.2161 5.5698 -0.3123 0.9671
-6.2388 5.4280 -0.3094 0.9674
-6.2612 5.2886 -0.3067 0.9677
-6.2831 5.1518 -0.3040 0.9680
-6.3046 5.0172 -0.3015 0.9683
-0.8644 0.6675 -0.0409 0.9956
-0.7381 0.5362 -0.0341 0.9964
-0.7357 0.5182 -0.0337 0.9964
-0.7333 0.5007 -0.0332 0.9965
-0.7310 0.4836 -0.0328 0.9965
-0.7218 0.4191 -0.0312 0.9967
-0.7175 0.3889 -0.0305 0.9967
-0.7153 0.3744 -0.0302 0.9968
-0.7127 0.3598 -0.0299 0.9968
-0.7099 0.3455 -0.0295 0.9968
-0.7043 0.3177 -0.0289 0.9969
-0.7016 0.3042 -0.0286 0.9969
-0.6900 0.2524 -0.0275 0.9971
-0.6871 0.2400 -0.0272 0.9971
-0.6842 0.2279 -0.0270 0.9971
-0.6814 0.2159 -0.0267 0.9971
-0.6786 0.2041 -0.0265 0.9972
-0.6765 0.1927 -0.0263 0.9972
-0.6749 0.1817 -0.0262 0.9972
-0.6669 0.1282 -0.0254 0.9973
-0.6653 0.1178 -0.0253 0.9973
-0.6637 0.1076 -0.0252 0.9973
-0.6621 0.0974 -0.0250 0.9973
-0.6605 0.0873 -0.0249 0.9973
-0.6588 0.0773 -0.0248 0.9973
-0.6572 0.0675 -0.0247 0.9974
-0.6556 0.0576 -0.0246 0.9974
-0.6523 0.0382 -0.0244 0.9974
-0.6506 0.0285 -0.0244 0.9974
-0.6492 0.0189 -0.0243 0.9974
-0.6246 -0.0274 -0.0303 0.9975
-0.6258 -0.0366 -0.0304 0.9975
-0.6271 -0.0459 -0.0305 0.9975
-0.6301 -0.0647 -0.0307 0.9975
-0.6315 -0.0742 -0.0309 0.9975
-0.6358 -0.1031 -0.0313 0.9974
-0.6372 -0.1129 -0.0314 0.9974
-0.6386 -0.1229 -0.0316 0.9974
-0.6455 -0.1738 -0.0324 0.9973
-0.6468 -0.1843 -0.0326 0.9973
-0.6500 -0.2060 -0.0331 0.9973
-0.6518 -0.2171 -0.0333 0.9973
-0.6564 -0.2402 -0.0339 0.9972
-0.6664 -0.2889 -0.0352 0.9971
-0.6767 -0.3417 -0.0368 0.9970
-0.6820 -0.3698 -0.0376 0.9969
-0.6862 -0.3985 -0.0385 0.9968
-0.6896 -0.4279 -0.0394 0.9968
-0.6913 -0.4430 -0.0398 0.9967
-0.6965 -0.4907 -0.0413 0.9966
-0.6982 -0.5073 -0.0419 0.9965
-0.7000 -0.5244 -0.0424 0.9965
-0.7347 -0.5846 -0.0456 0.9962
-0.8412 -0.6897 -0.0528 0.9957
-2.3785 -2.0693 -0.1530 0.9875
-2.3995 -2.1500 -0.1563 0.9872
-2.3103 -2.2602 -0.1568 0.9871
-2.2625 -2.4882 -0.1632 0.9866
-2.2584 -2.5579 -0.1656 0.9864
-1.9194 -2.3763 -0.1482 0.9878
-1.8230 -2.3969 -0.1461 0.9880
-1.8002 -2.5162 -0.1501 0.9877
-1.7883 -2.5785 -0.1522 0.9875
-1.7762 -2.6426 -0.1545 0.9873
-1.7639 -2.7089 -0.1568 0.9871
-1.7511 -2.7772 -0.1593 0.9869
-1.2935 -2.4280 -0.1335 0.9890
-1.3983 -2.7197 -0.1484 0.9878
-1.3451 -2.7130 -0.1469 0.9879
-1.2418 -2.7001 -0.1442 0.9882
-1.1423 -2.6880 -0.1417 0.9884
-1.0938 -2.6821 -0.1405 0.9885
-1.4087 -3.6039 -0.1877 0.9846
-3.2738 -8.7507 -0.4533 0.9633
-2.9083 -8.5250 -0.4370 0.9646
-2.5657 -8.7595 -0.4429 0.9641
-2.4329 -8.7794 -0.4420 0.9642
-2.3198 -8.8731 -0.4450 0.9639
-2.2420 -9.1179 -0.4556 0.9631
-2.2223 -9.6436 -0.4802 0.9611
-4.2447 -19.7334 -0.9794 0.9223
-2.5012 -20.0348 -0.9796 0.9223
-2.2084 -20.0702 -0.9797 0.9223
-0.8279 -8.6895 -0.4235 0.9656
-0.4216 -8.2372 -0.4002 0.9675
-0.1814 -8.2746 -0.4016 0.9674
-0.0612 -8.3711 -0.4062 0.9670
0.5611 -8.5229 -0.4144 0.9664
0.2885 -3.0288 -0.1476 0.9879
0.9371 -8.5179 -0.4158 0.9663
1.0631 -8.5162 -0.4164 0.9662
1.1895 -8.5145 -0.4171 0.9662
1.3163 -8.5129 -0.4180 0.9661
1.4437 -8.5112 -0.4189 0.9660
1.7690 -8.2238 -0.4081 0.9669
2.0121 -8.1831 -0.4089 0.9668
2.1527 -8.2344 -0.4130 0.9665
2.3620 -8.5241 -0.4292 0.9652
5.9659 -19.3172 -0.9809 0.9222
6.2478 -19.2288 -0.9810 0.9222
6.5284 -19.1363 -0.9810 0.9222
6.8076 -19.0397 -0.9811 0.9222
7.3616 -18.8343 -0.9812 0.9222
7.6364 -18.7256 -0.9812 0.9222
4.1383 -9.7383 -0.5134 0.9585
4.2456 -8.8871 -0.4779 0.9613
4.3498 -8.7735 -0.4751 0.9615
4.6392 -8.7081 -0.4787 0.9613
2.1503 -3.8980 -0.2160 0.9823
2.1454 -3.7581 -0.2100 0.9828
2.1805 -3.6932 -0.2081 0.9830
2.2642 -3.4773 -0.2013 0.9835
2.1614 -3.2157 -0.1880 0.9846
6.0178 -8.6765 -0.5123 0.9586
6.2043 -8.6720 -0.5174 0.9582
6.5884 -8.6623 -0.5280 0.9574
6.7888 -8.6603 -0.5339 0.9569
6.9921 -8.6561 -0.5399 0.9564
7.4124 -8.6468 -0.5526 0.9554
13.3969 -15.1734 -0.9821 0.9221
13.7964 -14.7348 -0.9794 0.9223
14.0107 -14.5321 -0.9794 0.9223
14.2220 -14.3264 -0.9795 0.9223
14.4302 -14.1175 -0.9795 0.9223
10.6347 -10.1042 -0.7118 0.9429
10.5701 -9.1959 -0.6798 0.9454
10.6820 -8.7583 -0.6702 0.9462
11.0363 -8.5220 -0.6765 0.9457
11.2857 -8.4543 -0.6842 0.9451
11.9495 -8.6818 -0.7167 0.9426
5.4527 -3.8412 -0.3236 0.9736
5.5364 -3.7804 -0.3253 0.9735
5.5800 -3.4616 -0.3186 0.9740
5.6347 -3.3826 -0.3189 0.9740
5.8012 -3.2559 -0.3228 0.9737
5.9270 -3.2135 -0.3271 0.9734
5.9717 -3.1257 -0.3270 0.9734
6.0700 -3.0649 -0.3299 0.9731
6.1248 -2.9812 -0.3305 0.9731
6.2689 -2.8278 -0.3337 0.9728
6.3862 -2.5502 -0.3336 0.9728
6.8844 -2.5184 -0.3557 0.9711
7.1959 -2.3964 -0.3680 0.9701
10.8792 -3.2731 -0.5512 0.9555
11.0572 -2.9772 -0.5556 0.9552
13.6251 -3.4559 -0.6820 0.9453
14.0253 -2.9099 -0.6950 0.9443
15.9748 -3.0716 -0.7893 0.9369
18.0177 -3.1921 -0.8878 0.9293
20.0013 -3.2429 -0.9831 0.9221
20.2458 -2.3775 -0.9891 0.9216
20.5235 -1.5022 -0.9984 0.9209
20.5586 -0.9018 -0.9985 0.9209
20.5697 -0.6014 -0.9985 0.9209
20.5785 0.0000 -0.9985 0.9209
20.5696 0.6013 -0.9985 0.9209
20.5432 1.2020 -0.9985 0.9209
20.4992 1.8018 -0.9984 0.9209
20.4706 2.1012 -0.9984 0.9209
20.4376 2.4000 -0.9984 0.9209
20.3586 2.9961 -0.9984 0.9209
20.3125 3.2932 -0.9984 0.9209
18.3222 3.2460 -0.9028 0.9282
17.0133 3.2712 -0.8406 0.9330
16.7610 3.4774 -0.8306 0.9337
13.4087 3.4011 -0.6712 0.9461
13.2286 3.5618 -0.6647 0.9466
13.4081 4.2485 -0.6824 0.9452
9.2827 3.2427 -0.4771 0.9614
8.9951 3.2905 -0.4647 0.9624
8.7383 3.3421 -0.4539 0.9632
8.5081 3.3973 -0.4445 0.9640
8.3912 3.4937 -0.4410 0.9643
8.3959 3.6405 -0.4440 0.9640
5.8328 2.9451 -0.3170 0.9742
5.6653 2.9652 -0.3103 0.9747
5.5048 2.9845 -0.3038 0.9752
5.3634 3.0101 -0.2984 0.9757
5.2321 3.0377 -0.2935 0.9761
4.9818 3.0905 -0.2844 0.9768
4.8747 3.1236 -0.2809 0.9771
4.7745 3.2600 -0.2805 0.9771
4.7470 3.3440 -0.2817 0.9770
4.7615 3.4594 -0.2856 0.9767
4.7764 3.5780 -0.2896 0.9764
4.7917 3.7000 -0.2937 0.9760
4.8077 3.8257 -0.2981 0.9757
4.8243 3.9555 -0.3027 0.9753
4.8591 4.2273 -0.3125 0.9745
4.8962 4.5177 -0.3232 0.9737
4.9158 4.6705 -0.3290 0.9732
4.9361 4.8290 -0.3350 0.9727
5.1026 6.1313 -0.3870 0.9686
5.0912 6.3028 -0.3931 0.9681
5.0303 6.4170 -0.3956 0.9679
11.2899 16.7966 -0.9820 0.9221
10.2881 17.4253 -0.9818 0.9222
10.0321 17.5732 -0.9818 0.9222
9.7740 17.7174 -0.9818 0.9222
9.5138 17.8577 -0.9817 0.9222
9.2515 17.9942 -0.9817 0.9222
7.6387 18.7311 -0.9815 0.9222
7.3640 18.8401 -0.9815 0.9222
7.0876 18.9449 -0.9814 0.9222
6.8098 19.0457 -0.9814 0.9222
1.1990 3.5144 -0.1802 0.9852
0.8200 3.5581 -0.1772 0.9855
0.6606 3.5766 -0.1765 0.9855
0.4500 3.6047 -0.1763 0.9856
0.3977 3.6143 -0.1764 0.9855
0.3453 3.6245 -0.1767 0.9855
0.2927 3.6345 -0.1769 0.9855
0.2400 3.6447 -0.1772 0.9855
0.1871 3.6549 -0.1776 0.9855
0.0806 3.6766 -0.1784 0.9854
-0.0270 3.6988 -0.1795 0.9853
-0.0813 3.7085 -0.1800 0.9853
-0.2522 3.8298 -0.1862 0.9847
-1.6217 20.1358 -0.9801 0.9223
-2.5022 20.0425 -0.9800 0.9223
-2.7946 20.0029 -0.9800 0.9223
-3.6680 19.8582 -0.9798 0.9223
-4.5341 19.6756 -0.9797 0.9223
-5.1065 19.5328 -0.9796 0.9223
-1.8477 6.6681 -0.3357 0.9727
-1.9112 6.1886 -0.3143 0.9744
