ply
format ascii 1.0
element vertex 1597
property float32 x
property float32 y
property float32 z
property float32 I
end_header
0.1979 -3.0056 -0.9796 0.9874
0.2418 -3.0024 -0.9796 0.9874
0.2857 -2.9986 -0.9796 0.9874
0.3294 -2.9941 -0.9796 0.9874
0.3731 -2.9889 -0.9796 0.9874
0.4168 -2.9831 -0.9796 0.9874
0.4603 -2.9768 -0.9796 0.9874
0.5038 -2.9697 -0.9796 0.9874
0.5471 -2.9620 -0.9796 0.9874
0.5904 -2.9537 -0.9796 0.9874
0.6764 -2.9351 -0.9796 0.9874
0.7618 -2.9141 -0.9796 0.9874
0.8044 -2.9027 -0.9796 0.9874
0.9308 -2.8646 -0.9796 0.9874
1.0965 -2.8053 -0.9796 0.9874
1.1374 -2.7890 -0.9796 0.9874
1.1780 -2.7721 -0.9796 0.9874
1.2184 -2.7546 -0.9796 0.9874
1.2984 -2.7178 -0.9796 0.9874
1.3772 -2.6787 -0.9796 0.9874
1.4549 -2.6373 -0.9796 0.9874
1.5690 -2.5710 -0.9796 0.9874
1.6064 -2.5478 -0.9796 0.9874
1.6435 -2.5240 -0.9796 0.9874
1.6802 -2.4998 -0.9796 0.9874
1.7525 -2.4495 -0.9796 0.9874
1.8429 -2.4230 -0.9901 0.9873
1.9220 -2.3795 -0.9948 0.9872
1.9566 -2.3511 -0.9948 0.9872
2.0906 -2.2328 -0.9948 0.9872
2.1230 -2.2020 -0.9948 0.9872
2.3076 -2.0077 -0.9948 0.9872
2.3367 -1.9737 -0.9948 0.9872
2.4210 -1.8695 -0.9948 0.9872
2.4480 -1.8338 -0.9948 0.9872
2.4745 -1.7979 -0.9948 0.9872
2.5005 -1.7615 -0.9948 0.9872
2.5509 -1.6877 -0.9948 0.9872
2.5753 -1.6502 -0.9948 0.9872
2.6452 -1.5358 -0.9947 0.9872
2.6889 -1.4579 -0.9947 0.9872
2.7502 -1.3386 -0.9947 0.9872
2.7881 -1.2576 -0.9947 0.9872
2.8237 -1.1756 -0.9947 0.9872
2.8568 -1.0926 -0.9947 0.9872
2.9019 -0.9664 -0.9947 0.9872
2.9157 -0.9239 -0.9947 0.9872
2.9289 -0.8812 -0.9947 0.9872
2.9754 -0.7086 -0.9947 0.9872
2.9854 -0.6650 -0.9947 0.9872
3.0322 -0.4011 -0.9947 0.9872
3.0469 -0.2678 -0.9947 0.9872
3.0534 -0.1787 -0.9947 0.9872
3.0583 -0.0447 -0.9947 0.9872
3.0586 -0.0000 -0.9947 0.9872
3.0583 0.0447 -0.9947 0.9872
3.0557 0.1340 -0.9947 0.9872
3.0534 0.1787 -0.9947 0.9872
3.0504 0.2233 -0.9947 0.9872
3.0468 0.2678 -0.9947 0.9872
3.0426 0.3123 -0.9947 0.9872
3.0377 0.3567 -0.9947 0.9872
3.0260 0.4453 -0.9947 0.9872
3.0192 0.4895 -0.9947 0.9872
3.0117 0.5336 -0.9947 0.9872
3.0036 0.5775 -0.9947 0.9872
2.9948 0.6214 -0.9947 0.9872
2.9754 0.7086 -0.9947 0.9872
2.9534 0.7952 -0.9947 0.9872
2.9415 0.8383 -0.9947 0.9872
2.9289 0.8812 -0.9947 0.9872
2.9158 0.9239 -0.9947 0.9872
2.8875 1.0087 -0.9947 0.9872
2.8405 1.1342 -0.9947 0.9872
2.8237 1.1756 -0.9947 0.9872
2.8062 1.2168 -0.9947 0.9872
2.7881 1.2577 -0.9947 0.9872
2.7694 1.2982 -0.9947 0.9872
2.7099 1.4184 -0.9947 0.9872
2.6889 1.4578 -0.9947 0.9872
2.6673 1.4969 -0.9948 0.9872
2.6451 1.5357 -0.9948 0.9872
2.5260 1.7247 -0.9948 0.9872
2.4746 1.7978 -0.9948 0.9872
2.2480 2.0742 -0.9948 0.9872
2.1864 2.1390 -0.9948 0.9872
2.1549 2.1707 -0.9948 0.9872
2.0245 2.2929 -0.9948 0.9872
1.8871 2.4073 -0.9948 0.9872
1.7798 2.4877 -0.9948 0.9872
1.6691 2.5633 -0.9948 0.9872
1.6314 2.5874 -0.9948 0.9872
1.5935 2.6110 -0.9948 0.9872
1.5552 2.6340 -0.9948 0.9872
1.5165 2.6565 -0.9948 0.9872
1.4775 2.6783 -0.9948 0.9872
1.4382 2.6996 -0.9948 0.9872
1.3587 2.7405 -0.9948 0.9872
1.3186 2.7601 -0.9948 0.9872
1.2781 2.7790 -0.9948 0.9872
1.2374 2.7974 -0.9948 0.9872
1.1963 2.8152 -0.9948 0.9872
1.1551 2.8323 -0.9948 0.9872
0.9876 2.8950 -0.9948 0.9872
0.9452 2.9091 -0.9948 0.9872
0.8599 2.9356 -0.9948 0.9872
0.8169 2.9478 -0.9948 0.9872
0.6869 2.9808 -0.9948 0.9872
0.4675 3.0230 -0.9949 0.9872
0.3346 3.0406 -0.9949 0.9872
0.2901 3.0452 -0.9949 0.9872
0.2456 3.0491 -0.9949 0.9872
0.2010 3.0524 -0.9949 0.9872
0.1564 3.0550 -0.9949 0.9872
0.0671 3.0583 -0.9949 0.9872
0.0224 3.0589 -0.9949 0.9872
-0.0670 3.0583 -0.9949 0.9872
-0.1117 3.0570 -0.9949 0.9872
-0.3346 3.0407 -0.9949 0.9872
-0.3790 3.0355 -0.9949 0.9872
-0.4233 3.0296 -0.9949 0.9872
-0.5116 3.0160 -0.9949 0.9872
-0.5556 3.0082 -0.9949 0.9872
-0.5995 2.9998 -0.9949 0.9872
-0.7304 2.9707 -0.9949 0.9872
-0.7738 2.9597 -0.9949 0.9872
-0.8599 2.9358 -0.9949 0.9872
-0.2010 0.5622 -0.1942 0.9975
-0.2060 0.5506 -0.1912 0.9975
-0.2198 0.5172 -0.1828 0.9976
-0.2281 0.4961 -0.1776 0.9977
-0.2324 0.4864 -0.1753 0.9977
-0.2366 0.4771 -0.1732 0.9978
-0.2484 0.4503 -0.1673 0.9978
-0.2521 0.4416 -0.1654 0.9979
-0.2591 0.4246 -0.1618 0.9979
-0.2625 0.4163 -0.1601 0.9979
-0.2657 0.4081 -0.1584 0.9980
-0.2719 0.3920 -0.1552 0.9980
-0.2749 0.3842 -0.1536 0.9980
-0.2778 0.3765 -0.1522 0.9980
-0.2806 0.3689 -0.1508 0.9981
-0.2911 0.3396 -0.1455 0.9981
-0.2935 0.3325 -0.1442 0.9981
-0.2959 0.3254 -0.1430 0.9982
-0.2979 0.3181 -0.1417 0.9982
-0.2996 0.3108 -0.1404 0.9982
-0.3014 0.3036 -0.1391 0.9982
-0.3031 0.2965 -0.1379 0.9982
-0.3047 0.2895 -0.1367 0.9982
-0.3062 0.2825 -0.1355 0.9982
-0.3077 0.2757 -0.1344 0.9983
-0.3091 0.2689 -0.1333 0.9983
-0.3118 0.2556 -0.1311 0.9983
-0.3130 0.2491 -0.1301 0.9983
-0.3164 0.2299 -0.1272 0.9984
-0.3175 0.2237 -0.1263 0.9984
-0.3194 0.2113 -0.1246 0.9984
-0.3203 0.2052 -0.1237 0.9984
-0.3211 0.1992 -0.1229 0.9984
-0.3220 0.1933 -0.1221 0.9984
-0.3231 0.1876 -0.1215 0.9984
-0.3262 0.1708 -0.1198 0.9985
-0.3272 0.1652 -0.1192 0.9985
-0.3281 0.1597 -0.1187 0.9985
-0.3297 0.1487 -0.1176 0.9985
-0.3310 0.1378 -0.1166 0.9985
-0.3321 0.1270 -0.1157 0.9985
-0.3336 0.1111 -0.1143 0.9985
-0.3344 0.1005 -0.1136 0.9985
-0.3350 0.0902 -0.1128 0.9985
-0.3352 0.0850 -0.1125 0.9985
-0.3355 0.0799 -0.1122 0.9986
-0.3359 0.0697 -0.1116 0.9986
-0.3360 0.0646 -0.1113 0.9986
-0.3361 0.0595 -0.1110 0.9986
-0.3362 0.0545 -0.1108 0.9986
-0.3362 0.0445 -0.1103 0.9986
-0.3362 0.0345 -0.1099 0.9986
-0.3361 0.0295 -0.1097 0.9986
-0.3358 0.0196 -0.1094 0.9986
-0.3357 0.0147 -0.1093 0.9986
-0.3296 0.0000 -0.1113 0.9986
-0.3299 -0.0048 -0.1114 0.9986
-0.3308 -0.0389 -0.1124 0.9986
-0.3304 -0.0686 -0.1139 0.9986
-0.3302 -0.0736 -0.1142 0.9986
-0.3297 -0.0836 -0.1148 0.9986
-0.3294 -0.0887 -0.1152 0.9986
-0.3291 -0.0938 -0.1155 0.9986
-0.3288 -0.0989 -0.1159 0.9986
-0.3284 -0.1041 -0.1163 0.9985
-0.3240 -0.1462 -0.1200 0.9985
-0.3205 -0.1678 -0.1221 0.9985
-0.3195 -0.1733 -0.1227 0.9985
-0.3162 -0.1899 -0.1245 0.9984
-0.3151 -0.1955 -0.1252 0.9984
-0.3133 -0.2073 -0.1268 0.9984
-0.3114 -0.2194 -0.1286 0.9984
-0.3103 -0.2255 -0.1295 0.9984
-0.3092 -0.2316 -0.1304 0.9984
-0.3080 -0.2379 -0.1314 0.9984
-0.3056 -0.2505 -0.1334 0.9983
-0.2983 -0.2835 -0.1389 0.9983
-0.2967 -0.2903 -0.1401 0.9982
-0.2950 -0.2972 -0.1413 0.9982
-0.2914 -0.3113 -0.1439 0.9982
-0.2873 -0.3254 -0.1465 0.9982
-0.2849 -0.3323 -0.1477 0.9982
-0.2798 -0.3464 -0.1503 0.9981
-0.2744 -0.3607 -0.1530 0.9981
-0.2686 -0.3755 -0.1558 0.9981
-0.2656 -0.3830 -0.1573 0.9980
-0.2595 -0.3985 -0.1605 0.9980
-0.2562 -0.4064 -0.1622 0.9980
-0.2529 -0.4144 -0.1639 0.9980
-0.2494 -0.4225 -0.1656 0.9979
-0.2459 -0.4308 -0.1674 0.9979
-0.2422 -0.4391 -0.1693 0.9979
-0.2345 -0.4562 -0.1731 0.9978
-0.2263 -0.4738 -0.1772 0.9978
-0.1992 -0.5325 -0.1919 0.9976
-0.1830 -0.5926 -0.2094 0.9974
-0.1852 -0.6322 -0.2224 0.9972
-0.7341 -2.8081 -0.9797 0.9878
-0.6930 -2.8185 -0.9797 0.9878
-0.6103 -2.8376 -0.9797 0.9878
-0.5272 -2.8542 -0.9797 0.9878
-0.4436 -2.8684 -0.9797 0.9878
-0.4016 -2.8745 -0.9797 0.9878
-0.3595 -2.8801 -0.9796 0.9878
-0.2752 -2.8894 -0.9796 0.9878
-0.1907 -2.8962 -0.9796 0.9878
-0.1484 -2.8986 -0.9796 0.9878
-0.0212 -2.9023 -0.9796 0.9878
0.0212 -2.9023 -0.9796 0.9878
0.1484 -2.8986 -0.9796 0.9878
0.2330 -2.8930 -0.9796 0.9878
0.3174 -2.8850 -0.9796 0.9878
0.3596 -2.8800 -0.9796 0.9878
0.4435 -2.8683 -0.9796 0.9878
0.6104 -2.8374 -0.9796 0.9878
0.6930 -2.8184 -0.9796 0.9878
0.7341 -2.8080 -0.9796 0.9878
0.8564 -2.7731 -0.9796 0.9878
0.8968 -2.7602 -0.9796 0.9878
0.9771 -2.7329 -0.9796 0.9878
1.0960 -2.6874 -0.9796 0.9878
1.3270 -2.5811 -0.9796 0.9878
1.3646 -2.5614 -0.9796 0.9878
1.4019 -2.5412 -0.9796 0.9878
1.4388 -2.5204 -0.9796 0.9878
1.5119 -2.4773 -0.9796 0.9878
1.5878 -2.4385 -0.9822 0.9878
1.6324 -2.4286 -0.9877 0.9877
1.7498 -2.3717 -0.9948 0.9876
1.7842 -2.3459 -0.9948 0.9876
1.8853 -2.2655 -0.9948 0.9876
1.9507 -2.2094 -0.9948 0.9876
1.9828 -2.1807 -0.9948 0.9876
2.0456 -2.1218 -0.9948 0.9876
2.0764 -2.0916 -0.9948 0.9876
2.1067 -2.0611 -0.9948 0.9876
2.1661 -1.9986 -0.9948 0.9876
2.1950 -1.9668 -0.9948 0.9876
2.2235 -1.9345 -0.9948 0.9876
2.2791 -1.8687 -0.9948 0.9876
2.3062 -1.8352 -0.9948 0.9876
2.4339 -1.6620 -0.9948 0.9876
2.4580 -1.6262 -0.9948 0.9876
2.5701 -1.4424 -0.9948 0.9876
2.5909 -1.4048 -0.9948 0.9876
2.6112 -1.3667 -0.9948 0.9876
2.6500 -1.2898 -0.9947 0.9876
2.6865 -1.2118 -0.9947 0.9876
2.7039 -1.1725 -0.9947 0.9876
2.7678 -1.0125 -0.9947 0.9876
2.8343 -0.8078 -0.9947 0.9876
2.8567 -0.7246 -0.9947 0.9876
2.8670 -0.6828 -0.9947 0.9876
2.8766 -0.6408 -0.9947 0.9876
2.9158 -0.4291 -0.9947 0.9876
2.9217 -0.3865 -0.9947 0.9876
2.9317 -0.3009 -0.9947 0.9876
2.9421 -0.1721 -0.9947 0.9876
2.9443 -0.1292 -0.9947 0.9876
2.9459 -0.0861 -0.9947 0.9876
2.9469 -0.0431 -0.9947 0.9876
2.9459 0.0861 -0.9947 0.9876
2.9444 0.1292 -0.9947 0.9876
2.9358 0.2580 -0.9947 0.9876
2.9318 0.3009 -0.9947 0.9876
2.9092 0.4716 -0.9947 0.9876
2.9020 0.5141 -0.9947 0.9876
2.8857 0.5987 -0.9947 0.9876
2.8670 0.6827 -0.9947 0.9876
2.8567 0.7246 -0.9947 0.9876
2.8095 0.8902 -0.9947 0.9876
2.7823 0.9719 -0.9947 0.9876
2.7678 1.0125 -0.9947 0.9876
2.7528 1.0528 -0.9947 0.9876
2.7371 1.0929 -0.9947 0.9876
2.7208 1.1328 -0.9947 0.9876
2.6500 1.2898 -0.9948 0.9876
2.5909 1.4047 -0.9948 0.9876
2.5701 1.4424 -0.9948 0.9876
2.4815 1.5901 -0.9948 0.9876
2.4340 1.6619 -0.9948 0.9876
2.3844 1.7323 -0.9948 0.9876
2.3327 1.8013 -0.9948 0.9876
2.2791 1.8687 -0.9948 0.9876
2.2516 1.9018 -0.9948 0.9876
2.1367 2.0301 -0.9948 0.9876
2.1068 2.0611 -0.9948 0.9876
2.0764 2.0916 -0.9948 0.9876
2.0145 2.1514 -0.9948 0.9876
1.9182 2.2377 -0.9948 0.9876
1.8520 2.2927 -0.9948 0.9876
1.7842 2.3459 -0.9948 0.9876
1.7498 2.3717 -0.9948 0.9876
1.6798 2.4218 -0.9948 0.9876
1.6442 2.4462 -0.9948 0.9876
1.6083 2.4699 -0.9948 0.9876
1.5354 2.5158 -0.9948 0.9876
1.4612 2.5596 -0.9948 0.9876
1.3092 2.6406 -0.9948 0.9876
1.1527 2.7126 -0.9948 0.9876
1.0730 2.7452 -0.9948 0.9876
0.9517 2.7895 -0.9948 0.9876
0.9108 2.8032 -0.9948 0.9876
0.8285 2.8286 -0.9948 0.9876
0.7455 2.8516 -0.9948 0.9876
0.6619 2.8722 -0.9948 0.9876
0.6198 2.8816 -0.9948 0.9876
0.5777 2.8903 -0.9948 0.9876
0.4930 2.9060 -0.9949 0.9876
0.4505 2.9129 -0.9949 0.9876
0.3224 2.9298 -0.9949 0.9876
0.2795 2.9342 -0.9949 0.9876
0.2366 2.9380 -0.9949 0.9876
0.1507 2.9437 -0.9949 0.9876
0.1077 2.9456 -0.9949 0.9876
0.0646 2.9468 -0.9949 0.9876
0.0216 2.9474 -0.9949 0.9876
-0.0215 2.9475 -0.9949 0.9876
-0.0646 2.9468 -0.9949 0.9876
-0.1076 2.9456 -0.9949 0.9876
-0.1507 2.9437 -0.9949 0.9876
-0.3651 2.9249 -0.9949 0.9876
-0.4079 2.9193 -0.9949 0.9876
-0.4930 2.9061 -0.9949 0.9876
-0.5777 2.8905 -0.9949 0.9876
-0.6619 2.8723 -0.9949 0.9876
-0.7456 2.8518 -0.9949 0.9876
-0.1830 0.5927 -0.2093 0.9974
-0.1839 0.5661 -0.2009 0.9975
-0.2039 0.5218 -0.1891 0.9976
-0.2085 0.5112 -0.1864 0.9977
-0.2130 0.5012 -0.1838 0.9977
-0.2345 0.4561 -0.1731 0.9978
-0.2422 0.4391 -0.1693 0.9979
-0.2494 0.4225 -0.1656 0.9979
-0.2595 0.3985 -0.1605 0.9980
-0.2626 0.3907 -0.1589 0.9980
-0.2656 0.3830 -0.1573 0.9980
-0.2686 0.3755 -0.1558 0.9981
-0.2715 0.3681 -0.1544 0.9981
-0.2744 0.3608 -0.1530 0.9981
-0.2771 0.3535 -0.1516 0.9981
-0.2798 0.3464 -0.1503 0.9981
-0.2824 0.3393 -0.1490 0.9981
-0.2849 0.3323 -0.1477 0.9982
-0.2933 0.3042 -0.1426 0.9982
-0.2950 0.2972 -0.1413 0.9982
-0.2999 0.2767 -0.1377 0.9983
-0.3014 0.2701 -0.1366 0.9983
-0.3080 0.2379 -0.1314 0.9984
-0.3103 0.2255 -0.1295 0.9984
-0.3114 0.2193 -0.1286 0.9984
-0.3143 0.2014 -0.1260 0.9984
-0.3151 0.1955 -0.1252 0.9984
-0.3163 0.1898 -0.1245 0.9984
-0.3195 0.1732 -0.1227 0.9985
-0.3224 0.1569 -0.1210 0.9985
-0.3247 0.1408 -0.1195 0.9985
-0.3254 0.1355 -0.1190 0.9985
-0.3259 0.1301 -0.1185 0.9985
-0.3270 0.1196 -0.1175 0.9985
-0.3291 0.0938 -0.1155 0.9986
-0.3300 0.0786 -0.1145 0.9986
-0.3304 0.0686 -0.1139 0.9986
-0.3306 0.0586 -0.1133 0.9986
-0.3308 0.0388 -0.1124 0.9986
-0.3306 0.0242 -0.1119 0.9986
-0.3303 0.0145 -0.1116 0.9986
-0.3301 0.0097 -0.1115 0.9986
-0.3299 0.0048 -0.1114 0.9986
-0.3244 0.0000 -0.1135 0.9986
-0.3246 -0.0048 -0.1136 0.9986
-0.3253 -0.0238 -0.1141 0.9986
-0.3254 -0.0286 -0.1143 0.9986
-0.3255 -0.0334 -0.1145 0.9986
-0.3255 -0.0382 -0.1147 0.9986
-0.3255 -0.0479 -0.1151 0.9986
-0.3253 -0.0577 -0.1156 0.9986
-0.3250 -0.0674 -0.1162 0.9986
-0.3248 -0.0724 -0.1165 0.9986
-0.3244 -0.0823 -0.1171 0.9986
-0.3241 -0.0873 -0.1174 0.9986
-0.3225 -0.1074 -0.1190 0.9986
-0.3216 -0.1177 -0.1198 0.9985
-0.3199 -0.1332 -0.1212 0.9985
-0.3177 -0.1490 -0.1228 0.9985
-0.3150 -0.1649 -0.1244 0.9985
-0.3118 -0.1811 -0.1262 0.9985
-0.3106 -0.1865 -0.1268 0.9985
-0.3075 -0.2034 -0.1290 0.9984
-0.3044 -0.2212 -0.1317 0.9984
-0.3021 -0.2332 -0.1335 0.9984
-0.3008 -0.2394 -0.1345 0.9984
-0.2953 -0.2646 -0.1388 0.9983
-0.2938 -0.2711 -0.1399 0.9983
-0.2922 -0.2777 -0.1410 0.9983
-0.2906 -0.2843 -0.1422 0.9983
-0.2889 -0.2910 -0.1435 0.9983
-0.2871 -0.2978 -0.1447 0.9982
-0.2852 -0.3046 -0.1460 0.9982
-0.2813 -0.3186 -0.1487 0.9982
-0.2711 -0.3459 -0.1538 0.9981
-0.2684 -0.3529 -0.1551 0.9981
-0.2597 -0.3744 -0.1594 0.9981
-0.2534 -0.3892 -0.1625 0.9980
-0.2502 -0.3969 -0.1642 0.9980
-0.2469 -0.4046 -0.1658 0.9980
-0.2435 -0.4124 -0.1676 0.9980
-0.2400 -0.4203 -0.1694 0.9980
-0.2246 -0.4531 -0.1770 0.9979
-0.2205 -0.4617 -0.1790 0.9978
-0.2163 -0.4703 -0.1811 0.9978
-0.2119 -0.4790 -0.1833 0.9978
-0.2027 -0.4970 -0.1878 0.9977
-0.1880 -0.5259 -0.1954 0.9976
-0.1830 -0.5364 -0.1983 0.9976
-0.1778 -0.5472 -0.2013 0.9976
-0.1724 -0.5582 -0.2044 0.9975
-0.5487 -2.7454 -0.9797 0.9882
-0.5085 -2.7531 -0.9797 0.9882
-0.4682 -2.7603 -0.9797 0.9882
-0.2655 -2.7871 -0.9796 0.9882
-0.1840 -2.7936 -0.9796 0.9882
-0.1431 -2.7960 -0.9796 0.9882
-0.1022 -2.7978 -0.9796 0.9882
-0.0204 -2.7995 -0.9796 0.9882
0.0614 -2.7989 -0.9796 0.9882
0.1023 -2.7977 -0.9796 0.9882
0.1431 -2.7960 -0.9796 0.9882
0.3062 -2.7828 -0.9796 0.9882
0.3468 -2.7780 -0.9796 0.9882
0.3874 -2.7727 -0.9796 0.9882
0.4279 -2.7667 -0.9796 0.9882
0.4682 -2.7602 -0.9796 0.9882
0.5085 -2.7530 -0.9796 0.9882
0.5487 -2.7453 -0.9796 0.9882
0.5888 -2.7370 -0.9796 0.9882
0.6287 -2.7280 -0.9796 0.9882
0.7081 -2.7085 -0.9796 0.9882
0.8261 -2.6748 -0.9796 0.9882
0.9039 -2.6496 -0.9796 0.9882
0.9425 -2.6361 -0.9796 0.9882
0.9809 -2.6220 -0.9796 0.9882
1.0192 -2.6074 -0.9796 0.9882
1.0571 -2.5922 -0.9796 0.9882
1.0949 -2.5765 -0.9796 0.9882
1.1324 -2.5603 -0.9796 0.9882
1.1697 -2.5434 -0.9796 0.9882
1.2067 -2.5260 -0.9796 0.9882
1.3163 -2.4707 -0.9796 0.9882
1.3523 -2.4512 -0.9796 0.9882
1.3923 -2.4389 -0.9827 0.9882
1.4348 -2.4302 -0.9875 0.9881
1.4776 -2.4211 -0.9925 0.9881
1.5163 -2.4048 -0.9948 0.9880
1.5513 -2.3824 -0.9948 0.9880
1.6542 -2.3122 -0.9948 0.9880
1.6878 -2.2877 -0.9948 0.9880
1.7864 -2.2116 -0.9948 0.9880
1.8186 -2.1852 -0.9948 0.9880
1.8503 -2.1584 -0.9948 0.9880
1.9431 -2.0753 -0.9948 0.9880
2.0322 -1.9881 -0.9948 0.9880
2.0610 -1.9582 -0.9948 0.9880
2.1174 -1.8971 -0.9948 0.9880
2.1718 -1.8345 -0.9948 0.9880
2.2245 -1.7702 -0.9948 0.9880
2.2753 -1.7044 -0.9948 0.9880
2.3241 -1.6372 -0.9948 0.9880
2.3710 -1.5686 -0.9948 0.9880
2.3936 -1.5337 -0.9948 0.9880
2.4157 -1.4987 -0.9948 0.9880
2.4791 -1.3914 -0.9948 0.9880
2.4992 -1.3550 -0.9948 0.9880
2.5187 -1.3183 -0.9948 0.9880
2.5741 -1.2067 -0.9948 0.9880
2.5914 -1.1689 -0.9948 0.9880
2.6553 -1.0155 -0.9947 0.9880
2.6698 -0.9766 -0.9947 0.9880
2.6838 -0.9375 -0.9947 0.9880
2.6972 -0.8982 -0.9947 0.9880
2.7223 -0.8190 -0.9947 0.9880
2.7451 -0.7391 -0.9947 0.9880
2.7556 -0.6990 -0.9947 0.9880
2.7655 -0.6586 -0.9947 0.9880
2.8183 -0.3728 -0.9947 0.9880
2.8279 -0.2902 -0.9947 0.9880
2.8319 -0.2489 -0.9947 0.9880
2.8380 -0.1661 -0.9947 0.9880
2.8416 -0.0831 -0.9947 0.9880
2.8425 -0.0415 -0.9947 0.9880
2.8428 0.0000 -0.9947 0.9880
2.8416 0.0830 -0.9947 0.9880
2.8380 0.1661 -0.9947 0.9880
2.8352 0.2075 -0.9947 0.9880
2.8280 0.2902 -0.9947 0.9880
2.8234 0.3316 -0.9947 0.9880
2.8126 0.4139 -0.9947 0.9880
2.7992 0.4959 -0.9947 0.9880
2.7917 0.5367 -0.9947 0.9880
2.7655 0.6586 -0.9947 0.9880
2.7340 0.7791 -0.9947 0.9880
2.7100 0.8587 -0.9947 0.9880
2.6838 0.9375 -0.9947 0.9880
2.6698 0.9766 -0.9947 0.9880
2.6245 1.0927 -0.9948 0.9880
2.5914 1.1689 -0.9948 0.9880
2.5377 1.2813 -0.9948 0.9880
2.4992 1.3549 -0.9948 0.9880
2.4374 1.4632 -0.9948 0.9880
2.4158 1.4987 -0.9948 0.9880
2.3710 1.5686 -0.9948 0.9880
2.2999 1.6710 -0.9948 0.9880
2.1984 1.8025 -0.9948 0.9880
2.1719 1.8345 -0.9948 0.9880
2.1448 1.8660 -0.9948 0.9880
2.1173 1.8971 -0.9948 0.9880
2.0322 1.9881 -0.9948 0.9880
2.0029 2.0176 -0.9948 0.9880
1.9732 2.0466 -0.9948 0.9880
1.8816 2.1311 -0.9948 0.9880
1.8503 2.1584 -0.9948 0.9880
1.8186 2.1852 -0.9948 0.9880
1.7865 2.2116 -0.9948 0.9880
1.6542 2.3121 -0.9948 0.9880
1.6203 2.3361 -0.9948 0.9880
1.5859 2.3595 -0.9948 0.9880
1.5513 2.3824 -0.9948 0.9880
1.5163 2.4049 -0.9948 0.9880
1.4095 2.4690 -0.9948 0.9880
1.3733 2.4893 -0.9948 0.9880
1.3367 2.5091 -0.9948 0.9880
1.2999 2.5284 -0.9948 0.9880
1.2255 2.5653 -0.9948 0.9880
1.1879 2.5830 -0.9948 0.9880
1.0736 2.6325 -0.9948 0.9880
0.9962 2.6628 -0.9948 0.9880
0.8786 2.7039 -0.9948 0.9880
0.8390 2.7165 -0.9948 0.9880
0.7992 2.7284 -0.9948 0.9880
0.7593 2.7398 -0.9948 0.9880
0.7191 2.7506 -0.9948 0.9880
0.6384 2.7705 -0.9948 0.9880
0.5572 2.7879 -0.9948 0.9880
0.3522 2.8212 -0.9949 0.9880
0.2696 2.8303 -0.9949 0.9880
0.2282 2.8340 -0.9949 0.9880
0.1868 2.8370 -0.9949 0.9880
0.1454 2.8395 -0.9949 0.9880
0.1038 2.8412 -0.9949 0.9880
0.0623 2.8425 -0.9949 0.9880
0.0208 2.8431 -0.9949 0.9880
-0.0208 2.8431 -0.9949 0.9880
-0.0623 2.8425 -0.9949 0.9880
-0.1038 2.8413 -0.9949 0.9880
-0.1453 2.8395 -0.9949 0.9880
-0.1868 2.8371 -0.9949 0.9880
-0.4345 2.8099 -0.9949 0.9880
-0.6385 2.7706 -0.9949 0.9880
-0.7191 2.7508 -0.9949 0.9880
-0.1778 0.5471 -0.2013 0.9976
-0.1880 0.5258 -0.1954 0.9976
-0.1929 0.5155 -0.1926 0.9977
-0.1979 0.5062 -0.1902 0.9977
-0.2027 0.4970 -0.1878 0.9977
-0.2119 0.4790 -0.1833 0.9978
-0.2205 0.4616 -0.1790 0.9978
-0.2287 0.4447 -0.1750 0.9979
-0.2469 0.4045 -0.1658 0.9980
-0.2597 0.3744 -0.1594 0.9981
-0.2627 0.3671 -0.1580 0.9981
-0.2656 0.3600 -0.1565 0.9981
-0.2684 0.3529 -0.1551 0.9981
-0.2711 0.3459 -0.1538 0.9981
-0.2813 0.3186 -0.1487 0.9982
-0.2833 0.3116 -0.1474 0.9982
-0.2852 0.3046 -0.1460 0.9982
-0.2871 0.2977 -0.1447 0.9982
-0.2889 0.2910 -0.1435 0.9983
-0.2906 0.2843 -0.1422 0.9983
-0.2922 0.2777 -0.1410 0.9983
-0.2938 0.2711 -0.1399 0.9983
-0.2953 0.2646 -0.1388 0.9983
-0.2968 0.2582 -0.1377 0.9983
-0.2982 0.2518 -0.1366 0.9983
-0.2995 0.2456 -0.1355 0.9984
-0.3021 0.2333 -0.1335 0.9984
-0.3032 0.2271 -0.1326 0.9984
-0.3054 0.2152 -0.1307 0.9984
-0.3065 0.2092 -0.1299 0.9984
-0.3095 0.1920 -0.1274 0.9985
-0.3139 0.1702 -0.1250 0.9985
-0.3169 0.1542 -0.1233 0.9985
-0.3192 0.1384 -0.1217 0.9985
-0.3205 0.1280 -0.1208 0.9985
-0.3221 0.1125 -0.1194 0.9986
-0.3230 0.1023 -0.1186 0.9986
-0.3237 0.0922 -0.1178 0.9986
-0.3241 0.0873 -0.1174 0.9986
-0.3248 0.0723 -0.1165 0.9986
-0.3253 0.0576 -0.1156 0.9986
-0.3255 0.0334 -0.1145 0.9986
-0.3254 0.0286 -0.1143 0.9986
-0.3253 0.0238 -0.1141 0.9986
-0.3252 0.0190 -0.1140 0.9986
-0.3250 0.0142 -0.1139 0.9986
-0.3249 0.0095 -0.1137 0.9986
-0.3196 -0.0046 -0.1158 0.9986
-0.3200 -0.0141 -0.1161 0.9986
-0.3201 -0.0187 -0.1162 0.9986
-0.3203 -0.0282 -0.1165 0.9986
-0.3203 -0.0329 -0.1167 0.9986
-0.3204 -0.0376 -0.1169 0.9986
-0.3204 -0.0424 -0.1171 0.9986
-0.3203 -0.0471 -0.1173 0.9986
-0.3202 -0.0519 -0.1176 0.9986
-0.3201 -0.0567 -0.1178 0.9986
-0.3200 -0.0615 -0.1181 0.9986
-0.3198 -0.0664 -0.1184 0.9986
-0.3196 -0.0712 -0.1187 0.9986
-0.3191 -0.0809 -0.1193 0.9986
-0.3185 -0.0907 -0.1200 0.9986
-0.3181 -0.0957 -0.1204 0.9986
-0.3177 -0.1007 -0.1208 0.9986
-0.3173 -0.1057 -0.1212 0.9986
-0.3168 -0.1107 -0.1216 0.9986
-0.3163 -0.1157 -0.1220 0.9986
-0.3157 -0.1208 -0.1225 0.9986
-0.3145 -0.1310 -0.1235 0.9986
-0.3138 -0.1361 -0.1240 0.9985
-0.3105 -0.1568 -0.1261 0.9985
-0.3095 -0.1620 -0.1266 0.9985
-0.3085 -0.1673 -0.1272 0.9985
-0.3075 -0.1726 -0.1278 0.9985
-0.3064 -0.1779 -0.1284 0.9985
-0.3040 -0.1886 -0.1297 0.9985
-0.3028 -0.1941 -0.1303 0.9985
-0.3018 -0.1997 -0.1311 0.9985
-0.3008 -0.2054 -0.1320 0.9985
-0.2975 -0.2229 -0.1347 0.9984
-0.2963 -0.2288 -0.1357 0.9984
-0.2950 -0.2348 -0.1366 0.9984
-0.2937 -0.2408 -0.1376 0.9984
-0.2863 -0.2720 -0.1431 0.9983
-0.2846 -0.2785 -0.1443 0.9983
-0.2811 -0.2916 -0.1468 0.9983
-0.2793 -0.2983 -0.1481 0.9983
-0.2773 -0.3050 -0.1494 0.9982
-0.2753 -0.3119 -0.1508 0.9982
-0.2731 -0.3185 -0.1520 0.9982
-0.2706 -0.3251 -0.1533 0.9982
-0.2680 -0.3318 -0.1546 0.9982
-0.2653 -0.3385 -0.1559 0.9982
-0.2626 -0.3453 -0.1572 0.9982
-0.2598 -0.3521 -0.1586 0.9981
-0.2569 -0.3591 -0.1600 0.9981
-0.2539 -0.3661 -0.1615 0.9981
-0.2444 -0.3877 -0.1661 0.9981
-0.2377 -0.4027 -0.1695 0.9980
-0.2230 -0.4338 -0.1768 0.9979
-0.2150 -0.4500 -0.1807 0.9979
-0.2108 -0.4583 -0.1828 0.9979
-0.2064 -0.4667 -0.1849 0.9978
-0.2020 -0.4752 -0.1871 0.9978
-0.1925 -0.4927 -0.1917 0.9978
-0.1877 -0.5016 -0.1941 0.9977
-0.1773 -0.5198 -0.1991 0.9977
-0.1720 -0.5293 -0.2017 0.9976
-0.1498 -0.5730 -0.2146 0.9975
-0.1496 -0.6083 -0.2270 0.9973
-0.5685 -2.6428 -0.9797 0.9886
-0.4910 -2.6583 -0.9797 0.9886
-0.4521 -2.6652 -0.9797 0.9886
-0.3740 -2.6772 -0.9796 0.9886
-0.3349 -2.6824 -0.9796 0.9886
-0.2956 -2.6870 -0.9796 0.9886
-0.2170 -2.6945 -0.9796 0.9886
-0.0198 -2.7030 -0.9796 0.9886
0.0198 -2.7031 -0.9796 0.9886
0.0593 -2.7025 -0.9796 0.9886
0.0987 -2.7014 -0.9796 0.9886
0.1382 -2.6996 -0.9796 0.9886
0.2957 -2.6869 -0.9796 0.9886
0.3349 -2.6823 -0.9796 0.9886
0.5684 -2.6427 -0.9796 0.9886
0.7598 -2.5941 -0.9796 0.9886
0.7976 -2.5827 -0.9796 0.9886
0.8353 -2.5708 -0.9796 0.9886
0.9100 -2.5452 -0.9796 0.9886
0.9840 -2.5176 -0.9796 0.9886
1.0571 -2.4877 -0.9796 0.9886
1.0934 -2.4720 -0.9796 0.9886
1.1294 -2.4558 -0.9796 0.9886
1.1670 -2.4429 -0.9812 0.9885
1.2076 -2.4356 -0.9852 0.9885
1.2483 -2.4280 -0.9894 0.9885
1.3609 -2.3839 -0.9948 0.9884
1.4641 -2.3220 -0.9948 0.9884
1.4978 -2.3004 -0.9948 0.9884
1.5313 -2.2782 -0.9948 0.9884
1.5972 -2.2325 -0.9948 0.9884
1.6297 -2.2089 -0.9948 0.9884
1.7559 -2.1099 -0.9948 0.9884
1.8168 -2.0577 -0.9948 0.9884
1.8467 -2.0309 -0.9948 0.9884
1.8762 -2.0037 -0.9948 0.9884
1.9052 -1.9761 -0.9948 0.9884
1.9621 -1.9196 -0.9948 0.9884
2.0444 -1.8318 -0.9948 0.9884
2.0970 -1.7713 -0.9948 0.9884
2.1726 -1.6777 -0.9948 0.9884
2.1969 -1.6457 -0.9948 0.9884
2.2669 -1.5479 -0.9948 0.9884
2.3112 -1.4809 -0.9948 0.9884
2.3325 -1.4470 -0.9948 0.9884
2.3534 -1.4128 -0.9948 0.9884
2.3738 -1.3782 -0.9948 0.9884
2.4131 -1.3083 -0.9948 0.9884
2.4319 -1.2729 -0.9948 0.9884
2.4681 -1.2013 -0.9948 0.9884
2.5638 -0.9805 -0.9948 0.9884
2.5778 -0.9430 -0.9948 0.9884
2.5913 -0.9053 -0.9948 0.9884
2.6167 -0.8291 -0.9948 0.9884
2.6505 -0.7136 -0.9947 0.9884
2.6606 -0.6748 -0.9947 0.9884
2.6877 -0.5576 -0.9947 0.9884
2.7095 -0.4393 -0.9947 0.9884
2.7156 -0.3997 -0.9947 0.9884
2.7261 -0.3201 -0.9947 0.9884
2.7343 -0.2404 -0.9947 0.9884
2.7375 -0.2004 -0.9947 0.9884
2.7402 -0.1604 -0.9947 0.9884
2.7437 -0.0802 -0.9947 0.9884
2.7449 0.0000 -0.9947 0.9884
2.7446 0.0401 -0.9947 0.9884
2.7437 0.0802 -0.9947 0.9884
2.7261 0.3201 -0.9947 0.9884
2.7212 0.3599 -0.9947 0.9884
2.7156 0.3996 -0.9947 0.9884
2.7095 0.4393 -0.9947 0.9884
2.6955 0.5183 -0.9947 0.9884
2.6877 0.5576 -0.9947 0.9884
2.6398 0.7523 -0.9948 0.9884
2.6285 0.7908 -0.9948 0.9884
2.6043 0.8673 -0.9948 0.9884
2.5913 0.9052 -0.9948 0.9884
2.5638 0.9805 -0.9948 0.9884
2.5492 1.0179 -0.9948 0.9884
2.5184 1.0920 -0.9948 0.9884
2.5021 1.1286 -0.9948 0.9884
2.4681 1.2012 -0.9948 0.9884
2.4319 1.2729 -0.9948 0.9884
2.3937 1.3434 -0.9948 0.9884
2.3738 1.3782 -0.9948 0.9884
2.3326 1.4470 -0.9948 0.9884
2.3112 1.4809 -0.9948 0.9884
2.2893 1.5145 -0.9948 0.9884
2.2669 1.5479 -0.9948 0.9884
2.2441 1.5808 -0.9948 0.9884
2.2207 1.6134 -0.9948 0.9884
2.1726 1.6777 -0.9948 0.9884
2.1227 1.7404 -0.9948 0.9884
2.0444 1.8318 -0.9948 0.9884
2.0174 1.8614 -0.9948 0.9884
1.9900 1.8907 -0.9948 0.9884
1.9621 1.9196 -0.9948 0.9884
1.9339 1.9480 -0.9948 0.9884
1.9052 1.9761 -0.9948 0.9884
1.8761 2.0037 -0.9948 0.9884
1.8467 2.0309 -0.9948 0.9884
1.8168 2.0577 -0.9948 0.9884
1.7865 2.0841 -0.9948 0.9884
1.6297 2.2089 -0.9948 0.9884
1.5972 2.2325 -0.9948 0.9884
1.5644 2.2556 -0.9948 0.9884
1.5313 2.2782 -0.9948 0.9884
1.4979 2.3004 -0.9948 0.9884
1.3956 2.3638 -0.9948 0.9884
1.2194 2.4594 -0.9948 0.9884
1.0736 2.5264 -0.9948 0.9884
1.0366 2.5418 -0.9948 0.9884
0.9619 2.5711 -0.9948 0.9884
0.8864 2.5981 -0.9948 0.9884
0.8101 2.6229 -0.9948 0.9884
0.7331 2.6454 -0.9948 0.9884
0.6555 2.6657 -0.9948 0.9884
0.5773 2.6837 -0.9948 0.9884
0.3799 2.7188 -0.9949 0.9884
0.3002 2.7287 -0.9949 0.9884
0.2604 2.7328 -0.9949 0.9884
0.1804 2.7393 -0.9949 0.9884
-0.0602 2.7445 -0.9949 0.9884
-0.1003 2.7434 -0.9949 0.9884
-0.1804 2.7393 -0.9949 0.9884
-0.3401 2.7241 -0.9949 0.9884
-0.4591 2.7066 -0.9949 0.9884
-0.4986 2.6996 -0.9949 0.9884
-0.5773 2.6839 -0.9949 0.9884
-0.6164 2.6752 -0.9949 0.9884
-0.1496 0.6083 -0.2270 0.9973
-0.1611 0.5502 -0.2078 0.9976
-0.1720 0.5293 -0.2017 0.9976
-0.1826 0.5106 -0.1965 0.9977
-0.1926 0.4927 -0.1917 0.9978
-0.1973 0.4839 -0.1894 0.9978
-0.2020 0.4752 -0.1871 0.9978
-0.2064 0.4667 -0.1849 0.9978
-0.2191 0.4418 -0.1787 0.9979
-0.2230 0.4338 -0.1768 0.9979
-0.2342 0.4103 -0.1712 0.9980
-0.2411 0.3951 -0.1678 0.9980
-0.2477 0.3803 -0.1645 0.9981
-0.2508 0.3732 -0.1630 0.9981
-0.2539 0.3661 -0.1615 0.9981
-0.2569 0.3591 -0.1600 0.9981
-0.2653 0.3385 -0.1559 0.9982
-0.2705 0.3251 -0.1533 0.9982
-0.2730 0.3185 -0.1520 0.9982
-0.2753 0.3118 -0.1508 0.9982
-0.2773 0.3050 -0.1494 0.9982
-0.2793 0.2982 -0.1481 0.9983
-0.2811 0.2916 -0.1468 0.9983
-0.2829 0.2850 -0.1455 0.9983
-0.2879 0.2656 -0.1420 0.9983
-0.2923 0.2469 -0.1387 0.9984
-0.2937 0.2408 -0.1376 0.9984
-0.2950 0.2348 -0.1366 0.9984
-0.2963 0.2287 -0.1357 0.9984
-0.2975 0.2229 -0.1347 0.9984
-0.3008 0.2054 -0.1320 0.9985
-0.3052 0.1832 -0.1290 0.9985
-0.3085 0.1673 -0.1272 0.9985
-0.3095 0.1620 -0.1266 0.9985
-0.3105 0.1568 -0.1261 0.9985
-0.3138 0.1361 -0.1240 0.9985
-0.3151 0.1258 -0.1230 0.9986
-0.3168 0.1107 -0.1216 0.9986
-0.3173 0.1057 -0.1212 0.9986
-0.3177 0.1006 -0.1208 0.9986
-0.3198 0.0663 -0.1184 0.9986
-0.3202 0.0520 -0.1176 0.9986
-0.3204 0.0376 -0.1169 0.9986
-0.3203 0.0329 -0.1167 0.9986
-0.3202 0.0234 -0.1164 0.9986
-0.3199 0.0140 -0.1161 0.9986
-0.3198 0.0094 -0.1159 0.9986
-0.3151 -0.0185 -0.1184 0.9987
-0.3153 -0.0277 -0.1187 0.9986
-0.3153 -0.0324 -0.1189 0.9986
-0.3153 -0.0370 -0.1191 0.9986
-0.3151 -0.0559 -0.1200 0.9986
-0.3149 -0.0605 -0.1203 0.9986
-0.3147 -0.0653 -0.1205 0.9986
-0.3145 -0.0701 -0.1208 0.9986
-0.3130 -0.0942 -0.1226 0.9986
-0.3121 -0.1039 -0.1234 0.9986
-0.3116 -0.1089 -0.1238 0.9986
-0.3111 -0.1138 -0.1242 0.9986
-0.3105 -0.1187 -0.1247 0.9986
-0.3086 -0.1338 -0.1261 0.9986
-0.3071 -0.1440 -0.1272 0.9986
-0.3062 -0.1491 -0.1277 0.9985
-0.3053 -0.1541 -0.1282 0.9985
-0.3043 -0.1593 -0.1288 0.9985
-0.3033 -0.1644 -0.1294 0.9985
-0.3011 -0.1748 -0.1306 0.9985
-0.2987 -0.1854 -0.1318 0.9985
-0.2963 -0.1960 -0.1332 0.9985
-0.2930 -0.2129 -0.1358 0.9985
-0.2880 -0.2362 -0.1397 0.9984
-0.2852 -0.2482 -0.1418 0.9984
-0.2806 -0.2666 -0.1451 0.9983
-0.2789 -0.2729 -0.1463 0.9983
-0.2772 -0.2792 -0.1475 0.9983
-0.2716 -0.2987 -0.1514 0.9983
-0.2696 -0.3053 -0.1527 0.9983
-0.2624 -0.3248 -0.1566 0.9982
-0.2597 -0.3314 -0.1579 0.9982
-0.2570 -0.3379 -0.1592 0.9982
-0.2422 -0.3719 -0.1664 0.9981
-0.2356 -0.3860 -0.1696 0.9981
-0.2322 -0.3934 -0.1713 0.9981
-0.2287 -0.4007 -0.1730 0.9980
-0.2097 -0.4389 -0.1824 0.9979
-0.2055 -0.4469 -0.1844 0.9979
-0.2012 -0.4549 -0.1865 0.9979
-0.1968 -0.4631 -0.1887 0.9979
-0.1875 -0.4798 -0.1932 0.9978
-0.1777 -0.4970 -0.1979 0.9977
-0.1672 -0.5147 -0.2029 0.9977
-0.1617 -0.5237 -0.2055 0.9977
-0.1503 -0.5423 -0.2110 0.9976
-0.1445 -0.5527 -0.2142 0.9976
-0.1385 -0.5632 -0.2175 0.9975
-0.5120 -2.5618 -0.9797 0.9889
-0.4745 -2.5690 -0.9797 0.9889
-0.3615 -2.5873 -0.9796 0.9889
-0.3236 -2.5923 -0.9796 0.9889
-0.2478 -2.6007 -0.9796 0.9889
-0.0572 -2.6118 -0.9796 0.9889
0.0573 -2.6118 -0.9796 0.9889
0.1717 -2.6068 -0.9796 0.9889
0.2097 -2.6040 -0.9796 0.9889
0.2478 -2.6006 -0.9796 0.9889
0.3992 -2.5817 -0.9796 0.9889
0.5866 -2.5457 -0.9796 0.9889
0.6237 -2.5368 -0.9796 0.9889
0.6976 -2.5175 -0.9796 0.9889
0.7343 -2.5070 -0.9796 0.9889
0.7709 -2.4960 -0.9796 0.9889
0.8073 -2.4845 -0.9796 0.9889
0.8795 -2.4598 -0.9796 0.9889
0.9542 -2.4412 -0.9829 0.9889
0.9931 -2.4352 -0.9862 0.9888
1.0322 -2.4289 -0.9897 0.9888
1.1085 -2.4102 -0.9948 0.9887
1.1436 -2.3938 -0.9948 0.9887
1.2130 -2.3593 -0.9948 0.9887
1.2474 -2.3414 -0.9948 0.9887
1.3152 -2.3040 -0.9948 0.9887
1.3488 -2.2845 -0.9948 0.9887
1.3820 -2.2645 -0.9948 0.9887
1.4149 -2.2440 -0.9948 0.9887
1.4476 -2.2231 -0.9948 0.9887
1.5119 -2.1798 -0.9948 0.9887
1.6670 -2.0637 -0.9948 0.9887
1.6970 -2.0391 -0.9948 0.9887
1.7266 -2.0141 -0.9948 0.9887
1.7558 -1.9886 -0.9948 0.9887
1.7847 -1.9628 -0.9948 0.9887
1.8413 -1.9098 -0.9948 0.9887
1.8690 -1.8827 -0.9948 0.9887
2.0014 -1.7412 -0.9948 0.9887
2.0266 -1.7118 -0.9948 0.9887
2.0514 -1.6820 -0.9948 0.9887
2.0997 -1.6213 -0.9948 0.9887
2.1232 -1.5905 -0.9948 0.9887
2.1462 -1.5593 -0.9948 0.9887
2.1687 -1.5277 -0.9948 0.9887
2.1908 -1.4959 -0.9948 0.9887
2.2124 -1.4637 -0.9948 0.9887
2.2336 -1.4312 -0.9948 0.9887
2.2744 -1.3654 -0.9948 0.9887
2.2942 -1.3320 -0.9948 0.9887
2.3134 -1.2983 -0.9948 0.9887
2.3321 -1.2644 -0.9948 0.9887
2.3853 -1.1610 -0.9948 0.9887
2.4490 -1.0197 -0.9948 0.9887
2.4636 -0.9837 -0.9948 0.9887
2.4777 -0.9477 -0.9948 0.9887
2.4913 -0.9113 -0.9948 0.9887
2.5044 -0.8748 -0.9948 0.9887
2.5288 -0.8013 -0.9948 0.9887
2.5403 -0.7643 -0.9948 0.9887
2.5512 -0.7271 -0.9948 0.9887
2.5713 -0.6522 -0.9948 0.9887
2.5806 -0.6145 -0.9948 0.9887
2.5893 -0.5768 -0.9948 0.9887
2.5974 -0.5389 -0.9948 0.9887
2.6050 -0.5009 -0.9948 0.9887
2.6121 -0.4628 -0.9948 0.9887
2.6245 -0.3862 -0.9948 0.9887
2.6426 -0.2323 -0.9948 0.9887
2.6502 -0.1163 -0.9948 0.9887
2.6528 0.0000 -0.9948 0.9887
2.6516 0.0775 -0.9948 0.9887
2.6502 0.1163 -0.9948 0.9887
2.6482 0.1550 -0.9948 0.9887
2.6457 0.1936 -0.9948 0.9887
2.6347 0.3094 -0.9948 0.9887
2.6245 0.3862 -0.9948 0.9887
2.6186 0.4245 -0.9948 0.9887
2.6050 0.5009 -0.9948 0.9887
2.5615 0.6897 -0.9948 0.9887
2.5403 0.7642 -0.9948 0.9887
2.5169 0.8381 -0.9948 0.9887
2.4777 0.9476 -0.9948 0.9887
2.4490 1.0196 -0.9948 0.9887
2.4338 1.0553 -0.9948 0.9887
2.4182 1.0907 -0.9948 0.9887
2.4019 1.1259 -0.9948 0.9887
2.3321 1.2644 -0.9948 0.9887
2.3134 1.2983 -0.9948 0.9887
2.2941 1.3320 -0.9948 0.9887
2.2542 1.3984 -0.9948 0.9887
2.2124 1.4637 -0.9948 0.9887
2.1687 1.5277 -0.9948 0.9887
2.1462 1.5593 -0.9948 0.9887
2.1232 1.5905 -0.9948 0.9887
2.0997 1.6213 -0.9948 0.9887
2.0514 1.6820 -0.9948 0.9887
2.0014 1.7412 -0.9948 0.9887
1.9758 1.7703 -0.9948 0.9887
1.9497 1.7990 -0.9948 0.9887
1.9232 1.8273 -0.9948 0.9887
1.8963 1.8552 -0.9948 0.9887
1.8690 1.8827 -0.9948 0.9887
1.7266 2.0141 -0.9948 0.9887
1.6670 2.0637 -0.9948 0.9887
1.6060 2.1116 -0.9948 0.9887
1.5436 2.1575 -0.9948 0.9887
1.4799 2.2017 -0.9948 0.9887
1.4476 2.2231 -0.9948 0.9887
1.3820 2.2645 -0.9948 0.9887
1.3488 2.2845 -0.9948 0.9887
1.2815 2.3229 -0.9948 0.9887
1.2474 2.3414 -0.9948 0.9887
1.2130 2.3593 -0.9948 0.9887
1.1436 2.3938 -0.9948 0.9887
1.1085 2.4102 -0.9948 0.9887
1.0376 2.4416 -0.9948 0.9887
1.0018 2.4565 -0.9948 0.9887
0.9658 2.4709 -0.9948 0.9887
0.8932 2.4981 -0.9948 0.9887
0.8566 2.5108 -0.9948 0.9887
0.8198 2.5231 -0.9948 0.9887
0.7829 2.5348 -0.9948 0.9887
0.7457 2.5460 -0.9948 0.9887
0.7085 2.5566 -0.9948 0.9887
0.6710 2.5667 -0.9948 0.9887
0.6335 2.5762 -0.9948 0.9887
0.5958 2.5852 -0.9948 0.9887
0.4055 2.6218 -0.9949 0.9887
0.3671 2.6275 -0.9949 0.9887
0.2902 2.6371 -0.9949 0.9887
0.2516 2.6411 -0.9949 0.9887
0.2130 2.6445 -0.9949 0.9887
0.1743 2.6473 -0.9949 0.9887
0.1356 2.6495 -0.9949 0.9887
0.0969 2.6513 -0.9949 0.9887
0.0581 2.6524 -0.9949 0.9887
0.0194 2.6530 -0.9949 0.9887
-0.0194 2.6530 -0.9949 0.9887
-0.0581 2.6524 -0.9949 0.9887
-0.0969 2.6513 -0.9949 0.9887
-0.2130 2.6445 -0.9949 0.9887
-0.2516 2.6412 -0.9949 0.9887
-0.2902 2.6371 -0.9949 0.9887
-0.3287 2.6327 -0.9949 0.9887
-0.4054 2.6220 -0.9949 0.9887
-0.4437 2.6158 -0.9949 0.9887
-0.5200 2.6017 -0.9949 0.9887
-0.1445 0.5527 -0.2142 0.9976
-0.1503 0.5423 -0.2110 0.9976
-0.1617 0.5237 -0.2055 0.9977
-0.1875 0.4798 -0.1932 0.9978
-0.1922 0.4713 -0.1909 0.9978
-0.2012 0.4549 -0.1865 0.9979
-0.2055 0.4468 -0.1844 0.9979
-0.2097 0.4389 -0.1824 0.9979
-0.2137 0.4311 -0.1804 0.9979
-0.2177 0.4233 -0.1785 0.9980
-0.2215 0.4157 -0.1766 0.9980
-0.2252 0.4081 -0.1748 0.9980
-0.2287 0.4007 -0.1730 0.9980
-0.2322 0.3933 -0.1713 0.9981
-0.2421 0.3719 -0.1664 0.9981
-0.2453 0.3649 -0.1649 0.9981
-0.2513 0.3513 -0.1620 0.9982
-0.2624 0.3248 -0.1566 0.9982
-0.2649 0.3184 -0.1553 0.9982
-0.2674 0.3120 -0.1541 0.9982
-0.2695 0.3053 -0.1527 0.9983
-0.2735 0.2921 -0.1501 0.9983
-0.2837 0.2543 -0.1429 0.9984
-0.2853 0.2481 -0.1418 0.9984
-0.2919 0.2186 -0.1368 0.9984
-0.2930 0.2129 -0.1358 0.9985
-0.2952 0.2016 -0.1340 0.9985
-0.2962 0.1960 -0.1332 0.9985
-0.2987 0.1853 -0.1318 0.9985
-0.3043 0.1592 -0.1288 0.9985
-0.3071 0.1439 -0.1272 0.9986
-0.3099 0.1237 -0.1251 0.9986
-0.3105 0.1187 -0.1247 0.9986
-0.3111 0.1138 -0.1242 0.9986
-0.3130 0.0941 -0.1226 0.9986
-0.3137 0.0845 -0.1218 0.9986
-0.3143 0.0748 -0.1211 0.9986
-0.3147 0.0653 -0.1205 0.9986
-0.3149 0.0605 -0.1203 0.9986
-0.3150 0.0558 -0.1200 0.9986
-0.3152 0.0511 -0.1197 0.9986
-0.3153 0.0417 -0.1193 0.9986
-0.3153 0.0370 -0.1191 0.9986
-0.3153 0.0277 -0.1187 0.9986
-0.3148 0.0092 -0.1181 0.9987
-0.3099 -0.0091 -0.1202 0.9987
-0.3102 -0.0182 -0.1205 0.9987
-0.3103 -0.0227 -0.1206 0.9987
-0.3104 -0.0273 -0.1208 0.9987
-0.3104 -0.0319 -0.1210 0.9987
-0.3102 -0.0503 -0.1218 0.9987
-0.3101 -0.0549 -0.1221 0.9986
-0.3100 -0.0596 -0.1224 0.9986
-0.3098 -0.0643 -0.1227 0.9986
-0.3096 -0.0689 -0.1229 0.9986
-0.3079 -0.0927 -0.1247 0.9986
-0.3071 -0.1023 -0.1255 0.9986
-0.3055 -0.1168 -0.1268 0.9986
-0.3042 -0.1266 -0.1278 0.9986
-0.3028 -0.1366 -0.1288 0.9986
-0.3011 -0.1466 -0.1298 0.9986
-0.3001 -0.1516 -0.1303 0.9986
-0.2959 -0.1718 -0.1327 0.9985
-0.2923 -0.1873 -0.1346 0.9985
-0.2910 -0.1926 -0.1353 0.9985
-0.2876 -0.2090 -0.1378 0.9985
-0.2852 -0.2202 -0.1397 0.9985
-0.2826 -0.2317 -0.1417 0.9984
-0.2812 -0.2375 -0.1427 0.9984
-0.2797 -0.2434 -0.1437 0.9984
-0.2782 -0.2493 -0.1448 0.9984
-0.2767 -0.2553 -0.1459 0.9984
-0.2734 -0.2675 -0.1483 0.9984
-0.2716 -0.2736 -0.1495 0.9983
-0.2679 -0.2861 -0.1520 0.9983
-0.2543 -0.3245 -0.1598 0.9982
-0.2516 -0.3308 -0.1611 0.9982
-0.2460 -0.3438 -0.1639 0.9982
-0.2368 -0.3637 -0.1683 0.9981
-0.2336 -0.3706 -0.1698 0.9981
-0.2303 -0.3774 -0.1714 0.9981
-0.2269 -0.3844 -0.1730 0.9981
-0.2234 -0.3915 -0.1747 0.9981
-0.2199 -0.3986 -0.1765 0.9980
-0.2162 -0.4059 -0.1783 0.9980
-0.2125 -0.4133 -0.1801 0.9980
-0.2086 -0.4207 -0.1820 0.9980
-0.1873 -0.4594 -0.1923 0.9979
-0.1779 -0.4756 -0.1969 0.9978
-0.1679 -0.4923 -0.2016 0.9978
-0.1573 -0.5094 -0.2067 0.9977
-0.1460 -0.5270 -0.2120 0.9977
-0.1340 -0.5452 -0.2177 0.9976
-0.1278 -0.5545 -0.2206 0.9976
-0.1161 -0.5811 -0.2298 0.9975
-0.4590 -2.4849 -0.9797 0.9892
-0.4226 -2.4913 -0.9797 0.9892
-0.3496 -2.5026 -0.9796 0.9892
-0.3130 -2.5074 -0.9796 0.9892
-0.2764 -2.5118 -0.9796 0.9892
-0.2396 -2.5155 -0.9796 0.9892
-0.2029 -2.5187 -0.9796 0.9892
-0.1292 -2.5236 -0.9796 0.9892
-0.0554 -2.5263 -0.9796 0.9892
-0.0185 -2.5268 -0.9796 0.9892
0.0185 -2.5268 -0.9796 0.9892
0.0554 -2.5262 -0.9796 0.9892
0.0923 -2.5252 -0.9796 0.9892
0.1292 -2.5236 -0.9796 0.9892
0.1661 -2.5214 -0.9796 0.9892
0.3130 -2.5074 -0.9796 0.9892
0.3496 -2.5026 -0.9796 0.9892
0.4226 -2.4913 -0.9796 0.9892
0.4590 -2.4848 -0.9796 0.9892
0.4952 -2.4778 -0.9796 0.9892
0.5314 -2.4703 -0.9796 0.9892
0.5674 -2.4623 -0.9796 0.9892
0.6770 -2.4431 -0.9828 0.9892
0.7144 -2.4388 -0.9852 0.9892
0.7518 -2.4342 -0.9877 0.9891
0.7894 -2.4294 -0.9903 0.9891
0.8270 -2.4243 -0.9930 0.9891
0.8992 -2.4034 -0.9948 0.9891
0.9342 -2.3900 -0.9948 0.9891
0.9690 -2.3761 -0.9948 0.9891
1.0722 -2.3314 -0.9948 0.9891
1.1398 -2.2990 -0.9948 0.9891
1.1733 -2.2821 -0.9948 0.9891
1.3368 -2.1904 -0.9948 0.9891
1.3686 -2.1706 -0.9948 0.9891
1.4002 -2.1504 -0.9948 0.9891
1.4314 -2.1297 -0.9948 0.9891
1.4624 -2.1085 -0.9948 0.9891
1.5234 -2.0648 -0.9948 0.9891
1.5534 -2.0424 -0.9948 0.9891
1.5831 -2.0195 -0.9948 0.9891
1.6414 -1.9724 -0.9948 0.9891
1.7538 -1.8731 -0.9948 0.9891
1.7810 -1.8473 -0.9948 0.9891
1.8602 -1.7674 -0.9948 0.9891
1.8858 -1.7401 -0.9948 0.9891
1.9359 -1.6842 -0.9948 0.9891
2.0078 -1.5978 -0.9948 0.9891
2.0309 -1.5682 -0.9948 0.9891
2.0537 -1.5384 -0.9948 0.9891
2.0759 -1.5082 -0.9948 0.9891
2.1400 -1.4159 -0.9948 0.9891
2.1605 -1.3844 -0.9948 0.9891
2.2000 -1.3206 -0.9948 0.9891
2.2377 -1.2558 -0.9948 0.9891
2.2557 -1.2230 -0.9948 0.9891
2.2734 -1.1899 -0.9948 0.9891
2.3071 -1.1230 -0.9948 0.9891
2.3233 -1.0891 -0.9948 0.9891
2.3541 -1.0208 -0.9948 0.9891
2.3688 -0.9863 -0.9948 0.9891
2.3830 -0.9515 -0.9948 0.9891
2.3966 -0.9166 -0.9948 0.9891
2.4097 -0.8815 -0.9948 0.9891
2.4345 -0.8107 -0.9948 0.9891
2.4777 -0.6671 -0.9948 0.9891
2.4871 -0.6309 -0.9948 0.9891
2.5045 -0.5579 -0.9948 0.9891
2.5124 -0.5213 -0.9948 0.9891
2.5266 -0.4477 -0.9948 0.9891
2.5328 -0.4107 -0.9948 0.9891
2.5386 -0.3736 -0.9948 0.9891
2.5525 -0.2620 -0.9948 0.9891
2.5560 -0.2247 -0.9948 0.9891
2.5615 -0.1499 -0.9948 0.9891
2.5648 -0.0750 -0.9948 0.9891
2.5656 -0.0375 -0.9948 0.9891
2.5656 0.0375 -0.9948 0.9891
2.5648 0.0750 -0.9948 0.9891
2.5591 0.1873 -0.9948 0.9891
2.5525 0.2620 -0.9948 0.9891
2.5484 0.2992 -0.9948 0.9891
2.5385 0.3736 -0.9948 0.9891
2.5328 0.4106 -0.9948 0.9891
2.5266 0.4476 -0.9948 0.9891
2.5198 0.4845 -0.9948 0.9891
2.4871 0.6309 -0.9948 0.9891
2.4676 0.7032 -0.9948 0.9891
2.4571 0.7392 -0.9948 0.9891
2.4345 0.8107 -0.9948 0.9891
2.4223 0.8462 -0.9948 0.9891
2.4097 0.8815 -0.9948 0.9891
2.3966 0.9166 -0.9948 0.9891
2.3390 1.0550 -0.9948 0.9891
2.3233 1.0891 -0.9948 0.9891
2.2905 1.1565 -0.9948 0.9891
2.2557 1.2230 -0.9948 0.9891
2.2376 1.2558 -0.9948 0.9891
2.2190 1.2883 -0.9948 0.9891
2.1400 1.4158 -0.9948 0.9891
2.1191 1.4469 -0.9948 0.9891
2.0537 1.5384 -0.9948 0.9891
2.0310 1.5682 -0.9948 0.9891
2.0079 1.5977 -0.9948 0.9891
1.9603 1.6557 -0.9948 0.9891
1.9111 1.7123 -0.9948 0.9891
1.8602 1.7674 -0.9948 0.9891
1.8078 1.8211 -0.9948 0.9891
1.7538 1.8731 -0.9948 0.9891
1.7262 1.8985 -0.9948 0.9891
1.6983 1.9236 -0.9948 0.9891
1.6700 1.9482 -0.9948 0.9891
1.6124 1.9961 -0.9948 0.9891
1.5831 2.0195 -0.9948 0.9891
1.4314 2.1297 -0.9948 0.9891
1.3368 2.1904 -0.9948 0.9891
1.2722 2.2285 -0.9948 0.9891
1.2395 2.2468 -0.9948 0.9891
1.1733 2.2821 -0.9948 0.9891
1.1399 2.2990 -0.9948 0.9891
1.0722 2.3313 -0.9948 0.9891
1.0380 2.3468 -0.9948 0.9891
1.0036 2.3617 -0.9948 0.9891
0.9690 2.3761 -0.9948 0.9891
0.9342 2.3900 -0.9948 0.9891
0.8639 2.4162 -0.9948 0.9891
0.8285 2.4286 -0.9948 0.9891
0.7930 2.4405 -0.9948 0.9891
0.5763 2.5006 -0.9948 0.9891
0.4661 2.5234 -0.9949 0.9891
0.3922 2.5360 -0.9949 0.9891
0.3179 2.5464 -0.9949 0.9891
0.2807 2.5507 -0.9949 0.9891
0.2434 2.5546 -0.9949 0.9891
0.1686 2.5606 -0.9949 0.9891
0.0563 2.5656 -0.9949 0.9891
0.0188 2.5661 -0.9949 0.9891
-0.0188 2.5661 -0.9949 0.9891
-0.0562 2.5656 -0.9949 0.9891
-0.0937 2.5645 -0.9949 0.9891
-0.1312 2.5629 -0.9949 0.9891
-0.1686 2.5607 -0.9949 0.9891
-0.2060 2.5579 -0.9949 0.9891
-0.2434 2.5547 -0.9949 0.9891
-0.2806 2.5508 -0.9949 0.9891
-0.3179 2.5465 -0.9949 0.9891
-0.4292 2.5301 -0.9949 0.9891
-0.1341 0.5452 -0.2177 0.9976
-0.1460 0.5270 -0.2120 0.9977
-0.1730 0.4839 -0.1992 0.9978
-0.1827 0.4674 -0.1946 0.9978
-0.1873 0.4594 -0.1923 0.9979
-0.2125 0.4132 -0.1801 0.9980
-0.2162 0.4059 -0.1783 0.9980
-0.2199 0.3986 -0.1765 0.9980
-0.2235 0.3914 -0.1747 0.9981
-0.2336 0.3705 -0.1698 0.9981
-0.2488 0.3373 -0.1625 0.9982
-0.2543 0.3244 -0.1598 0.9982
-0.2569 0.3181 -0.1585 0.9982
-0.2595 0.3118 -0.1573 0.9983
-0.2660 0.2925 -0.1533 0.9983
-0.2679 0.2861 -0.1520 0.9983
-0.2698 0.2798 -0.1507 0.9983
-0.2750 0.2613 -0.1471 0.9984
-0.2767 0.2552 -0.1459 0.9984
-0.2797 0.2434 -0.1437 0.9984
-0.2826 0.2316 -0.1417 0.9984
-0.2839 0.2259 -0.1407 0.9984
-0.2876 0.2089 -0.1378 0.9985
-0.2898 0.1979 -0.1361 0.9985
-0.2910 0.1925 -0.1353 0.9985
-0.2948 0.1770 -0.1333 0.9985
-0.2959 0.1718 -0.1327 0.9985
-0.2970 0.1667 -0.1321 0.9985
-0.2992 0.1566 -0.1309 0.9986
-0.3001 0.1515 -0.1303 0.9986
-0.3028 0.1366 -0.1288 0.9986
-0.3035 0.1316 -0.1283 0.9986
-0.3054 0.1168 -0.1268 0.9986
-0.3066 0.1071 -0.1259 0.9986
-0.3075 0.0974 -0.1251 0.9986
-0.3079 0.0927 -0.1247 0.9986
-0.3083 0.0879 -0.1243 0.9986
-0.3090 0.0784 -0.1236 0.9986
-0.3095 0.0689 -0.1229 0.9986
-0.3098 0.0643 -0.1226 0.9986
-0.3100 0.0596 -0.1224 0.9986
-0.3101 0.0549 -0.1221 0.9986
-0.3102 0.0503 -0.1218 0.9987
-0.3104 0.0410 -0.1214 0.9987
-0.3103 0.0227 -0.1206 0.9987
-0.3102 0.0181 -0.1205 0.9987
-0.3099 0.0091 -0.1202 0.9987
-0.3048 0.0000 -0.1221 0.9987
-0.3054 -0.0179 -0.1225 0.9987
-0.3055 -0.0224 -0.1227 0.9987
-0.3056 -0.0359 -0.1232 0.9987
-0.3055 -0.0450 -0.1237 0.9987
-0.3054 -0.0495 -0.1239 0.9987
-0.3053 -0.0541 -0.1242 0.9987
-0.3049 -0.0632 -0.1247 0.9987
-0.3047 -0.0679 -0.1250 0.9987
-0.3044 -0.0725 -0.1253 0.9987
-0.3041 -0.0771 -0.1257 0.9986
-0.3038 -0.0818 -0.1260 0.9986
-0.3034 -0.0865 -0.1264 0.9986
-0.3026 -0.0959 -0.1271 0.9986
-0.3016 -0.1054 -0.1280 0.9986
-0.3011 -0.1102 -0.1284 0.9986
-0.3005 -0.1149 -0.1289 0.9986
-0.2992 -0.1246 -0.1298 0.9986
-0.2986 -0.1295 -0.1303 0.9986
-0.2978 -0.1344 -0.1309 0.9986
-0.2931 -0.1589 -0.1335 0.9986
-0.2920 -0.1639 -0.1341 0.9986
-0.2909 -0.1689 -0.1347 0.9986
-0.2898 -0.1739 -0.1353 0.9985
-0.2873 -0.1841 -0.1367 0.9985
-0.2860 -0.1892 -0.1373 0.9985
-0.2846 -0.1944 -0.1380 0.9985
-0.2835 -0.1997 -0.1389 0.9985
-0.2823 -0.2052 -0.1398 0.9985
-0.2799 -0.2161 -0.1416 0.9985
-0.2773 -0.2273 -0.1436 0.9985
-0.2759 -0.2330 -0.1446 0.9984
-0.2713 -0.2503 -0.1478 0.9984
-0.2680 -0.2622 -0.1501 0.9984
-0.2662 -0.2682 -0.1513 0.9984
-0.2644 -0.2743 -0.1526 0.9984
-0.2625 -0.2804 -0.1538 0.9983
-0.2542 -0.3055 -0.1592 0.9983
-0.2436 -0.3302 -0.1643 0.9982
-0.2408 -0.3365 -0.1657 0.9982
-0.2378 -0.3429 -0.1671 0.9982
-0.2317 -0.3559 -0.1701 0.9982
-0.2218 -0.3758 -0.1748 0.9981
-0.2184 -0.3826 -0.1764 0.9981
-0.2149 -0.3895 -0.1781 0.9981
-0.1997 -0.4180 -0.1855 0.9980
-0.1956 -0.4254 -0.1875 0.9980
-0.1914 -0.4328 -0.1895 0.9980
-0.1827 -0.4479 -0.1937 0.9979
-0.1685 -0.4713 -0.2005 0.9978
-0.1635 -0.4794 -0.2028 0.9978
-0.1362 -0.5212 -0.2157 0.9977
-0.1303 -0.5299 -0.2185 0.9977
-0.1113 -0.5568 -0.2274 0.9976
-0.3411 -2.4417 -0.9873 0.9894
-0.3050 -2.4435 -0.9862 0.9894
-0.2690 -2.4451 -0.9851 0.9895
-0.1612 -2.4486 -0.9827 0.9895
-0.0895 -2.4498 -0.9818 0.9895
-0.0537 -2.4502 -0.9815 0.9895
0.0179 -2.4501 -0.9812 0.9895
0.0537 -2.4497 -0.9813 0.9895
0.1253 -2.4484 -0.9818 0.9895
0.1612 -2.4474 -0.9823 0.9895
0.2329 -2.4447 -0.9835 0.9895
0.2688 -2.4431 -0.9843 0.9895
0.3408 -2.4391 -0.9863 0.9894
0.4491 -2.4316 -0.9903 0.9894
0.4853 -2.4286 -0.9918 0.9894
0.5217 -2.4254 -0.9935 0.9894
0.5931 -2.4122 -0.9948 0.9894
0.6283 -2.4033 -0.9948 0.9894
0.6634 -2.3939 -0.9948 0.9894
0.7331 -2.3734 -0.9948 0.9894
0.7676 -2.3625 -0.9948 0.9894
0.8021 -2.3510 -0.9948 0.9894
0.9380 -2.3002 -0.9948 0.9894
1.0048 -2.2718 -0.9948 0.9894
1.1034 -2.2255 -0.9948 0.9894
1.1680 -2.1923 -0.9948 0.9894
1.1999 -2.1750 -0.9948 0.9894
1.2315 -2.1573 -0.9948 0.9894
1.2629 -2.1391 -0.9948 0.9894
1.3249 -2.1012 -0.9948 0.9894
1.3554 -2.0816 -0.9948 0.9894
1.4453 -2.0202 -0.9948 0.9894
1.4747 -1.9988 -0.9948 0.9894
1.5609 -1.9323 -0.9948 0.9894
1.5889 -1.9093 -0.9948 0.9894
1.6711 -1.8379 -0.9948 0.9894
1.7241 -1.7882 -0.9948 0.9894
1.7500 -1.7628 -0.9948 0.9894
1.7756 -1.7371 -0.9948 0.9894
1.8256 -1.6845 -0.9948 0.9894
1.9208 -1.5749 -0.9948 0.9894
1.9880 -1.4893 -0.9948 0.9894
2.0096 -1.4600 -0.9948 0.9894
2.0513 -1.4007 -0.9948 0.9894
2.0914 -1.3401 -0.9948 0.9894
2.1297 -1.2784 -0.9948 0.9894
2.1481 -1.2472 -0.9948 0.9894
2.1661 -1.2157 -0.9948 0.9894
2.1836 -1.1839 -0.9948 0.9894
2.2173 -1.1196 -0.9948 0.9894
2.2334 -1.0870 -0.9948 0.9894
2.2642 -1.0213 -0.9948 0.9894
2.2789 -0.9882 -0.9948 0.9894
2.3567 -0.7848 -0.9948 0.9894
2.3786 -0.7156 -0.9948 0.9894
2.3888 -0.6808 -0.9948 0.9894
2.3985 -0.6458 -0.9948 0.9894
2.4077 -0.6107 -0.9948 0.9894
2.4163 -0.5754 -0.9948 0.9894
2.4392 -0.4690 -0.9948 0.9894
2.4574 -0.3617 -0.9948 0.9894
2.4624 -0.3257 -0.9948 0.9894
2.4744 -0.2175 -0.9948 0.9894
2.4797 -0.1451 -0.9948 0.9894
2.4836 0.0363 -0.9948 0.9894
2.4709 0.2536 -0.9948 0.9894
2.4519 0.3975 -0.9948 0.9894
2.4458 0.4333 -0.9948 0.9894
2.4321 0.5046 -0.9948 0.9894
2.4163 0.5754 -0.9948 0.9894
2.4077 0.6107 -0.9948 0.9894
2.3679 0.7503 -0.9948 0.9894
2.3567 0.7848 -0.9948 0.9894
2.3449 0.8191 -0.9948 0.9894
2.2931 0.9547 -0.9948 0.9894
2.2789 0.9882 -0.9948 0.9894
2.2491 1.0543 -0.9948 0.9894
2.2334 1.0871 -0.9948 0.9894
2.1836 1.1839 -0.9948 0.9894
2.1661 1.2157 -0.9948 0.9894
2.0307 1.4305 -0.9948 0.9894
2.0096 1.4600 -0.9948 0.9894
1.9208 1.5749 -0.9948 0.9894
1.8740 1.6304 -0.9948 0.9894
1.8500 1.6576 -0.9948 0.9894
1.8256 1.6844 -0.9948 0.9894
1.7500 1.7628 -0.9948 0.9894
1.7241 1.7882 -0.9948 0.9894
1.6978 1.8132 -0.9948 0.9894
1.6711 1.8378 -0.9948 0.9894
1.6441 1.8620 -0.9948 0.9894
1.6167 1.8859 -0.9948 0.9894
1.5890 1.9093 -0.9948 0.9894
1.5609 1.9323 -0.9948 0.9894
1.5038 1.9771 -0.9948 0.9894
1.4747 1.9989 -0.9948 0.9894
1.4157 2.0411 -0.9948 0.9894
1.3249 2.1012 -0.9948 0.9894
1.2315 2.1572 -0.9948 0.9894
1.1999 2.1750 -0.9948 0.9894
1.1680 2.1923 -0.9948 0.9894
1.1358 2.2091 -0.9948 0.9894
1.0708 2.2414 -0.9948 0.9894
1.0048 2.2718 -0.9948 0.9894
0.9715 2.2862 -0.9948 0.9894
0.9380 2.3002 -0.9948 0.9894
0.7676 2.3625 -0.9948 0.9894
0.6983 2.3839 -0.9948 0.9894
0.5578 2.4206 -0.9948 0.9894
0.5224 2.4286 -0.9949 0.9894
0.4512 2.4427 -0.9949 0.9894
0.4155 2.4491 -0.9949 0.9894
0.3438 2.4602 -0.9949 0.9894
0.2356 2.4729 -0.9949 0.9894
0.1994 2.4761 -0.9949 0.9894
0.1632 2.4788 -0.9949 0.9894
0.1270 2.4809 -0.9949 0.9894
0.0907 2.4825 -0.9949 0.9894
0.0545 2.4836 -0.9949 0.9894
0.0182 2.4841 -0.9949 0.9894
-0.0181 2.4841 -0.9949 0.9894
-0.2356 2.4730 -0.9949 0.9894
-0.2717 2.4693 -0.9949 0.9894
-0.3437 2.4603 -0.9949 0.9894
-0.3796 2.4550 -0.9949 0.9894
-0.4155 2.4492 -0.9949 0.9894
-0.1178 0.5476 -0.2243 0.9976
-0.1303 0.5298 -0.2185 0.9977
-0.1584 0.4875 -0.2053 0.9978
-0.1781 0.4556 -0.1959 0.9979
-0.1871 0.4403 -0.1916 0.9979
-0.1997 0.4180 -0.1855 0.9980
-0.2075 0.4036 -0.1817 0.9980
-0.2112 0.3964 -0.1799 0.9981
-0.2148 0.3895 -0.1781 0.9981
-0.2184 0.3825 -0.1764 0.9981
-0.2285 0.3624 -0.1716 0.9982
-0.2348 0.3494 -0.1686 0.9982
-0.2464 0.3239 -0.1630 0.9982
-0.2491 0.3177 -0.1617 0.9983
-0.2517 0.3116 -0.1604 0.9983
-0.2564 0.2991 -0.1578 0.9983
-0.2585 0.2928 -0.1564 0.9983
-0.2644 0.2742 -0.1526 0.9984
-0.2662 0.2682 -0.1513 0.9984
-0.2697 0.2562 -0.1490 0.9984
-0.2729 0.2445 -0.1467 0.9984
-0.2744 0.2387 -0.1457 0.9984
-0.2759 0.2330 -0.1446 0.9984
-0.2786 0.2217 -0.1426 0.9985
-0.2799 0.2161 -0.1416 0.9985
-0.2811 0.2105 -0.1407 0.9985
-0.2835 0.1997 -0.1389 0.9985
-0.2860 0.1892 -0.1373 0.9985
-0.2873 0.1841 -0.1367 0.9985
-0.2885 0.1790 -0.1360 0.9985
-0.2897 0.1739 -0.1353 0.9985
-0.2909 0.1689 -0.1347 0.9986
-0.2920 0.1639 -0.1341 0.9986
-0.2941 0.1539 -0.1330 0.9986
-0.2961 0.1441 -0.1319 0.9986
-0.2978 0.1343 -0.1309 0.9986
-0.2986 0.1295 -0.1303 0.9986
-0.2999 0.1197 -0.1293 0.9986
-0.3005 0.1149 -0.1289 0.9986
-0.3011 0.1101 -0.1284 0.9986
-0.3016 0.1054 -0.1280 0.9986
-0.3026 0.0958 -0.1271 0.9986
-0.3030 0.0912 -0.1267 0.9986
-0.3034 0.0865 -0.1264 0.9986
-0.3038 0.0818 -0.1260 0.9986
-0.3041 0.0771 -0.1257 0.9986
-0.3044 0.0725 -0.1253 0.9987
-0.3047 0.0679 -0.1250 0.9987
-0.3051 0.0587 -0.1244 0.9987
-0.3054 0.0495 -0.1239 0.9987
-0.3055 0.0450 -0.1237 0.9987
-0.3056 0.0404 -0.1234 0.9987
-0.3056 0.0314 -0.1230 0.9987
-0.3055 0.0223 -0.1227 0.9987
-0.3053 0.0134 -0.1224 0.9987
-0.3001 0.0000 -0.1241 0.9987
-0.3003 -0.0044 -0.1242 0.9987
-0.3005 -0.0088 -0.1243 0.9987
