ply
format ascii 1.0
element vertex 1611
property float32 x
property float32 y
property float32 z
property float32 I
end_header
-1.4114 4.8186 0.4253 0.9800
-1.4520 4.4689 0.3980 0.9813
-1.4738 4.3202 0.3866 0.9818
-1.4948 4.1808 0.3761 0.9823
-1.5147 4.0489 0.3661 0.9828
-1.5337 3.9239 0.3568 0.9832
-1.6842 3.6623 0.3414 0.9839
-1.9602 3.6795 0.3531 0.9834
-2.1072 3.6913 0.3600 0.9831
-2.2023 3.7302 0.3669 0.9828
-2.5245 3.8772 0.3919 0.9816
-10.0780 9.5753 1.1774 0.9457
-15.3190 9.1961 1.5133 0.9308
-1.2298 0.5765 0.1150 0.9946
-1.2024 0.5214 0.1110 0.9948
-1.1958 0.4573 0.1084 0.9949
-1.1930 0.4364 0.1076 0.9949
-1.1876 0.3955 0.1060 0.9950
-1.1835 0.3561 0.1047 0.9951
-1.1818 0.3368 0.1041 0.9951
-1.1761 0.2620 0.1021 0.9952
-1.1748 0.2438 0.1016 0.9952
-1.1736 0.2257 0.1012 0.9952
-1.1709 0.1898 0.1005 0.9952
-1.1690 0.1720 0.1001 0.9953
-1.1582 0.1018 0.0985 0.9953
-1.1549 0.0845 0.0981 0.9954
-1.1516 0.0674 0.0977 0.9954
-1.1424 0.0167 0.0968 0.9954
-1.1096 -0.0324 0.0816 0.9956
-1.1125 -0.0488 0.0819 0.9955
-1.1184 -0.0819 0.0825 0.9955
-1.1215 -0.0986 0.0828 0.9955
-1.1247 -0.1154 0.0832 0.9955
-1.1312 -0.1496 0.0839 0.9954
-1.1346 -0.1670 0.0843 0.9954
-1.1365 -0.1843 0.0847 0.9954
-1.1381 -0.2016 0.0850 0.9954
-1.1391 -0.2190 0.0853 0.9954
-1.1412 -0.2542 0.0860 0.9953
-1.1423 -0.2720 0.0864 0.9953
-1.1434 -0.2900 0.0868 0.9953
-1.1447 -0.3082 0.0872 0.9953
-1.1460 -0.3266 0.0876 0.9952
-1.1474 -0.3452 0.0881 0.9952
-1.1489 -0.3640 0.0886 0.9952
-1.1508 -0.3832 0.0892 0.9951
-1.1603 -0.4634 0.0919 0.9950
-1.1655 -0.5054 0.0934 0.9949
-1.1690 -0.5480 0.0950 0.9948
-1.2434 -0.6052 0.1017 0.9945
-1.4717 -0.7431 0.1213 0.9934
-1.4718 -0.7704 0.1222 0.9934
-20.8784 -11.7175 1.7608 0.9084
-20.3670 -11.8250 1.7321 0.9099
-4.3666 -2.7088 0.3779 0.9796
-4.2406 -2.7173 0.3704 0.9800
-4.0481 -2.6782 0.3570 0.9807
-3.8229 -2.6930 0.3439 0.9814
-3.7174 -2.7008 0.3379 0.9817
-3.4558 -2.9189 0.3327 0.9820
-3.3937 -2.9525 0.3308 0.9821
-3.3295 -2.9832 0.3288 0.9822
-3.2801 -3.0265 0.3282 0.9823
-27.7500 -31.4298 3.0836 0.8452
-26.1253 -31.3929 3.0038 0.8489
-25.4065 -32.4103 3.0288 0.8477
-25.3857 -33.3769 3.0841 0.8452
-25.3417 -35.4212 3.2032 0.8397
-23.2753 -35.7455 3.1372 0.8428
-21.7958 -35.7138 3.0771 0.8455
-21.0768 -35.6984 3.0490 0.8468
-19.6768 -35.6684 2.9960 0.8493
-16.0285 -31.1757 2.5782 0.8688
-15.4507 -31.1632 2.5582 0.8698
-14.3214 -31.1402 2.5209 0.8716
-13.7688 -31.1290 2.5034 0.8724
-13.2238 -31.1181 2.4867 0.8732
-10.0893 -31.0516 2.4013 0.8773
-7.6219 -30.9984 2.3477 0.8798
-6.6634 -30.9778 2.3304 0.8807
-6.2583 -31.3129 2.3485 0.8798
-5.3084 -31.2924 2.3343 0.8805
-0.4437 -3.5540 0.2634 0.9857
-0.3897 -3.5411 0.2620 0.9858
-2.5154 -31.2321 2.3045 0.8819
-0.2228 -3.3823 0.2493 0.9865
-1.1278 -30.8584 2.2711 0.8835
-0.2687 -12.2579 0.9017 0.9520
0.6756 -30.8195 2.2672 0.8837
1.1260 -30.8098 2.2675 0.8837
2.4791 -30.7807 2.2712 0.8835
4.2950 -30.7416 2.2829 0.8829
5.2116 -30.7218 2.2918 0.8825
6.6019 -30.6918 2.3089 0.8817
7.0703 -30.6818 2.3157 0.8814
7.5416 -30.6716 2.3230 0.8810
8.0159 -30.6613 2.3308 0.8806
8.4936 -30.6511 2.3392 0.8802
8.9748 -30.6407 2.3482 0.8798
10.5588 -30.9504 2.4051 0.8771
11.0624 -30.9395 2.4166 0.8765
11.5708 -30.9286 2.4287 0.8760
12.0846 -30.9175 2.4414 0.8753
12.6038 -30.9063 2.4548 0.8747
1.9033 -3.8388 0.3151 0.9830
2.0008 -3.8916 0.3218 0.9826
2.0341 -3.8181 0.3182 0.9828
2.0825 -3.7748 0.3171 0.9829
1.8790 -3.2915 0.2788 0.9849
1.9248 -3.2601 0.2784 0.9849
2.0159 -3.1972 0.2780 0.9850
2.2306 -3.3187 0.2941 0.9841
2.2175 -3.1973 0.2862 0.9845
2.2976 -3.2115 0.2904 0.9843
2.3305 -3.1589 0.2887 0.9844
2.6099 -3.3293 0.3111 0.9832
2.9143 -3.5019 0.3351 0.9819
2.8318 -3.1144 0.3096 0.9833
2.8733 -3.0687 0.3092 0.9833
2.9147 -3.0232 0.3089 0.9833
29.9685 -30.1882 3.1285 0.8432
32.6546 -30.1304 3.2678 0.8368
34.5848 -30.0888 3.3715 0.8321
36.6433 -30.0444 3.4851 0.8269
38.8473 -29.9969 3.6097 0.8213
41.2169 -29.9458 3.7470 0.8152
42.4711 -29.9188 3.8208 0.8119
43.7761 -29.8907 3.8985 0.8085
48.0346 -29.7988 4.1574 0.7971
49.5837 -29.7655 4.2533 0.7930
51.2064 -29.7305 4.3548 0.7886
25.5691 -12.4452 2.0914 0.8922
26.1308 -11.7870 2.1083 0.8914
31.0172 -11.8631 2.4424 0.8753
31.6490 -11.5775 2.4785 0.8736
36.3619 -12.1091 2.8187 0.8575
35.5717 -11.2713 2.7444 0.8610
14.2821 -4.0702 1.0922 0.9422
13.6226 -3.6680 1.0376 0.9450
13.8254 -3.5067 1.0490 0.9444
14.0327 -3.3419 1.0609 0.9438
13.9876 -3.1159 1.0540 0.9441
14.2248 -2.9512 1.0685 0.9434
15.2975 -2.2513 1.1372 0.9399
19.5088 -2.5805 1.4473 0.9241
43.4144 9.0072 3.2610 0.8371
32.9043 8.3460 2.4966 0.8727
32.9024 8.8591 2.5061 0.8723
27.6878 7.8907 2.1174 0.8909
27.8795 8.8340 2.1509 0.8893
27.3582 9.5570 2.1313 0.8903
23.2508 9.2843 1.8413 0.9045
22.1506 9.6046 1.7757 0.9077
18.8451 9.5155 1.5527 0.9188
9.9012 9.6865 1.0187 0.9460
3.3588 3.6939 0.3672 0.9802
3.2704 3.7041 0.3634 0.9804
3.0993 3.7240 0.3563 0.9808
3.0162 3.7338 0.3530 0.9809
2.8546 3.7531 0.3468 0.9813
2.6987 3.7720 0.3411 0.9816
2.5479 3.7905 0.3359 0.9818
2.3934 3.9215 0.3379 0.9817
4.3698 9.5016 0.7692 0.9589
-1.3430 5.1374 0.3905 0.9789
-1.3675 4.9352 0.3766 0.9797
-1.3904 4.7470 0.3638 0.9804
-1.4117 4.5712 0.3519 0.9810
-1.4506 4.2523 0.3304 0.9821
-1.4857 3.9712 0.3118 0.9831
-1.5050 3.8505 0.3041 0.9836
-1.5410 3.6264 0.2898 0.9843
-1.5833 3.5796 0.2879 0.9844
-1.6468 3.5808 0.2899 0.9843
-1.7123 3.5845 0.2922 0.9842
-1.8474 3.5934 0.2972 0.9839
-1.9876 3.6030 0.3026 0.9836
-2.0597 3.6082 0.3056 0.9835
-2.2317 3.6569 0.3151 0.9830
-2.4351 3.7399 0.3282 0.9823
-2.5474 3.7900 0.3359 0.9819
-10.0697 9.5674 1.0216 0.9458
-15.3523 9.2161 1.3169 0.9307
-1.4718 0.7704 0.1222 0.9934
-1.1672 0.5265 0.0942 0.9949
-1.1655 0.5054 0.0934 0.9949
-1.1604 0.4634 0.0919 0.9950
-1.1474 0.3452 0.0881 0.9952
-1.1460 0.3266 0.0876 0.9952
-1.1434 0.2900 0.0868 0.9953
-1.1423 0.2720 0.0864 0.9953
-1.1401 0.2365 0.0856 0.9953
-1.1381 0.2016 0.0850 0.9954
-1.1365 0.1843 0.0847 0.9954
-1.1346 0.1670 0.0843 0.9954
-1.1279 0.1325 0.0835 0.9955
-1.1247 0.1155 0.0832 0.9955
-1.1215 0.0986 0.0828 0.9955
-1.1155 0.0653 0.0822 0.9955
-1.1125 0.0488 0.0819 0.9955
-1.1069 0.0162 0.0814 0.9956
-1.0331 0.0000 0.0645 0.9959
-1.0421 -0.0305 0.0651 0.9958
-1.0479 -0.0460 0.0655 0.9958
-1.0599 -0.0776 0.0663 0.9957
-1.0725 -0.1101 0.0673 0.9957
-1.1003 -0.1784 0.0696 0.9955
-1.1102 -0.2816 0.0715 0.9954
-1.1124 -0.3170 0.0722 0.9954
-1.1135 -0.3350 0.0726 0.9954
-1.1202 -0.4098 0.0744 0.9952
-1.1223 -0.4292 0.0750 0.9952
-1.1245 -0.4490 0.0756 0.9952
-1.1314 -0.5103 0.0775 0.9950
-1.1337 -0.5315 0.0781 0.9950
-1.2578 -0.6351 0.0879 0.9944
-1.4418 -0.7817 0.1024 0.9934
-1.4447 -0.8107 0.1034 0.9934
-4.4403 -2.6655 0.3232 0.9795
-3.8963 -2.4171 0.2862 0.9818
-3.8683 -2.5592 0.2895 0.9816
-3.8394 -2.7046 0.2931 0.9814
-3.6164 -2.7090 0.2820 0.9821
-3.6624 -2.8280 0.2888 0.9816
-3.6010 -2.8655 0.2872 0.9817
-3.4801 -2.9394 0.2843 0.9819
-3.4204 -2.9757 0.2830 0.9820
-3.3613 -3.0118 0.2817 0.9821
-3.1238 -2.8823 0.2653 0.9831
-8.9502 -9.2830 0.8048 0.9496
-27.7500 -31.4298 2.6168 0.8453
-26.1258 -31.3934 2.5491 0.8490
-9.9677 -12.3398 0.9901 0.9384
-25.4064 -32.4102 2.5703 0.8479
-25.3856 -33.3767 2.6173 0.8453
-24.8144 -35.7776 2.7175 0.8399
-24.0373 -35.7619 2.6894 0.8414
-21.7967 -35.7152 2.6115 0.8456
-19.6776 -35.6698 2.5426 0.8494
-16.0288 -31.1762 2.1879 0.8689
-15.4509 -31.1637 2.1710 0.8699
-14.8818 -31.1514 2.1548 0.8708
-12.6858 -31.1073 2.0968 0.8740
-4.8279 -12.3516 0.8277 0.9482
-10.5971 -31.0625 2.0484 0.8767
-10.0893 -31.0516 2.0378 0.8773
-9.5866 -31.0407 2.0277 0.8779
-9.0889 -31.0300 2.0181 0.8785
-8.1068 -31.0088 2.0004 0.8795
-7.6219 -30.9984 1.9924 0.8799
-7.1409 -30.9880 1.9848 0.8803
-6.2583 -31.3129 1.9930 0.8799
-5.7819 -31.3026 1.9868 0.8802
-5.3084 -31.2924 1.9810 0.8806
-0.5035 -3.6038 0.2271 0.9855
-0.3900 -3.5445 0.2226 0.9858
-0.3492 -3.6655 0.2298 0.9854
-0.2227 -3.3815 0.2115 0.9865
-0.1721 -3.3627 0.2102 0.9866
-1.1278 -30.8584 1.9273 0.8836
-0.2253 -30.8390 1.9248 0.8837
2.0275 -30.7904 1.9259 0.8837
2.4791 -30.7807 1.9274 0.8836
2.9314 -30.7710 1.9292 0.8835
3.3847 -30.7612 1.9315 0.8834
3.8392 -30.7514 1.9342 0.8832
4.2950 -30.7416 1.9373 0.8830
6.6019 -30.6918 1.9594 0.8818
7.5416 -30.6716 1.9714 0.8811
8.4936 -30.6511 1.9852 0.8803
8.9748 -30.6407 1.9928 0.8799
9.4598 -30.6303 2.0009 0.8794
11.0624 -30.9395 2.0508 0.8766
11.5709 -30.9286 2.0610 0.8760
12.0846 -30.9175 2.0719 0.8754
13.1290 -30.8950 2.0952 0.8741
14.1980 -30.8720 2.1208 0.8727
1.8007 -3.7693 0.2607 0.9834
1.9321 -3.7580 0.2637 0.9832
1.9973 -3.7491 0.2651 0.9831
2.0633 -3.7402 0.2666 0.9830
2.0597 -3.6079 0.2593 0.9835
1.9375 -3.2816 0.2379 0.9848
1.9834 -3.2500 0.2376 0.9849
2.0750 -3.1867 0.2373 0.9849
2.3027 -3.2186 0.2470 0.9843
2.3356 -3.1658 0.2455 0.9844
2.2228 -2.9225 0.2292 0.9854
35.5970 -30.0669 2.9082 0.8297
36.6433 -30.0444 2.9575 0.8270
38.8473 -29.9969 3.0633 0.8214
40.0100 -29.9719 3.1201 0.8184
41.2169 -29.9458 3.1798 0.8153
43.7761 -29.8907 3.3084 0.8086
46.5535 -29.8309 3.4509 0.8012
52.9087 -29.6938 3.7868 0.7841
72.0866 -37.7307 5.0783 0.7217
25.5579 -12.4398 1.7741 0.8923
26.2976 -12.3279 1.8127 0.8901
30.6008 -12.7408 2.0688 0.8756
31.2084 -12.4620 2.0974 0.8740
31.5763 -12.0769 2.1100 0.8733
31.2238 -11.4220 2.0751 0.8752
36.2263 -12.0639 2.3831 0.8581
40.2184 -12.0999 2.6213 0.8451
40.4226 -11.5200 2.6234 0.8450
14.0748 -3.3519 0.9030 0.9437
14.1039 -3.1418 0.9019 0.9437
14.4796 -2.5653 0.9178 0.9428
14.4472 -2.3424 0.9135 0.9430
19.7757 -2.3223 1.2428 0.9233
65.9984 -3.8619 4.1263 0.7672
65.3368 -2.8659 4.0818 0.7694
66.2159 -1.9357 4.1346 0.7668
88.7941 9.1141 5.5711 0.6993
58.0990 8.5504 3.6653 0.7903
49.4809 8.0224 3.1286 0.8180
48.6167 8.6131 3.0816 0.8205
43.0495 8.9315 2.7441 0.8384
39.1049 8.7110 2.5005 0.8517
33.0775 8.3899 2.1299 0.8722
18.8436 9.5148 1.3175 0.9189
9.8919 9.6774 0.8637 0.9460
3.4044 3.6358 0.3109 0.9802
2.6666 3.7271 0.2860 0.9818
2.4454 3.7554 0.2797 0.9822
2.3739 3.7647 0.2778 0.9823
2.3500 3.8505 0.2815 0.9821
2.3833 4.0365 0.2926 0.9814
2.4322 4.2603 0.3062 0.9805
2.5703 4.8245 0.3412 0.9783
4.3828 9.5300 0.6547 0.9588
-1.2953 5.2681 0.3386 0.9785
-1.3220 5.0569 0.3262 0.9793
-1.3700 4.6776 0.3042 0.9807
-1.3918 4.5066 0.2944 0.9813
-1.4313 4.1957 0.2767 0.9824
-1.4665 3.9201 0.2612 0.9834
-1.4981 3.6737 0.2476 0.9842
-1.5141 3.5630 0.2416 0.9846
-1.6763 3.5090 0.2427 0.9845
-1.8079 3.5165 0.2468 0.9843
-1.8755 3.5204 0.2490 0.9841
-1.9443 3.5245 0.2512 0.9840
-2.0144 3.5288 0.2536 0.9838
-2.1654 3.5482 0.2594 0.9835
-2.2607 3.5855 0.2646 0.9832
-2.3599 3.6243 0.2699 0.9828
-2.4633 3.6649 0.2756 0.9825
-5.1744 4.2426 0.4176 0.9735
-1.4517 0.8429 0.1048 0.9933
-1.4446 0.8108 0.1034 0.9934
-1.4422 0.7549 0.1016 0.9935
-1.2578 0.6351 0.0879 0.9944
-1.1716 0.5703 0.0813 0.9948
-1.1290 0.4895 0.0768 0.9951
-1.1267 0.4691 0.0762 0.9951
-1.1244 0.4490 0.0756 0.9952
-1.1223 0.4292 0.0750 0.9952
-1.1181 0.3906 0.0739 0.9953
-1.1162 0.3717 0.0734 0.9953
-1.1124 0.3170 0.0722 0.9954
-1.1113 0.2992 0.0718 0.9954
-1.1074 0.2298 0.0706 0.9955
-1.0930 0.1609 0.0690 0.9956
-1.0860 0.1437 0.0684 0.9956
-1.0792 0.1267 0.0678 0.9957
-1.0726 0.1101 0.0673 0.9957
-1.0661 0.0937 0.0668 0.9957
-1.0538 0.0617 0.0659 0.9958
-1.0479 0.0459 0.0655 0.9958
-1.0422 0.0305 0.0651 0.9958
-0.9763 -0.0285 0.0501 0.9961
-0.9803 -0.0430 0.0503 0.9961
-1.0007 -0.1027 0.0516 0.9960
-1.0121 -0.1339 0.0524 0.9959
-1.0305 -0.1825 0.0537 0.9958
-1.0361 -0.1992 0.0541 0.9958
-1.0432 -0.2484 0.0550 0.9957
-1.0457 -0.2652 0.0553 0.9957
-1.0483 -0.2823 0.0557 0.9957
-1.0539 -0.3171 0.0565 0.9956
-1.0621 -0.3537 0.0574 0.9955
-1.0705 -0.3739 0.0582 0.9955
-1.0733 -0.3927 0.0586 0.9954
-1.0750 -0.4112 0.0590 0.9954
-1.0804 -0.4685 0.0604 0.9953
-1.0845 -0.5084 0.0614 0.9952
-1.0867 -0.5289 0.0620 0.9952
-1.1840 -0.5978 0.0680 0.9947
-1.4187 -0.7691 0.0828 0.9936
-1.4172 -0.7953 0.0834 0.9935
-3.9220 -2.5132 0.2389 0.9815
-3.9080 -2.5855 0.2404 0.9814
-3.8938 -2.6587 0.2419 0.9813
-3.7792 -2.7457 0.2396 0.9815
-3.5653 -2.9232 0.2365 0.9817
-3.2616 -2.8376 0.2218 0.9828
-3.3257 -3.0686 0.2321 0.9820
-3.2671 -3.1041 0.2312 0.9821
-8.9396 -9.0049 0.6509 0.9504
-8.9200 -9.5264 0.6695 0.9491
-27.7500 -31.4298 2.1507 0.8454
-26.1262 -31.3939 2.0951 0.8491
-9.9677 -12.3398 0.8137 0.9384
-25.3855 -33.3766 2.1511 0.8454
-25.3639 -34.3794 2.1915 0.8427
-24.8148 -35.7782 2.2335 0.8400
-21.7972 -35.7159 2.1463 0.8457
-21.0780 -35.7004 2.1267 0.8470
-20.3718 -35.6852 2.1078 0.8483
-19.6779 -35.6702 2.0897 0.8494
-18.9956 -35.6555 2.0724 0.8506
-14.8820 -31.1519 1.7710 0.8709
-14.3214 -31.1402 1.7582 0.8717
-12.6859 -31.1073 1.7233 0.8741
-4.8462 -12.3986 0.6829 0.9481
-10.0893 -31.0516 1.6748 0.8774
-9.5866 -31.0407 1.6665 0.8780
-8.5957 -31.0194 1.6512 0.8790
-7.6220 -30.9984 1.6375 0.8800
-7.1409 -30.9880 1.6312 0.8804
-6.6634 -30.9777 1.6254 0.8808
-6.2583 -31.3129 1.6380 0.8799
-5.3084 -31.2924 1.6281 0.8806
-0.5048 -3.6127 0.1871 0.9855
-0.4446 -3.5609 0.1841 0.9857
-2.5155 -31.2322 1.6073 0.8821
-0.2226 -3.3807 0.1738 0.9865
-0.1721 -3.3618 0.1727 0.9866
0.6756 -30.8196 1.5813 0.8838
1.1260 -30.8098 1.5815 0.8838
1.5766 -30.8002 1.5820 0.8838
3.8391 -30.7514 1.5897 0.8833
4.7524 -30.7317 1.5952 0.8829
7.0703 -30.6818 1.6151 0.8815
7.5416 -30.6716 1.6202 0.8812
8.0159 -30.6613 1.6257 0.8808
8.9748 -30.6407 1.6378 0.8800
10.5588 -30.9504 1.6775 0.8772
11.0623 -30.9396 1.6855 0.8767
1.6120 -3.7934 0.2114 0.9836
1.7368 -3.7764 0.2132 0.9835
1.7918 -3.7507 0.2132 0.9835
1.8637 -3.7591 0.2152 0.9833
2.0591 -3.7326 0.2187 0.9831
1.9504 -3.3035 0.1968 0.9848
1.9966 -3.2716 0.1966 0.9848
2.0427 -3.2397 0.1965 0.9848
2.0888 -3.2078 0.1964 0.9848
2.0385 -3.0329 0.1875 0.9855
2.2267 -3.1123 0.1963 0.9848
2.2726 -3.0805 0.1964 0.9848
2.2100 -2.9057 0.1873 0.9855
2.8047 -3.1767 0.2174 0.9832
2.8884 -3.0848 0.2168 0.9832
2.9300 -3.0391 0.2165 0.9832
3.0131 -2.9478 0.2162 0.9833
31.9453 -30.3519 2.2604 0.8382
32.6546 -30.1304 2.2792 0.8370
33.6046 -30.1099 2.3145 0.8347
36.6433 -30.0444 2.4307 0.8271
15.4910 -12.3272 1.0155 0.9238
38.8473 -29.9969 2.5177 0.8215
40.0100 -29.9718 2.5644 0.8185
41.2169 -29.9458 2.6134 0.8154
42.4711 -29.9188 2.6649 0.8121
47.0726 -30.1634 2.8679 0.7994
49.5837 -29.7655 2.9666 0.7932
26.0523 -12.6804 1.4863 0.8904
26.1481 -12.2577 1.4814 0.8908
27.2809 -11.8292 1.5253 0.8877
30.8281 -12.8355 1.7130 0.8748
31.2949 -11.9693 1.7187 0.8744
31.8172 -11.6391 1.7379 0.8731
32.2411 -11.2627 1.7519 0.8722
35.7538 -11.9066 1.9331 0.8599
35.9182 -11.3811 1.9328 0.8599
40.8506 -12.2901 2.1883 0.8429
14.1171 -3.3620 0.7444 0.9435
14.2220 -3.1681 0.7474 0.9433
14.3990 -2.7686 0.7521 0.9430
19.7122 -2.3148 1.0181 0.9236
65.1414 -3.8117 3.3473 0.7700
65.3782 -2.8678 3.3569 0.7694
88.7915 9.1137 4.5786 0.6994
50.2975 8.1548 2.6138 0.8154
49.5901 8.7856 2.5834 0.8173
43.6484 9.0558 2.2867 0.8365
33.0164 7.8628 1.7410 0.8729
33.0624 8.3861 1.7497 0.8723
18.8421 9.5140 1.0828 0.9189
6.5175 3.6579 0.3834 0.9705
6.3598 3.6926 0.3772 0.9710
6.0734 3.7677 0.3666 0.9718
5.9892 3.8378 0.3649 0.9719
6.0140 3.9788 0.3699 0.9715
6.0395 4.1238 0.3751 0.9711
6.0928 4.4267 0.3863 0.9703
6.1498 4.7487 0.3986 0.9694
3.4499 3.5781 0.2550 0.9803
3.2738 3.6005 0.2496 0.9807
3.1051 3.6220 0.2447 0.9811
2.7864 3.6634 0.2361 0.9817
2.7102 3.6734 0.2342 0.9819
2.6352 3.6832 0.2323 0.9820
2.5615 3.6930 0.2305 0.9822
2.4888 3.7027 0.2288 0.9823
2.4173 3.7122 0.2272 0.9824
2.3467 3.7217 0.2257 0.9825
2.3210 3.8029 0.2285 0.9823
2.4188 4.3845 0.2569 0.9801
2.4849 4.6641 0.2711 0.9791
2.6421 5.3289 0.3051 0.9765
4.3975 9.5619 0.5399 0.9587
-0.3480 9.5232 0.4888 0.9626
-1.3016 4.9788 0.2640 0.9796
-1.3268 4.7881 0.2549 0.9803
-1.3724 4.4437 0.2386 0.9815
-1.3931 4.2875 0.2313 0.9821
-1.4310 4.0023 0.2180 0.9831
-1.5312 3.4618 0.1942 0.9850
-1.6565 3.4675 0.1971 0.9847
-1.7862 3.4741 0.2004 0.9845
-1.9893 3.4848 0.2058 0.9841
-2.1313 3.4923 0.2099 0.9837
-2.2160 3.5146 0.2131 0.9835
-2.3056 3.5409 0.2167 0.9832
-2.5987 3.6324 0.2291 0.9823
-2.7112 3.6750 0.2343 0.9819
-5.0293 4.9203 0.3609 0.9722
-5.0479 4.7961 0.3572 0.9725
-5.0661 4.6745 0.3536 0.9728
-5.0840 4.5553 0.3502 0.9730
-5.1016 4.4384 0.3469 0.9733
-5.1189 4.3238 0.3437 0.9735
-5.1541 4.1015 0.3379 0.9740
-5.1719 3.9937 0.3352 0.9742
-5.1895 3.8876 0.3326 0.9744
-5.2069 3.7830 0.3301 0.9746
-5.3416 3.6473 0.3318 0.9744
-5.4638 3.6148 0.3361 0.9741
-1.4486 0.8987 0.0874 0.9932
-1.4186 0.8516 0.0849 0.9934
-1.4171 0.8228 0.0841 0.9935
-1.4204 0.7434 0.0822 0.9936
-1.0867 0.5289 0.0620 0.9952
-1.0805 0.4685 0.0604 0.9953
-1.0786 0.4491 0.0599 0.9953
-1.0767 0.4300 0.0595 0.9954
-1.0750 0.4112 0.0590 0.9954
-1.0734 0.3927 0.0586 0.9954
-1.0705 0.3739 0.0582 0.9955
-1.0539 0.3171 0.0565 0.9956
-1.0511 0.2996 0.0561 0.9956
-1.0457 0.2652 0.0553 0.9957
-1.0407 0.2318 0.0547 0.9957
-1.0305 0.1826 0.0537 0.9958
-1.0121 0.1339 0.0524 0.9959
-0.9845 0.0576 0.0506 0.9961
-0.9723 0.0142 0.0499 0.9961
-0.9116 0.0000 0.0366 0.9964
-0.9149 -0.0134 0.0368 0.9963
-0.9255 -0.0542 0.0373 0.9963
-0.9292 -0.0680 0.0374 0.9963
-0.9331 -0.0820 0.0376 0.9963
-0.9689 -0.1863 0.0397 0.9961
-0.9729 -0.2018 0.0399 0.9960
-0.9747 -0.2171 0.0401 0.9960
-0.9767 -0.2326 0.0404 0.9960
-0.9807 -0.2641 0.0408 0.9959
-0.9829 -0.2801 0.0411 0.9959
-0.9851 -0.2964 0.0413 0.9959
-1.0091 -0.3691 0.0432 0.9957
-1.0158 -0.3885 0.0437 0.9957
-1.0273 -0.4816 0.0456 0.9955
-1.0305 -0.5203 0.0464 0.9954
-1.0322 -0.5403 0.0468 0.9953
-1.4222 -0.8823 0.0673 0.9933
-3.9486 -2.6123 0.1903 0.9812
-3.9345 -2.6865 0.1915 0.9811
-3.7055 -2.6104 0.1822 0.9820
-3.7443 -2.7204 0.1860 0.9816
-3.6754 -2.7533 0.1846 0.9818
-3.6363 -2.8079 0.1846 0.9818
-3.5910 -2.8575 0.1844 0.9818
-3.4022 -2.7895 0.1768 0.9825
-3.3490 -3.0900 0.1831 0.9819
-3.8217 -3.7387 0.2149 0.9788
-3.7301 -3.7574 0.2128 0.9790
-27.7500 -31.4299 1.6851 0.8455
-26.9275 -31.4116 1.6629 0.8474
-25.4062 -32.4099 1.6551 0.8480
-25.3638 -34.3792 1.7171 0.8428
-24.0381 -35.7630 1.7319 0.8416
-23.2767 -35.7476 1.7145 0.8430
-5.1313 -8.9884 0.4160 0.9594
-4.7732 -8.9595 0.4080 0.9602
-4.6029 -8.9525 0.4046 0.9605
-4.2993 -8.9996 0.4009 0.9609
-4.1521 -9.0282 0.3994 0.9610
-4.0902 -9.2472 0.4064 0.9603
-11.1103 -31.0736 1.3263 0.8762
-9.0889 -31.0300 1.2996 0.8786
-8.5957 -31.0194 1.2937 0.8791
-8.1068 -31.0088 1.2882 0.8796
-6.6634 -30.9777 1.2735 0.8809
-6.2583 -31.3129 1.2834 0.8800
-4.8376 -31.2822 1.2722 0.8810
-0.3908 -3.5512 0.1436 0.9858
-0.3371 -3.5385 0.1429 0.9859
-2.5154 -31.2321 1.2593 0.8821
-0.1221 -3.3424 0.1344 0.9867
-0.6763 -30.8487 1.2402 0.8838
0.2252 -30.8293 1.2391 0.8839
1.1260 -30.8098 1.2391 0.8839
2.0275 -30.7904 1.2402 0.8838
2.4791 -30.7807 1.2411 0.8837
2.9314 -30.7709 1.2423 0.8836
0.9974 -9.0651 0.3665 0.9641
1.2534 -8.9712 0.3641 0.9644
1.9288 -8.9670 0.3686 0.9639
2.0666 -8.9680 0.3699 0.9638
2.2053 -8.9692 0.3712 0.9637
8.9748 -30.6407 1.2832 0.8800
9.4598 -30.6302 1.2885 0.8796
9.9489 -30.6197 1.2940 0.8791
1.7333 -3.7689 0.1667 0.9835
1.8600 -3.7516 0.1683 0.9834
1.9283 -3.6196 0.1648 0.9837
1.9634 -3.3255 0.1552 0.9847
2.0563 -3.2613 0.1550 0.9847
1.9877 -3.0527 0.1464 0.9855
2.0573 -3.0609 0.1482 0.9853
2.1287 -3.0692 0.1501 0.9852
2.2100 -2.6556 0.1389 0.9863
2.2477 -2.6220 0.1388 0.9863
2.2854 -2.5884 0.1388 0.9863
2.8960 -3.0930 0.1703 0.9832
2.9377 -3.0470 0.1701 0.9832
2.7518 -2.6145 0.1526 0.9849
33.6046 -30.1099 1.8135 0.8347
34.5848 -30.0887 1.8425 0.8323
36.6433 -30.0444 1.9045 0.8272
40.0100 -29.9718 2.0092 0.8186
42.4712 -29.9188 2.0880 0.8122
47.0726 -30.1634 2.2470 0.7995
48.5702 -30.1312 2.2973 0.7955
51.2064 -29.7305 2.3798 0.7890
52.9087 -29.6938 2.4385 0.7844
25.9533 -12.6322 1.1601 0.8909
73.5696 -30.6311 3.2030 0.7269
31.1421 -12.4354 1.3478 0.8744
31.6473 -11.5769 1.3544 0.8738
41.2245 -11.7485 1.7229 0.8423
14.3275 -3.8577 0.5964 0.9423
14.4148 -2.9906 0.5917 0.9428
14.4630 -2.7809 0.5919 0.9427
14.5112 -2.5709 0.5923 0.9427
14.9978 -2.4316 0.6107 0.9410
65.4265 -3.8284 2.6341 0.7692
68.4830 8.0421 2.7714 0.7588
68.4063 9.0482 2.7733 0.7586
57.6992 8.4915 2.3440 0.7918
48.4119 9.3084 1.9814 0.8209
44.8074 9.2962 1.8393 0.8326
43.1578 9.6138 1.7771 0.8378
38.9609 9.2785 1.6097 0.8519
38.5250 9.7716 1.5974 0.8529
38.3637 10.3296 1.5968 0.8530
37.9938 10.8279 1.5878 0.8537
27.8311 9.7222 1.1849 0.8887
11.2644 4.3083 0.4847 0.9529
10.8848 4.3465 0.4711 0.9542
10.6426 4.4311 0.4633 0.9549
10.7024 4.8277 0.4719 0.9541
6.4512 3.2574 0.2905 0.9715
6.2773 3.2856 0.2848 0.9720
6.1188 3.3174 0.2797 0.9725
5.9834 3.3581 0.2758 0.9729
5.9058 3.4289 0.2745 0.9730
5.9301 3.6788 0.2805 0.9724
6.0374 4.3865 0.2999 0.9706
6.0643 4.5429 0.3045 0.9701
6.0921 4.7042 0.3094 0.9697
6.1208 4.8708 0.3144 0.9692
6.1506 5.0429 0.3197 0.9687
6.1859 5.2249 0.3254 0.9681
3.3186 3.5442 0.1951 0.9808
3.2331 3.5556 0.1931 0.9809
2.9865 3.5886 0.1876 0.9815
2.7535 3.6202 0.1828 0.9820
2.6046 3.6405 0.1799 0.9822
2.5320 3.6505 0.1786 0.9824
2.4604 3.6603 0.1773 0.9825
2.3203 3.6798 0.1748 0.9827
2.2927 3.7565 0.1769 0.9825
2.2906 3.8795 0.1811 0.9821
2.3250 4.0725 0.1885 0.9814
2.3624 4.2821 0.1966 0.9806
2.6318 5.5088 0.2454 0.9759
-0.3485 9.5342 0.3835 0.9625
-1.2251 5.3165 0.2193 0.9784
-1.2545 5.1023 0.2112 0.9792
-1.2819 4.9033 0.2037 0.9799
-1.3073 4.7180 0.1968 0.9806
-1.3535 4.3827 0.1844 0.9818
-1.3745 4.2304 0.1788 0.9824
-1.3964 4.0932 0.1738 0.9828
-1.4559 3.7249 0.1607 0.9841
-1.4909 3.5085 0.1532 0.9849
-1.6463 3.4461 0.1535 0.9848
-1.7101 3.4491 0.1547 0.9847
-1.7749 3.4523 0.1560 0.9846
-1.8409 3.4556 0.1574 0.9844
-2.1173 3.4693 0.1634 0.9839
-2.1980 3.4860 0.1656 0.9836
-2.3781 3.5380 0.1713 0.9831
-2.4729 3.5655 0.1744 0.9828
-2.5713 3.5940 0.1776 0.9825
-2.6733 3.6236 0.1810 0.9821
-4.9370 5.2729 0.2903 0.9715
-4.9539 5.1382 0.2869 0.9718
-4.9731 5.0096 0.2837 0.9721
-4.9923 4.8841 0.2807 0.9724
-5.0111 4.7612 0.2778 0.9727
-5.0296 4.6409 0.2751 0.9730
-5.0656 4.4071 0.2699 0.9735
-5.1004 4.1819 0.2651 0.9739
-5.1345 3.9648 0.2607 0.9744
-5.1698 3.7561 0.2568 0.9747
-5.3079 3.5117 0.2558 0.9748
-5.4279 3.4782 0.2591 0.9745
-1.4124 0.8200 0.0656 0.9935
-1.4130 0.7930 0.0651 0.9935
-1.0322 0.5402 0.0468 0.9953
-1.0229 0.4259 0.0445 0.9956
-1.0216 0.4079 0.0442 0.9956
-1.0091 0.3691 0.0432 0.9957
-0.9874 0.3129 0.0416 0.9959
-0.9851 0.2964 0.0413 0.9959
-0.9807 0.2641 0.0408 0.9959
-0.9747 0.2171 0.0401 0.9960
-0.9634 0.1707 0.0393 0.9961
-0.9477 0.1254 0.0384 0.9962
-0.9427 0.1107 0.0381 0.9962
-0.9378 0.0962 0.0379 0.9962
-0.9292 0.0680 0.0374 0.9963
-0.9255 0.0541 0.0373 0.9963
-0.9219 0.0404 0.0371 0.9963
-0.9184 0.0269 0.0369 0.9963
-0.9149 0.0134 0.0368 0.9963
-0.8671 -0.0254 0.0252 0.9965
-0.8702 -0.0382 0.0253 0.9965
-0.8733 -0.0511 0.0255 0.9965
-0.8799 -0.0773 0.0257 0.9965
-0.8832 -0.0907 0.0258 0.9965
-0.8911 -0.1179 0.0262 0.9964
-0.8955 -0.1318 0.0263 0.9964
-0.9182 -0.2187 0.0275 0.9962
-0.9197 -0.2333 0.0276 0.9962
-0.9214 -0.2481 0.0278 0.9962
-0.9230 -0.2630 0.0279 0.9962
-0.9404 -0.3285 0.0290 0.9960
-0.9470 -0.3464 0.0293 0.9960
-0.9539 -0.3648 0.0297 0.9959
-0.9657 -0.4021 0.0304 0.9958
-0.9748 -0.4397 0.0311 0.9957
-0.9792 -0.5125 0.0322 0.9956
-0.9804 -0.5315 0.0324 0.9955
-1.4151 -0.8495 0.0480 0.9934
-1.4230 -0.8827 0.0487 0.9933
-3.7558 -2.5645 0.1323 0.9820
-3.3885 -2.6165 0.1246 0.9830
-3.3817 -2.6910 0.1257 0.9829
-3.3746 -2.7669 0.1270 0.9827
-3.4327 -3.0757 0.1341 0.9817
-3.3129 -3.1476 0.1330 0.9819
-3.1723 -3.1035 0.1291 0.9824
-3.5845 -3.7179 0.1503 0.9795
-27.7500 -31.4298 1.2200 0.8455
-26.9279 -31.4121 1.2039 0.8474
-26.1271 -31.3949 1.1884 0.8492
-25.4061 -32.4098 1.1982 0.8481
-25.3853 -33.3763 1.2201 0.8455
-25.3412 -35.4206 1.2672 0.8401
-24.8156 -35.7792 1.2670 0.8401
-5.2751 -8.9345 0.3019 0.9593
-4.9195 -8.9176 0.2963 0.9601
-4.5754 -8.8991 0.2912 0.9607
-4.4124 -8.8995 0.2890 0.9610
-4.0938 -8.9014 0.2851 0.9616
-3.9988 -9.8055 0.3081 0.9585
-11.6293 -31.0847 0.9657 0.8756
-11.1104 -31.0736 0.9602 0.8763
-10.5971 -31.0625 0.9550 0.8769
-9.5866 -31.0407 0.9453 0.8781
-9.0889 -31.0300 0.9408 0.8786
-8.1068 -31.0088 0.9326 0.8796
-7.6220 -30.9984 0.9288 0.8801
-6.6634 -30.9778 0.9220 0.8809
-6.2583 -31.3129 0.9291 0.8800
-5.3084 -31.2924 0.9235 0.8807
-0.3911 -3.5547 0.1041 0.9858
-0.3374 -3.5418 0.1035 0.9859
-0.2843 -3.5291 0.1030 0.9859
-0.2225 -3.3791 0.0985 0.9865
-0.1720 -3.3602 0.0979 0.9866
-0.1221 -3.3417 0.0973 0.9867
-0.6762 -30.8487 0.8978 0.8838
1.1260 -30.8098 0.8971 0.8839
1.5765 -30.8001 0.8974 0.8839
2.0275 -30.7905 0.8979 0.8838
0.8503 -8.9263 0.2609 0.9648
1.1134 -8.9186 0.2615 0.9647
1.5123 -8.9153 0.2631 0.9645
1.9170 -8.9123 0.2653 0.9642
2.0535 -8.9114 0.2661 0.9641
2.1909 -8.9105 0.2670 0.9639
1.1261 -3.8446 0.1166 0.9841
1.1849 -3.8366 0.1168 0.9841
1.3032 -3.8202 0.1174 0.9840
1.6057 -3.7786 0.1195 0.9837
1.6675 -3.7701 0.1199 0.9836
1.7299 -3.7615 0.1205 0.9836
1.7928 -3.7529 0.1210 0.9835
1.8563 -3.7441 0.1216 0.9834
1.9205 -3.7353 0.1222 0.9833
1.9736 -3.7045 0.1221 0.9833
1.6216 -2.9396 0.0977 0.9867
1.9555 -3.3121 0.1119 0.9847
2.0765 -3.0893 0.1083 0.9852
2.1488 -3.0981 0.1097 0.9850
2.2565 -3.1541 0.1128 0.9846
2.3031 -3.1218 0.1129 0.9846
2.3866 -2.5490 0.1016 0.9861
2.9455 -3.0551 0.1235 0.9832
2.7998 -2.7391 0.1140 0.9844
3.0706 -2.9174 0.1232 0.9832
3.1122 -2.8716 0.1232 0.9832
33.6046 -30.1099 1.3129 0.8348
11.7312 -9.6186 0.4414 0.9411
11.6343 -8.9837 0.4277 0.9429
11.7453 -8.7985 0.4270 0.9430
12.5085 -8.8116 0.4452 0.9406
51.2063 -29.7305 1.7229 0.7890
51.3230 -13.8189 1.5465 0.8084
13.9907 -3.5486 0.4200 0.9439
14.2024 -3.3823 0.4248 0.9433
14.5276 -2.7933 0.4305 0.9425
15.0995 -2.4481 0.4451 0.9406
19.2621 -2.8348 0.5665 0.9250
55.2267 -3.2316 1.6097 0.8014
57.8735 8.5172 1.7021 0.7913
57.4303 9.3112 1.6929 0.7923
49.1503 9.4504 1.4563 0.8185
38.5269 9.7721 1.1565 0.8529
10.5959 3.8761 0.3283 0.9559
10.5594 4.2166 0.3308 0.9555
6.7243 2.9157 0.2133 0.9711
6.2247 2.9180 0.2000 0.9729
6.0627 2.9509 0.1962 0.9734
5.9071 2.9827 0.1925 0.9739
5.8302 3.0516 0.1915 0.9740
5.8409 3.1668 0.1933 0.9738
5.8519 3.2843 0.1953 0.9735
5.8746 3.5266 0.1994 0.9730
5.9145 3.9130 0.2063 0.9720
5.9580 4.1971 0.2121 0.9713
5.9830 4.3469 0.2152 0.9708
6.0355 4.6605 0.2219 0.9699
6.0631 4.8248 0.2255 0.9695
6.0916 4.9946 0.2292 0.9690
6.1210 5.1701 0.2331 0.9684
6.1987 5.5540 0.2422 0.9672
3.4509 3.4761 0.1425 0.9806
3.1109 3.5234 0.1368 0.9814
3.0301 3.5346 0.1355 0.9815
2.9509 3.5457 0.1342 0.9817
2.7214 3.5780 0.1308 0.9822
2.6475 3.5884 0.1298 0.9823
2.5031 3.6089 0.1278 0.9826
2.4326 3.6190 0.1269 0.9827
2.2944 3.6387 0.1252 0.9829
2.2651 3.7113 0.1265 0.9828
2.2605 3.8285 0.1294 0.9824
2.3513 4.4133 0.1455 0.9802
2.5347 5.3056 0.1711 0.9767
2.6360 5.7314 0.1836 0.9751
-1.2054 5.2312 0.1562 0.9787
-1.2906 4.6577 0.1406 0.9808
-1.3171 4.4967 0.1363 0.9814
-1.3419 4.3452 0.1323 0.9820
-1.3875 4.0673 0.1250 0.9829
-1.4285 3.8184 0.1186 0.9838
-1.5143 3.4237 0.1089 0.9851
-1.5752 3.4253 0.1097 0.9850
-2.0330 3.4434 0.1164 0.9841
-2.1803 3.4579 0.1189 0.9838
-2.2677 3.4828 0.1209 0.9835
-2.3582 3.5085 0.1230 0.9832
-2.4519 3.5352 0.1252 0.9829
-2.6510 3.5934 0.1299 0.9823
-2.7578 3.6260 0.1326 0.9819
-4.8809 5.3680 0.2111 0.9714
-4.9167 5.0996 0.2061 0.9721
-4.9365 4.9727 0.2039 0.9723
-4.9560 4.8485 0.2017 0.9726
-4.9937 4.6077 0.1977 0.9732
-5.0121 4.4909 0.1958 0.9734
-5.0478 4.2636 0.1923 0.9739
-5.0653 4.1531 0.1906 0.9741
-5.1160 3.8324 0.1860 0.9747
-5.1678 3.5287 0.1821 0.9753
-5.2756 3.3805 0.1823 0.9752
-1.4230 0.8828 0.0487 0.9933
-1.4152 0.8495 0.0480 0.9934
-1.4148 0.8214 0.0476 0.9935
-1.1001 0.6174 0.0367 0.9950
-0.9804 0.5316 0.0324 0.9955
-0.9792 0.5125 0.0322 0.9956
-0.9780 0.4938 0.0319 0.9956
-0.9758 0.4575 0.0314 0.9957
-0.9719 0.4214 0.0308 0.9958
-0.9657 0.4021 0.0304 0.9958
-0.9470 0.3464 0.0293 0.9960
-0.9339 0.3110 0.0286 0.9961
-0.9275 0.2939 0.0283 0.9961
-0.9247 0.2782 0.0281 0.9961
-0.9230 0.2630 0.0279 0.9962
-0.9213 0.2480 0.0278 0.9962
-0.9167 0.2042 0.0273 0.9962
-0.9140 0.1896 0.0272 0.9963
-0.9093 0.1748 0.0269 0.9963
-0.9045 0.1602 0.0267 0.9963
-0.8999 0.1459 0.0265 0.9964
-0.8911 0.1179 0.0262 0.9964
-0.8733 0.0511 0.0255 0.9965
-0.8702 0.0382 0.0253 0.9965
-0.8157 0.0000 0.0147 0.9967
-0.8212 -0.0240 0.0148 0.9967
-0.8239 -0.0361 0.0149 0.9967
-0.8267 -0.0484 0.0149 0.9967
-0.8296 -0.0607 0.0150 0.9967
-0.8325 -0.0732 0.0151 0.9967
-0.8354 -0.0857 0.0151 0.9966
-0.8384 -0.0984 0.0152 0.9966
-0.8446 -0.1243 0.0154 0.9966
-0.8525 -0.1510 0.0156 0.9965
-0.8565 -0.1647 0.0157 0.9965
-0.8606 -0.1786 0.0158 0.9965
-0.8663 -0.2063 0.0160 0.9964
-0.8675 -0.2200 0.0161 0.9964
-0.8714 -0.2622 0.0164 0.9964
-0.8807 -0.2933 0.0167 0.9963
-0.8977 -0.3434 0.0173 0.9962
-0.9037 -0.3609 0.0175 0.9961
-0.9141 -0.3963 0.0179 0.9960
-0.9194 -0.4147 0.0182 0.9960
-0.9313 -0.4875 0.0189 0.9958
-0.9329 -0.5236 0.0193 0.9957
-0.9337 -0.5421 0.0194 0.9957
-4.0594 -2.5182 0.0860 0.9811
-4.0458 -2.5925 0.0865 0.9810
-3.7611 -2.4883 0.0812 0.9821
-3.7332 -2.6298 0.0822 0.9819
-3.7522 -2.7261 0.0835 0.9816
-3.5418 -2.7349 0.0806 0.9823
-3.3964 -3.1338 0.0832 0.9817
-3.3362 -3.1698 0.0829 0.9818
-3.2765 -3.2055 0.0825 0.9818
-3.3328 -3.3572 0.0852 0.9813
-3.4118 -3.5387 0.0885 0.9805
-8.8312 -9.7122 0.2364 0.9488
-8.8392 -10.0111 0.2405 0.9480
-26.9283 -31.4126 0.7451 0.8474
-26.1275 -31.3954 0.7356 0.8492
-25.3852 -33.3762 0.7552 0.8456
-25.3636 -34.3789 0.7694 0.8429
-24.8159 -35.7798 0.7842 0.8401
-5.9901 -8.9118 0.1934 0.9580
-5.6063 -8.8914 0.1893 0.9588
-5.4211 -8.8827 0.1874 0.9592
-5.0657 -8.8736 0.1840 0.9599
-4.7148 -8.8499 0.1806 0.9607
-4.5473 -8.8445 0.1791 0.9610
-4.3861 -8.8464 0.1778 0.9613
-4.2187 -8.8308 0.1763 0.9616
-4.0590 -8.8257 0.1749 0.9619
-3.9269 -8.8780 0.1748 0.9619
-11.1103 -31.0736 0.5943 0.8763
-10.5971 -31.0625 0.5911 0.8770
-9.5866 -31.0407 0.5851 0.8781
-9.0889 -31.0300 0.5823 0.8787
-8.5957 -31.0194 0.5797 0.8792
-8.1068 -31.0088 0.5772 0.8797
-7.1409 -30.9880 0.5727 0.8805
-6.6635 -30.9777 0.5706 0.8809
-5.7819 -31.3026 0.5733 0.8804
-4.8376 -31.2822 0.5701 0.8811
-0.5085 -3.6393 0.0662 0.9854
-0.3378 -3.5452 0.0641 0.9859
-0.2845 -3.5324 0.0638 0.9859
-0.0893 -12.2248 0.2202 0.9523
0.2252 -30.8293 0.5552 0.8840
0.6756 -30.8196 0.5552 0.8840
1.1259 -30.8099 0.5552 0.8840
0.5848 -8.8820 0.1603 0.9650
0.7149 -8.8773 0.1604 0.9650
1.1068 -8.8655 0.1609 0.9649
1.3705 -8.8631 0.1615 0.9648
1.5033 -8.8620 0.1619 0.9647
1.9055 -8.8585 0.1632 0.9644
2.1776 -8.8563 0.1642 0.9642
2.4535 -8.8541 0.1655 0.9639
1.1282 -3.8518 0.0723 0.9841
1.4806 -3.7880 0.0732 0.9839
1.6025 -3.7712 0.0738 0.9837
1.7265 -3.7541 0.0744 0.9836
1.8526 -3.7367 0.0751 0.9835
1.9813 -3.7189 0.0759 0.9833
1.6254 -2.9464 0.0606 0.9866
1.9549 -3.1004 0.0660 0.9854
2.0960 -3.1183 0.0677 0.9851
2.1692 -3.1276 0.0685 0.9849
2.3187 -3.1429 0.0703 0.9845
2.1726 -2.8565 0.0646 0.9857
2.4126 -3.0777 0.0704 0.9845
2.2208 -2.7494 0.0637 0.9860
2.2979 -2.6805 0.0636 0.9860
2.3364 -2.6462 0.0636 0.9860
2.4903 -2.5086 0.0637 0.9860
3.0369 -2.9710 0.0765 0.9831
3.1204 -2.8792 0.0765 0.9832
34.5848 -30.0887 0.8256 0.8324
11.4529 -9.6737 0.2700 0.9418
11.4095 -9.3548 0.2657 0.9427
11.4463 -8.8385 0.2604 0.9438
11.6083 -8.6959 0.2612 0.9436
12.2993 -8.6642 0.2709 0.9416
47.0726 -30.1634 1.0069 0.7996
17.5117 -9.8280 0.3616 0.9228
17.5003 -8.8364 0.3531 0.9246
73.5696 -30.6311 1.4352 0.7270
73.5423 -29.3664 1.4261 0.7285
73.0003 -19.6557 1.3615 0.7390
14.0325 -3.5593 0.2607 0.9437
14.2454 -3.3925 0.2637 0.9431
19.3457 -2.8471 0.3522 0.9248
42.0089 -2.4581 0.7578 0.8451
55.3681 -1.6186 0.9976 0.8012
91.9109 5.3782 1.6581 0.6919
26.1624 3.4606 0.4753 0.8998
26.2222 3.8591 0.4773 0.8994
26.2872 4.2620 0.4796 0.8989
22.9172 4.4064 0.4203 0.9109
10.9720 3.6539 0.2083 0.9548
10.6405 3.7170 0.2030 0.9559
10.4757 3.8321 0.2009 0.9564
10.4808 4.0086 0.2021 0.9561
6.7913 2.7119 0.1317 0.9712
6.5452 2.7251 0.1277 0.9720
6.0274 2.8255 0.1199 0.9737
5.8811 2.8625 0.1178 0.9742
5.7846 2.9209 0.1167 0.9744
5.7999 3.1445 0.1188 0.9740
5.8104 3.2610 0.1200 0.9737
5.8321 3.5010 0.1225 0.9732
5.8681 3.8823 0.1267 0.9722
5.9089 4.1625 0.1302 0.9715
6.0337 4.9471 0.1405 0.9693
3.4958 3.4199 0.0881 0.9806
3.4077 3.4326 0.0871 0.9808
3.3215 3.4451 0.0862 0.9810
3.2372 3.4573 0.0853 0.9812
2.9160 3.5039 0.0821 0.9819
2.8394 3.5150 0.0814 0.9821
2.7642 3.5261 0.0807 0.9822
2.5456 3.5580 0.0788 0.9826
2.4750 3.5684 0.0782 0.9828
2.4054 3.5786 0.0777 0.9829
2.3368 3.5887 0.0771 0.9830
2.2382 3.6672 0.0774 0.9830
2.2330 3.7820 0.0791 0.9826
2.2668 4.1088 0.0845 0.9814
2.3017 4.3202 0.0882 0.9806
2.3398 4.5507 0.0922 0.9797
2.4446 5.1169 0.1021 0.9776
-1.0816 5.8559 0.1072 0.9765
-1.1194 5.6009 0.1029 0.9774
-1.1909 5.1683 0.0955 0.9790
-1.2232 4.9748 0.0923 0.9797
-1.2533 4.7941 0.0892 0.9804
-1.2816 4.6249 0.0864 0.9810
-1.3330 4.3164 0.0814 0.9821
-1.3566 4.1752 0.0791 0.9826
-1.3788 4.0418 0.0769 0.9831
-1.3999 3.9155 0.0749 0.9835
-1.4571 3.5731 0.0695 0.9847
-1.4744 3.4696 0.0679 0.9850
-1.5060 3.4050 0.0671 0.9852
-1.5666 3.4064 0.0675 0.9851
-1.6903 3.4094 0.0685 0.9849
-1.7536 3.4109 0.0691 0.9848
-1.8840 3.4154 0.0702 0.9845
-1.9514 3.4183 0.0709 0.9844
-2.0898 3.4244 0.0722 0.9841
-2.2493 3.4545 0.0742 0.9836
-2.3387 3.4795 0.0755 0.9834
-2.4313 3.5055 0.0768 0.9831
-2.5278 3.5333 0.0782 0.9828
-2.7346 3.5955 0.0814 0.9821
-4.8055 5.6058 0.1330 0.9709
-4.8605 5.1911 0.1281 0.9720
-4.9005 4.9364 0.1253 0.9726
-4.9583 4.5751 0.1215 0.9734
-5.0307 4.1247 0.1172 0.9743
-5.0480 4.0170 0.1162 0.9745
-5.0818 3.8069 0.1144 0.9749
-5.0984 3.7042 0.1135 0.9751
-5.1492 3.4066 0.1112 0.9756
-5.2570 3.2613 0.1114 0.9756
-0.9337 0.5421 0.0194 0.9957
-0.9321 0.5054 0.0191 0.9958
-0.9037 0.3609 0.0175 0.9961
-0.8977 0.3434 0.0173 0.9962
-0.8919 0.3262 0.0171 0.9962
-0.8807 0.2933 0.0167 0.9963
-0.8525 0.1511 0.0156 0.9965
-0.8485 0.1376 0.0155 0.9966
-0.8415 0.1113 0.0153 0.9966
-0.8354 0.0857 0.0151 0.9966
-0.8296 0.0607 0.0150 0.9967
-0.8267 0.0484 0.0149 0.9967
-0.8239 0.0361 0.0149 0.9967
-0.8212 0.0240 0.0148 0.9967
-0.7775 -0.0114 0.0054 0.9969
-0.7824 -0.0343 0.0054 0.9969
-0.7849 -0.0459 0.0054 0.9969
-0.7874 -0.0576 0.0055 0.9968
-0.7900 -0.0695 0.0055 0.9968
-0.7926 -0.0813 0.0055 0.9968
-0.7952 -0.0934 0.0055 0.9968
-0.7978 -0.1055 0.0056 0.9968
-0.8131 -0.1688 0.0058 0.9967
-0.8200 -0.1953 0.0058 0.9966
-0.8219 -0.2213 0.0059 0.9966
-0.8229 -0.2345 0.0059 0.9966
-0.8429 -0.3083 0.0062 0.9964
-0.8529 -0.3405 0.0064 0.9963
-0.8580 -0.3572 0.0064 0.9963
-0.8629 -0.3741 0.0065 0.9962
-0.8673 -0.3912 0.0066 0.9962
-0.8717 -0.4087 0.0067 0.9962
-0.8763 -0.4265 0.0068 0.9961
-0.8810 -0.4448 0.0068 0.9961
-0.8859 -0.4637 0.0069 0.9960
-0.8887 -0.4988 0.0071 0.9959
-0.8891 -0.5162 0.0071 0.9959
-3.9491 -2.5305 0.0325 0.9814
-3.8436 -2.5429 0.0319 0.9817
-3.7418 -2.5549 0.0314 0.9820
-3.6433 -2.5665 0.0309 0.9823
-3.5479 -2.5777 0.0304 0.9826
-3.6913 -2.7651 0.0319 0.9817
-3.6045 -2.7833 0.0315 0.9819
-3.4866 -2.8587 0.0312 0.9821
-3.3326 -2.8994 0.0306 0.9825
-3.4818 -3.1197 0.0324 0.9815
-3.4206 -3.1562 0.0322 0.9816
-3.3599 -3.1923 0.0321 0.9816
-3.5421 -3.5681 0.0348 0.9801
-3.4425 -3.5706 0.0344 0.9804
-3.3667 -3.8132 0.0352 0.9799
-10.1580 -12.2060 0.1100 0.9385
-25.4260 -31.4768 0.2802 0.8506
-25.3635 -34.3788 0.2959 0.8429
-6.1509 -8.8683 0.0747 0.9577
-5.9453 -8.8452 0.0738 0.9583
-5.5767 -8.8445 0.0724 0.9590
-5.2127 -8.8288 0.0710 0.9598
-5.0336 -8.8173 0.0703 0.9602
-4.6864 -8.7965 0.0690 0.9609
-4.5189 -8.7893 0.0684 0.9612
-4.3510 -8.7757 0.0678 0.9616
-4.1853 -8.7609 0.0672 0.9619
-4.0264 -8.7549 0.0667 0.9622
-3.8084 -9.7434 0.0725 0.9590
-10.5971 -31.0625 0.2273 0.8770
-10.0893 -31.0516 0.2261 0.8776
-9.5866 -31.0407 0.2250 0.8781
-9.0889 -31.0300 0.2239 0.8787
-8.1068 -31.0088 0.2220 0.8797
-7.6219 -30.9984 0.2211 0.8801
-5.3084 -31.2924 0.2198 0.8808
-0.3919 -3.5615 0.0248 0.9858
-0.2224 -3.3775 0.0234 0.9866
-0.1720 -3.3587 0.0233 0.9866
-0.1221 -3.3401 0.0231 0.9867
0.2252 -30.8293 0.2135 0.8840
0.1951 -8.9019 0.0617 0.9650
0.5813 -8.8289 0.0613 0.9652
0.7106 -8.8243 0.0613 0.9652
0.8402 -8.8196 0.0614 0.9652
1.1002 -8.8131 0.0615 0.9651
1.4943 -8.8092 0.0619 0.9649
1.6269 -8.8079 0.0620 0.9648
1.7601 -8.8066 0.0622 0.9647
2.0288 -8.8041 0.0626 0.9645
2.4386 -8.8002 0.0632 0.9641
1.1365 -3.8801 0.0280 0.9840
1.1582 -3.7500 0.0272 0.9844
1.2392 -3.8138 0.0278 0.9841
1.3577 -3.7973 0.0279 0.9840
1.5384 -3.7723 0.0282 0.9838
1.5995 -3.7638 0.0283 0.9838
1.6307 -3.6867 0.0279 0.9840
1.7053 -3.7079 0.0283 0.9838
1.8489 -3.7293 0.0288 0.9835
1.9128 -3.7204 0.0290 0.9834
1.9773 -3.7115 0.0291 0.9833
1.6291 -2.9532 0.0234 0.9866
2.0036 -3.3935 0.0273 0.9844
2.0510 -3.3607 0.0273 0.9844
2.0434 -3.1383 0.0259 0.9851
2.1900 -3.1576 0.0266 0.9847
2.2872 -3.1970 0.0272 0.9844
2.3309 -3.1594 0.0272 0.9844
2.1604 -2.8405 0.0247 0.9858
2.4290 -3.0987 0.0273 0.9844
2.2849 -2.7456 0.0247 0.9858
2.3627 -2.6760 0.0247 0.9858
2.4016 -2.6413 0.0247 0.9858
2.4795 -2.5717 0.0247 0.9858
2.5184 -2.5369 0.0248 0.9858
2.5574 -2.5020 0.0248 0.9858
3.1286 -2.8867 0.0295 0.9831
3.1704 -2.8407 0.0295 0.9831
11.2063 -9.4654 0.1016 0.9430
11.2220 -8.9301 0.0993 0.9442
11.5622 -8.4004 0.0990 0.9444
12.2062 -8.5987 0.1034 0.9420
12.5687 -8.5820 0.1054 0.9409
4.7046 -3.1125 0.0391 0.9777
13.3672 -8.5655 0.1100 0.9385
48.5702 -30.1312 0.3959 0.7956
16.8735 -9.7967 0.1351 0.9249
16.7988 -9.4279 0.1334 0.9258
6.5647 -3.5592 0.0517 0.9706
16.8767 -8.8334 0.1319 0.9266
17.9078 -8.7162 0.1379 0.9234
22.3111 -9.6743 0.1684 0.9073
26.7799 -9.7963 0.1975 0.8922
26.7471 -9.3436 0.1962 0.8929
26.7361 -8.9035 0.1952 0.8934
28.3309 -8.5234 0.2049 0.8884
14.2886 -3.4028 0.1017 0.9429
14.5076 -3.2317 0.1029 0.9423
14.5159 -2.7911 0.1024 0.9426
19.3291 -3.1339 0.1356 0.9247
19.4301 -2.8595 0.1360 0.9244
41.2912 -3.0221 0.2867 0.8474
40.9923 -2.3987 0.2844 0.8485
54.3537 -2.3842 0.3768 0.8044
69.7514 4.0815 0.4839 0.7562
55.1516 4.0366 0.3830 0.8016
37.6274 3.8622 0.2620 0.8596
26.1466 3.0705 0.1823 0.9000
23.1169 3.4021 0.1618 0.9108
22.6394 3.6705 0.1588 0.9123
22.7345 4.3713 0.1603 0.9116
22.7845 4.7271 0.1612 0.9111
22.8350 5.0867 0.1620 0.9107
22.9537 5.8221 0.1640 0.9096
10.8744 3.6214 0.0794 0.9552
10.4373 3.9920 0.0774 0.9563
6.7645 2.7012 0.0504 0.9713
6.3191 2.7400 0.0477 0.9728
6.1625 2.7798 0.0468 0.9733
5.8660 2.8551 0.0452 0.9742
5.7554 2.9061 0.0447 0.9745
5.7600 3.0148 0.0450 0.9743
5.7647 3.1255 0.0454 0.9741
5.7798 3.3558 0.0463 0.9736
5.8008 3.5986 0.0473 0.9731
5.8118 3.7241 0.0478 0.9728
5.8229 3.8524 0.0484 0.9725
5.8417 3.9888 0.0490 0.9721
5.8616 4.1292 0.0497 0.9717
5.9031 4.4221 0.0511 0.9709
5.9255 4.5755 0.0519 0.9705
5.9770 4.9005 0.0535 0.9696
6.0040 5.0712 0.0544 0.9691
6.0608 5.4305 0.0564 0.9680
6.0908 5.6200 0.0574 0.9674
3.5406 3.3638 0.0338 0.9807
3.4521 3.3772 0.0334 0.9809
3.3656 3.3902 0.0331 0.9811
3.1167 3.4276 0.0321 0.9816
3.0370 3.4396 0.0318 0.9818
2.9588 3.4514 0.0315 0.9820
2.8820 3.4630 0.0312 0.9821
2.7325 3.4856 0.0307 0.9824
2.6595 3.4966 0.0304 0.9826
2.5878 3.5075 0.0302 0.9827
2.5171 3.5182 0.0300 0.9828
2.3789 3.5391 0.0295 0.9831
2.3112 3.5493 0.0293 0.9832
2.2003 3.8541 0.0307 0.9824
2.2542 4.2310 0.0332 0.9810
2.3278 4.6948 0.0363 0.9793
2.4300 5.2834 0.0403 0.9770
-0.3470 9.4938 0.0658 0.9627
-1.0695 5.7904 0.0408 0.9767
-1.1471 5.3329 0.0378 0.9784
-1.2726 4.5926 0.0330 0.9811
-1.3242 4.2879 0.0311 0.9822
-1.3479 4.1485 0.0302 0.9827
-1.3914 3.8917 0.0286 0.9836
-1.4663 3.4505 0.0260 0.9851
-1.6190 3.3891 0.0260 0.9851
-1.6809 3.3904 0.0262 0.9850
-1.7438 3.3918 0.0264 0.9849
-1.8077 3.3931 0.0266 0.9847
-1.8726 3.3946 0.0269 0.9846
-1.9391 3.3967 0.0271 0.9845
-2.0071 3.3995 0.0273 0.9843
-2.3195 3.4510 0.0288 0.9835
-2.5076 3.5050 0.0298 0.9829
-2.6078 3.5347 0.0304 0.9826
-4.7274 5.8525 0.0521 0.9704
-4.7475 5.7048 0.0514 0.9707
-4.7863 5.4210 0.0501 0.9715
-4.8649 4.9006 0.0478 0.9728
-4.8848 4.7789 0.0473 0.9730
-4.9043 4.6597 0.0469 0.9733
-4.9234 4.5429 0.0464 0.9736
-4.9787 4.2053 0.0451 0.9743
-4.9965 4.0968 0.0448 0.9745
-5.0312 3.8850 0.0440 0.9749
-5.0482 3.7817 0.0437 0.9751
-5.0649 3.6799 0.0434 0.9753
-5.0976 3.4807 0.0428 0.9756
-5.1140 3.3834 0.0425 0.9758
-0.9723 0.6032 0.0079 0.9954
-0.8895 0.5339 0.0072 0.9959
-0.8859 0.4637 0.0069 0.9960
-0.8717 0.4086 0.0067 0.9962
-0.8629 0.3741 0.0065 0.9962
-0.8581 0.3573 0.0064 0.9963
-0.8529 0.3405 0.0064 0.9963
-0.8381 0.2928 0.0061 0.9965
-0.8334 0.2775 0.0061 0.9965
-0.8229 0.2345 0.0059 0.9966
-0.8061 0.1429 0.0057 0.9967
-0.8032 0.1302 0.0056 0.9968
-0.7978 0.1055 0.0056 0.9968
-0.7952 0.0934 0.0055 0.9968
-0.7926 0.0813 0.0055 0.9968
-0.7900 0.0695 0.0055 0.9968
-0.7874 0.0576 0.0055 0.9968
-0.7774 0.0114 0.0054 0.9969
-0.7404 -0.0108 -0.0031 0.9970
-0.7448 -0.0327 -0.0031 0.9970
-0.7471 -0.0437 -0.0031 0.9970
-0.7493 -0.0548 -0.0031 0.9970
-0.7516 -0.0660 -0.0031 0.9970
-0.7539 -0.0773 -0.0031 0.9970
-0.7656 -0.1356 -0.0032 0.9969
-0.7680 -0.1477 -0.0032 0.9969
-0.7769 -0.1850 -0.0033 0.9968
-0.7792 -0.1976 -0.0033 0.9968
-0.7799 -0.2100 -0.0034 0.9968
-0.7830 -0.2355 -0.0034 0.9967
-0.7869 -0.2493 -0.0034 0.9967
-0.7949 -0.2777 -0.0035 0.9966
-0.8074 -0.3224 -0.0036 0.9965
-0.8118 -0.3380 -0.0037 0.9965
-0.8163 -0.3540 -0.0037 0.9964
-0.8207 -0.3702 -0.0037 0.9964
-0.8244 -0.3865 -0.0038 0.9964
-0.8282 -0.4031 -0.0038 0.9963
-0.8321 -0.4202 -0.0039 0.9963
-0.8361 -0.4376 -0.0039 0.9962
-0.8443 -0.4739 -0.0040 0.9961
-0.8486 -0.4927 -0.0041 0.9961
-0.8486 -0.5094 -0.0041 0.9960
-0.8486 -0.5265 -0.0041 0.9960
-0.8487 -0.5438 -0.0042 0.9960
-3.8838 -2.6518 -0.0195 0.9814
-3.5335 -2.8118 -0.0188 0.9821
-3.5543 -2.9142 -0.0191 0.9818
-3.5693 -3.1053 -0.0197 0.9813
-3.4451 -3.1788 -0.0195 0.9814
-3.3839 -3.2151 -0.0194 0.9815
-3.3232 -3.2511 -0.0193 0.9816
-3.5645 -3.6971 -0.0213 0.9797
-8.7724 -9.9354 -0.0551 0.9484
-6.3138 -8.8251 -0.0451 0.9575
-5.9824 -8.6255 -0.0436 0.9589
-5.8999 -8.7777 -0.0439 0.9586
-5.7105 -8.7700 -0.0435 0.9590
-5.3444 -8.7571 -0.0426 0.9598
-4.9897 -8.7404 -0.0418 0.9605
-4.4838 -8.7210 -0.0408 0.9615
-4.1639 -8.7162 -0.0401 0.9621
-4.0081 -8.7150 -0.0399 0.9624
-3.8557 -8.7171 -0.0396 0.9626
-3.7746 -9.6571 -0.0431 0.9594
-11.1103 -31.0736 -0.1371 0.8763
-10.5971 -31.0625 -0.1364 0.8770
-10.0893 -31.0516 -0.1357 0.8776
-9.5866 -31.0407 -0.1350 0.8781
-9.0889 -31.0300 -0.1344 0.8787
-8.5957 -31.0194 -0.1338 0.8792
-8.1068 -31.0088 -0.1332 0.8797
-7.6219 -30.9984 -0.1327 0.8801
-6.6634 -30.9777 -0.1317 0.8810
-0.7026 -3.5153 -0.0149 0.9858
-5.7181 -30.9574 -0.1308 0.8817
-5.2499 -30.9472 -0.1304 0.8820
-4.7842 -30.9372 -0.1301 0.8823
-0.4531 -3.2432 -0.0136 0.9870
-0.3923 -3.5649 -0.0149 0.9858
-0.2843 -3.5303 -0.0147 0.9859
-0.0728 -3.3209 -0.0138 0.9868
-0.0649 -8.8734 -0.0369 0.9651
0.4494 -8.7812 -0.0365 0.9654
0.5779 -8.7765 -0.0366 0.9654
0.9641 -8.7626 -0.0366 0.9654
1.0938 -8.7612 -0.0367 0.9653
1.3544 -8.7585 -0.0368 0.9652
1.6172 -8.7557 -0.0370 0.9650
1.7496 -8.7543 -0.0371 0.9649
1.8827 -8.7529 -0.0372 0.9648
2.0167 -8.7515 -0.0373 0.9647
2.2871 -8.7486 -0.0376 0.9645
2.4238 -8.7471 -0.0377 0.9643
1.2174 -3.7468 -0.0164 0.9844
1.2958 -3.7983 -0.0167 0.9841
1.4749 -3.7734 -0.0168 0.9839
1.5354 -3.7650 -0.0169 0.9839
1.5963 -3.7565 -0.0170 0.9838
1.6058 -3.6305 -0.0165 0.9842
1.9090 -3.7130 -0.0173 0.9834
1.9248 -3.6130 -0.0170 0.9838
1.9482 -3.4128 -0.0163 0.9844
1.9216 -3.1486 -0.0153 0.9854
1.9913 -3.1582 -0.0155 0.9852
2.0627 -3.1679 -0.0157 0.9850
2.1360 -3.1779 -0.0159 0.9848
2.2112 -3.1881 -0.0161 0.9846
2.1483 -2.8246 -0.0147 0.9859
2.2716 -2.8121 -0.0150 0.9856
2.3897 -2.7066 -0.0150 0.9857
2.4290 -2.6714 -0.0150 0.9857
2.4683 -2.6363 -0.0150 0.9857
2.5078 -2.6011 -0.0150 0.9857
2.5867 -2.5306 -0.0150 0.9856
2.6659 -2.4598 -0.0151 0.9856
11.6449 -8.4605 -0.0598 0.9441
48.0346 -29.7989 -0.2349 0.7976
16.2869 -9.7771 -0.0789 0.9268
6.5360 -3.5436 -0.0309 0.9707
6.6591 -3.1217 -0.0306 0.9710
19.0344 -8.5859 -0.0868 0.9199
22.0540 -9.5628 -0.0999 0.9083
22.0764 -9.1916 -0.0994 0.9088
22.2876 -8.8997 -0.0997 0.9085
23.4333 -8.9625 -0.1043 0.9045
26.5205 -8.4033 -0.1156 0.8947
27.7975 -8.3630 -0.1206 0.8904
32.3485 -8.7100 -0.1392 0.8746
14.1170 -3.5807 -0.0605 0.9434
14.3321 -3.4131 -0.0612 0.9428
14.5015 -2.7883 -0.0614 0.9426
19.3356 -3.1349 -0.0814 0.9246
22.9036 -2.6896 -0.0958 0.9119
23.6739 -2.4299 -0.0989 0.9092
41.4619 -2.4261 -0.1726 0.8469
41.8070 -1.8338 -0.1739 0.8459
54.4310 -1.5912 -0.2263 0.8043
59.4750 3.4802 -0.2476 0.7880
43.0493 3.1509 -0.1794 0.8414
41.1465 3.6167 -0.1716 0.8477
26.9628 2.7676 -0.1126 0.8973
22.4974 3.3109 -0.0945 0.9131
22.4961 3.6473 -0.0947 0.9129
22.5888 4.3432 -0.0956 0.9121
22.6377 4.6967 -0.0961 0.9117
22.6871 5.0538 -0.0966 0.9112
22.7427 5.4161 -0.0972 0.9107
21.2856 5.3991 -0.0913 0.9159
20.8072 5.9300 -0.0899 0.9171
11.1595 3.5360 -0.0486 0.9543
10.3992 3.8041 -0.0460 0.9567
6.7379 2.6905 -0.0301 0.9714
6.4953 2.7044 -0.0292 0.9722
5.9959 2.8108 -0.0275 0.9739
5.8509 2.8478 -0.0270 0.9743
5.7443 3.3352 -0.0276 0.9738
5.7490 3.4512 -0.0279 0.9735
5.7960 3.9576 -0.0292 0.9723
5.8151 4.0964 -0.0296 0.9719
5.8550 4.3859 -0.0304 0.9712
5.8757 4.5371 -0.0308 0.9707
5.8971 4.6927 -0.0313 0.9703
5.9471 5.0232 -0.0323 0.9693
5.9738 5.1971 -0.0329 0.9688
6.0014 5.3773 -0.0335 0.9683
6.0300 5.5639 -0.0341 0.9677
3.4095 3.3355 -0.0198 0.9811
3.3245 3.3488 -0.0196 0.9813
3.2413 3.3618 -0.0194 0.9815
3.1597 3.3745 -0.0192 0.9817
2.9244 3.4113 -0.0187 0.9822
2.7015 3.4461 -0.0182 0.9826
2.4206 3.4899 -0.0176 0.9832
2.2862 3.5109 -0.0174 0.9834
2.1862 3.5821 -0.0174 0.9834
2.1801 3.6923 -0.0178 0.9830
2.1737 3.8074 -0.0182 0.9826
2.2086 4.1454 -0.0195 0.9814
2.2764 4.5912 -0.0213 0.9797
2.3152 4.8461 -0.0223 0.9787
2.4978 5.8775 -0.0265 0.9748
-0.3460 9.4680 -0.0394 0.9628
-1.0211 6.0197 -0.0254 0.9759
-1.0623 5.7513 -0.0243 0.9769
-1.1006 5.5071 -0.0233 0.9778
-1.1380 5.2905 -0.0225 0.9786
-1.1727 5.0890 -0.0217 0.9793
-1.2050 4.9011 -0.0210 0.9800
-1.2637 4.5606 -0.0197 0.9812
-1.2904 4.4057 -0.0191 0.9818
-1.3156 4.2598 -0.0185 0.9823
-1.3393 4.1221 -0.0180 0.9828
-1.4225 3.6394 -0.0162 0.9845
-1.4583 3.4316 -0.0155 0.9852
-1.6101 3.3705 -0.0155 0.9852
-1.7975 3.3741 -0.0159 0.9848
-1.8620 3.3753 -0.0160 0.9847
-1.9275 3.3766 -0.0162 0.9846
-1.9944 3.3780 -0.0163 0.9844
-2.1332 3.3833 -0.0166 0.9841
-2.3007 3.4229 -0.0171 0.9836
-2.4876 3.4772 -0.0178 0.9830
-2.5867 3.5061 -0.0181 0.9827
-2.6895 3.5362 -0.0185 0.9824
-4.7678 5.2436 -0.0295 0.9720
-4.8094 4.9883 -0.0288 0.9727
-4.8500 4.7449 -0.0282 0.9732
-4.9266 4.2862 -0.0271 0.9742
-4.9449 4.1767 -0.0269 0.9744
-4.9979 3.8593 -0.0262 0.9751
-5.0150 3.7568 -0.0260 0.9752
-5.0318 3.6558 -0.0258 0.9754
-5.0484 3.5564 -0.0257 0.9756
-0.8486 0.5438 -0.0042 0.9960
-0.8486 0.5094 -0.0041 0.9960
-0.8321 0.4201 -0.0039 0.9963
-0.8282 0.4031 -0.0038 0.9963
-0.8244 0.3865 -0.0038 0.9964
-0.8207 0.3702 -0.0037 0.9964
-0.8075 0.3224 -0.0036 0.9965
-0.8032 0.3072 -0.0036 0.9966
-0.7990 0.2923 -0.0035 0.9966
-0.7949 0.2777 -0.0035 0.9966
-0.7830 0.2355 -0.0034 0.9967
-0.7799 0.2100 -0.0034 0.9968
-0.7792 0.1977 -0.0033 0.9968
-0.7769 0.1850 -0.0033 0.9968
-0.7680 0.1477 -0.0033 0.9969
-0.7656 0.1356 -0.0032 0.9969
-0.7633 0.1237 -0.0032 0.9969
-0.7562 0.0888 -0.0032 0.9970
-0.7516 0.0661 -0.0031 0.9970
-0.7426 0.0217 -0.0031 0.9970
-0.7067 -0.0103 -0.0108 0.9972
-0.7168 -0.0630 -0.0110 0.9971
-0.7209 -0.0846 -0.0111 0.9971
-0.7229 -0.0956 -0.0111 0.9971
-0.7250 -0.1067 -0.0112 0.9971
-0.7271 -0.1179 -0.0112 0.9971
-0.7355 -0.1638 -0.0115 0.9970
-0.7378 -0.1757 -0.0116 0.9970
-0.7559 -0.2641 -0.0122 0.9968
-0.7594 -0.2778 -0.0123 0.9968
-0.7630 -0.2918 -0.0124 0.9967
-0.7704 -0.3207 -0.0127 0.9967
-0.7780 -0.3509 -0.0130 0.9966
-0.7819 -0.3665 -0.0132 0.9966
-0.7883 -0.3980 -0.0135 0.9965
-0.8088 -0.5018 -0.0145 0.9962
-0.8107 -0.5195 -0.0147 0.9962
-3.7176 -2.7849 -0.0708 0.9816
-3.5621 -2.8345 -0.0694 0.9820
-3.3940 -2.8667 -0.0677 0.9824
-3.4082 -3.2382 -0.0716 0.9814
-3.0472 -2.9811 -0.0650 0.9831
-3.8035 -3.9450 -0.0835 0.9783
-3.5496 -3.9038 -0.0804 0.9791
-10.1082 -12.1462 -0.2408 0.9387
-25.4258 -31.4765 -0.6166 0.8506
-6.6753 -8.7766 -0.1680 0.9568
-6.4612 -8.7578 -0.1658 0.9574
-6.0669 -8.7473 -0.1622 0.9583
-5.8595 -8.7175 -0.1601 0.9589
-5.6738 -8.7136 -0.1584 0.9593
-5.1379 -8.7022 -0.1540 0.9604
