ply
format ascii 1.0
element vertex 1594
property float32 x
property float32 y
property float32 z
property float32 I
end_header
3.3278 2.6481 -0.3958 0.9831
3.1569 2.6664 -0.3846 0.9835
2.9516 2.7234 -0.3738 0.9840
2.8250 2.7637 -0.3678 0.9842
2.6423 2.8220 -0.3598 0.9846
2.5860 2.8440 -0.3578 0.9847
2.4861 2.9873 -0.3617 0.9845
2.4887 3.1747 -0.3754 0.9839
2.4754 3.3553 -0.3881 0.9834
2.3743 3.4234 -0.3878 0.9834
2.2981 3.6448 -0.4010 0.9828
2.5363 4.1558 -0.4531 0.9806
2.5824 4.5234 -0.4848 0.9793
2.6354 4.9467 -0.5217 0.9777
2.6653 5.1840 -0.5425 0.9769
2.7377 5.7306 -0.5911 0.9748
2.7012 6.1071 -0.6215 0.9735
2.5769 6.3189 -0.6351 0.9730
3.8202 9.7736 -0.9767 0.9587
3.6771 9.8284 -0.9767 0.9587
3.5331 9.8811 -0.9767 0.9587
3.3979 9.9602 -0.9795 0.9586
3.2521 10.0087 -0.9795 0.9586
3.1055 10.0553 -0.9795 0.9586
2.9583 10.0996 -0.9795 0.9586
2.6619 10.1819 -0.9795 0.9586
2.5129 10.2198 -0.9795 0.9586
2.3633 10.2555 -0.9795 0.9586
2.2132 10.2890 -0.9795 0.9586
0.5842 3.4428 -0.3250 0.9861
0.5043 3.2603 -0.3070 0.9868
0.3512 3.1907 -0.2988 0.9872
0.3048 3.1979 -0.2990 0.9872
0.1181 3.2261 -0.3005 0.9871
0.0710 3.2331 -0.3010 0.9871
0.0238 3.2402 -0.3016 0.9871
-0.0712 3.2544 -0.3030 0.9870
-0.1190 3.2615 -0.3038 0.9870
-0.2155 3.2757 -0.3055 0.9869
-0.4124 3.3046 -0.3099 0.9867
-0.4626 3.3119 -0.3112 0.9867
-0.5131 3.3192 -0.3126 0.9866
-0.5641 3.3266 -0.3140 0.9865
-0.6677 3.3414 -0.3171 0.9864
-0.7733 3.3565 -0.3206 0.9863
-1.0533 3.4110 -0.3323 0.9858
-1.1240 3.4601 -0.3386 0.9855
-3.3989 9.9632 -0.9798 0.9586
-3.5442 9.9125 -0.9798 0.9586
-4.5251 9.4723 -0.9771 0.9587
-4.6631 9.4052 -0.9771 0.9587
-5.2046 9.1170 -0.9771 0.9587
-3.8744 6.1448 -0.6761 0.9712
-3.9520 6.0695 -0.6741 0.9713
-4.0474 6.0217 -0.6753 0.9713
-4.1170 5.9361 -0.6724 0.9714
-4.1401 5.7870 -0.6623 0.9718
-4.1841 5.5014 -0.6433 0.9726
-4.3029 4.7324 -0.5953 0.9746
-4.3210 4.6151 -0.5884 0.9749
-4.3387 4.5004 -0.5818 0.9752
-0.5702 0.5579 -0.0742 0.9968
-0.5716 0.4973 -0.0705 0.9970
-0.5718 0.4830 -0.0697 0.9970
-0.5719 0.4690 -0.0688 0.9970
-0.5712 0.4546 -0.0679 0.9971
-0.5688 0.4133 -0.0654 0.9972
-0.5670 0.3872 -0.0639 0.9972
-0.5643 0.3501 -0.0618 0.9973
-0.5614 0.3152 -0.0599 0.9974
-0.5604 0.3039 -0.0593 0.9974
-0.5585 0.2820 -0.0582 0.9975
-0.5579 0.2716 -0.0578 0.9975
-0.5567 0.2512 -0.0568 0.9975
-0.5546 0.2215 -0.0556 0.9976
-0.5538 0.2119 -0.0552 0.9976
-0.5531 0.2023 -0.0548 0.9976
-0.5517 0.1837 -0.0541 0.9977
-0.5506 0.1657 -0.0535 0.9977
-0.5487 0.1393 -0.0527 0.9977
-0.5480 0.1305 -0.0524 0.9977
-0.5473 0.1220 -0.0522 0.9977
-0.5458 0.1050 -0.0517 0.9978
-0.5449 0.0966 -0.0515 0.9978
-0.5408 0.0476 -0.0505 0.9978
-0.5400 0.0396 -0.0504 0.9978
-0.5366 0.0079 -0.0500 0.9978
-0.5196 -0.0152 -0.0542 0.9979
-0.5204 -0.0228 -0.0543 0.9979
-0.5212 -0.0305 -0.0544 0.9979
-0.5226 -0.0459 -0.0547 0.9979
-0.5239 -0.0615 -0.0550 0.9979
-0.5257 -0.0852 -0.0555 0.9979
-0.5267 -0.1013 -0.0559 0.9978
-0.5272 -0.1093 -0.0561 0.9978
-0.5290 -0.1341 -0.0569 0.9978
-0.5301 -0.1510 -0.0575 0.9978
-0.5310 -0.1682 -0.0581 0.9978
-0.5318 -0.1857 -0.0587 0.9977
-0.5322 -0.1946 -0.0591 0.9977
-0.5329 -0.2037 -0.0595 0.9977
-0.5334 -0.2130 -0.0599 0.9977
-0.5340 -0.2223 -0.0603 0.9977
-0.5350 -0.2413 -0.0612 0.9976
-0.5354 -0.2509 -0.0617 0.9976
-0.5358 -0.2607 -0.0621 0.9976
-0.5362 -0.2707 -0.0626 0.9976
-0.5365 -0.2808 -0.0631 0.9976
-0.5368 -0.2910 -0.0637 0.9975
-0.5372 -0.3014 -0.0642 0.9975
-0.5386 -0.3233 -0.0655 0.9975
-0.5403 -0.3574 -0.0676 0.9974
-0.5414 -0.3813 -0.0690 0.9973
-0.5419 -0.3937 -0.0698 0.9973
-0.5424 -0.4063 -0.0707 0.9973
-0.5428 -0.4191 -0.0715 0.9972
-0.5432 -0.4323 -0.0724 0.9972
-0.5436 -0.4457 -0.0733 0.9972
-0.5439 -0.4594 -0.0742 0.9971
-0.5439 -0.5018 -0.0772 0.9970
-0.5432 -0.5160 -0.0781 0.9970
-0.5420 -0.5621 -0.0814 0.9969
-0.6320 -0.6750 -0.0964 0.9963
-2.9242 -3.5138 -0.4766 0.9818
-5.8883 -7.5115 -0.9951 0.9623
-5.7779 -7.5967 -0.9951 0.9623
-5.4393 -7.8425 -0.9951 0.9623
-2.2700 -3.6002 -0.4438 0.9830
-2.2085 -3.6187 -0.4420 0.9831
-1.6202 -2.9369 -0.3497 0.9866
-1.5573 -2.9230 -0.3453 0.9868
-1.4843 -2.9938 -0.3484 0.9867
-1.1341 -2.4661 -0.2830 0.9891
-1.1049 -2.4979 -0.2848 0.9891
-0.9034 -2.1258 -0.2408 0.9908
-0.9386 -2.3014 -0.2591 0.9901
-0.9839 -2.6299 -0.2928 0.9888
-0.8456 -2.8869 -0.3136 0.9880
-0.7859 -3.0062 -0.3240 0.9876
-0.7530 -3.0625 -0.3288 0.9874
-0.7025 -3.0485 -0.3262 0.9875
-0.6417 -2.9831 -0.3181 0.9878
-0.5838 -2.9210 -0.3106 0.9881
-0.5407 -3.1873 -0.3371 0.9871
-0.4283 -3.4304 -0.3604 0.9862
-0.3701 -3.3637 -0.3528 0.9865
-0.2126 -3.2286 -0.3374 0.9871
-0.1647 -3.2182 -0.3360 0.9871
-0.1172 -3.2082 -0.3347 0.9872
-0.0701 -3.1984 -0.3336 0.9872
-0.0233 -3.1888 -0.3325 0.9873
0.1156 -3.1614 -0.3298 0.9874
0.1614 -3.1527 -0.3291 0.9874
1.0436 -9.4841 -0.9948 0.9624
1.1820 -9.4678 -0.9948 0.9624
1.4582 -9.4291 -0.9948 0.9624
0.6590 -3.8851 -0.4109 0.9843
0.7074 -3.8300 -0.4061 0.9845
0.8008 -3.7229 -0.3970 0.9848
0.8459 -3.6707 -0.3928 0.9850
0.8900 -3.6195 -0.3886 0.9851
3.0805 -9.0295 -0.9947 0.9624
3.2121 -8.9835 -0.9947 0.9624
3.3430 -8.9355 -0.9947 0.9624
1.2971 -3.3185 -0.3715 0.9858
1.3340 -3.2712 -0.3683 0.9859
1.4302 -3.2334 -0.3686 0.9859
3.9862 -8.6675 -0.9947 0.9624
4.1124 -8.6082 -0.9947 0.9624
1.5486 -3.1234 -0.3635 0.9861
1.5960 -3.1041 -0.3639 0.9861
1.7383 -2.9441 -0.3565 0.9863
5.4367 -7.8387 -0.9946 0.9624
5.5507 -7.7584 -0.9946 0.9624
5.6634 -7.6764 -0.9946 0.9624
5.7749 -7.5928 -0.9946 0.9624
5.8852 -7.5076 -0.9946 0.9624
6.2085 -7.2423 -0.9946 0.9624
3.1328 -3.3458 -0.4779 0.9817
3.2106 -3.3300 -0.4823 0.9816
3.3260 -3.3503 -0.4922 0.9812
3.6544 -3.1793 -0.5050 0.9807
3.7520 -3.1691 -0.5121 0.9804
3.6714 -2.9215 -0.4892 0.9813
7.7979 -5.4932 -0.9945 0.9624
7.8774 -5.3787 -0.9945 0.9624
7.9551 -5.2630 -0.9945 0.9624
8.1054 -5.0283 -0.9945 0.9624
8.2488 -4.7892 -0.9945 0.9624
5.8105 -3.1503 -0.6891 0.9738
5.7944 -3.0329 -0.6819 0.9740
5.6967 -2.8764 -0.6654 0.9747
7.0336 -2.8086 -0.7897 0.9700
7.2488 -2.6516 -0.8048 0.9694
7.5261 -2.5062 -0.8271 0.9686
7.4885 -2.2529 -0.8153 0.9690
9.0323 -2.5741 -0.9792 0.9629
9.2322 -2.3417 -0.9931 0.9624
9.2785 -2.2096 -0.9945 0.9624
9.3390 -1.9375 -0.9945 0.9624
9.3917 -1.6638 -0.9945 0.9624
9.4150 -1.5264 -0.9945 0.9624
9.4363 -1.3887 -0.9945 0.9624
9.4555 -1.2507 -0.9945 0.9624
9.5012 -0.8351 -0.9945 0.9624
9.5216 -0.5571 -0.9945 0.9624
9.5287 -0.4179 -0.9945 0.9624
9.5338 -0.2787 -0.9945 0.9624
9.5369 0.1394 -0.9945 0.9624
9.5287 0.4180 -0.9945 0.9624
9.5216 0.5572 -0.9945 0.9624
9.5124 0.6963 -0.9945 0.9624
9.5012 0.8352 -0.9945 0.9624
9.4728 1.1125 -0.9945 0.9624
9.4363 1.3887 -0.9945 0.9624
9.3391 1.9376 -0.9945 0.9624
9.3098 2.0739 -0.9945 0.9624
9.2785 2.2097 -0.9945 0.9624
9.1336 2.7480 -0.9945 0.9624
9.0925 2.8811 -0.9945 0.9624
9.0495 3.0137 -0.9945 0.9624
8.9576 3.2768 -0.9945 0.9624
8.9088 3.4074 -0.9945 0.9624
8.8581 3.5371 -0.9945 0.9624
8.6946 3.9220 -0.9945 0.9624
8.6364 4.0486 -0.9945 0.9624
8.5764 4.1744 -0.9945 0.9624
8.4508 4.4232 -0.9945 0.9624
7.1627 3.8834 -0.8495 0.9678
3.7544 2.6448 -0.4788 0.9817
3.5304 2.6446 -0.4599 0.9824
3.3240 2.6452 -0.4429 0.9831
3.1505 2.6611 -0.4300 0.9836
2.9501 2.7221 -0.4185 0.9840
2.7619 2.7821 -0.4087 0.9844
2.5848 2.8427 -0.4006 0.9847
2.5462 2.8837 -0.4011 0.9846
2.4869 3.1723 -0.4203 0.9839
2.4882 3.2714 -0.4285 0.9836
2.4515 3.3229 -0.4305 0.9835
2.3982 3.3521 -0.4297 0.9836
2.3117 3.4393 -0.4321 0.9835
2.2797 3.5011 -0.4356 0.9833
2.2598 3.5841 -0.4418 0.9831
2.2885 3.7498 -0.4580 0.9825
2.5533 4.3246 -0.5236 0.9800
2.6654 5.1841 -0.6078 0.9768
2.7836 6.0527 -0.6946 0.9736
3.4104 8.7248 -0.9767 0.9630
2.8949 8.9094 -0.9767 0.9630
2.7644 8.9508 -0.9767 0.9630
2.3696 9.0634 -0.9768 0.9630
2.2369 9.0972 -0.9768 0.9630
2.1037 9.1289 -0.9768 0.9630
0.6901 3.4530 -0.3671 0.9859
0.5763 3.3969 -0.3592 0.9862
0.4978 3.2180 -0.3395 0.9870
0.2573 3.1929 -0.3340 0.9872
0.2109 3.1998 -0.3343 0.9872
0.1643 3.2069 -0.3348 0.9872
0.0708 3.2209 -0.3359 0.9871
0.0237 3.2280 -0.3366 0.9871
-0.0235 3.2350 -0.3373 0.9871
-0.0709 3.2420 -0.3381 0.9870
-0.2632 3.2703 -0.3421 0.9869
-0.3121 3.2774 -0.3433 0.9868
-0.3612 3.2845 -0.3445 0.9868
-0.4108 3.2917 -0.3459 0.9867
-0.4607 3.2989 -0.3473 0.9867
-0.5111 3.3061 -0.3488 0.9866
-0.5619 3.3134 -0.3504 0.9866
-0.6132 3.3207 -0.3521 0.9865
-0.6650 3.3281 -0.3539 0.9864
-0.7173 3.3355 -0.3557 0.9864
-0.9325 3.3657 -0.3641 0.9861
-0.9879 3.3735 -0.3665 0.9860
-1.1183 3.4423 -0.3774 0.9855
-1.2591 3.6909 -0.4066 0.9844
-3.1548 8.8234 -0.9770 0.9630
-3.2834 8.7764 -0.9770 0.9630
-3.4113 8.7276 -0.9770 0.9630
-3.7906 8.5698 -0.9770 0.9630
-4.2847 8.3339 -0.9771 0.9630
-4.6460 8.1383 -0.9771 0.9630
-4.7644 8.0696 -0.9771 0.9630
-3.9547 6.0736 -0.7557 0.9713
-4.1168 5.9357 -0.7532 0.9714
-4.1398 5.7866 -0.7418 0.9718
-4.1622 5.6418 -0.7310 0.9722
-4.2456 5.1018 -0.6920 0.9737
-0.6319 0.6749 -0.0964 0.9963
-0.5416 0.5456 -0.0801 0.9969
-0.5439 0.5019 -0.0772 0.9970
-0.5444 0.4878 -0.0762 0.9971
-0.5439 0.4594 -0.0742 0.9971
-0.5432 0.4323 -0.0724 0.9972
-0.5424 0.4064 -0.0707 0.9973
-0.5398 0.3459 -0.0668 0.9974
-0.5392 0.3345 -0.0662 0.9975
-0.5385 0.3233 -0.0655 0.9975
-0.5379 0.3123 -0.0648 0.9975
-0.5372 0.3015 -0.0642 0.9975
-0.5368 0.2911 -0.0637 0.9975
-0.5362 0.2708 -0.0626 0.9976
-0.5354 0.2510 -0.0617 0.9976
-0.5349 0.2413 -0.0612 0.9976
-0.5340 0.2223 -0.0603 0.9977
-0.5334 0.2130 -0.0599 0.9977
-0.5328 0.2038 -0.0595 0.9977
-0.5322 0.1947 -0.0591 0.9977
-0.5310 0.1683 -0.0581 0.9978
-0.5301 0.1511 -0.0575 0.9978
-0.5296 0.1427 -0.0572 0.9978
-0.5290 0.1342 -0.0569 0.9978
-0.5279 0.1176 -0.0564 0.9978
-0.5257 0.0852 -0.0555 0.9979
-0.5251 0.0773 -0.0553 0.9979
-0.5219 0.0382 -0.0546 0.9979
-0.5204 0.0229 -0.0543 0.9979
-0.5020 -0.0073 -0.0580 0.9980
-0.5035 -0.0220 -0.0582 0.9980
-0.5042 -0.0295 -0.0583 0.9980
-0.5055 -0.0444 -0.0586 0.9980
-0.5061 -0.0519 -0.0588 0.9980
-0.5067 -0.0595 -0.0589 0.9979
-0.5091 -0.0978 -0.0599 0.9979
-0.5095 -0.1057 -0.0601 0.9979
-0.5098 -0.1135 -0.0603 0.9979
-0.5107 -0.1295 -0.0608 0.9979
-0.5111 -0.1376 -0.0611 0.9979
-0.5119 -0.1540 -0.0617 0.9978
-0.5122 -0.1623 -0.0620 0.9978
-0.5125 -0.1706 -0.0624 0.9978
-0.5128 -0.1791 -0.0627 0.9978
-0.5130 -0.1876 -0.0631 0.9978
-0.5133 -0.1963 -0.0635 0.9978
-0.5138 -0.2051 -0.0639 0.9978
-0.5145 -0.2230 -0.0648 0.9977
-0.5148 -0.2322 -0.0652 0.9977
-0.5151 -0.2414 -0.0657 0.9977
-0.5157 -0.2699 -0.0672 0.9977
-0.5158 -0.2796 -0.0678 0.9976
-0.5159 -0.2895 -0.0683 0.9976
-0.5159 -0.3097 -0.0695 0.9976
-0.5165 -0.3309 -0.0708 0.9975
-0.5168 -0.3419 -0.0716 0.9975
-0.5170 -0.3530 -0.0723 0.9975
-0.5172 -0.3644 -0.0731 0.9975
-0.5174 -0.3759 -0.0739 0.9974
-0.5176 -0.3877 -0.0747 0.9974
-0.5178 -0.3998 -0.0755 0.9974
-0.5178 -0.4373 -0.0783 0.9973
-0.5176 -0.4638 -0.0803 0.9972
-0.5175 -0.4774 -0.0813 0.9972
-0.5148 -0.5339 -0.0857 0.9970
-0.5136 -0.5484 -0.0868 0.9970
-0.6077 -0.6882 -0.1060 0.9963
-3.0196 -3.5224 -0.5358 0.9815
-3.0042 -3.7190 -0.5521 0.9809
-5.3163 -6.7818 -0.9951 0.9659
-5.0139 -7.0081 -0.9951 0.9659
-4.8070 -7.1516 -0.9951 0.9659
-4.7019 -7.2211 -0.9951 0.9659
-2.0405 -3.2362 -0.4418 0.9847
-2.1223 -3.4775 -0.4705 0.9837
-1.9116 -3.2377 -0.4342 0.9850
-1.6116 -2.9214 -0.3853 0.9867
-1.1720 -2.4532 -0.3140 0.9891
-1.1428 -2.4849 -0.3159 0.9890
-0.9046 -2.2183 -0.2767 0.9904
-0.9412 -2.4082 -0.2986 0.9896
-0.9841 -2.6305 -0.3243 0.9888
-0.9282 -2.7208 -0.3320 0.9885
-0.8627 -2.7934 -0.3376 0.9883
-0.8418 -2.8741 -0.3458 0.9880
-0.6135 -3.3214 -0.3900 0.9865
-0.5347 -3.4575 -0.4040 0.9860
-0.4304 -3.4471 -0.4012 0.9861
-0.3190 -3.3491 -0.3885 0.9865
-0.2688 -3.3374 -0.3867 0.9866
-0.2190 -3.3260 -0.3849 0.9867
-0.1207 -3.3041 -0.3818 0.9868
-0.0722 -3.2937 -0.3804 0.9868
0.0239 -3.2736 -0.3780 0.9869
0.2600 -3.2280 -0.3740 0.9870
0.3067 -3.2195 -0.3735 0.9871
0.5436 -3.8903 -0.4536 0.9843
0.5932 -3.8357 -0.4482 0.9845
0.7803 -3.6275 -0.4285 0.9852
1.9344 -8.3944 -0.9948 0.9659
2.1788 -8.3342 -0.9948 0.9659
2.6619 -8.1925 -0.9948 0.9659
2.7813 -8.1527 -0.9948 0.9659
2.9001 -8.1111 -0.9947 0.9659
1.3363 -3.2768 -0.4087 0.9859
1.3814 -3.2508 -0.4079 0.9859
3.5991 -7.8258 -0.9947 0.9659
3.7130 -7.7723 -0.9947 0.9659
4.2704 -7.4804 -0.9947 0.9659
4.5940 -7.2859 -0.9947 0.9659
4.8049 -7.1485 -0.9947 0.9659
4.9088 -7.0775 -0.9947 0.9659
5.0117 -7.0050 -0.9947 0.9659
5.2142 -6.8555 -0.9946 0.9659
3.1302 -3.3430 -0.5289 0.9817
3.1973 -3.3162 -0.5320 0.9816
3.4354 -3.3609 -0.5550 0.9808
3.3817 -3.2130 -0.5387 0.9814
6.3299 -5.8405 -0.9946 0.9659
3.7652 -3.1802 -0.5691 0.9804
6.6602 -5.4607 -0.9946 0.9659
4.1102 -3.1737 -0.5997 0.9793
3.6803 -2.7569 -0.5310 0.9817
7.1828 -4.7520 -0.9946 0.9659
7.2514 -4.6466 -0.9946 0.9659
7.3185 -4.5401 -0.9946 0.9659
7.3953 -4.1504 -0.9793 0.9664
5.8519 -3.1727 -0.7687 0.9736
5.6956 -2.5691 -0.7215 0.9752
7.8755 -3.1448 -0.9793 0.9664
8.0058 -2.7966 -0.9793 0.9664
8.3159 -2.2390 -0.9945 0.9659
8.4059 -1.8725 -0.9945 0.9659
8.4324 -1.7494 -0.9945 0.9659
8.4799 -1.5023 -0.9945 0.9659
8.5009 -1.3782 -0.9945 0.9659
8.5202 -1.2539 -0.9945 0.9659
8.5376 -1.1292 -0.9945 0.9659
8.5788 -0.7541 -0.9945 0.9659
8.5889 -0.6286 -0.9945 0.9659
8.5972 -0.5030 -0.9945 0.9659
8.6082 -0.2516 -0.9945 0.9659
8.6110 -0.1258 -0.9945 0.9659
8.6110 0.1259 -0.9945 0.9659
8.5669 0.8793 -0.9945 0.9659
8.5532 1.0045 -0.9945 0.9659
8.5376 1.1293 -0.9945 0.9659
8.5202 1.2539 -0.9945 0.9659
8.5009 1.3783 -0.9945 0.9659
8.4799 1.5024 -0.9945 0.9659
8.4571 1.6261 -0.9945 0.9659
8.4324 1.7495 -0.9945 0.9659
8.3777 1.9952 -0.9945 0.9659
8.3477 2.1173 -0.9945 0.9659
8.3158 2.2391 -0.9945 0.9659
8.0880 2.9587 -0.9945 0.9659
8.0439 3.0766 -0.9945 0.9659
7.9981 3.1938 -0.9945 0.9659
7.9506 3.3103 -0.9945 0.9659
7.8505 3.5412 -0.9945 0.9659
7.7980 3.6555 -0.9945 0.9659
7.7437 3.7691 -0.9945 0.9659
7.6878 3.8819 -0.9945 0.9659
7.6303 3.9938 -0.9945 0.9659
7.0540 4.0956 -0.9419 0.9677
7.3841 4.4327 -0.9946 0.9659
3.7812 2.6637 -0.5341 0.9815
3.5453 2.6558 -0.5115 0.9823
3.2264 2.6454 -0.4818 0.9833
3.0793 2.6790 -0.4713 0.9837
3.0134 2.7000 -0.4672 0.9838
2.8223 2.7611 -0.4559 0.9842
2.6997 2.8002 -0.4492 0.9845
2.6397 2.8193 -0.4460 0.9846
2.5837 2.8415 -0.4435 0.9847
2.5480 2.8859 -0.4446 0.9846
2.5123 2.9306 -0.4457 0.9846
2.4826 2.9831 -0.4482 0.9845
2.4338 3.2989 -0.4734 0.9836
2.3348 3.3664 -0.4731 0.9836
2.2607 3.4720 -0.4784 0.9835
2.2366 3.5472 -0.4843 0.9833
2.5772 4.5145 -0.6003 0.9793
2.7898 6.0662 -0.7710 0.9735
2.7075 6.1212 -0.7729 0.9734
2.6380 6.2078 -0.7789 0.9732
3.0792 7.8776 -0.9767 0.9665
2.9638 7.9218 -0.9767 0.9665
2.7311 8.0051 -0.9768 0.9665
2.4960 8.0816 -0.9768 0.9665
2.3777 8.1172 -0.9768 0.9665
2.1395 8.1833 -0.9768 0.9665
2.0197 8.2137 -0.9768 0.9665
0.7405 3.4425 -0.4066 0.9859
0.6774 3.3895 -0.3992 0.9862
0.6213 3.3636 -0.3950 0.9863
0.5686 3.3517 -0.3926 0.9864
0.4952 3.2012 -0.3740 0.9870
0.4452 3.1853 -0.3714 0.9871
0.3486 3.1668 -0.3679 0.9873
0.2563 3.1809 -0.3685 0.9872
0.1171 3.2018 -0.3700 0.9872
0.0236 3.2158 -0.3714 0.9871
-0.0706 3.2297 -0.3730 0.9871
-0.1181 3.2367 -0.3740 0.9870
-0.1659 3.2437 -0.3751 0.9870
-0.2622 3.2577 -0.3774 0.9869
-0.3109 3.2647 -0.3787 0.9869
-0.4092 3.2789 -0.3816 0.9868
-0.4589 3.2860 -0.3831 0.9867
-0.5091 3.2932 -0.3848 0.9867
-0.5597 3.3004 -0.3866 0.9866
-0.6108 3.3076 -0.3884 0.9865
-0.7144 3.3221 -0.3924 0.9864
-0.7671 3.3295 -0.3946 0.9863
-0.9838 3.3596 -0.4042 0.9860
-2.8483 7.9664 -0.9770 0.9665
-2.9645 7.9239 -0.9770 0.9665
-3.0799 7.8798 -0.9770 0.9665
-3.4224 7.7374 -0.9770 0.9665
-3.5350 7.6866 -0.9770 0.9665
-3.8685 7.5244 -0.9770 0.9665
-3.9781 7.4671 -0.9770 0.9665
-4.0868 7.4082 -0.9771 0.9665
-4.1946 7.3478 -0.9771 0.9665
-3.8458 6.3017 -0.8525 0.9707
-3.8932 6.1745 -0.8429 0.9710
-3.9691 6.0957 -0.8400 0.9711
-4.0661 6.0495 -0.8417 0.9711
-5.0139 7.0083 -0.9951 0.9659
-5.2166 6.8589 -0.9951 0.9659
-5.3163 6.7820 -0.9951 0.9659
-5.4149 6.7036 -0.9951 0.9659
-0.6076 0.6882 -0.1060 0.9963
-0.5205 0.5725 -0.0893 0.9969
-0.5136 0.5486 -0.0868 0.9970
-0.5149 0.5341 -0.0857 0.9970
-0.5160 0.5199 -0.0846 0.9971
-0.5169 0.5057 -0.0835 0.9971
-0.5178 0.4505 -0.0793 0.9972
-0.5179 0.4374 -0.0783 0.9973
-0.5179 0.4246 -0.0773 0.9973
-0.5178 0.4121 -0.0764 0.9973
-0.5177 0.3998 -0.0755 0.9974
-0.5172 0.3644 -0.0731 0.9975
-0.5168 0.3420 -0.0716 0.9975
-0.5165 0.3310 -0.0708 0.9975
-0.5161 0.3202 -0.0701 0.9976
-0.5159 0.2996 -0.0689 0.9976
-0.5158 0.2797 -0.0678 0.9976
-0.5157 0.2700 -0.0672 0.9977
-0.5154 0.2509 -0.0662 0.9977
-0.5151 0.2415 -0.0657 0.9977
-0.5145 0.2231 -0.0648 0.9977
-0.5141 0.2141 -0.0643 0.9978
-0.5138 0.2052 -0.0639 0.9978
-0.5133 0.1964 -0.0635 0.9978
-0.5130 0.1877 -0.0631 0.9978
-0.5128 0.1792 -0.0627 0.9978
-0.5111 0.1377 -0.0611 0.9979
-0.5106 0.1295 -0.0608 0.9979
-0.5098 0.1136 -0.0603 0.9979
-0.5095 0.1057 -0.0601 0.9979
-0.5091 0.0980 -0.0599 0.9979
-0.5087 0.0902 -0.0597 0.9979
-0.5083 0.0825 -0.0595 0.9979
-0.5061 0.0520 -0.0588 0.9980
-0.5049 0.0370 -0.0585 0.9980
-0.5042 0.0295 -0.0583 0.9980
-0.5035 0.0221 -0.0582 0.9980
-0.5020 0.0073 -0.0580 0.9980
-0.4854 0.0000 -0.0615 0.9980
-0.4862 -0.0071 -0.0616 0.9980
-0.4876 -0.0214 -0.0619 0.9980
-0.4883 -0.0286 -0.0620 0.9980
-0.4889 -0.0358 -0.0621 0.9980
-0.4900 -0.0502 -0.0624 0.9980
-0.4905 -0.0576 -0.0626 0.9980
-0.4915 -0.0723 -0.0630 0.9980
-0.4932 -0.1098 -0.0640 0.9980
-0.4934 -0.1175 -0.0643 0.9980
-0.4936 -0.1252 -0.0645 0.9979
-0.4939 -0.1330 -0.0648 0.9979
-0.4942 -0.1408 -0.0651 0.9979
-0.4944 -0.1487 -0.0654 0.9979
-0.4947 -0.1567 -0.0658 0.9979
-0.4961 -0.2237 -0.0690 0.9978
-0.4964 -0.2506 -0.0705 0.9978
-0.4960 -0.2977 -0.0733 0.9977
-0.4955 -0.3175 -0.0746 0.9976
-0.4951 -0.3275 -0.0752 0.9976
-0.4951 -0.3597 -0.0775 0.9975
-0.4948 -0.3820 -0.0792 0.9975
-0.4944 -0.4053 -0.0810 0.9974
-0.4941 -0.4173 -0.0820 0.9974
-0.4938 -0.4295 -0.0829 0.9974
-0.4934 -0.4420 -0.0839 0.9973
-0.4929 -0.4548 -0.0850 0.9973
-0.4923 -0.4677 -0.0861 0.9973
-0.4882 -0.5369 -0.0920 0.9971
-0.5821 -0.6993 -0.1153 0.9963
-3.0192 -3.7377 -0.6089 0.9808
-4.7536 -6.2500 -0.9951 0.9688
-4.5689 -6.3862 -0.9951 0.9688
-1.9124 -3.1335 -0.4652 0.9853
-1.7187 -3.0107 -0.4393 0.9861
-1.5241 -2.7628 -0.3999 0.9874
-1.1809 -2.4720 -0.3472 0.9890
-1.1516 -2.5042 -0.3493 0.9889
-1.1220 -2.5367 -0.3515 0.9889
-1.0920 -2.5698 -0.3538 0.9888
-0.8730 -2.1407 -0.2930 0.9907
-0.9679 -2.7071 -0.3643 0.9885
-0.9358 -2.7429 -0.3673 0.9884
-0.9031 -2.7794 -0.3703 0.9883
-0.8699 -2.8165 -0.3736 0.9882
-0.7254 -3.1479 -0.4094 0.9871
-0.6902 -3.2088 -0.4159 0.9869
-0.6163 -3.3368 -0.4300 0.9864
-0.4939 -3.5352 -0.4524 0.9857
-0.4346 -3.4811 -0.4446 0.9860
-0.2772 -3.4420 -0.4376 0.9862
-0.2258 -3.4298 -0.4356 0.9862
-0.1750 -3.4179 -0.4337 0.9863
-0.1245 -3.4064 -0.4320 0.9864
-0.0247 -3.3843 -0.4289 0.9864
0.2196 -3.3348 -0.4235 0.9866
0.2679 -3.3257 -0.4228 0.9866
0.3160 -3.3169 -0.4222 0.9867
0.3640 -3.3084 -0.4218 0.9867
0.4795 -3.8404 -0.4904 0.9845
0.6251 -3.6845 -0.4736 0.9850
1.5386 -7.6979 -0.9948 0.9688
1.6508 -7.6746 -0.9948 0.9688
2.0963 -7.5649 -0.9948 0.9688
2.3164 -7.5003 -0.9948 0.9688
2.4257 -7.4657 -0.9948 0.9688
2.7506 -7.3521 -0.9948 0.9688
1.3016 -3.3300 -0.4531 0.9857
1.3387 -3.2825 -0.4492 0.9858
1.3815 -3.2508 -0.4476 0.9859
1.3595 -2.9561 -0.4123 0.9870
3.3837 -7.0828 -0.9947 0.9688
1.5507 -3.1277 -0.4424 0.9860
3.6908 -6.9276 -0.9947 0.9688
3.7915 -6.8729 -0.9947 0.9688
4.2830 -6.5777 -0.9947 0.9688
4.3787 -6.5144 -0.9947 0.9688
4.4734 -6.4497 -0.9947 0.9688
4.5671 -6.3836 -0.9947 0.9688
4.7516 -6.2474 -0.9947 0.9688
5.1084 -5.9591 -0.9946 0.9688
3.4552 -3.7999 -0.6508 0.9795
3.4321 -3.6655 -0.6364 0.9800
3.0811 -3.1957 -0.5625 0.9823
3.4229 -3.2521 -0.5983 0.9811
5.7684 -5.3224 -0.9946 0.9688
3.7823 -3.1946 -0.6274 0.9802
6.0694 -4.9763 -0.9946 0.9688
4.0172 -3.1967 -0.6506 0.9795
3.6991 -2.7709 -0.5857 0.9815
6.3496 -4.6132 -0.9946 0.9689
6.5672 -4.0740 -0.9793 0.9693
6.6260 -3.9776 -0.9793 0.9693
6.6834 -3.8803 -0.9793 0.9693
6.7393 -3.7822 -0.9793 0.9693
6.7939 -3.6834 -0.9793 0.9693
6.9487 -3.3821 -0.9793 0.9693
7.0989 -2.9556 -0.9744 0.9695
7.1770 -2.8658 -0.9793 0.9693
7.2181 -2.7607 -0.9793 0.9693
7.2576 -2.6548 -0.9793 0.9693
7.2956 -2.5486 -0.9793 0.9693
7.3321 -2.4416 -0.9793 0.9693
7.4452 -2.3591 -0.9897 0.9690
7.5476 -2.1509 -0.9945 0.9689
7.5783 -2.0405 -0.9945 0.9689
7.6073 -1.9295 -0.9945 0.9689
7.6346 -1.8181 -0.9945 0.9689
7.6604 -1.7064 -0.9945 0.9689
7.7069 -1.4818 -0.9945 0.9689
7.7644 -1.1427 -0.9945 0.9689
7.7945 -0.9153 -0.9945 0.9689
7.8179 -0.6871 -0.9945 0.9689
7.8405 -0.3439 -0.9945 0.9689
7.8447 -0.2293 -0.9945 0.9689
7.8447 0.2293 -0.9945 0.9689
7.8271 0.5729 -0.9945 0.9689
7.7945 0.9154 -0.9945 0.9689
7.7803 1.0291 -0.9945 0.9689
7.7644 1.1427 -0.9945 0.9689
7.7277 1.3691 -0.9945 0.9689
7.6604 1.7065 -0.9945 0.9689
7.6073 1.9296 -0.9945 0.9689
7.4462 2.4797 -0.9945 0.9689
7.4091 2.5883 -0.9946 0.9689
7.3304 2.8037 -0.9946 0.9689
7.2887 2.9105 -0.9946 0.9689
7.2005 3.1222 -0.9946 0.9689
7.1542 3.2271 -0.9946 0.9689
7.1063 3.3313 -0.9946 0.9689
7.0059 3.5375 -0.9946 0.9689
6.9535 3.6395 -0.9946 0.9689
6.8996 3.7407 -0.9946 0.9689
6.8442 3.8412 -0.9946 0.9689
6.7874 3.9408 -0.9946 0.9689
6.7291 4.0395 -0.9946 0.9689
6.6082 4.2345 -0.9946 0.9689
3.4579 2.6702 -0.5536 0.9825
3.3527 2.6680 -0.5430 0.9829
3.0242 2.7097 -0.5146 0.9838
2.9578 2.7291 -0.5100 0.9839
2.8925 2.7482 -0.5056 0.9840
2.7653 2.7855 -0.4974 0.9843
2.6422 2.8219 -0.4899 0.9845
2.5856 2.8436 -0.4870 0.9846
2.5500 2.8881 -0.4882 0.9846
2.5141 2.9328 -0.4895 0.9845
2.4808 2.9809 -0.4914 0.9845
2.4820 3.0726 -0.5005 0.9842
2.4793 3.2597 -0.5190 0.9836
2.3687 3.3108 -0.5159 0.9837
2.2816 3.3945 -0.5183 0.9836
2.2471 3.4511 -0.5219 0.9835
2.2210 3.5224 -0.5277 0.9834
2.2104 3.6219 -0.5377 0.9830
2.6366 4.9490 -0.7106 0.9776
2.7143 5.4745 -0.7743 0.9757
2.7227 6.1555 -0.8529 0.9732
2.6574 6.2534 -0.8610 0.9730
2.9642 7.2686 -0.9948 0.9688
2.6429 7.3917 -0.9948 0.9688
2.5346 7.4295 -0.9948 0.9688
2.3165 7.5005 -0.9948 0.9688
2.1667 7.3970 -0.9768 0.9694
1.9497 7.4573 -0.9768 0.9694
0.7282 3.3853 -0.4388 0.9861
0.6690 3.3474 -0.4326 0.9863
0.5628 3.3178 -0.4264 0.9865
0.3945 3.1590 -0.4034 0.9872
0.2554 3.1689 -0.4029 0.9873
0.2093 3.1759 -0.4033 0.9872
0.1167 3.1898 -0.4045 0.9872
-0.0233 3.2105 -0.4068 0.9871
-0.1652 3.2313 -0.4100 0.9870
-0.3096 3.2522 -0.4140 0.9869
-0.3584 3.2591 -0.4155 0.9869
-0.4571 3.2732 -0.4188 0.9868
-0.5071 3.2803 -0.4206 0.9867
-0.6084 3.2945 -0.4245 0.9866
-0.6597 3.3017 -0.4267 0.9865
-0.7640 3.3162 -0.4312 0.9864
-0.8171 3.3239 -0.4337 0.9863
-0.9254 3.3403 -0.4392 0.9861
-0.9806 3.3487 -0.4422 0.9860
-2.7512 7.3540 -0.9950 0.9688
-2.8584 7.3131 -0.9950 0.9688
-2.9649 7.2706 -0.9950 0.9688
-3.1762 7.1809 -0.9950 0.9688
-3.3847 7.0851 -0.9950 0.9688
-3.6920 6.9300 -0.9950 0.9688
-3.8929 6.8193 -0.9951 0.9688
-4.0905 6.7027 -0.9951 0.9688
-3.9295 6.2321 -0.9336 0.9707
-4.1017 6.1024 -0.9318 0.9708
-4.2512 6.1295 -0.9453 0.9704
-4.5690 6.3863 -0.9951 0.9688
-4.6618 6.3189 -0.9951 0.9688
-4.7536 6.2502 -0.9951 0.9688
-4.9343 6.1086 -0.9951 0.9688
-0.5820 0.6994 -0.1153 0.9963
-0.4976 0.5805 -0.0969 0.9969
-0.4882 0.5370 -0.0920 0.9971
-0.4929 0.4548 -0.0850 0.9973
-0.4933 0.4421 -0.0839 0.9973
-0.4944 0.4054 -0.0810 0.9974
-0.4948 0.3821 -0.0792 0.9975
-0.4950 0.3708 -0.0784 0.9975
-0.4951 0.3277 -0.0752 0.9976
-0.4962 0.2881 -0.0727 0.9977
-0.4963 0.2786 -0.0721 0.9977
-0.4963 0.2416 -0.0700 0.9978
-0.4957 0.2064 -0.0680 0.9978
-0.4952 0.1895 -0.0672 0.9979
-0.4951 0.1812 -0.0668 0.9979
-0.4950 0.1730 -0.0664 0.9979
-0.4948 0.1648 -0.0661 0.9979
-0.4946 0.1568 -0.0658 0.9979
-0.4941 0.1409 -0.0651 0.9979
-0.4934 0.1175 -0.0643 0.9980
-0.4932 0.1099 -0.0640 0.9980
-0.4926 0.0948 -0.0636 0.9980
-0.4915 0.0724 -0.0630 0.9980
-0.4910 0.0650 -0.0628 0.9980
-0.4900 0.0504 -0.0624 0.9980
-0.4889 0.0358 -0.0621 0.9980
-0.4883 0.0286 -0.0620 0.9980
-0.4876 0.0214 -0.0619 0.9980
-0.4869 0.0143 -0.0617 0.9980
-0.4706 0.0000 -0.0649 0.9981
-0.4713 -0.0069 -0.0651 0.9981
-0.4726 -0.0207 -0.0653 0.9981
-0.4744 -0.0417 -0.0657 0.9981
-0.4753 -0.0558 -0.0660 0.9981
-0.4771 -0.0917 -0.0670 0.9980
-0.4773 -0.0990 -0.0673 0.9980
-0.4779 -0.1212 -0.0680 0.9980
-0.4780 -0.1362 -0.0686 0.9980
-0.4782 -0.1515 -0.0692 0.9980
-0.4783 -0.1593 -0.0696 0.9980
-0.4784 -0.1671 -0.0699 0.9980
-0.4783 -0.1910 -0.0711 0.9979
-0.4786 -0.2075 -0.0720 0.9979
-0.4787 -0.2244 -0.0730 0.9979
-0.4786 -0.2329 -0.0735 0.9979
-0.4786 -0.2416 -0.0740 0.9978
-0.4783 -0.2593 -0.0751 0.9978
-0.4775 -0.2866 -0.0769 0.9978
-0.4767 -0.3054 -0.0781 0.9977
-0.4762 -0.3150 -0.0788 0.9977
-0.4745 -0.3448 -0.0809 0.9976
-0.4734 -0.3766 -0.0835 0.9976
-0.4729 -0.3877 -0.0844 0.9975
-0.4724 -0.3990 -0.0853 0.9975
-0.4704 -0.4341 -0.0883 0.9974
-0.4697 -0.4462 -0.0894 0.9974
-0.4688 -0.4586 -0.0905 0.9974
-0.4678 -0.4712 -0.0916 0.9973
-0.4668 -0.4841 -0.0928 0.9973
-0.4657 -0.4973 -0.0940 0.9973
-0.4631 -0.5245 -0.0966 0.9972
-0.4617 -0.5386 -0.0979 0.9971
-0.4603 -0.5530 -0.0993 0.9971
-0.4734 -0.5861 -0.1040 0.9970
-4.3651 -5.7393 -0.9951 0.9713
-4.2808 -5.8024 -0.9951 0.9713
-4.1956 -5.8643 -0.9951 0.9713
-4.1094 -5.9250 -0.9951 0.9713
-3.8458 -6.0993 -0.9950 0.9713
-2.2206 -3.6386 -0.5882 0.9829
-1.7933 -3.0373 -0.4867 0.9859
-1.4966 -2.7129 -0.4276 0.9876
-1.4723 -2.7636 -0.4321 0.9874
-1.4474 -2.8152 -0.4368 0.9873
-1.4219 -2.8678 -0.4417 0.9872
-1.1901 -2.4913 -0.3810 0.9889
-1.1606 -2.5237 -0.3833 0.9888
-1.1007 -2.5901 -0.3884 0.9887
-0.9468 -2.6480 -0.3881 0.9887
-0.9106 -2.8024 -0.4066 0.9882
-0.8771 -2.8401 -0.4102 0.9881
-0.7745 -2.6441 -0.3802 0.9889
-0.7824 -2.8233 -0.4043 0.9882
-0.7628 -3.1024 -0.4409 0.9872
-0.7286 -3.1618 -0.4478 0.9870
-0.6933 -3.2233 -0.4550 0.9868
-0.6192 -3.3524 -0.4705 0.9863
-0.5398 -3.4910 -0.4875 0.9858
-0.5256 -3.7617 -0.5242 0.9848
-0.3685 -7.1999 -0.9949 0.9713
-0.0278 -3.8086 -0.5256 0.9847
0.0251 -3.4307 -0.4735 0.9862
0.0748 -3.4129 -0.4711 0.9863
0.1729 -3.3763 -0.4665 0.9864
0.2211 -3.3577 -0.4644 0.9865
0.3163 -3.3197 -0.4602 0.9866
0.4249 -3.4030 -0.4733 0.9862
0.5629 -3.6400 -0.5083 0.9852
1.3094 -7.0889 -0.9948 0.9713
1.4128 -7.0690 -0.9948 0.9713
1.6188 -7.0246 -0.9948 0.9713
1.7212 -7.0002 -0.9948 0.9713
2.0263 -6.9179 -0.9948 0.9713
2.2276 -6.8557 -0.9948 0.9713
2.3275 -6.8223 -0.9948 0.9713
2.5258 -6.7514 -0.9948 0.9713
1.3410 -3.2882 -0.4901 0.9858
1.4302 -3.2334 -0.4879 0.9858
1.5280 -3.1984 -0.4892 0.9858
1.6007 -3.1134 -0.4831 0.9860
3.3892 -6.3616 -0.9947 0.9713
3.4818 -6.3115 -0.9947 0.9713
3.5736 -6.2599 -0.9947 0.9713
1.7505 -2.9648 -0.4751 0.9862
3.7550 -6.1527 -0.9947 0.9713
3.8445 -6.0971 -0.9947 0.9713
4.0210 -5.9822 -0.9947 0.9713
4.1940 -5.8621 -0.9947 0.9713
4.2792 -5.8002 -0.9947 0.9713
4.4468 -5.6726 -0.9947 0.9713
4.5292 -5.6070 -0.9947 0.9713
4.6106 -5.5402 -0.9947 0.9713
3.4720 -3.7080 -0.7010 0.9797
3.0828 -3.1975 -0.6129 0.9822
3.3779 -3.3046 -0.6521 0.9811
3.4652 -3.2923 -0.6596 0.9809
5.2971 -4.8876 -0.9946 0.9713
3.7184 -3.2350 -0.6802 0.9803
5.5062 -4.6508 -0.9946 0.9713
5.7416 -4.1714 -0.9794 0.9717
5.8019 -4.0871 -0.9794 0.9717
5.8610 -4.0019 -0.9794 0.9717
5.9188 -3.9158 -0.9794 0.9717
5.9754 -3.8289 -0.9794 0.9718
6.0307 -3.7412 -0.9794 0.9718
6.0847 -3.6527 -0.9794 0.9718
6.1374 -3.5633 -0.9794 0.9718
6.2389 -3.3825 -0.9794 0.9718
6.0003 -2.7065 -0.9084 0.9738
6.6285 -2.5352 -0.9793 0.9718
6.7679 -2.3642 -0.9893 0.9715
6.8379 -2.2771 -0.9946 0.9713
6.9592 -1.8737 -0.9946 0.9713
6.9859 -1.7719 -0.9946 0.9713
7.0110 -1.6696 -0.9946 0.9713
7.0346 -1.5670 -0.9946 0.9713
7.0568 -1.4641 -0.9946 0.9713
7.0965 -1.2572 -0.9946 0.9713
7.1141 -1.1534 -0.9946 0.9713
7.1302 -1.0493 -0.9946 0.9713
7.1448 -0.9450 -0.9946 0.9713
7.1579 -0.8405 -0.9946 0.9713
7.1693 -0.7358 -0.9946 0.9713
7.1794 -0.6310 -0.9946 0.9713
7.1878 -0.5260 -0.9946 0.9713
7.1947 -0.4209 -0.9946 0.9713
7.2001 -0.3158 -0.9946 0.9713
7.2039 -0.2106 -0.9946 0.9713
7.2039 0.2106 -0.9946 0.9713
7.1947 0.4211 -0.9946 0.9713
7.1693 0.7359 -0.9946 0.9713
7.1579 0.8406 -0.9946 0.9713
7.1448 0.9451 -0.9946 0.9713
7.1142 1.1535 -0.9946 0.9713
7.0568 1.4641 -0.9946 0.9713
6.9859 1.7720 -0.9946 0.9713
6.9592 1.8739 -0.9946 0.9713
6.8705 2.1770 -0.9946 0.9713
6.8379 2.2772 -0.9946 0.9713
6.7685 2.4760 -0.9946 0.9713
6.7316 2.5746 -0.9946 0.9713
6.6535 2.7702 -0.9946 0.9713
6.6124 2.8671 -0.9946 0.9713
6.5698 2.9635 -0.9946 0.9713
6.5258 3.0592 -0.9946 0.9713
6.4336 3.2486 -0.9946 0.9713
6.3855 3.3422 -0.9946 0.9713
6.3360 3.4352 -0.9946 0.9713
6.2329 3.6189 -0.9946 0.9713
6.1794 3.7096 -0.9946 0.9713
6.1246 3.7995 -0.9946 0.9713
6.0684 3.8886 -0.9946 0.9713
3.8622 2.7208 -0.6519 0.9811
3.7129 2.6976 -0.6333 0.9816
3.5948 2.6929 -0.6198 0.9820
3.2889 2.6966 -0.5869 0.9830
3.1950 2.6987 -0.5771 0.9833
3.1185 2.7130 -0.5704 0.9834
2.9717 2.7420 -0.5580 0.9838
2.9060 2.7610 -0.5531 0.9839
2.8414 2.7798 -0.5485 0.9841
2.7779 2.7983 -0.5441 0.9842
2.7155 2.8166 -0.5399 0.9843
2.6541 2.8346 -0.5359 0.9844
2.5519 2.8902 -0.5321 0.9846
2.5160 2.9350 -0.5335 0.9845
2.4800 2.9800 -0.5350 0.9845
2.4802 3.0704 -0.5447 0.9842
2.4814 3.1654 -0.5550 0.9839
2.4115 3.2686 -0.5605 0.9837
2.2727 3.3812 -0.5622 0.9837
2.5773 4.5146 -0.7174 0.9792
2.6426 4.9602 -0.7756 0.9776
2.7535 6.2252 -0.9393 0.9729
2.4270 6.7878 -0.9948 0.9713
2.3275 6.8225 -0.9948 0.9713
2.2276 6.8559 -0.9948 0.9713
2.0263 6.9181 -0.9948 0.9713
1.9250 6.9470 -0.9948 0.9713
1.8233 6.9744 -0.9948 0.9713
0.7201 3.3476 -0.4725 0.9863
0.6094 3.2991 -0.4630 0.9865
0.5584 3.2913 -0.4607 0.9866
0.4942 3.1948 -0.4461 0.9870
0.4435 3.1732 -0.4421 0.9871
0.3937 3.1521 -0.4384 0.9873
0.3461 3.1444 -0.4365 0.9873
0.2545 3.1584 -0.4373 0.9873
0.0700 3.1868 -0.4399 0.9872
-0.0232 3.2011 -0.4417 0.9872
-0.3577 3.2522 -0.4515 0.9869
-0.4068 3.2596 -0.4533 0.9868
-0.4563 3.2672 -0.4552 0.9868
-0.6076 3.2902 -0.4617 0.9866
-0.7109 3.3059 -0.4666 0.9864
-0.7635 3.3139 -0.4693 0.9864
-0.8166 3.3219 -0.4721 0.9863
-0.8704 3.3300 -0.4750 0.9862
-0.9249 3.3383 -0.4780 0.9861
-0.9801 3.3466 -0.4812 0.9860
-1.1127 3.4250 -0.4970 0.9856
-1.2873 3.6005 -0.5277 0.9847
-2.8200 6.6360 -0.9950 0.9713
-2.9166 6.5941 -0.9950 0.9713
-3.1081 6.5061 -0.9950 0.9713
-3.3903 6.3637 -0.9950 0.9713
-3.4829 6.3135 -0.9950 0.9713
-3.6659 6.2091 -0.9950 0.9713
-3.7562 6.1549 -0.9950 0.9713
-3.9345 6.0426 -0.9951 0.9713
-4.0224 5.9845 -0.9951 0.9713
-4.2809 5.8025 -0.9951 0.9713
-0.4603 0.5531 -0.0993 0.9971
-0.4618 0.5387 -0.0979 0.9971
-0.4632 0.5246 -0.0966 0.9972
-0.4645 0.5109 -0.0953 0.9972
-0.4678 0.4713 -0.0916 0.9973
-0.4688 0.4587 -0.0905 0.9974
-0.4696 0.4462 -0.0894 0.9974
-0.4712 0.4222 -0.0873 0.9974
-0.4718 0.4105 -0.0863 0.9975
-0.4729 0.3878 -0.0844 0.9975
-0.4734 0.3767 -0.0835 0.9976
-0.4742 0.3553 -0.0818 0.9976
-0.4751 0.3347 -0.0802 0.9977
-0.4756 0.3248 -0.0795 0.9977
-0.4762 0.3151 -0.0788 0.9977
-0.4767 0.3055 -0.0781 0.9977
-0.4771 0.2960 -0.0775 0.9977
-0.4778 0.2774 -0.0762 0.9978
-0.4780 0.2684 -0.0756 0.9978
-0.4784 0.2505 -0.0745 0.9978
-0.4786 0.2330 -0.0735 0.9979
-0.4786 0.2245 -0.0730 0.9979
-0.4785 0.1993 -0.0715 0.9979
-0.4783 0.1911 -0.0711 0.9979
-0.4784 0.1830 -0.0707 0.9979
-0.4781 0.1439 -0.0689 0.9980
-0.4779 0.1212 -0.0680 0.9980
-0.4776 0.1064 -0.0675 0.9980
-0.4771 0.0918 -0.0670 0.9980
-0.4768 0.0845 -0.0668 0.9980
-0.4762 0.0701 -0.0664 0.9981
-0.4758 0.0630 -0.0662 0.9981
-0.4749 0.0487 -0.0659 0.9981
-0.4744 0.0417 -0.0657 0.9981
-0.4720 0.0139 -0.0652 0.9981
-0.4596 -0.0336 -0.0688 0.9981
-0.4617 -0.0679 -0.0697 0.9981
-0.4623 -0.0819 -0.0701 0.9981
-0.4625 -0.0889 -0.0703 0.9981
-0.4627 -0.0960 -0.0706 0.9981
-0.4628 -0.1030 -0.0708 0.9981
-0.4630 -0.1174 -0.0713 0.9981
-0.4630 -0.1246 -0.0716 0.9981
-0.4630 -0.1319 -0.0719 0.9981
-0.4630 -0.1393 -0.0722 0.9980
-0.4628 -0.1616 -0.0732 0.9980
-0.4628 -0.1693 -0.0736 0.9980
-0.4627 -0.1770 -0.0740 0.9980
-0.4625 -0.1846 -0.0744 0.9980
-0.4624 -0.1925 -0.0748 0.9980
-0.4622 -0.2166 -0.0762 0.9979
-0.4621 -0.2249 -0.0767 0.9979
-0.4617 -0.2416 -0.0778 0.9979
-0.4611 -0.2587 -0.0789 0.9979
-0.4607 -0.2674 -0.0795 0.9978
-0.4586 -0.3034 -0.0821 0.9978
-0.4572 -0.3220 -0.0835 0.9977
-0.4564 -0.3316 -0.0842 0.9977
-0.4556 -0.3413 -0.0850 0.9977
-0.4539 -0.3612 -0.0866 0.9977
-0.4499 -0.4151 -0.0914 0.9975
-0.4489 -0.4265 -0.0925 0.9975
-0.4478 -0.4381 -0.0935 0.9975
-0.4467 -0.4499 -0.0947 0.9974
-0.4454 -0.4620 -0.0958 0.9974
-0.4427 -0.4868 -0.0982 0.9973
-0.4396 -0.5127 -0.1008 0.9973
-0.4385 -0.5428 -0.1042 0.9972
-0.4379 -0.5586 -0.1060 0.9971
-0.5187 -0.7030 -0.1304 0.9965
-3.8777 -5.4200 -0.9950 0.9734
-3.7176 -5.5309 -0.9950 0.9734
-3.4716 -5.6885 -0.9950 0.9734
-1.4936 -2.6163 -0.4498 0.9879
-1.1398 -2.5770 -0.4207 0.9887
-1.1095 -2.6109 -0.4236 0.9886
-0.8422 -2.1546 -0.3454 0.9907
-0.8726 -2.3323 -0.3718 0.9900
-0.7319 -3.1761 -0.4866 0.9869
-0.5830 -3.4369 -0.5205 0.9860
-0.5425 -3.5078 -0.5300 0.9857
-0.4601 -3.6855 -0.5546 0.9851
-0.4017 -3.6510 -0.5484 0.9853
-0.1707 -3.3342 -0.4985 0.9866
-0.1213 -3.3190 -0.4959 0.9867
-0.0240 -3.2877 -0.4909 0.9868
0.0714 -3.2554 -0.4862 0.9869
0.1184 -3.2388 -0.4839 0.9870
0.1649 -3.2220 -0.4817 0.9870
0.2110 -3.2049 -0.4796 0.9871
0.2567 -3.1875 -0.4775 0.9872
0.3468 -3.1520 -0.4735 0.9873
1.1143 -6.5689 -0.9948 0.9734
1.2102 -6.5520 -0.9948 0.9734
1.3058 -6.5336 -0.9948 0.9734
1.4962 -6.4925 -0.9948 0.9734
1.5909 -6.4700 -0.9948 0.9734
2.0588 -6.3364 -0.9948 0.9734
2.1512 -6.3057 -0.9948 0.9734
2.2431 -6.2735 -0.9948 0.9734
2.3345 -6.2400 -0.9948 0.9734
1.3062 -3.3417 -0.5357 0.9856
1.3433 -3.2939 -0.5311 0.9857
1.3815 -3.2507 -0.5274 0.9858
1.4302 -3.2334 -0.5279 0.9858
1.3692 -2.9771 -0.4893 0.9868
1.5280 -3.1984 -0.5293 0.9858
1.5544 -3.1351 -0.5225 0.9859
1.6026 -3.1170 -0.5233 0.9859
3.1325 -5.8798 -0.9947 0.9734
3.2181 -5.8334 -0.9947 0.9734
3.4706 -5.6867 -0.9947 0.9734
3.6353 -5.5828 -0.9947 0.9734
3.7164 -5.5291 -0.9947 0.9734
4.0330 -5.3025 -0.9947 0.9734
4.1862 -5.1823 -0.9947 0.9734
4.2615 -5.1206 -0.9947 0.9734
4.3358 -5.0578 -0.9947 0.9734
4.4092 -4.9939 -0.9947 0.9734
4.4817 -4.9289 -0.9947 0.9734
3.4950 -3.7327 -0.7635 0.9795
3.1055 -3.2210 -0.6681 0.9821
3.5087 -3.3336 -0.7226 0.9806
3.7354 -3.2498 -0.7393 0.9802
3.9581 -3.2453 -0.7642 0.9795
3.6719 -2.9220 -0.7007 0.9812
3.7373 -2.7996 -0.6972 0.9813
5.3068 -3.8556 -0.9794 0.9738
5.3625 -3.7776 -0.9794 0.9738
5.4706 -3.6193 -0.9794 0.9738
5.6726 -3.2935 -0.9794 0.9738
5.7201 -3.2103 -0.9794 0.9738
5.7664 -3.1263 -0.9794 0.9738
5.8115 -3.0417 -0.9794 0.9738
5.7371 -2.8968 -0.9596 0.9743
5.9792 -2.6971 -0.9794 0.9738
6.0180 -2.6094 -0.9794 0.9738
6.2887 -2.1968 -0.9946 0.9734
6.3501 -2.0121 -0.9946 0.9734
6.4062 -1.8257 -0.9946 0.9734
6.4568 -1.6377 -0.9946 0.9734
6.4801 -1.5432 -0.9946 0.9734
6.5019 -1.4484 -0.9946 0.9734
6.5902 -0.9699 -0.9946 0.9734
6.6037 -0.8734 -0.9946 0.9734
6.6158 -0.7769 -0.9946 0.9734
6.6264 -0.6802 -0.9946 0.9734
6.6357 -0.5832 -0.9946 0.9734
6.6499 -0.3891 -0.9946 0.9734
6.6584 -0.1946 -0.9946 0.9734
6.6584 0.1947 -0.9946 0.9734
6.6548 0.2919 -0.9946 0.9734
6.6499 0.3891 -0.9946 0.9734
6.6435 0.4863 -0.9946 0.9734
6.6264 0.6802 -0.9946 0.9734
6.6158 0.7770 -0.9946 0.9734
6.5591 1.1621 -0.9946 0.9734
6.5414 1.2578 -0.9946 0.9734
6.5224 1.3532 -0.9946 0.9734
6.5019 1.4484 -0.9946 0.9734
6.4568 1.6378 -0.9946 0.9734
6.4322 1.7320 -0.9946 0.9734
6.4062 1.8257 -0.9946 0.9734
6.3502 2.0121 -0.9946 0.9734
6.3201 2.1047 -0.9946 0.9734
6.2559 2.2885 -0.9946 0.9734
6.1116 2.6501 -0.9946 0.9734
6.0723 2.7391 -0.9946 0.9734
5.9896 2.9154 -0.9946 0.9734
5.9019 3.0891 -0.9946 0.9734
5.8562 3.1751 -0.9946 0.9734
5.8092 3.2603 -0.9946 0.9734
5.6607 3.5118 -0.9946 0.9734
5.6088 3.5941 -0.9946 0.9734
5.5557 3.6757 -0.9946 0.9734
5.5014 3.7565 -0.9946 0.9734
3.7510 2.7253 -0.6923 0.9814
3.4220 2.7231 -0.6529 0.9825
3.2262 2.7250 -0.6305 0.9831
3.0692 2.7500 -0.6153 0.9835
2.9953 2.7637 -0.6085 0.9837
2.9231 2.7773 -0.6020 0.9838
2.8547 2.7927 -0.5963 0.9840
2.6661 2.8475 -0.5824 0.9843
2.4784 3.0681 -0.5889 0.9842
2.4796 3.1630 -0.6001 0.9839
2.3541 3.2904 -0.6041 0.9838
2.3079 3.3276 -0.6046 0.9838
2.2321 3.4280 -0.6108 0.9836
2.2046 3.4965 -0.6172 0.9834
2.5520 4.3224 -0.7494 0.9799
2.5815 4.5220 -0.7774 0.9792
2.6137 4.7378 -0.8079 0.9784
3.1325 5.8800 -0.9947 0.9734
2.8719 6.0116 -0.9948 0.9734
2.6950 6.0930 -0.9948 0.9734
2.6057 6.1318 -0.9948 0.9734
2.4254 6.2054 -0.9948 0.9734
2.2431 6.2737 -0.9948 0.9734
2.0589 6.3366 -0.9948 0.9734
1.8729 6.3941 -0.9948 0.9734
1.6852 6.4461 -0.9948 0.9734
1.5909 6.4701 -0.9948 0.9734
0.7763 3.3688 -0.5162 0.9861
0.6581 3.2929 -0.5014 0.9865
0.5548 3.2706 -0.4953 0.9867
0.4431 3.1703 -0.4779 0.9871
0.3459 3.1427 -0.4720 0.9873
0.2544 3.1567 -0.4728 0.9873
0.2085 3.1638 -0.4734 0.9873
0.1625 3.1708 -0.4740 0.9872
0.0700 3.1850 -0.4757 0.9872
0.0235 3.1921 -0.4766 0.9872
-0.1647 3.2209 -0.4815 0.9870
-0.3087 3.2429 -0.4864 0.9869
-0.3575 3.2503 -0.4882 0.9869
-0.4065 3.2577 -0.4902 0.9868
-0.5563 3.2805 -0.4968 0.9866
-0.6072 3.2883 -0.4993 0.9866
-0.7630 3.3119 -0.5074 0.9863
-0.8161 3.3199 -0.5104 0.9863
-0.9243 3.3362 -0.5169 0.9861
-0.9794 3.3446 -0.5203 0.9860
-1.0375 3.3600 -0.5251 0.9859
-1.2028 3.5257 -0.5562 0.9850
-2.3350 6.2414 -0.9950 0.9734
-2.4260 6.2067 -0.9950 0.9734
-2.7844 6.0545 -0.9950 0.9734
-3.0471 5.9267 -0.9950 0.9734
-3.2190 5.8352 -0.9950 0.9734
-3.3039 5.7876 -0.9950 0.9734
-3.7177 5.5311 -0.9950 0.9734
-3.7981 5.4761 -0.9950 0.9734
-0.5186 0.7029 -0.1304 0.9965
-0.4379 0.5586 -0.1060 0.9971
-0.4385 0.5429 -0.1042 0.9972
-0.4395 0.5128 -0.1008 0.9973
-0.4412 0.4997 -0.0995 0.9973
-0.4427 0.4869 -0.0982 0.9973
-0.4441 0.4743 -0.0970 0.9974
-0.4454 0.4620 -0.0958 0.9974
-0.4467 0.4500 -0.0947 0.9974
-0.4489 0.4266 -0.0925 0.9975
-0.4499 0.4152 -0.0914 0.9975
-0.4517 0.3930 -0.0894 0.9976
-0.4539 0.3612 -0.0866 0.9977
-0.4547 0.3511 -0.0858 0.9977
-0.4564 0.3316 -0.0842 0.9977
-0.4572 0.3221 -0.0835 0.9977
-0.4586 0.3034 -0.0821 0.9978
-0.4597 0.2852 -0.0808 0.9978
-0.4602 0.2763 -0.0801 0.9978
-0.4611 0.2588 -0.0789 0.9979
-0.4614 0.2502 -0.0784 0.9979
-0.4617 0.2417 -0.0778 0.9979
-0.4619 0.2333 -0.0773 0.9979
-0.4623 0.2086 -0.0757 0.9980
-0.4624 0.2005 -0.0752 0.9980
-0.4625 0.1848 -0.0744 0.9980
-0.4628 0.1693 -0.0736 0.9980
-0.4629 0.1467 -0.0725 0.9980
-0.4630 0.1393 -0.0722 0.9980
-0.4630 0.1320 -0.0719 0.9981
-0.4630 0.1247 -0.0716 0.9981
-0.4629 0.1103 -0.0711 0.9981
-0.4625 0.0889 -0.0703 0.9981
-0.4620 0.0749 -0.0699 0.9981
-0.4617 0.0680 -0.0697 0.9981
-0.4614 0.0611 -0.0695 0.9981
-0.4606 0.0473 -0.0691 0.9981
-0.4601 0.0405 -0.0690 0.9981
-0.4597 0.0337 -0.0688 0.9981
-0.4585 0.0202 -0.0685 0.9981
-0.4573 0.0067 -0.0683 0.9982
-0.4441 -0.0065 -0.0714 0.9982
-0.4447 -0.0130 -0.0715 0.9982
-0.4452 -0.0195 -0.0716 0.9982
-0.4458 -0.0260 -0.0717 0.9982
-0.4462 -0.0326 -0.0719 0.9982
-0.4467 -0.0392 -0.0720 0.9982
-0.4471 -0.0459 -0.0722 0.9982
-0.4478 -0.0592 -0.0726 0.9982
-0.4483 -0.0727 -0.0730 0.9982
-0.4487 -0.0862 -0.0734 0.9982
-0.4489 -0.0931 -0.0736 0.9981
-0.4490 -0.1000 -0.0739 0.9981
-0.4490 -0.1139 -0.0744 0.9981
-0.4490 -0.1209 -0.0747 0.9981
-0.4489 -0.1279 -0.0750 0.9981
-0.4488 -0.1350 -0.0753 0.9981
-0.4487 -0.1421 -0.0756 0.9981
-0.4480 -0.1639 -0.0766 0.9981
-0.4479 -0.1713 -0.0770 0.9981
-0.4470 -0.2016 -0.0788 0.9980
-0.4466 -0.2173 -0.0798 0.9980
-0.4463 -0.2253 -0.0803 0.9980
-0.4452 -0.2498 -0.0820 0.9979
-0.4447 -0.2581 -0.0826 0.9979
-0.4441 -0.2666 -0.0832 0.9979
-0.4429 -0.2837 -0.0845 0.9979
-0.4422 -0.2925 -0.0852 0.9979
-0.4414 -0.3014 -0.0859 0.9978
-0.4406 -0.3104 -0.0866 0.9978
-0.4377 -0.3379 -0.0888 0.9978
-0.4366 -0.3474 -0.0896 0.9977
-0.4321 -0.3871 -0.0932 0.9977
-0.4311 -0.3977 -0.0942 0.9976
-0.4299 -0.4084 -0.0953 0.9976
-0.4287 -0.4193 -0.0963 0.9976
-0.4273 -0.4304 -0.0974 0.9975
-0.4264 -0.4423 -0.0987 0.9975
-0.4254 -0.4679 -0.1016 0.9974
-0.4236 -0.5089 -0.1064 0.9973
-0.4228 -0.5234 -0.1081 0.9973
-0.4267 -0.5784 -0.1155 0.9971
-3.3795 -5.1902 -0.9950 0.9752
-3.3033 -5.2389 -0.9950 0.9752
-1.4677 -2.5709 -0.4756 0.9881
-1.4443 -2.6180 -0.4804 0.9880
-1.4203 -2.6659 -0.4853 0.9878
-1.1185 -2.6320 -0.4595 0.9885
-0.7897 -1.9363 -0.3360 0.9916
-0.8720 -2.4389 -0.4161 0.9896
-0.9087 -2.6638 -0.4522 0.9887
-0.7771 -2.8042 -0.4675 0.9883
-0.7855 -3.0045 -0.4989 0.9875
-0.5058 -3.2708 -0.5317 0.9867
-0.4554 -3.2593 -0.5287 0.9868
-0.4054 -3.2473 -0.5258 0.9868
-0.3560 -3.2352 -0.5229 0.9869
-0.2585 -3.2097 -0.5173 0.9870
-0.1629 -3.1831 -0.5121 0.9872
-0.1158 -3.1694 -0.5095 0.9872
0.0229 -3.1263 -0.5023 0.9874
0.0682 -3.1114 -0.5000 0.9875
0.1132 -3.0962 -0.4978 0.9875
0.1577 -3.0807 -0.4956 0.9876
0.2018 -3.0650 -0.4935 0.9876
0.2889 -3.0326 -0.4894 0.9877
0.3319 -3.0161 -0.4875 0.9878
0.3745 -2.9992 -0.4856 0.9878
1.1248 -6.0892 -0.9948 0.9752
1.3022 -6.0537 -0.9948 0.9752
1.3905 -6.0340 -0.9948 0.9752
1.4785 -6.0130 -0.9948 0.9752
1.9134 -5.8889 -0.9948 0.9752
1.9993 -5.8603 -0.9948 0.9752
2.0847 -5.8304 -0.9948 0.9752
1.3085 -3.3477 -0.5775 0.9855
1.3457 -3.2997 -0.5725 0.9857
1.3822 -3.2526 -0.5678 0.9858
1.4302 -3.2334 -0.5680 0.9858
1.5562 -3.1387 -0.5628 0.9859
2.9908 -5.4214 -0.9947 0.9752
1.7589 -2.9790 -0.5558 0.9861
3.3024 -5.2374 -0.9947 0.9752
3.3785 -5.1885 -0.9947 0.9752
3.4540 -5.1386 -0.9947 0.9752
3.5287 -5.0876 -0.9947 0.9752
3.7482 -4.9280 -0.9947 0.9752
3.8198 -4.8727 -0.9947 0.9752
3.8905 -4.8164 -0.9947 0.9752
3.9605 -4.7590 -0.9947 0.9752
4.0296 -4.7006 -0.9947 0.9752
4.0979 -4.6412 -0.9947 0.9752
4.2317 -4.5195 -0.9947 0.9752
3.1286 -3.2450 -0.7242 0.9819
3.2221 -3.2457 -0.7348 0.9816
3.3755 -3.3023 -0.7587 0.9811
3.5461 -3.3692 -0.7858 0.9804
4.4806 -4.1341 -0.9794 0.9756
3.8755 -3.2734 -0.8150 0.9797
3.6912 -2.9373 -0.7579 0.9811
3.7241 -2.8755 -0.7559 0.9811
4.9838 -3.5109 -0.9794 0.9756
5.0843 -3.3637 -0.9794 0.9756
5.1329 -3.2890 -0.9794 0.9756
5.1804 -3.2137 -0.9794 0.9756
5.4011 -2.8269 -0.9794 0.9756
5.4418 -2.7477 -0.9794 0.9756
5.4814 -2.6679 -0.9794 0.9756
5.5930 -2.4251 -0.9794 0.9756
5.7496 -2.2959 -0.9946 0.9752
5.7825 -2.2116 -0.9946 0.9752
5.8141 -2.1269 -0.9946 0.9752
5.8446 -2.0416 -0.9946 0.9752
5.9017 -1.8700 -0.9946 0.9752
5.9284 -1.7836 -0.9946 0.9752
5.9538 -1.6968 -0.9946 0.9752
5.9780 -1.6096 -0.9946 0.9752
6.0225 -1.4342 -0.9946 0.9752
6.0618 -1.2576 -0.9946 0.9752
6.0795 -1.1689 -0.9946 0.9752
6.0960 -1.0799 -0.9946 0.9752
6.1111 -0.9907 -0.9946 0.9752
6.1374 -0.8117 -0.9946 0.9752
6.1671 -0.5420 -0.9946 0.9752
6.1743 -0.4519 -0.9946 0.9752
6.1849 -0.2712 -0.9946 0.9752
6.1902 -0.0905 -0.9946 0.9752
6.1909 0.0000 -0.9946 0.9752
6.1882 0.1809 -0.9946 0.9752
6.1803 0.3617 -0.9946 0.9752
6.1671 0.5421 -0.9946 0.9752
6.1374 0.8119 -0.9946 0.9752
6.1249 0.9014 -0.9946 0.9752
6.1111 0.9908 -0.9946 0.9752
6.0225 1.4343 -0.9946 0.9752
6.0009 1.5221 -0.9946 0.9752
5.9780 1.6096 -0.9946 0.9752
5.8738 1.9562 -0.9946 0.9752
5.8446 2.0418 -0.9946 0.9752
5.8141 2.1269 -0.9946 0.9752
5.7825 2.2116 -0.9946 0.9752
5.6056 2.6279 -0.9946 0.9752
5.5667 2.7095 -0.9946 0.9752
5.5265 2.7905 -0.9946 0.9752
5.4851 2.8710 -0.9946 0.9752
5.4426 2.9509 -0.9946 0.9752
5.3989 3.0301 -0.9946 0.9752
5.3081 3.1865 -0.9946 0.9752
5.2610 3.2637 -0.9946 0.9752
5.1129 3.4912 -0.9947 0.9752
3.9394 3.0419 -0.7996 0.9800
3.3638 2.7580 -0.6988 0.9825
3.2588 2.7526 -0.6853 0.9829
2.8757 2.8134 -0.6463 0.9838
2.8058 2.8264 -0.6398 0.9840
2.6197 2.8811 -0.6256 0.9843
2.5688 2.9095 -0.6235 0.9844
2.4838 2.9845 -0.6238 0.9844
2.4609 3.2356 -0.6531 0.9837
2.2648 3.3695 -0.6522 0.9837
2.2027 3.4935 -0.6635 0.9834
2.1887 3.5864 -0.6750 0.9831
3.0697 5.3772 -0.9947 0.9752
2.9908 5.4215 -0.9947 0.9752
2.6691 5.5871 -0.9948 0.9752
2.5047 5.6627 -0.9948 0.9752
2.4217 5.6988 -0.9948 0.9752
2.1696 5.7995 -0.9948 0.9752
2.0847 5.8305 -0.9948 0.9752
1.9135 5.8890 -0.9948 0.9752
1.8272 5.9164 -0.9948 0.9752
1.6536 5.9673 -0.9948 0.9752
0.7705 3.3438 -0.5513 0.9862
0.7099 3.3004 -0.5424 0.9864
0.6546 3.2751 -0.5366 0.9866
0.6023 3.2607 -0.5327 0.9867
0.3000 3.1479 -0.5080 0.9873
0.2084 3.1620 -0.5091 0.9872
0.1624 3.1691 -0.5098 0.9872
0.0235 3.1904 -0.5125 0.9872
-0.0232 3.1975 -0.5137 0.9871
-0.1172 3.2118 -0.5163 0.9871
-0.1646 3.2191 -0.5178 0.9870
-0.2603 3.2337 -0.5212 0.9869
-0.3086 3.2410 -0.5230 0.9869
-0.3573 3.2484 -0.5250 0.9868
-0.4558 3.2634 -0.5294 0.9867
-0.7101 3.3020 -0.5426 0.9864
-0.8156 3.3179 -0.5489 0.9863
-0.9788 3.3425 -0.5595 0.9860
-1.1092 3.4145 -0.5768 0.9856
-2.1700 5.8005 -0.9950 0.9752
-2.2546 5.7682 -0.9950 0.9752
-2.3386 5.7347 -0.9950 0.9752
-2.4222 5.7000 -0.9950 0.9752
-2.5877 5.6268 -0.9950 0.9752
-2.6697 5.5884 -0.9950 0.9752
-3.0705 5.3787 -0.9950 0.9752
-3.2264 5.2867 -0.9950 0.9752
-3.5298 5.0893 -0.9950 0.9752
-0.4648 0.6496 -0.1283 0.9968
-0.4267 0.5784 -0.1155 0.9971
-0.4210 0.5536 -0.1117 0.9972
-0.4219 0.5383 -0.1099 0.9972
-0.4228 0.5234 -0.1081 0.9973
-0.4235 0.5090 -0.1064 0.9973
-0.4242 0.4949 -0.1047 0.9974
-0.4254 0.4679 -0.1016 0.9974
-0.4259 0.4550 -0.1001 0.9975
-0.4264 0.4423 -0.0987 0.9975
-0.4273 0.4305 -0.0974 0.9975
-0.4310 0.3977 -0.0942 0.9976
-0.4331 0.3769 -0.0922 0.9977
-0.4354 0.3570 -0.0905 0.9977
-0.4397 0.3195 -0.0873 0.9978
-0.4406 0.3104 -0.0866 0.9978
-0.4414 0.3014 -0.0859 0.9978
-0.4422 0.2926 -0.0852 0.9979
-0.4456 0.2416 -0.0814 0.9979
-0.4466 0.2174 -0.0798 0.9980
-0.4471 0.1939 -0.0783 0.9980
-0.4474 0.1863 -0.0779 0.9980
-0.4487 0.1422 -0.0756 0.9981
-0.4490 0.1209 -0.0747 0.9981
-0.4490 0.1139 -0.0744 0.9981
-0.4489 0.1001 -0.0739 0.9981
-0.4488 0.0931 -0.0736 0.9981
-0.4481 0.0660 -0.0728 0.9982
-0.4471 0.0459 -0.0722 0.9982
-0.4467 0.0393 -0.0720 0.9982
-0.4462 0.0327 -0.0719 0.9982
-0.4457 0.0261 -0.0717 0.9982
-0.4452 0.0196 -0.0716 0.9982
-0.4447 0.0130 -0.0715 0.9982
-0.4326 -0.0189 -0.0745 0.9982
-0.4331 -0.0253 -0.0746 0.9982
-0.4346 -0.0510 -0.0753 0.9982
-0.4352 -0.0640 -0.0757 0.9982
-0.4354 -0.0705 -0.0759 0.9982
-0.4355 -0.0771 -0.0761 0.9982
-0.4358 -0.0904 -0.0766 0.9982
-0.4358 -0.0970 -0.0768 0.9982
-0.4358 -0.1105 -0.0774 0.9982
-0.4355 -0.1310 -0.0782 0.9982
-0.4350 -0.1448 -0.0789 0.9981
-0.4344 -0.1589 -0.0796 0.9981
-0.4333 -0.1804 -0.0808 0.9981
-0.4327 -0.1952 -0.0817 0.9981
-0.4324 -0.2027 -0.0822 0.9981
-0.4317 -0.2180 -0.0832 0.9980
-0.4308 -0.2335 -0.0843 0.9980
-0.4303 -0.2415 -0.0849 0.9980
-0.4291 -0.2576 -0.0861 0.9980
-0.4284 -0.2657 -0.0867 0.9980
-0.4269 -0.2824 -0.0881 0.9979
-0.4260 -0.2909 -0.0887 0.9979
-0.4251 -0.2995 -0.0895 0.9979
-0.4181 -0.3531 -0.0942 0.9978
-0.4147 -0.3827 -0.0971 0.9977
-0.4134 -0.4164 -0.1010 0.9976
-0.4128 -0.4281 -0.1023 0.9976
-0.4115 -0.4526 -0.1052 0.9975
-0.4100 -0.4782 -0.1084 0.9974
-0.4071 -0.5192 -0.1135 0.9973
-0.4059 -0.5337 -0.1154 0.9973
-0.4047 -0.5486 -0.1173 0.9972
-1.6780 -2.7494 -0.5542 0.9870
-1.3733 -2.4895 -0.4892 0.9885
-1.3215 -2.4805 -0.4835 0.9887
-1.2187 -2.5511 -0.4864 0.9886
-1.1584 -2.6189 -0.4927 0.9884
-1.1277 -2.6536 -0.4961 0.9884
-0.8108 -2.1673 -0.3981 0.9907
-0.9094 -2.7989 -0.5063 0.9881
-0.8998 -2.9137 -0.5247 0.9877
-0.7671 -2.6189 -0.4695 0.9890
-0.7825 -2.9932 -0.5323 0.9875
-0.7702 -3.1323 -0.5549 0.9870
-0.6996 -3.2523 -0.5724 0.9866
-0.6325 -3.1648 -0.5553 0.9870
-0.5694 -3.0828 -0.5394 0.9874
-0.5887 -3.4704 -0.6056 0.9858
-0.5476 -3.5408 -0.6164 0.9856
-0.7164 -5.7382 -0.9949 0.9768
-0.5484 -5.7566 -0.9949 0.9768
-0.4642 -5.7640 -0.9949 0.9768
-0.2565 -3.8948 -0.6715 0.9843
-0.1935 -3.7791 -0.6510 0.9848
0.0281 -3.8447 -0.6615 0.9845
0.0832 -3.7943 -0.6530 0.9847
0.1369 -3.7450 -0.6447 0.9849
0.1892 -3.6964 -0.6368 0.9851
0.5484 -5.7564 -0.9949 0.9768
0.6324 -5.7477 -0.9948 0.9768
0.7164 -5.7379 -0.9948 0.9768
0.8001 -5.7267 -0.9948 0.9768
1.1333 -5.6702 -0.9948 0.9768
1.2985 -5.6346 -0.9948 0.9768
1.3806 -5.6150 -0.9948 0.9768
1.4625 -5.5942 -0.9948 0.9768
1.7062 -5.5247 -0.9948 0.9768
1.7868 -5.4991 -0.9948 0.9768
1.9467 -5.4445 -0.9948 0.9768
2.1050 -5.3853 -0.9948 0.9768
1.3483 -3.3061 -0.6143 0.9856
1.5001 -3.1400 -0.5987 0.9860
2.7186 -5.1029 -0.9948 0.9768
2.7929 -5.0626 -0.9948 0.9768
1.7149 -3.0040 -0.5951 0.9861
1.7631 -2.9862 -0.5966 0.9860
3.0120 -4.9353 -0.9947 0.9768
3.2952 -4.7509 -0.9947 0.9768
3.4325 -4.6525 -0.9947 0.9768
3.5001 -4.6019 -0.9947 0.9768
3.6331 -4.4976 -0.9947 0.9768
4.1840 -3.8605 -0.9795 0.9772
3.7975 -3.3038 -0.8660 0.9798
3.6534 -3.0858 -0.8228 0.9808
3.6840 -3.0205 -0.8196 0.9808
