ply
format ascii 1.0
element vertex 1595
property float32 x
property float32 y
property float32 z
property float32 I
end_header
3.1565 4.0266 -0.9975 0.9794
3.0972 4.0722 -0.9974 0.9794
3.0373 4.1170 -0.9974 0.9794
2.9768 4.1607 -0.9974 0.9794
2.7913 4.2868 -0.9973 0.9794
2.7283 4.3270 -0.9973 0.9794
2.5358 4.4420 -0.9972 0.9794
2.4705 4.4784 -0.9971 0.9794
1.8047 3.3876 -0.7483 0.9845
1.6493 3.3265 -0.7238 0.9850
1.4871 3.2334 -0.6938 0.9856
1.3729 3.2304 -0.6843 0.9858
1.2691 3.2467 -0.6796 0.9859
1.2177 3.2547 -0.6774 0.9859
1.1667 3.2627 -0.6755 0.9860
1.1159 3.2706 -0.6737 0.9860
1.0653 3.2785 -0.6720 0.9860
0.9649 3.2941 -0.6692 0.9861
0.7663 3.3249 -0.6652 0.9862
0.6185 3.3477 -0.6637 0.9862
0.5693 3.3554 -0.6635 0.9862
0.5202 3.3629 -0.6634 0.9862
0.4710 3.3705 -0.6635 0.9862
0.4218 3.3780 -0.6637 0.9862
0.3727 3.3856 -0.6640 0.9862
0.3234 3.3932 -0.6645 0.9862
0.1750 3.4159 -0.6668 0.9862
0.1253 3.4235 -0.6679 0.9861
0.0753 3.4312 -0.6691 0.9861
0.0254 3.4555 -0.6737 0.9860
-0.0785 3.5823 -0.6986 0.9855
-0.1864 3.6420 -0.7109 0.9852
-0.2437 3.7011 -0.7231 0.9850
-0.4843 5.0842 -0.9957 0.9794
-0.5586 5.0764 -0.9956 0.9794
-0.7804 5.0465 -0.9955 0.9794
-0.9274 5.0212 -0.9955 0.9794
-1.4349 4.8991 -0.9952 0.9794
-1.5063 4.8773 -0.9952 0.9794
-1.5773 4.8546 -0.9951 0.9794
-1.8580 4.7536 -0.9950 0.9794
-1.9272 4.7258 -0.9950 0.9794
-2.0643 4.6671 -0.9949 0.9794
-2.1322 4.6363 -0.9949 0.9794
-2.1996 4.6045 -0.9948 0.9794
-2.2666 4.5717 -0.9948 0.9794
-2.3331 4.5379 -0.9948 0.9794
-2.3991 4.5032 -0.9947 0.9794
-2.4645 4.4675 -0.9947 0.9794
-2.5295 4.4309 -0.9947 0.9794
-2.5939 4.3934 -0.9946 0.9794
-0.4197 0.6877 -0.1571 0.9967
-0.3917 0.6212 -0.1432 0.9970
-0.3771 0.5111 -0.1238 0.9974
-0.3786 0.4978 -0.1219 0.9975
-0.3839 0.4479 -0.1150 0.9976
-0.3851 0.4362 -0.1134 0.9976
-0.3861 0.4247 -0.1119 0.9977
-0.3871 0.4134 -0.1104 0.9977
-0.3927 0.3731 -0.1056 0.9978
-0.3940 0.3636 -0.1045 0.9978
-0.3949 0.3539 -0.1034 0.9978
-0.3958 0.3444 -0.1023 0.9979
-0.3967 0.3350 -0.1012 0.9979
-0.3975 0.3259 -0.1002 0.9979
-0.3982 0.3169 -0.0992 0.9979
-0.3988 0.3080 -0.0982 0.9979
-0.4001 0.2907 -0.0964 0.9980
-0.4012 0.2739 -0.0947 0.9980
-0.4016 0.2657 -0.0939 0.9980
-0.4025 0.2497 -0.0923 0.9981
-0.4028 0.2419 -0.0916 0.9981
-0.4045 0.2117 -0.0890 0.9981
-0.4056 0.1974 -0.0879 0.9982
-0.4060 0.1904 -0.0874 0.9982
-0.4073 0.1766 -0.0866 0.9982
-0.4079 0.1699 -0.0861 0.9982
-0.4085 0.1632 -0.0858 0.9982
-0.4090 0.1564 -0.0854 0.9982
-0.4095 0.1498 -0.0850 0.9982
-0.4106 0.1301 -0.0840 0.9982
-0.4109 0.1236 -0.0836 0.9983
-0.4113 0.1107 -0.0830 0.9983
-0.4116 0.0918 -0.0822 0.9983
-0.4117 0.0854 -0.0820 0.9983
-0.4116 0.0730 -0.0815 0.9983
-0.4115 0.0668 -0.0813 0.9983
-0.4113 0.0606 -0.0811 0.9983
-0.4110 0.0483 -0.0807 0.9983
-0.4107 0.0422 -0.0805 0.9983
-0.4104 0.0361 -0.0803 0.9983
-0.4101 0.0301 -0.0802 0.9983
-0.4083 0.0060 -0.0796 0.9983
-0.3976 -0.0058 -0.0821 0.9984
-0.3981 -0.0116 -0.0822 0.9984
-0.3985 -0.0175 -0.0824 0.9984
-0.4005 -0.0770 -0.0842 0.9983
-0.4005 -0.0830 -0.0845 0.9983
-0.4004 -0.0892 -0.0847 0.9983
-0.4004 -0.0953 -0.0850 0.9983
-0.4002 -0.1015 -0.0853 0.9983
-0.3990 -0.1329 -0.0868 0.9983
-0.3979 -0.1589 -0.0885 0.9983
-0.3975 -0.1655 -0.0889 0.9982
-0.3967 -0.1789 -0.0899 0.9982
-0.3957 -0.1926 -0.0909 0.9982
-0.3955 -0.1997 -0.0915 0.9982
-0.3953 -0.2069 -0.0921 0.9982
-0.3951 -0.2142 -0.0928 0.9982
-0.3944 -0.2290 -0.0942 0.9981
-0.3936 -0.2442 -0.0957 0.9981
-0.3922 -0.2678 -0.0981 0.9981
-0.3910 -0.2841 -0.0998 0.9980
-0.3903 -0.2923 -0.1007 0.9980
-0.3896 -0.3008 -0.1016 0.9980
-0.3888 -0.3094 -0.1026 0.9980
-0.3880 -0.3181 -0.1036 0.9980
-0.3872 -0.3270 -0.1046 0.9979
-0.3862 -0.3360 -0.1057 0.9979
-0.3831 -0.3640 -0.1091 0.9978
-0.3759 -0.4014 -0.1136 0.9978
-0.3733 -0.4228 -0.1165 0.9977
-0.3693 -0.4572 -0.1214 0.9976
-0.3662 -0.4815 -0.1249 0.9975
-0.3645 -0.4941 -0.1268 0.9975
-0.3628 -0.5070 -0.1287 0.9975
-0.3568 -0.5479 -0.1350 0.9973
-0.3850 -0.6520 -0.1564 0.9969
-0.4156 -0.7279 -0.1731 0.9966
-1.6238 -2.9434 -0.6941 0.9864
-1.2204 -2.3736 -0.5511 0.9892
-1.2433 -2.5077 -0.5780 0.9886
-1.2684 -2.6550 -0.6076 0.9881
-1.2958 -2.8176 -0.6404 0.9874
-1.3133 -3.0904 -0.6934 0.9864
-1.2689 -3.1114 -0.6938 0.9864
-1.1351 -3.1746 -0.6962 0.9863
-1.0973 -3.3771 -0.7332 0.9856
-0.8719 -3.1464 -0.6742 0.9868
-0.6678 -2.8978 -0.6140 0.9879
-0.5503 -2.7536 -0.5798 0.9886
-0.4963 -2.6868 -0.5642 0.9889
-0.3499 -2.5046 -0.5222 0.9897
-0.3169 -4.8120 -0.9957 0.9805
-0.1761 -4.8195 -0.9958 0.9805
-0.1057 -4.8217 -0.9958 0.9805
-0.0352 -4.8229 -0.9959 0.9805
0.0352 -4.8231 -0.9959 0.9805
0.1057 -4.8223 -0.9960 0.9805
0.1762 -4.8203 -0.9960 0.9805
0.3170 -4.8134 -0.9961 0.9805
0.4575 -4.8025 -0.9961 0.9805
0.5977 -4.7874 -0.9962 0.9805
0.6676 -4.7783 -0.9962 0.9805
0.7374 -4.7682 -0.9963 0.9805
0.6482 -3.8209 -0.8002 0.9843
0.7780 -3.6171 -0.7640 0.9850
0.8520 -3.4650 -0.7368 0.9855
0.9471 -3.6228 -0.7732 0.9848
1.2888 -4.6510 -0.9965 0.9805
1.3567 -4.6318 -0.9966 0.9805
1.4915 -4.5905 -0.9966 0.9805
1.6914 -4.5211 -0.9967 0.9805
1.8881 -4.4430 -0.9968 0.9805
1.9230 -4.3476 -0.9816 0.9808
1.5642 -3.2742 -0.7493 0.9853
1.7417 -3.1573 -0.7445 0.9854
1.7627 -2.9855 -0.7159 0.9859
2.6529 -3.9469 -0.9820 0.9808
2.8236 -3.8271 -0.9820 0.9808
2.8793 -3.7857 -0.9821 0.9808
2.3437 -2.7340 -0.7436 0.9854
3.2002 -3.5195 -0.9822 0.9808
3.2514 -3.4725 -0.9823 0.9808
3.4007 -3.3269 -0.9823 0.9808
3.6349 -3.0702 -0.9824 0.9808
3.6795 -3.0168 -0.9825 0.9808
3.7232 -2.9628 -0.9825 0.9808
3.8903 -2.7405 -0.9826 0.9808
3.9688 -2.6257 -0.9826 0.9808
4.0736 -2.5271 -0.9898 0.9806
4.1437 -2.4875 -0.9979 0.9805
4.2823 -2.2414 -0.9980 0.9805
4.3146 -2.1786 -0.9980 0.9805
4.3460 -2.1153 -0.9980 0.9805
4.3766 -2.0516 -0.9981 0.9805
4.4624 -1.8580 -0.9981 0.9805
4.5150 -1.7268 -0.9981 0.9805
4.5398 -1.6607 -0.9981 0.9804
4.5636 -1.5942 -0.9981 0.9804
4.6083 -1.4602 -0.9982 0.9804
4.6292 -1.3927 -0.9982 0.9804
4.6491 -1.3249 -0.9982 0.9804
4.6859 -1.1886 -0.9982 0.9804
4.7336 -0.9821 -0.9982 0.9804
4.7604 -0.8434 -0.9982 0.9804
4.7722 -0.7737 -0.9983 0.9804
4.7830 -0.7039 -0.9983 0.9804
4.7928 -0.6339 -0.9983 0.9804
4.8016 -0.5638 -0.9983 0.9804
4.8161 -0.4233 -0.9983 0.9804
4.8300 -0.2118 -0.9983 0.9804
4.8326 0.1412 -0.9983 0.9804
4.8300 0.2119 -0.9983 0.9804
4.8264 0.2824 -0.9983 0.9804
4.8218 0.3529 -0.9983 0.9804
4.8161 0.4233 -0.9983 0.9804
4.7929 0.6340 -0.9983 0.9804
4.7722 0.7738 -0.9983 0.9804
4.7475 0.9129 -0.9982 0.9804
4.7029 1.1200 -0.9982 0.9804
4.6859 1.1886 -0.9982 0.9804
4.6681 1.2569 -0.9982 0.9804
4.6492 1.3250 -0.9982 0.9804
4.6293 1.3927 -0.9982 0.9804
4.6084 1.4602 -0.9982 0.9804
4.5865 1.5274 -0.9982 0.9804
4.4892 1.7927 -0.9981 0.9805
4.4625 1.8580 -0.9981 0.9805
4.4348 1.9230 -0.9981 0.9805
4.4062 1.9875 -0.9981 0.9805
4.3766 2.0517 -0.9981 0.9805
4.3460 2.1154 -0.9980 0.9805
4.3146 2.1786 -0.9980 0.9805
4.2823 2.2414 -0.9980 0.9805
4.2490 2.3037 -0.9980 0.9805
4.2148 2.3655 -0.9980 0.9805
4.1797 2.4268 -0.9980 0.9805
4.0692 2.6075 -0.9979 0.9805
3.9911 2.7252 -0.9979 0.9805
3.9508 2.7831 -0.9979 0.9805
3.8676 2.8973 -0.9978 0.9805
3.8248 2.9534 -0.9978 0.9805
3.7811 3.0089 -0.9978 0.9805
3.6914 3.1180 -0.9977 0.9805
3.5026 3.3279 -0.9976 0.9805
3.4037 3.4288 -0.9976 0.9805
3.3020 3.5266 -0.9975 0.9805
3.2500 3.5744 -0.9975 0.9805
3.1973 3.6214 -0.9975 0.9805
3.1440 3.6675 -0.9975 0.9805
3.0353 3.7577 -0.9974 0.9805
2.8675 3.8868 -0.9973 0.9805
2.7525 3.9687 -0.9973 0.9805
2.6942 4.0084 -0.9972 0.9805
2.6353 4.0472 -0.9972 0.9805
2.5758 4.0852 -0.9972 0.9805
2.5157 4.1222 -0.9972 0.9805
2.3941 4.1937 -0.9971 0.9805
2.3325 4.2281 -0.9971 0.9805
1.7268 3.3587 -0.7798 0.9847
1.6549 3.3379 -0.7693 0.9849
1.5545 3.2538 -0.7445 0.9854
1.4862 3.2314 -0.7344 0.9856
1.2170 3.2528 -0.7171 0.9859
1.1152 3.2687 -0.7131 0.9860
1.0647 3.2766 -0.7114 0.9860
1.0145 3.2844 -0.7098 0.9861
0.9644 3.2922 -0.7083 0.9861
0.9145 3.3000 -0.7070 0.9861
0.7659 3.3230 -0.7041 0.9862
0.7166 3.3306 -0.7034 0.9862
0.3724 3.3837 -0.7029 0.9862
0.3232 3.3912 -0.7034 0.9862
0.2739 3.3988 -0.7041 0.9862
0.1749 3.4140 -0.7058 0.9861
0.0254 3.4535 -0.7131 0.9860
-0.0254 3.4900 -0.7206 0.9858
-0.1870 3.6537 -0.7554 0.9852
-0.3871 4.8068 -0.9957 0.9805
-0.4573 4.8004 -0.9957 0.9805
-0.5973 4.7847 -0.9956 0.9805
-0.7368 4.7649 -0.9956 0.9805
-0.9449 4.7275 -0.9955 0.9805
-1.0138 4.7130 -0.9954 0.9805
-1.2192 4.6636 -0.9953 0.9805
-1.2872 4.6452 -0.9953 0.9805
-1.4223 4.6053 -0.9952 0.9805
-1.5561 4.5614 -0.9952 0.9805
-1.6226 4.5380 -0.9951 0.9805
-1.6886 4.5137 -0.9951 0.9805
-1.7544 4.4884 -0.9951 0.9805
-1.8197 4.4621 -0.9950 0.9805
-1.8846 4.4349 -0.9950 0.9805
-1.9492 4.4068 -0.9950 0.9805
-2.0133 4.3777 -0.9949 0.9805
-2.0770 4.3477 -0.9949 0.9805
-2.2030 4.2849 -0.9948 0.9805
-2.3271 4.2184 -0.9948 0.9805
-0.3568 0.5480 -0.1350 0.9973
-0.3589 0.5340 -0.1328 0.9974
-0.3609 0.5204 -0.1307 0.9974
-0.3646 0.4941 -0.1268 0.9975
-0.3745 0.4119 -0.1149 0.9977
-0.3759 0.4015 -0.1136 0.9978
-0.3796 0.3824 -0.1112 0.9978
-0.3831 0.3641 -0.1091 0.9978
-0.3842 0.3545 -0.1079 0.9979
-0.3862 0.3361 -0.1057 0.9979
-0.3880 0.3182 -0.1036 0.9980
-0.3896 0.3009 -0.1016 0.9980
-0.3903 0.2924 -0.1007 0.9980
-0.3916 0.2759 -0.0989 0.9980
-0.3922 0.2678 -0.0981 0.9981
-0.3932 0.2520 -0.0964 0.9981
-0.3944 0.2290 -0.0942 0.9981
-0.3948 0.2215 -0.0935 0.9982
-0.3951 0.2142 -0.0928 0.9982
-0.3953 0.2069 -0.0921 0.9982
-0.3957 0.1927 -0.0909 0.9982
-0.3962 0.1857 -0.0904 0.9982
-0.3972 0.1722 -0.0894 0.9982
-0.3979 0.1589 -0.0885 0.9983
-0.3988 0.1393 -0.0872 0.9983
-0.3992 0.1265 -0.0865 0.9983
-0.3995 0.1202 -0.0861 0.9983
-0.4000 0.1078 -0.0855 0.9983
-0.4004 0.0954 -0.0850 0.9983
-0.4005 0.0831 -0.0845 0.9983
-0.4005 0.0770 -0.0842 0.9983
-0.4004 0.0649 -0.0838 0.9983
-0.4002 0.0530 -0.0834 0.9984
-0.3998 0.0411 -0.0830 0.9984
-0.3992 0.0292 -0.0826 0.9984
-0.3989 0.0234 -0.0825 0.9984
-0.3900 0.0000 -0.0850 0.9984
-0.3904 -0.0056 -0.0851 0.9984
-0.3907 -0.0114 -0.0852 0.9984
-0.3910 -0.0171 -0.0853 0.9984
-0.3918 -0.0344 -0.0858 0.9984
-0.3920 -0.0402 -0.0859 0.9984
-0.3922 -0.0461 -0.0861 0.9984
-0.3923 -0.0518 -0.0863 0.9984
-0.3924 -0.0577 -0.0865 0.9984
-0.3926 -0.0695 -0.0869 0.9984
-0.3926 -0.0814 -0.0874 0.9984
-0.3923 -0.1057 -0.0886 0.9983
-0.3922 -0.1117 -0.0889 0.9983
-0.3920 -0.1179 -0.0893 0.9983
-0.3918 -0.1241 -0.0896 0.9983
-0.3907 -0.1494 -0.0912 0.9983
-0.3903 -0.1558 -0.0916 0.9983
-0.3899 -0.1623 -0.0921 0.9983
-0.3871 -0.2027 -0.0953 0.9982
-0.3868 -0.2097 -0.0959 0.9982
-0.3856 -0.2315 -0.0981 0.9982
-0.3847 -0.2465 -0.0996 0.9981
-0.3822 -0.2777 -0.1030 0.9981
-0.3815 -0.2857 -0.1039 0.9981
-0.3799 -0.3023 -0.1059 0.9980
-0.3780 -0.3193 -0.1079 0.9980
-0.3771 -0.3280 -0.1090 0.9980
-0.3760 -0.3369 -0.1101 0.9979
-0.3749 -0.3459 -0.1112 0.9979
-0.3738 -0.3551 -0.1124 0.9979
-0.3723 -0.3641 -0.1136 0.9979
-0.3684 -0.3821 -0.1157 0.9978
-0.3645 -0.4009 -0.1182 0.9978
-0.3624 -0.4105 -0.1194 0.9978
-0.3562 -0.4544 -0.1259 0.9976
-0.3546 -0.4661 -0.1277 0.9976
-0.3528 -0.4781 -0.1296 0.9976
-0.3509 -0.4904 -0.1315 0.9975
-0.3489 -0.5030 -0.1335 0.9975
-0.3467 -0.5159 -0.1355 0.9975
-0.3422 -0.5427 -0.1399 0.9974
-0.3582 -0.6275 -0.1576 0.9970
-0.4094 -0.7683 -0.1898 0.9964
-1.1994 -2.5106 -0.6067 0.9887
-1.2463 -2.8175 -0.6718 0.9875
-1.2732 -2.9960 -0.7099 0.9868
-1.2239 -3.1313 -0.7331 0.9863
-1.1794 -3.1523 -0.7339 0.9863
-1.0898 -3.1946 -0.7361 0.9863
-0.9916 -3.2108 -0.7328 0.9863
-0.9137 -3.1195 -0.7088 0.9868
-0.8406 -3.0334 -0.6864 0.9872
-0.7718 -2.9523 -0.6654 0.9876
-0.7070 -2.8755 -0.6457 0.9880
-0.6459 -2.8028 -0.6272 0.9883
-0.4813 -2.6055 -0.5778 0.9892
-0.3849 -2.4889 -0.5492 0.9897
-0.3401 -2.4344 -0.5360 0.9900
-0.2974 -2.3821 -0.5235 0.9902
-0.2566 -2.3320 -0.5116 0.9904
-0.3001 -4.5564 -0.9958 0.9815
-0.2334 -4.5605 -0.9958 0.9815
-0.1668 -4.5636 -0.9958 0.9815
-0.1001 -4.5656 -0.9959 0.9815
0.1001 -4.5661 -0.9960 0.9815
0.1668 -4.5643 -0.9960 0.9815
0.2335 -4.5616 -0.9960 0.9815
0.3001 -4.5578 -0.9960 0.9815
0.4332 -4.5474 -0.9961 0.9815
0.6982 -4.5149 -0.9962 0.9815
0.7641 -4.5044 -0.9963 0.9815
0.6592 -3.5687 -0.7914 0.9853
0.7167 -3.5859 -0.7974 0.9851
0.8117 -3.5226 -0.7883 0.9853
1.3279 -4.2997 -0.9813 0.9817
1.5152 -4.2377 -0.9814 0.9817
1.5770 -4.2153 -0.9814 0.9817
1.6385 -4.1920 -0.9815 0.9817
1.6996 -4.1677 -0.9815 0.9817
1.7604 -4.1426 -0.9815 0.9817
1.5728 -3.2923 -0.7956 0.9852
1.6142 -3.2558 -0.7925 0.9852
1.6561 -3.2211 -0.7898 0.9853
1.6979 -3.1871 -0.7875 0.9853
2.5663 -3.7001 -0.9819 0.9817
2.7262 -3.5843 -0.9820 0.9817
2.2184 -2.8298 -0.7841 0.9854
2.2642 -2.8030 -0.7858 0.9854
2.9312 -3.4193 -0.9821 0.9817
2.9809 -3.3762 -0.9821 0.9817
3.0300 -3.3324 -0.9822 0.9817
3.1262 -3.2426 -0.9822 0.9817
3.1733 -3.1966 -0.9822 0.9817
3.4837 -2.8563 -0.9824 0.9817
3.5251 -2.8052 -0.9824 0.9817
3.5658 -2.7534 -0.9824 0.9817
3.6057 -2.7011 -0.9824 0.9817
3.6449 -2.6481 -0.9825 0.9817
3.7228 -2.5421 -0.9831 0.9817
3.8070 -2.5187 -0.9954 0.9815
3.8883 -2.4121 -0.9978 0.9814
3.9573 -2.2976 -0.9978 0.9814
4.0228 -2.1811 -0.9979 0.9814
4.1437 -1.9424 -0.9979 0.9814
4.2250 -1.7591 -0.9980 0.9814
4.2503 -1.6971 -0.9980 0.9814
4.2746 -1.6349 -0.9980 0.9814
4.2982 -1.5723 -0.9980 0.9814
4.3207 -1.5093 -0.9980 0.9814
4.3424 -1.4461 -0.9980 0.9814
4.3631 -1.3825 -0.9980 0.9814
4.3829 -1.3186 -0.9981 0.9814
4.4365 -1.1253 -0.9981 0.9814
4.4676 -0.9952 -0.9981 0.9814
4.4817 -0.9298 -0.9981 0.9814
4.5070 -0.7984 -0.9981 0.9814
4.5182 -0.7325 -0.9981 0.9814
4.5285 -0.6664 -0.9981 0.9814
4.5377 -0.6002 -0.9981 0.9814
4.5754 -0.1337 -0.9982 0.9814
4.5769 -0.0669 -0.9982 0.9814
4.5773 0.0000 -0.9982 0.9814
4.5769 0.0669 -0.9982 0.9814
4.5729 0.2006 -0.9982 0.9814
4.5695 0.2674 -0.9982 0.9814
4.5597 0.4008 -0.9981 0.9814
4.5460 0.5339 -0.9981 0.9814
4.5285 0.6664 -0.9981 0.9814
4.5070 0.7985 -0.9981 0.9814
4.4949 0.8643 -0.9981 0.9814
4.4676 0.9952 -0.9981 0.9814
4.4526 1.0604 -0.9981 0.9814
4.4196 1.1900 -0.9981 0.9814
4.3829 1.3186 -0.9981 0.9814
4.3424 1.4461 -0.9980 0.9814
4.3207 1.5094 -0.9980 0.9814
4.2982 1.5724 -0.9980 0.9814
4.1988 1.8207 -0.9980 0.9814
4.1717 1.8818 -0.9980 0.9814
4.1148 2.0028 -0.9979 0.9814
4.0850 2.0627 -0.9979 0.9814
4.0229 2.1811 -0.9979 0.9814
3.9905 2.2396 -0.9979 0.9814
3.9233 2.3552 -0.9978 0.9814
3.7787 2.5801 -0.9978 0.9814
3.7406 2.6351 -0.9978 0.9814
3.7015 2.6894 -0.9977 0.9814
3.6213 2.7962 -0.9977 0.9814
3.5800 2.8488 -0.9977 0.9814
3.5379 2.9008 -0.9977 0.9814
3.4514 3.0028 -0.9976 0.9814
3.4071 3.0528 -0.9976 0.9814
3.2699 3.1990 -0.9975 0.9814
3.2227 3.2464 -0.9975 0.9814
3.1263 3.3390 -0.9974 0.9814
3.0771 3.3842 -0.9974 0.9814
2.9768 3.4725 -0.9974 0.9814
2.6609 3.7193 -0.9972 0.9815
2.6062 3.7576 -0.9972 0.9815
2.5509 3.7952 -0.9972 0.9815
2.4952 3.8320 -0.9971 0.9815
2.2668 3.9707 -0.9970 0.9815
1.7420 3.3882 -0.8308 0.9845
1.6649 3.3580 -0.8173 0.9848
1.5535 3.2516 -0.7858 0.9854
1.3193 3.2348 -0.7618 0.9858
1.0641 3.2747 -0.7508 0.9860
0.9639 3.2904 -0.7476 0.9861
0.9140 3.2981 -0.7463 0.9861
0.8148 3.3135 -0.7440 0.9861
0.7162 3.3288 -0.7425 0.9862
0.6669 3.3364 -0.7419 0.9862
0.6178 3.3439 -0.7415 0.9862
0.5687 3.3516 -0.7413 0.9862
0.4705 3.3667 -0.7413 0.9862
0.4214 3.3742 -0.7415 0.9862
0.3722 3.3818 -0.7419 0.9862
0.3230 3.3894 -0.7424 0.9862
0.2243 3.4045 -0.7440 0.9861
0.1748 3.4120 -0.7450 0.9861
0.0254 3.4515 -0.7526 0.9860
-0.0253 3.4880 -0.7606 0.9858
-0.0774 3.5370 -0.7715 0.9856
-0.1327 3.6306 -0.7922 0.9852
-0.3666 4.5516 -0.9957 0.9815
-0.4330 4.5455 -0.9957 0.9815
-0.4994 4.5386 -0.9957 0.9815
-0.5656 4.5306 -0.9956 0.9815
-0.6317 4.5218 -0.9956 0.9815
-0.8292 4.4893 -0.9955 0.9815
-0.8947 4.4766 -0.9955 0.9815
-0.9600 4.4629 -0.9954 0.9815
-1.0250 4.4482 -0.9954 0.9815
-1.0899 4.4326 -0.9954 0.9815
-1.1545 4.4161 -0.9953 0.9815
-1.2189 4.3986 -0.9953 0.9815
-1.2830 4.3802 -0.9953 0.9815
-1.4103 4.3405 -0.9952 0.9815
-1.5364 4.2972 -0.9952 0.9815
-1.5990 4.2742 -0.9951 0.9815
-1.6613 4.2502 -0.9951 0.9815
-1.7847 4.1996 -0.9950 0.9815
-1.9065 4.1455 -0.9950 0.9815
-0.4094 0.7685 -0.1899 0.9964
-0.3769 0.6834 -0.1702 0.9968
-0.3397 0.5567 -0.1422 0.9973
-0.3422 0.5427 -0.1399 0.9974
-0.3528 0.4782 -0.1296 0.9976
-0.3563 0.4545 -0.1259 0.9976
-0.3579 0.4430 -0.1242 0.9977
-0.3594 0.4319 -0.1225 0.9977
-0.3608 0.4209 -0.1209 0.9977
-0.3665 0.3914 -0.1169 0.9978
-0.3684 0.3821 -0.1157 0.9978
-0.3704 0.3731 -0.1146 0.9979
-0.3749 0.3459 -0.1112 0.9979
-0.3760 0.3369 -0.1101 0.9979
-0.3771 0.3281 -0.1090 0.9980
-0.3790 0.3107 -0.1069 0.9980
-0.3798 0.3023 -0.1059 0.9980
-0.3822 0.2777 -0.1030 0.9981
-0.3847 0.2465 -0.0996 0.9981
-0.3852 0.2389 -0.0988 0.9981
-0.3856 0.2315 -0.0981 0.9982
-0.3864 0.2169 -0.0966 0.9982
-0.3868 0.2097 -0.0959 0.9982
-0.3907 0.1494 -0.0912 0.9983
-0.3913 0.1367 -0.0904 0.9983
-0.3916 0.1304 -0.0900 0.9983
-0.3918 0.1241 -0.0896 0.9983
-0.3920 0.1179 -0.0893 0.9983
-0.3923 0.1057 -0.0886 0.9983
-0.3925 0.0995 -0.0883 0.9983
-0.3925 0.0935 -0.0880 0.9983
-0.3926 0.0874 -0.0877 0.9984
-0.3926 0.0755 -0.0872 0.9984
-0.3925 0.0637 -0.0867 0.9984
-0.3923 0.0519 -0.0863 0.9984
-0.3922 0.0461 -0.0861 0.9984
-0.3918 0.0345 -0.0858 0.9984
-0.3916 0.0287 -0.0856 0.9984
-0.3907 0.0114 -0.0852 0.9984
-0.3832 0.0000 -0.0880 0.9984
-0.3835 -0.0056 -0.0881 0.9984
-0.3844 -0.0225 -0.0884 0.9984
-0.3849 -0.0338 -0.0887 0.9984
-0.3851 -0.0395 -0.0889 0.9984
-0.3852 -0.0452 -0.0891 0.9984
-0.3853 -0.0510 -0.0893 0.9984
-0.3855 -0.0683 -0.0899 0.9984
-0.3855 -0.0741 -0.0902 0.9984
-0.3855 -0.0859 -0.0907 0.9984
-0.3853 -0.0977 -0.0913 0.9984
-0.3852 -0.1037 -0.0916 0.9984
-0.3850 -0.1097 -0.0920 0.9984
-0.3837 -0.1404 -0.0938 0.9983
-0.3829 -0.1529 -0.0947 0.9983
-0.3821 -0.1657 -0.0957 0.9983
-0.3803 -0.1851 -0.0972 0.9983
-0.3795 -0.1916 -0.0977 0.9983
-0.3792 -0.1984 -0.0983 0.9982
-0.3788 -0.2054 -0.0990 0.9982
-0.3780 -0.2195 -0.1004 0.9982
-0.3765 -0.2412 -0.1027 0.9982
-0.3759 -0.2486 -0.1035 0.9982
-0.3752 -0.2562 -0.1044 0.9981
-0.3738 -0.2715 -0.1061 0.9981
-0.3730 -0.2794 -0.1070 0.9981
-0.3722 -0.2873 -0.1080 0.9981
-0.3712 -0.2954 -0.1090 0.9981
-0.3703 -0.3036 -0.1100 0.9980
-0.3683 -0.3204 -0.1121 0.9980
-0.3648 -0.3466 -0.1156 0.9979
-0.3615 -0.3641 -0.1179 0.9979
-0.3575 -0.3818 -0.1201 0.9979
-0.3471 -0.4296 -0.1269 0.9977
-0.3416 -0.4631 -0.1322 0.9976
-0.3397 -0.4747 -0.1341 0.9976
-0.3354 -0.4989 -0.1381 0.9975
-0.3280 -0.5375 -0.1446 0.9974
-0.3253 -0.5510 -0.1470 0.9974
-0.3335 -0.6045 -0.1586 0.9972
-0.3492 -0.6555 -0.1706 0.9970
-0.3673 -0.7145 -0.1845 0.9967
-1.1204 -2.2598 -0.5794 0.9897
-1.1372 -2.3805 -0.6060 0.9892
-1.1751 -2.6567 -0.6673 0.9881
-1.1966 -2.8159 -0.7028 0.9875
-1.2203 -2.9923 -0.7423 0.9868
-1.1343 -3.1723 -0.7739 0.9863
-0.9549 -3.0918 -0.7433 0.9868
-0.8809 -3.0074 -0.7198 0.9872
-0.8113 -2.9279 -0.6979 0.9876
-0.7458 -2.8525 -0.6773 0.9880
-0.6253 -2.7134 -0.6396 0.9886
-0.5171 -2.5874 -0.6061 0.9892
-0.4195 -2.4727 -0.5761 0.9898
-0.3741 -2.4191 -0.5623 0.9900
-0.2895 -2.3183 -0.5367 0.9905
-0.2499 -2.2709 -0.5248 0.9907
-0.4048 -4.2491 -0.9805 0.9826
-0.0312 -4.2691 -0.9806 0.9826
0.0936 -4.2684 -0.9807 0.9826
0.1559 -4.2667 -0.9807 0.9826
0.2805 -4.2606 -0.9808 0.9826
0.3428 -4.2562 -0.9808 0.9826
0.4670 -4.2447 -0.9809 0.9826
0.5290 -4.2375 -0.9809 0.9826
0.6527 -4.2205 -0.9810 0.9826
0.6074 -3.5805 -0.8342 0.9852
0.7167 -3.5859 -0.8400 0.9851
0.7781 -3.6171 -0.8499 0.9849
0.8906 -3.6222 -0.8568 0.9848
1.0804 -4.1327 -0.9812 0.9826
1.2008 -4.0996 -0.9813 0.9826
1.2606 -4.0817 -0.9813 0.9826
1.3201 -4.0630 -0.9813 0.9826
1.7284 -3.9077 -0.9815 0.9826
1.7854 -3.8822 -0.9815 0.9826
1.8420 -3.8558 -0.9816 0.9826
1.8982 -3.8286 -0.9816 0.9826
1.7095 -3.2088 -0.8352 0.9852
1.7514 -3.1749 -0.8329 0.9852
1.8467 -3.1279 -0.8344 0.9852
1.9028 -3.0177 -0.8195 0.9855
1.9850 -3.0484 -0.8356 0.9852
2.5378 -3.4398 -0.9819 0.9826
2.1868 -2.8751 -0.8297 0.9853
2.2328 -2.8482 -0.8313 0.9853
2.8297 -3.2048 -0.9821 0.9826
2.8763 -3.1633 -0.9821 0.9826
2.9676 -3.0780 -0.9821 0.9826
3.0998 -2.9452 -0.9822 0.9826
3.1847 -2.8535 -0.9822 0.9826
3.2261 -2.8067 -0.9822 0.9826
3.3069 -2.7114 -0.9823 0.9826
3.4227 -2.5640 -0.9823 0.9826
3.6224 -2.3965 -0.9977 0.9823
3.6571 -2.3434 -0.9977 0.9823
3.6910 -2.2897 -0.9977 0.9823
3.7564 -2.1810 -0.9978 0.9823
3.7880 -2.1259 -0.9978 0.9823
3.8187 -2.0704 -0.9978 0.9823
3.8777 -1.9579 -0.9978 0.9823
3.9059 -1.9011 -0.9978 0.9823
3.9333 -1.8439 -0.9978 0.9823
3.9599 -1.7862 -0.9979 0.9823
4.0345 -1.6110 -0.9979 0.9823
4.0577 -1.5520 -0.9979 0.9823
4.1416 -1.3123 -0.9979 0.9823
4.1603 -1.2517 -0.9980 0.9823
4.1782 -1.1907 -0.9980 0.9823
4.2113 -1.0682 -0.9980 0.9823
4.2265 -1.0065 -0.9980 0.9823
4.2542 -0.8826 -0.9980 0.9823
4.2666 -0.8204 -0.9980 0.9823
4.2889 -0.6954 -0.9980 0.9823
4.2985 -0.6326 -0.9980 0.9823
4.3074 -0.5697 -0.9980 0.9823
4.3152 -0.5067 -0.9980 0.9823
4.3222 -0.4436 -0.9980 0.9823
4.3333 -0.3172 -0.9980 0.9823
4.3375 -0.2537 -0.9980 0.9823
4.3449 0.0000 -0.9980 0.9823
4.3431 0.1270 -0.9980 0.9823
4.3408 0.1904 -0.9980 0.9823
4.3375 0.2538 -0.9980 0.9823
4.3334 0.3172 -0.9980 0.9823
4.3152 0.5068 -0.9980 0.9823
4.3074 0.5698 -0.9980 0.9823
4.2782 0.7580 -0.9980 0.9823
4.2666 0.8204 -0.9980 0.9823
4.2408 0.9447 -0.9980 0.9823
4.2265 1.0065 -0.9980 0.9823
4.1952 1.1296 -0.9980 0.9823
4.1783 1.1907 -0.9980 0.9823
4.0577 1.5520 -0.9979 0.9823
4.0346 1.6111 -0.9979 0.9823
3.9857 1.7282 -0.9979 0.9823
3.9334 1.8439 -0.9978 0.9823
3.8777 1.9580 -0.9978 0.9823
3.8486 2.0144 -0.9978 0.9823
3.8187 2.0704 -0.9978 0.9823
3.7880 2.1259 -0.9978 0.9823
3.7565 2.1810 -0.9978 0.9823
3.6910 2.2898 -0.9977 0.9823
3.6224 2.3966 -0.9977 0.9823
3.5507 2.5013 -0.9977 0.9823
3.5137 2.5529 -0.9976 0.9823
3.4760 2.6039 -0.9976 0.9823
3.3177 2.8023 -0.9975 0.9823
3.2342 2.8980 -0.9975 0.9823
3.1915 2.9448 -0.9975 0.9823
3.0592 3.0816 -0.9974 0.9823
3.0138 3.1259 -0.9974 0.9823
2.8737 3.2548 -0.9973 0.9823
2.7281 3.3773 -0.9973 0.9823
2.6281 3.4555 -0.9972 0.9823
2.5259 3.5305 -0.9972 0.9823
2.1518 3.7694 -0.9970 0.9823
2.0965 3.8003 -0.9969 0.9823
2.0406 3.8304 -0.9969 0.9823
1.4880 3.2352 -0.8179 0.9855
1.4310 3.2349 -0.8125 0.9856
1.3196 3.2358 -0.8027 0.9858
1.0133 3.2806 -0.7887 0.9860
0.9633 3.2884 -0.7871 0.9860
0.9135 3.2962 -0.7856 0.9861
0.8144 3.3116 -0.7833 0.9861
0.7650 3.3192 -0.7824 0.9861
0.5193 3.3571 -0.7803 0.9862
0.4702 3.3648 -0.7804 0.9862
0.4211 3.3723 -0.7806 0.9861
0.3720 3.3798 -0.7810 0.9861
0.2736 3.3949 -0.7823 0.9861
0.2242 3.4025 -0.7832 0.9861
0.1747 3.4101 -0.7843 0.9861
0.0253 3.4495 -0.7924 0.9859
-0.0253 3.4859 -0.8007 0.9858
-0.1337 3.6577 -0.8407 0.9851
-0.2848 4.3257 -0.9958 0.9824
-0.3480 4.3209 -0.9957 0.9824
-0.4111 4.3153 -0.9957 0.9824
-0.5997 4.2928 -0.9956 0.9824
-0.6624 4.2834 -0.9956 0.9824
-0.7872 4.2620 -0.9955 0.9824
-0.8494 4.2499 -0.9955 0.9824
-1.0961 4.1925 -0.9954 0.9824
-1.1572 4.1759 -0.9953 0.9824
-1.3389 4.1208 -0.9953 0.9824
-1.3989 4.1007 -0.9952 0.9824
-1.6359 4.0114 -0.9951 0.9824
-1.8100 3.9356 -0.9950 0.9824
-1.8672 3.9086 -0.9950 0.9824
-1.9241 3.8808 -0.9950 0.9824
-0.3674 0.7145 -0.1845 0.9967
-0.3225 0.5649 -0.1494 0.9973
-0.3280 0.5375 -0.1446 0.9974
-0.3306 0.5243 -0.1424 0.9975
-0.3330 0.5115 -0.1402 0.9975
-0.3397 0.4748 -0.1341 0.9976
-0.3417 0.4631 -0.1322 0.9976
-0.3436 0.4517 -0.1304 0.9977
-0.3471 0.4297 -0.1269 0.9977
-0.3489 0.4192 -0.1253 0.9978
-0.3534 0.4002 -0.1226 0.9978
-0.3555 0.3909 -0.1214 0.9978
-0.3575 0.3818 -0.1201 0.9979
-0.3595 0.3730 -0.1190 0.9979
-0.3616 0.3642 -0.1179 0.9979
-0.3635 0.3556 -0.1168 0.9979
-0.3672 0.3290 -0.1132 0.9980
-0.3683 0.3204 -0.1121 0.9980
-0.3721 0.2873 -0.1080 0.9981
-0.3730 0.2795 -0.1070 0.9981
-0.3738 0.2716 -0.1061 0.9981
-0.3745 0.2638 -0.1052 0.9981
-0.3752 0.2562 -0.1044 0.9981
-0.3759 0.2487 -0.1035 0.9982
-0.3770 0.2339 -0.1019 0.9982
-0.3775 0.2266 -0.1011 0.9982
-0.3780 0.2195 -0.1004 0.9982
-0.3785 0.2124 -0.0997 0.9982
-0.3795 0.1916 -0.0977 0.9983
-0.3803 0.1852 -0.0972 0.9983
-0.3825 0.1593 -0.0952 0.9983
-0.3837 0.1404 -0.0938 0.9983
-0.3840 0.1341 -0.0934 0.9983
-0.3846 0.1219 -0.0927 0.9983
-0.3854 0.0918 -0.0910 0.9984
-0.3855 0.0800 -0.0904 0.9984
-0.3855 0.0625 -0.0897 0.9984
-0.3853 0.0509 -0.0893 0.9984
-0.3852 0.0452 -0.0891 0.9984
-0.3850 0.0395 -0.0889 0.9984
-0.3844 0.0225 -0.0884 0.9984
-0.3842 0.0168 -0.0883 0.9984
-0.3835 0.0056 -0.0881 0.9984
-0.3769 -0.0055 -0.0910 0.9985
-0.3772 -0.0110 -0.0911 0.9984
-0.3784 -0.0445 -0.0920 0.9984
-0.3785 -0.0500 -0.0922 0.9984
-0.3786 -0.0557 -0.0924 0.9984
-0.3787 -0.0614 -0.0926 0.9984
-0.3787 -0.0671 -0.0928 0.9984
-0.3782 -0.1018 -0.0946 0.9984
-0.3778 -0.1137 -0.0952 0.9984
-0.3770 -0.1317 -0.0964 0.9984
-0.3754 -0.1563 -0.0982 0.9983
-0.3743 -0.1688 -0.0991 0.9983
-0.3738 -0.1752 -0.0997 0.9983
-0.3722 -0.1879 -0.1007 0.9983
-0.3707 -0.2080 -0.1026 0.9983
-0.3692 -0.2289 -0.1049 0.9982
-0.3685 -0.2361 -0.1057 0.9982
-0.3665 -0.2581 -0.1082 0.9982
-0.3656 -0.2656 -0.1091 0.9981
-0.3648 -0.2732 -0.1100 0.9981
-0.3630 -0.2888 -0.1120 0.9981
-0.3620 -0.2968 -0.1130 0.9981
-0.3598 -0.3130 -0.1151 0.9980
-0.3562 -0.3384 -0.1186 0.9980
-0.3548 -0.3471 -0.1198 0.9980
-0.3511 -0.3641 -0.1221 0.9979
-0.3468 -0.3814 -0.1244 0.9979
-0.3447 -0.3903 -0.1257 0.9979
-0.3352 -0.4277 -0.1312 0.9978
-0.3332 -0.4380 -0.1329 0.9977
-0.3291 -0.4600 -0.1365 0.9977
-0.3222 -0.4948 -0.1426 0.9976
-0.3171 -0.5195 -0.1469 0.9975
-0.3083 -0.5588 -0.1541 0.9974
-0.3105 -0.5829 -0.1594 0.9973
-0.3237 -0.6296 -0.1709 0.9971
-0.3387 -0.6832 -0.1841 0.9969
-0.3560 -0.7453 -0.1994 0.9966
-1.0956 -2.3822 -0.6330 0.9893
-1.1285 -2.6555 -0.6965 0.9882
-1.1471 -2.8128 -0.7333 0.9876
-1.1785 -3.1500 -0.8119 0.9863
-1.1338 -3.1711 -0.8130 0.9862
-0.9953 -3.0632 -0.7775 0.9868
-0.9205 -2.9806 -0.7531 0.9872
-0.7839 -2.8288 -0.7086 0.9880
-0.7213 -2.7588 -0.6884 0.9883
-0.6620 -2.6923 -0.6693 0.9887
-0.5526 -2.5687 -0.6343 0.9892
-0.6792 -4.0039 -0.9803 0.9834
-0.4442 -4.0371 -0.9804 0.9834
-0.3852 -4.0433 -0.9805 0.9834
-0.3261 -4.0487 -0.9805 0.9834
-0.2077 -4.0567 -0.9806 0.9834
-0.1484 -4.0594 -0.9806 0.9834
-0.0890 -4.0612 -0.9806 0.9834
-0.0297 -4.0622 -0.9806 0.9834
0.0296 -4.0624 -0.9807 0.9834
0.0890 -4.0616 -0.9807 0.9834
0.2669 -4.0541 -0.9808 0.9834
0.3262 -4.0500 -0.9808 0.9834
0.4444 -4.0389 -0.9809 0.9834
0.5034 -4.0321 -0.9809 0.9834
0.6797 -4.0065 -0.9810 0.9834
0.6628 -3.5884 -0.8809 0.9851
0.7166 -3.5855 -0.8826 0.9851
0.7781 -3.6171 -0.8931 0.9849
0.8167 -3.5440 -0.8779 0.9851
0.9704 -3.9468 -0.9811 0.9834
1.3125 -3.8473 -0.9813 0.9834
1.3686 -3.8279 -0.9813 0.9834
1.4245 -3.8076 -0.9814 0.9834
1.4800 -3.7864 -0.9814 0.9834
1.5352 -3.7645 -0.9814 0.9834
1.5901 -3.7418 -0.9814 0.9834
1.6989 -3.6939 -0.9815 0.9834
1.8592 -3.6163 -0.9816 0.9834
1.9119 -3.5888 -0.9816 0.9834
1.8474 -3.1290 -0.8772 0.9852
1.9111 -3.0309 -0.8650 0.9854
2.3665 -3.3078 -0.9818 0.9834
2.2011 -2.8940 -0.8777 0.9851
2.6924 -3.0495 -0.9820 0.9834
2.7367 -3.0098 -0.9820 0.9834
2.8236 -2.9287 -0.9821 0.9834
2.8662 -2.8871 -0.9821 0.9834
2.9494 -2.8023 -0.9821 0.9834
3.0302 -2.7150 -0.9822 0.9834
3.1464 -2.5798 -0.9822 0.9834
3.1924 -2.5404 -0.9849 0.9834
3.3432 -2.4289 -0.9975 0.9831
3.5118 -2.1786 -0.9976 0.9831
3.6618 -1.9166 -0.9977 0.9831
3.7163 -1.8088 -0.9977 0.9831
3.7424 -1.7543 -0.9977 0.9831
3.7922 -1.6443 -0.9978 0.9831
3.8158 -1.5887 -0.9978 0.9831
3.8387 -1.5328 -0.9978 0.9831
3.8607 -1.4766 -0.9978 0.9831
3.8819 -1.4200 -0.9978 0.9831
3.9218 -1.3060 -0.9978 0.9831
3.9405 -1.2486 -0.9978 0.9831
3.9584 -1.1909 -0.9979 0.9831
3.9754 -1.1329 -0.9979 0.9831
3.9916 -1.0747 -0.9979 0.9831
4.0068 -1.0163 -0.9979 0.9831
4.0213 -0.9577 -0.9979 0.9831
4.0349 -0.8988 -0.9979 0.9831
4.0476 -0.8397 -0.9979 0.9831
4.0595 -0.7805 -0.9979 0.9831
4.0806 -0.6616 -0.9979 0.9831
4.1057 -0.4821 -0.9979 0.9831
4.1124 -0.4221 -0.9979 0.9831
4.1181 -0.3620 -0.9979 0.9831
4.1230 -0.3018 -0.9979 0.9831
4.1300 -0.1811 -0.9979 0.9831
4.1322 -0.1208 -0.9979 0.9831
4.1336 -0.0604 -0.9979 0.9831
4.1340 0.0000 -0.9979 0.9831
4.1336 0.0604 -0.9979 0.9831
4.1300 0.1812 -0.9979 0.9831
4.1269 0.2416 -0.9979 0.9831
4.1230 0.3018 -0.9979 0.9831
4.1057 0.4822 -0.9979 0.9831
4.0899 0.6020 -0.9979 0.9831
4.0705 0.7212 -0.9979 0.9831
4.0595 0.7806 -0.9979 0.9831
4.0476 0.8398 -0.9979 0.9831
4.0213 0.9577 -0.9979 0.9831
3.9584 1.1909 -0.9979 0.9831
3.9405 1.2486 -0.9978 0.9831
3.9023 1.3632 -0.9978 0.9831
3.8819 1.4201 -0.9978 0.9831
3.8607 1.4766 -0.9978 0.9831
3.8387 1.5329 -0.9978 0.9831
3.8158 1.5888 -0.9978 0.9831
3.7677 1.6996 -0.9978 0.9831
3.6894 1.8630 -0.9977 0.9831
3.6618 1.9166 -0.9977 0.9831
3.6333 1.9698 -0.9977 0.9831
3.5119 2.1786 -0.9976 0.9831
3.4796 2.2297 -0.9976 0.9831
3.4128 2.3304 -0.9976 0.9831
3.3784 2.3800 -0.9976 0.9831
3.3432 2.4290 -0.9976 0.9831
3.3073 2.4775 -0.9975 0.9831
3.2707 2.5255 -0.9975 0.9831
3.1567 2.6662 -0.9975 0.9831
3.0366 2.8019 -0.9974 0.9831
2.9953 2.8459 -0.9974 0.9831
2.9533 2.8893 -0.9974 0.9831
2.9107 2.9321 -0.9973 0.9831
2.8675 2.9743 -0.9973 0.9831
2.8237 3.0158 -0.9973 0.9831
2.6887 3.1364 -0.9972 0.9831
2.6425 3.1753 -0.9972 0.9831
2.5957 3.2135 -0.9972 0.9831
2.4523 3.3239 -0.9971 0.9831
2.3540 3.3940 -0.9971 0.9831
2.3041 3.4280 -0.9970 0.9831
2.2028 3.4936 -0.9970 0.9831
2.0474 3.5865 -0.9969 0.9831
1.9417 3.6447 -0.9969 0.9832
1.8882 3.6725 -0.9968 0.9832
1.4673 3.4528 -0.9056 0.9847
1.3891 3.5540 -0.9211 0.9844
1.3899 3.8875 -0.9966 0.9832
1.3330 3.9072 -0.9966 0.9832
0.9837 3.3581 -0.8447 0.9857
0.8801 3.3660 -0.8398 0.9858
0.8289 3.3708 -0.8379 0.9858
0.7781 3.3759 -0.8363 0.9858
0.7275 3.3815 -0.8349 0.9859
0.6772 3.3876 -0.8339 0.9859
0.4277 3.4251 -0.8332 0.9859
0.3282 3.4435 -0.8350 0.9859
0.2783 3.4534 -0.8363 0.9858
0.1780 3.4750 -0.8399 0.9858
0.0768 3.4988 -0.8448 0.9857
0.0265 3.6320 -0.8768 0.9852
-0.0802 3.6616 -0.8841 0.9850
-0.2711 4.1162 -0.9958 0.9832
-0.3312 4.1117 -0.9958 0.9832
-0.3912 4.1063 -0.9957 0.9832
-0.5707 4.0848 -0.9956 0.9832
-0.6303 4.0759 -0.9956 0.9832
-0.6898 4.0662 -0.9956 0.9832
-0.7491 4.0555 -0.9955 0.9832
-0.9260 4.0185 -0.9955 0.9832
-0.9846 4.0044 -0.9954 0.9832
-1.0430 3.9894 -0.9954 0.9832
-1.1011 3.9737 -0.9954 0.9832
-1.1590 3.9570 -0.9953 0.9832
-1.2741 3.9212 -0.9953 0.9832
-1.3312 3.9021 -0.9953 0.9832
-1.3881 3.8821 -0.9952 0.9832
-1.5008 3.8397 -0.9952 0.9832
-1.5567 3.8173 -0.9952 0.9832
-1.7223 3.7451 -0.9951 0.9832
-0.3387 0.6833 -0.1841 0.9969
-0.3114 0.5455 -0.1516 0.9974
-0.3222 0.4949 -0.1426 0.9976
-0.3312 0.4489 -0.1347 0.9977
-0.3332 0.4380 -0.1329 0.9977
-0.3352 0.4277 -0.1312 0.9978
-0.3424 0.3995 -0.1270 0.9978
-0.3511 0.3642 -0.1221 0.9979
-0.3531 0.3557 -0.1210 0.9979
-0.3575 0.3298 -0.1174 0.9980
-0.3587 0.3214 -0.1163 0.9980
-0.3664 0.2582 -0.1082 0.9982
-0.3672 0.2507 -0.1073 0.9982
-0.3679 0.2434 -0.1065 0.9982
-0.3685 0.2362 -0.1057 0.9982
-0.3712 0.2013 -0.1019 0.9983
-0.3716 0.1945 -0.1012 0.9983
-0.3731 0.1816 -0.1002 0.9983
-0.3749 0.1626 -0.0986 0.9983
-0.3758 0.1501 -0.0977 0.9983
-0.3762 0.1439 -0.0972 0.9983
-0.3766 0.1378 -0.0968 0.9984
-0.3773 0.1256 -0.0960 0.9984
-0.3780 0.1077 -0.0949 0.9984
-0.3784 0.0960 -0.0942 0.9984
-0.3786 0.0844 -0.0936 0.9984
-0.3787 0.0671 -0.0928 0.9984
-0.3787 0.0614 -0.0926 0.9984
-0.3786 0.0557 -0.0924 0.9984
-0.3783 0.0388 -0.0918 0.9984
-0.3781 0.0332 -0.0916 0.9984
-0.3779 0.0277 -0.0915 0.9984
-0.3772 0.0111 -0.0911 0.9984
-0.3769 0.0055 -0.0910 0.9985
-0.3701 0.0000 -0.0937 0.9985
-0.3704 -0.0054 -0.0938 0.9985
-0.3707 -0.0108 -0.0939 0.9985
-0.3710 -0.0163 -0.0940 0.9985
-0.3712 -0.0217 -0.0941 0.9985
-0.3719 -0.0436 -0.0948 0.9985
-0.3721 -0.0548 -0.0952 0.9984
-0.3721 -0.0659 -0.0957 0.9984
-0.3720 -0.0772 -0.0962 0.9984
-0.3719 -0.0829 -0.0965 0.9984
-0.3715 -0.1000 -0.0974 0.9984
-0.3713 -0.1058 -0.0977 0.9984
-0.3710 -0.1116 -0.0981 0.9984
-0.3708 -0.1175 -0.0985 0.9984
-0.3705 -0.1234 -0.0989 0.9984
-0.3701 -0.1293 -0.0993 0.9984
-0.3689 -0.1473 -0.1006 0.9984
-0.3685 -0.1534 -0.1010 0.9984
-0.3643 -0.1907 -0.1041 0.9983
-0.3628 -0.2106 -0.1062 0.9983
-0.3602 -0.2383 -0.1093 0.9982
-0.3595 -0.2454 -0.1102 0.9982
-0.3560 -0.2749 -0.1139 0.9981
-0.3517 -0.3060 -0.1180 0.9981
-0.3493 -0.3223 -0.1203 0.9980
-0.3465 -0.3389 -0.1227 0.9980
-0.3386 -0.3724 -0.1274 0.9979
-0.3364 -0.3810 -0.1287 0.9979
-0.3293 -0.4077 -0.1327 0.9978
-0.3215 -0.4357 -0.1371 0.9978
-0.3169 -0.4569 -0.1408 0.9977
-0.3121 -0.4792 -0.1448 0.9976
-0.3067 -0.5026 -0.1491 0.9976
-0.3039 -0.5147 -0.1513 0.9975
-0.3009 -0.5271 -0.1537 0.9975
-0.2978 -0.5398 -0.1561 0.9975
-0.3001 -0.6053 -0.1710 0.9972
-0.3267 -0.7102 -0.1979 0.9968
-0.3430 -0.7754 -0.2146 0.9965
-1.0976 -2.8081 -0.7633 0.9876
-1.1148 -2.9796 -0.8054 0.9870
-0.8884 -2.8767 -0.7622 0.9877
-1.0339 -3.7311 -0.9802 0.9842
-0.9245 -3.7599 -0.9802 0.9842
-0.8695 -3.7731 -0.9802 0.9842
-0.8143 -3.7855 -0.9803 0.9841
-0.7589 -3.7971 -0.9803 0.9841
-0.6477 -3.8179 -0.9803 0.9841
-0.5918 -3.8271 -0.9804 0.9841
-0.5359 -3.8354 -0.9804 0.9841
-0.4798 -3.8429 -0.9804 0.9841
-0.4236 -3.8497 -0.9805 0.9841
-0.2545 -3.8648 -0.9805 0.9841
-0.1980 -3.8682 -0.9806 0.9841
-0.0849 -3.8726 -0.9806 0.9841
-0.0283 -3.8736 -0.9806 0.9841
0.0283 -3.8737 -0.9807 0.9841
0.1415 -3.8714 -0.9807 0.9841
0.2546 -3.8658 -0.9808 0.9841
0.3110 -3.8618 -0.9808 0.9841
0.4238 -3.8513 -0.9809 0.9841
0.5361 -3.8375 -0.9809 0.9841
0.9254 -3.7634 -0.9811 0.9841
0.9803 -3.7496 -0.9811 0.9841
1.0895 -3.7195 -0.9812 0.9841
1.3050 -3.6499 -0.9813 0.9841
1.3582 -3.6306 -0.9813 0.9841
1.4112 -3.6105 -0.9814 0.9841
1.5682 -3.5454 -0.9814 0.9841
1.6199 -3.5222 -0.9815 0.9841
1.7222 -3.4736 -0.9815 0.9841
1.7728 -3.4481 -0.9815 0.9841
1.8230 -3.4220 -0.9816 0.9841
1.9223 -3.3673 -0.9816 0.9841
1.9023 -3.1170 -0.9244 0.9850
2.1633 -3.2185 -0.9817 0.9841
2.2101 -3.1865 -0.9817 0.9841
2.3478 -3.0869 -0.9818 0.9841
2.3927 -3.0523 -0.9818 0.9841
2.4371 -3.0171 -0.9819 0.9841
2.4810 -2.9812 -0.9819 0.9841
2.6511 -2.8314 -0.9820 0.9841
2.6923 -2.7925 -0.9820 0.9841
2.7328 -2.7529 -0.9820 0.9841
2.7728 -2.7127 -0.9820 0.9841
2.8122 -2.6719 -0.9820 0.9841
2.8510 -2.6306 -0.9821 0.9841
2.9287 -2.5477 -0.9826 0.9841
2.9939 -2.5287 -0.9921 0.9840
3.0467 -2.4980 -0.9974 0.9839
3.0829 -2.4532 -0.9974 0.9839
3.1185 -2.4080 -0.9974 0.9839
3.1534 -2.3622 -0.9975 0.9839
3.2862 -2.1741 -0.9975 0.9839
3.3177 -2.1259 -0.9975 0.9839
3.4643 -1.8782 -0.9976 0.9839
3.4914 -1.8273 -0.9976 0.9839
3.5178 -1.7762 -0.9976 0.9839
3.5924 -1.6204 -0.9977 0.9839
3.6157 -1.5678 -0.9977 0.9839
3.7013 -1.3539 -0.9977 0.9839
3.7393 -1.2452 -0.9977 0.9839
3.7904 -1.0802 -0.9978 0.9839
3.8058 -1.0247 -0.9978 0.9839
3.8471 -0.8570 -0.9978 0.9839
3.8593 -0.8007 -0.9978 0.9839
3.8706 -0.7442 -0.9978 0.9839
3.8811 -0.6875 -0.9978 0.9839
3.9147 -0.4597 -0.9978 0.9839
3.9264 -0.3451 -0.9978 0.9839
3.9349 -0.2302 -0.9978 0.9839
3.9378 -0.1727 -0.9978 0.9839
3.9416 0.0000 -0.9978 0.9839
3.9412 0.0576 -0.9978 0.9839
3.9349 0.2303 -0.9978 0.9839
3.9311 0.2877 -0.9978 0.9839
3.9075 0.5169 -0.9978 0.9839
3.8907 0.6308 -0.9978 0.9839
3.8706 0.7443 -0.9978 0.9839
3.8471 0.8570 -0.9978 0.9839
3.7393 1.2452 -0.9977 0.9839
3.7013 1.3540 -0.9977 0.9839
3.6811 1.4079 -0.9977 0.9839
3.6601 1.4615 -0.9977 0.9839
3.6383 1.5148 -0.9977 0.9839
3.6157 1.5678 -0.9977 0.9839
3.5924 1.6205 -0.9977 0.9839
3.5434 1.7247 -0.9977 0.9839
3.4914 1.8275 -0.9976 0.9839
3.4643 1.8783 -0.9976 0.9839
3.4364 1.9287 -0.9976 0.9839
3.4078 1.9786 -0.9976 0.9839
3.3177 2.1259 -0.9975 0.9839
3.2863 2.1742 -0.9975 0.9839
3.2541 2.2219 -0.9975 0.9839
3.2212 2.2692 -0.9975 0.9839
3.1877 2.3160 -0.9975 0.9839
3.1534 2.3623 -0.9975 0.9839
3.0829 2.4534 -0.9974 0.9839
3.0467 2.4981 -0.9974 0.9839
2.8954 2.6716 -0.9973 0.9839
2.8560 2.7136 -0.9973 0.9839
2.6924 2.8755 -0.9972 0.9839
2.6500 2.9145 -0.9972 0.9839
2.6071 2.9529 -0.9972 0.9839
2.5196 3.0276 -0.9972 0.9839
2.4299 3.0998 -0.9971 0.9839
2.3382 3.1694 -0.9971 0.9839
2.0514 3.3614 -0.9969 0.9839
1.9020 3.4479 -0.9968 0.9839
1.8514 3.4752 -0.9968 0.9839
1.7490 3.5276 -0.9968 0.9839
1.6972 3.5527 -0.9967 0.9839
1.4967 3.5220 -0.9688 0.9843
1.4617 3.5844 -0.9799 0.9842
1.4332 3.6666 -0.9966 0.9839
1.3254 3.7068 -0.9966 0.9839
1.2710 3.7256 -0.9965 0.9839
1.0511 3.7931 -0.9964 0.9839
0.9398 3.8220 -0.9964 0.9839
0.8838 3.8352 -0.9963 0.9839
0.7713 3.8592 -0.9963 0.9839
0.6582 3.8798 -0.9962 0.9839
0.6014 3.8889 -0.9962 0.9839
0.5445 3.8972 -0.9962 0.9839
0.4875 3.9047 -0.9962 0.9839
0.4304 3.9112 -0.9961 0.9839
0.3731 3.9170 -0.9961 0.9839
0.1942 3.7929 -0.9614 0.9845
0.1358 3.7145 -0.9409 0.9848
0.0808 3.6878 -0.9338 0.9849
-0.0270 3.6931 -0.9349 0.9849
-0.0817 3.7274 -0.9438 0.9847
-0.2585 3.9250 -0.9958 0.9839
-0.3158 3.9207 -0.9958 0.9839
-0.5442 3.8951 -0.9956 0.9839
-0.6577 3.8773 -0.9956 0.9839
-0.7143 3.8672 -0.9956 0.9839
-0.7707 3.8562 -0.9955 0.9839
-0.8269 3.8445 -0.9955 0.9839
-0.9389 3.8184 -0.9955 0.9839
-0.9945 3.8043 -0.9954 0.9839
-1.0500 3.7892 -0.9954 0.9839
-1.1052 3.7733 -0.9954 0.9839
-1.1602 3.7567 -0.9953 0.9839
-1.2149 3.7392 -0.9953 0.9839
-1.3236 3.7020 -0.9953 0.9839
-1.3775 3.6821 -0.9952 0.9839
-1.4844 3.6401 -0.9952 0.9839
-0.3267 0.7104 -0.1979 0.9968
-0.2911 0.5663 -0.1612 0.9974
-0.2945 0.5529 -0.1586 0.9974
-0.2978 0.5399 -0.1561 0.9975
-0.3039 0.5147 -0.1513 0.9975
-0.3067 0.5027 -0.1491 0.9976
-0.3095 0.4909 -0.1469 0.9976
-0.3145 0.4680 -0.1427 0.9977
-0.3192 0.4461 -0.1389 0.9977
-0.3242 0.4262 -0.1356 0.9978
-0.3293 0.4077 -0.1327 0.9978
-0.3317 0.3987 -0.1313 0.9979
-0.3341 0.3898 -0.1300 0.9979
-0.3364 0.3810 -0.1287 0.9979
-0.3450 0.3476 -0.1240 0.9980
-0.3493 0.3223 -0.1203 0.9980
-0.3529 0.2981 -0.1169 0.9981
-0.3540 0.2903 -0.1159 0.9981
-0.3570 0.2674 -0.1129 0.9982
-0.3579 0.2600 -0.1120 0.9982
-0.3602 0.2384 -0.1093 0.9982
-0.3616 0.2243 -0.1077 0.9982
-0.3622 0.2174 -0.1069 0.9983
-0.3628 0.2106 -0.1062 0.9983
-0.3643 0.1907 -0.1041 0.9983
-0.3652 0.1844 -0.1036 0.9983
-0.3668 0.1720 -0.1026 0.9983
-0.3674 0.1657 -0.1020 0.9983
-0.3679 0.1596 -0.1015 0.9983
-0.3694 0.1412 -0.1001 0.9984
-0.3708 0.1175 -0.0985 0.9984
-0.3710 0.1116 -0.0981 0.9984
-0.3713 0.1058 -0.0977 0.9984
-0.3715 0.1001 -0.0974 0.9984
-0.3719 0.0829 -0.0965 0.9984
-0.3720 0.0772 -0.0962 0.9984
-0.3721 0.0659 -0.0957 0.9984
-0.3721 0.0548 -0.0952 0.9984
-0.3720 0.0492 -0.0950 0.9985
-0.3718 0.0382 -0.0946 0.9985
-0.3716 0.0327 -0.0944 0.9985
-0.3712 0.0217 -0.0941 0.9985
-0.3710 0.0163 -0.0940 0.9985
-0.3707 0.0109 -0.0939 0.9985
-0.3704 0.0054 -0.0938 0.9985
-0.3638 0.0000 -0.0964 0.9985
-0.3651 -0.0267 -0.0970 0.9985
-0.3654 -0.0375 -0.0973 0.9985
-0.3657 -0.0593 -0.0982 0.9985
-0.3657 -0.0648 -0.0984 0.9985
-0.3656 -0.0703 -0.0987 0.9985
-0.3656 -0.0759 -0.0989 0.9985
-0.3655 -0.0814 -0.0992 0.9985
-0.3653 -0.0870 -0.0995 0.9984
-0.3652 -0.0926 -0.0998 0.9984
-0.3650 -0.0982 -0.1002 0.9984
-0.3642 -0.1154 -0.1012 0.9984
-0.3639 -0.1212 -0.1016 0.9984
-0.3627 -0.1387 -0.1029 0.9984
-0.3622 -0.1446 -0.1034 0.9984
-0.3618 -0.1506 -0.1038 0.9984
-0.3592 -0.1748 -0.1059 0.9983
-0.3584 -0.1809 -0.1064 0.9983
-0.3575 -0.1871 -0.1069 0.9983
-0.3566 -0.1933 -0.1075 0.9983
-0.3561 -0.1998 -0.1082 0.9983
-0.3549 -0.2130 -0.1097 0.9983
-0.3543 -0.2197 -0.1105 0.9983
-0.3528 -0.2334 -0.1121 0.9983
-0.3503 -0.2545 -0.1147 0.9982
-0.3494 -0.2618 -0.1157 0.9982
-0.3484 -0.2690 -0.1166 0.9982
-0.3452 -0.2915 -0.1197 0.9981
-0.3400 -0.3230 -0.1243 0.9981
-0.3386 -0.3312 -0.1255 0.9980
-0.3352 -0.3476 -0.1280 0.9980
-0.3330 -0.3557 -0.1291 0.9980
-0.3285 -0.3720 -0.1315 0.9979
-0.3261 -0.3804 -0.1328 0.9979
-0.3187 -0.4066 -0.1369 0.9979
-0.3161 -0.4156 -0.1384 0.9978
-0.3106 -0.4341 -0.1414 0.9978
-0.3076 -0.4435 -0.1430 0.9978
-0.2998 -0.4754 -0.1489 0.9977
-0.2942 -0.4982 -0.1533 0.9976
-0.2911 -0.5099 -0.1556 0.9976
-0.2880 -0.5219 -0.1580 0.9975
-0.2846 -0.5343 -0.1604 0.9975
-0.2776 -0.5598 -0.1656 0.9974
-0.2783 -0.5825 -0.1711 0.9973
-0.2884 -0.6271 -0.1829 0.9971
-0.2999 -0.6779 -0.1964 0.9969
-1.0482 -2.8018 -0.7927 0.9877
-1.2452 -3.4826 -0.9801 0.9848
-1.1430 -3.5177 -0.9801 0.9848
-1.0915 -3.5341 -0.9801 0.9848
-0.8833 -3.5922 -0.9802 0.9848
-0.8307 -3.6048 -0.9803 0.9848
-0.7780 -3.6167 -0.9803 0.9848
-0.6720 -3.6380 -0.9803 0.9848
-0.4584 -3.6715 -0.9804 0.9848
-0.3509 -3.6835 -0.9805 0.9848
-0.2971 -3.6884 -0.9805 0.9848
-0.2431 -3.6924 -0.9805 0.9848
-0.1892 -3.6957 -0.9806 0.9848
-0.1352 -3.6981 -0.9806 0.9848
-0.0811 -3.6998 -0.9806 0.9848
0.0811 -3.7001 -0.9807 0.9848
0.1352 -3.6986 -0.9807 0.9848
0.1892 -3.6963 -0.9808 0.9848
0.2432 -3.6933 -0.9808 0.9848
0.3510 -3.6848 -0.9808 0.9848
0.4049 -3.6794 -0.9809 0.9848
0.4586 -3.6732 -0.9809 0.9848
0.6724 -3.6405 -0.9810 0.9848
0.8840 -3.5954 -0.9811 0.9848
0.9365 -3.5822 -0.9811 0.9848
1.0927 -3.5380 -0.9812 0.9848
1.1443 -3.5217 -0.9812 0.9848
1.1956 -3.5047 -0.9813 0.9848
1.4485 -3.4086 -0.9814 0.9848
1.6936 -3.2941 -0.9815 0.9848
1.7892 -3.2434 -0.9815 0.9848
1.8365 -3.2170 -0.9816 0.9848
2.0667 -3.0747 -0.9817 0.9848
2.0910 -3.0148 -0.9722 0.9849
2.1557 -3.0131 -0.9817 0.9848
2.1996 -2.9813 -0.9817 0.9848
2.2858 -2.9159 -0.9818 0.9848
2.4116 -2.8131 -0.9818 0.9848
2.4928 -2.7416 -0.9819 0.9848
2.5720 -2.6677 -0.9819 0.9848
2.6489 -2.5915 -0.9820 0.9848
2.6866 -2.5525 -0.9820 0.9848
2.7459 -2.5337 -0.9900 0.9847
2.8395 -2.4703 -0.9973 0.9845
2.8753 -2.4286 -0.9973 0.9845
2.9791 -2.3004 -0.9974 0.9845
3.0125 -2.2566 -0.9974 0.9845
3.0772 -2.1677 -0.9974 0.9845
3.1086 -2.1226 -0.9974 0.9845
3.1988 -1.9844 -0.9975 0.9845
3.2275 -1.9375 -0.9975 0.9845
3.2828 -1.8424 -0.9975 0.9845
3.3095 -1.7942 -0.9975 0.9845
3.3353 -1.7457 -0.9975 0.9845
3.3605 -1.6968 -0.9976 0.9845
3.4088 -1.5979 -0.9976 0.9845
3.4318 -1.5480 -0.9976 0.9845
3.4541 -1.4977 -0.9976 0.9845
3.4964 -1.3962 -0.9976 0.9845
3.6054 -1.0847 -0.9977 0.9845
3.6209 -1.0319 -0.9977 0.9845
3.6357 -0.9789 -0.9977 0.9845
3.6496 -0.9257 -0.9977 0.9845
3.6751 -0.8187 -0.9977 0.9845
3.6975 -0.7109 -0.9977 0.9845
3.7328 -0.4937 -0.9977 0.9845
3.7457 -0.3844 -0.9977 0.9845
3.7553 -0.2748 -0.9978 0.9845
3.7618 -0.1650 -0.9978 0.9845
3.7638 -0.1100 -0.9978 0.9845
3.7638 0.1100 -0.9978 0.9845
3.7589 0.2200 -0.9978 0.9845
3.7509 0.3297 -0.9978 0.9845
3.7396 0.4392 -0.9977 0.9845
3.7252 0.5483 -0.9977 0.9845
3.7168 0.6027 -0.9977 0.9845
3.7076 0.6569 -0.9977 0.9845
3.6867 0.7649 -0.9977 0.9845
3.6496 0.9257 -0.9977 0.9845
3.6209 1.0320 -0.9977 0.9845
3.6054 1.0848 -0.9977 0.9845
3.5892 1.1373 -0.9977 0.9845
3.5358 1.2935 -0.9976 0.9845
3.5165 1.3450 -0.9976 0.9845
3.4964 1.3962 -0.9976 0.9845
3.4318 1.5480 -0.9976 0.9845
3.3606 1.6969 -0.9976 0.9845
3.3353 1.7457 -0.9976 0.9845
3.2828 1.8424 -0.9975 0.9845
3.1694 2.0309 -0.9975 0.9845
3.1394 2.0770 -0.9975 0.9845
3.0452 2.2125 -0.9974 0.9845
2.9791 2.3005 -0.9974 0.9845
2.9452 2.3437 -0.9974 0.9845
2.8753 2.4287 -0.9973 0.9845
2.7660 2.5522 -0.9973 0.9845
2.7284 2.5923 -0.9973 0.9845
2.6901 2.6318 -0.9972 0.9845
2.5721 2.7470 -0.9972 0.9845
2.5316 2.7842 -0.9972 0.9845
2.4491 2.8569 -0.9971 0.9845
2.4070 2.8923 -0.9971 0.9845
2.3645 2.9271 -0.9971 0.9845
2.3214 2.9613 -0.9971 0.9846
2.2778 2.9948 -0.9970 0.9846
2.1442 3.0916 -0.9970 0.9846
2.0529 3.1528 -0.9969 0.9846
2.0065 3.1824 -0.9969 0.9846
1.9126 3.2395 -0.9969 0.9846
1.6708 3.3701 -0.9967 0.9846
1.5215 3.4398 -0.9967 0.9846
1.3178 3.5224 -0.9966 0.9846
1.2662 3.5412 -0.9965 0.9846
1.2142 3.5593 -0.9965 0.9846
1.1621 3.5765 -0.9965 0.9846
1.0570 3.6087 -0.9964 0.9846
1.0042 3.6237 -0.9964 0.9846
0.9511 3.6380 -0.9964 0.9846
0.8443 3.6640 -0.9963 0.9846
0.7907 3.6758 -0.9963 0.9846
0.7369 3.6869 -0.9963 0.9846
0.6829 3.6972 -0.9963 0.9846
0.5745 3.7154 -0.9962 0.9846
0.5202 3.7232 -0.9962 0.9846
0.4657 3.7304 -0.9961 0.9846
0.4112 3.7366 -0.9961 0.9846
0.3565 3.7422 -0.9961 0.9846
0.3018 3.7469 -0.9961 0.9846
0.0823 3.7577 -0.9960 0.9846
0.0274 3.7584 -0.9959 0.9846
-0.0275 3.7583 -0.9959 0.9846
-0.1373 3.7557 -0.9958 0.9846
-0.2469 3.7498 -0.9958 0.9846
-0.3564 3.7408 -0.9957 0.9846
-0.4110 3.7352 -0.9957 0.9846
-0.5199 3.7214 -0.9957 0.9846
-0.5742 3.7132 -0.9956 0.9846
-0.6824 3.6947 -0.9956 0.9846
-0.9502 3.6345 -0.9954 0.9846
-1.0559 3.6050 -0.9954 0.9846
-1.3673 3.4982 -0.9952 0.9846
-0.3130 0.7364 -0.2120 0.9967
-0.2999 0.6780 -0.1964 0.9969
-0.2885 0.6272 -0.1829 0.9971
-0.2775 0.5599 -0.1656 0.9974
-0.2812 0.5469 -0.1629 0.9975
-0.2846 0.5343 -0.1604 0.9975
-0.2911 0.5100 -0.1556 0.9976
-0.2998 0.4755 -0.1489 0.9977
-0.3025 0.4645 -0.1469 0.9977
-0.3050 0.4538 -0.1449 0.9977
-0.3076 0.4436 -0.1430 0.9978
-0.3105 0.4341 -0.1414 0.9978
-0.3161 0.4156 -0.1384 0.9978
-0.3213 0.3978 -0.1355 0.9979
-0.3261 0.3804 -0.1328 0.9979
-0.3285 0.3721 -0.1315 0.9979
-0.3308 0.3638 -0.1303 0.9980
-0.3330 0.3557 -0.1291 0.9980
-0.3352 0.3477 -0.1280 0.9980
-0.3371 0.3395 -0.1268 0.9980
-0.3400 0.3230 -0.1243 0.9981
-0.3427 0.3071 -0.1219 0.9981
-0.3440 0.2993 -0.1208 0.9981
-0.3463 0.2840 -0.1187 0.9981
-0.3512 0.2474 -0.1138 0.9982
-0.3520 0.2404 -0.1130 0.9982
-0.3543 0.2198 -0.1105 0.9983
-0.3549 0.2131 -0.1097 0.9983
-0.3561 0.1998 -0.1082 0.9983
-0.3566 0.1933 -0.1075 0.9983
-0.3575 0.1871 -0.1069 0.9983
-0.3584 0.1810 -0.1064 0.9983
-0.3592 0.1749 -0.1059 0.9983
-0.3606 0.1627 -0.1048 0.9984
-0.3617 0.1506 -0.1038 0.9984
-0.3627 0.1388 -0.1029 0.9984
-0.3631 0.1329 -0.1025 0.9984
-0.3635 0.1270 -0.1020 0.9984
-0.3645 0.1097 -0.1009 0.9984
-0.3650 0.0983 -0.1002 0.9984
-0.3652 0.0927 -0.0998 0.9984
-0.3657 0.0648 -0.0984 0.9985
-0.3657 0.0593 -0.0982 0.9985
-0.3655 0.0429 -0.0975 0.9985
-0.3653 0.0321 -0.0972 0.9985
-0.3651 0.0267 -0.0970 0.9985
-0.3642 0.0053 -0.0965 0.9985
-0.3578 0.0000 -0.0991 0.9985
-0.3581 -0.0052 -0.0991 0.9985
-0.3583 -0.0104 -0.0993 0.9985
-0.3590 -0.0262 -0.0997 0.9985
-0.3591 -0.0315 -0.0998 0.9985
-0.3593 -0.0368 -0.1000 0.9985
-0.3595 -0.0583 -0.1008 0.9985
-0.3594 -0.0637 -0.1011 0.9985
-0.3594 -0.0691 -0.1013 0.9985
-0.3590 -0.0855 -0.1022 0.9985
-0.3584 -0.1021 -0.1032 0.9985
-0.3578 -0.1134 -0.1039 0.9984
-0.3567 -0.1305 -0.1052 0.9984
-0.3552 -0.1479 -0.1065 0.9984
-0.3547 -0.1538 -0.1070 0.9984
-0.3534 -0.1656 -0.1081 0.9984
-0.3518 -0.1776 -0.1091 0.9984
-0.3491 -0.1959 -0.1108 0.9983
-0.3485 -0.2023 -0.1116 0.9983
-0.3457 -0.2287 -0.1148 0.9983
-0.3449 -0.2355 -0.1156 0.9983
-0.3431 -0.2492 -0.1174 0.9982
-0.3411 -0.2634 -0.1193 0.9982
-0.3400 -0.2705 -0.1203 0.9982
-0.3389 -0.2779 -0.1213 0.9982
-0.3377 -0.2852 -0.1224 0.9982
-0.3365 -0.2927 -0.1235 0.9982
-0.3352 -0.3003 -0.1246 0.9981
-0.3338 -0.3080 -0.1258 0.9981
-0.3324 -0.3158 -0.1269 0.9981
-0.3294 -0.3317 -0.1294 0.9981
-0.3277 -0.3398 -0.1307 0.9980
-0.3233 -0.3555 -0.1330 0.9980
-0.3209 -0.3635 -0.1343 0.9980
-0.3161 -0.3798 -0.1368 0.9980
-0.3136 -0.3882 -0.1382 0.9979
-0.3056 -0.4142 -0.1425 0.9979
-0.3028 -0.4232 -0.1441 0.9978
-0.2999 -0.4323 -0.1457 0.9978
-0.2907 -0.4610 -0.1509 0.9977
-0.2819 -0.4937 -0.1574 0.9976
-0.2786 -0.5051 -0.1597 0.9976
-0.2718 -0.5287 -0.1646 0.9975
-0.2682 -0.5409 -0.1672 0.9975
-0.2644 -0.5534 -0.1698 0.9975
-0.2662 -0.6018 -0.1822 0.9973
-0.2754 -0.6479 -0.1949 0.9971
-1.2403 -3.3152 -0.9801 0.9854
-1.1429 -3.3502 -0.9801 0.9854
-1.0939 -3.3666 -0.9801 0.9854
-1.0446 -3.3824 -0.9802 0.9854
-0.9951 -3.3973 -0.9802 0.9854
-0.8453 -3.4380 -0.9802 0.9854
-0.7950 -3.4500 -0.9803 0.9854
-0.7446 -3.4613 -0.9803 0.9854
-0.6939 -3.4720 -0.9803 0.9854
-0.5412 -3.4993 -0.9804 0.9854
-0.4900 -3.5069 -0.9804 0.9854
-0.3873 -3.5199 -0.9805 0.9854
-0.2327 -3.5338 -0.9805 0.9854
-0.1294 -3.5393 -0.9806 0.9854
-0.0776 -3.5409 -0.9806 0.9854
-0.0259 -3.5417 -0.9807 0.9854
0.0259 -3.5418 -0.9807 0.9854
0.2844 -3.5309 -0.9808 0.9854
0.3359 -3.5265 -0.9808 0.9854
0.3874 -3.5213 -0.9809 0.9854
0.6944 -3.4744 -0.9810 0.9854
0.8461 -3.4409 -0.9811 0.9854
0.9961 -3.4007 -0.9812 0.9854
1.0951 -3.3704 -0.9812 0.9854
1.1443 -3.3541 -0.9812 0.9854
1.1932 -3.3371 -0.9812 0.9854
1.2902 -3.3009 -0.9813 0.9854
1.3862 -3.2620 -0.9813 0.9854
1.4337 -3.2415 -0.9814 0.9854
1.4810 -3.2203 -0.9814 0.9854
1.5279 -3.1983 -0.9814 0.9854
1.6667 -3.1285 -0.9815 0.9854
1.8468 -3.0261 -0.9816 0.9854
1.8909 -2.9988 -0.9816 0.9854
1.9345 -2.9709 -0.9816 0.9854
2.0206 -2.9133 -0.9817 0.9854
2.0630 -2.8835 -0.9817 0.9854
2.1050 -2.8531 -0.9817 0.9854
2.1875 -2.7905 -0.9817 0.9854
2.2281 -2.7583 -0.9818 0.9854
2.2682 -2.7255 -0.9818 0.9854
2.3470 -2.6582 -0.9818 0.9854
2.3856 -2.6237 -0.9818 0.9854
