ply
format ascii 1.0
element vertex 1597
property float32 x
property float32 y
property float32 z
property float32 I
end_header
-0.3762 0.1439 -0.0972 0.9983
-0.3766 0.1378 -0.0968 0.9984
-0.3770 0.1317 -0.0964 0.9984
-0.3773 0.1256 -0.0960 0.9984
-0.3775 0.1196 -0.0956 0.9984
-0.3778 0.1136 -0.0952 0.9984
-0.3780 0.1077 -0.0949 0.9984
-0.3787 0.0671 -0.0928 0.9984
-0.3787 0.0614 -0.0926 0.9984
-0.3786 0.0557 -0.0924 0.9984
-0.3786 0.0501 -0.0922 0.9984
-0.3785 0.0445 -0.0920 0.9984
-0.3783 0.0388 -0.0918 0.9984
-0.3781 0.0332 -0.0916 0.9984
-0.3777 0.0221 -0.0913 0.9984
-0.3774 0.0165 -0.0912 0.9984
-0.3701 0.0000 -0.0937 0.9985
-0.3704 -0.0054 -0.0938 0.9985
-0.3707 -0.0108 -0.0939 0.9985
-0.3710 -0.0163 -0.0940 0.9985
-0.3714 -0.0272 -0.0943 0.9985
-0.3716 -0.0327 -0.0944 0.9985
-0.3715 -0.1000 -0.0974 0.9984
-0.3711 -0.1116 -0.0981 0.9984
-0.3708 -0.1175 -0.0985 0.9984
-0.3698 -0.1353 -0.0997 0.9984
-0.3694 -0.1412 -0.1001 0.9984
-0.3679 -0.1595 -0.1015 0.9983
-0.3674 -0.1657 -0.1020 0.9983
-0.3668 -0.1720 -0.1025 0.9983
-0.3660 -0.1782 -0.1031 0.9983
-0.3652 -0.1844 -0.1036 0.9983
-0.3638 -0.1972 -0.1047 0.9983
-0.3633 -0.2039 -0.1055 0.9983
-0.3622 -0.2174 -0.1069 0.9983
-0.3609 -0.2313 -0.1085 0.9982
-0.3587 -0.2527 -0.1111 0.9982
-0.3578 -0.2600 -0.1120 0.9982
-0.3550 -0.2825 -0.1149 0.9981
-0.3540 -0.2902 -0.1159 0.9981
-0.3517 -0.3060 -0.1180 0.9981
-0.3479 -0.3305 -0.1215 0.9980
-0.3450 -0.3476 -0.1240 0.9980
-0.3408 -0.3640 -0.1262 0.9979
-0.3364 -0.3809 -0.1287 0.9979
-0.3293 -0.4077 -0.1327 0.9978
-0.3268 -0.4169 -0.1341 0.9978
-0.3242 -0.4262 -0.1356 0.9978
-0.3191 -0.4461 -0.1389 0.9977
-0.3169 -0.4569 -0.1408 0.9977
-0.3095 -0.4908 -0.1469 0.9976
-0.3009 -0.5271 -0.1537 0.9975
-0.2978 -0.5398 -0.1561 0.9975
-0.2945 -0.5529 -0.1586 0.9974
-0.2911 -0.5662 -0.1612 0.9974
-0.3125 -0.6542 -0.1835 0.9970
-1.5139 -3.5625 -0.9799 0.9842
-1.4093 -3.6055 -0.9800 0.9842
-1.3565 -3.6258 -0.9800 0.9842
-1.3034 -3.6453 -0.9800 0.9842
-1.0883 -3.7156 -0.9801 0.9842
-1.0340 -3.7312 -0.9802 0.9842
-0.9793 -3.7460 -0.9802 0.9842
-0.8695 -3.7733 -0.9803 0.9841
-0.8143 -3.7857 -0.9803 0.9841
-0.7590 -3.7973 -0.9803 0.9841
-0.7034 -3.8081 -0.9803 0.9841
-0.6477 -3.8181 -0.9804 0.9841
-0.5919 -3.8272 -0.9804 0.9841
-0.3839 -2.7477 -0.7023 0.9886
-0.1870 -2.8402 -0.7206 0.9883
-0.1052 -2.8786 -0.7292 0.9882
0.0215 -2.9380 -0.7438 0.9880
0.1990 -3.0211 -0.7665 0.9876
0.2919 -3.0647 -0.7794 0.9874
0.3882 -3.1097 -0.7934 0.9872
0.4377 -3.1329 -0.8008 0.9870
0.4881 -3.1565 -0.8086 0.9869
0.6173 -3.0885 -0.7973 0.9871
0.7588 -2.9026 -0.7595 0.9877
1.1438 -3.7037 -0.9813 0.9841
1.2516 -3.6689 -0.9814 0.9841
1.4113 -3.6108 -0.9814 0.9841
1.5683 -3.5457 -0.9815 0.9841
1.6714 -3.4986 -0.9816 0.9841
1.7730 -3.4485 -0.9816 0.9841
1.8232 -3.4223 -0.9816 0.9841
1.9225 -3.3677 -0.9817 0.9841
1.9716 -3.3393 -0.9817 0.9841
2.0684 -3.2805 -0.9818 0.9841
2.2103 -3.1870 -0.9818 0.9841
2.3026 -3.1211 -0.9819 0.9841
2.5246 -2.9451 -0.9820 0.9841
2.7732 -2.7130 -0.9821 0.9841
2.8126 -2.6723 -0.9822 0.9841
2.8514 -2.6310 -0.9822 0.9841
3.0471 -2.4983 -0.9975 0.9839
3.0833 -2.4536 -0.9975 0.9839
3.1538 -2.3625 -0.9976 0.9839
3.1880 -2.3162 -0.9976 0.9839
3.2216 -2.2695 -0.9976 0.9839
3.3489 -2.0775 -0.9977 0.9839
3.3789 -2.0284 -0.9977 0.9839
3.4082 -1.9789 -0.9977 0.9839
3.4647 -1.8785 -0.9977 0.9839
3.5182 -1.7765 -0.9978 0.9839
3.5687 -1.6730 -0.9978 0.9839
3.6162 -1.5680 -0.9978 0.9839
3.7017 -1.3542 -0.9979 0.9839
3.7398 -1.2455 -0.9979 0.9839
3.7577 -1.1907 -0.9979 0.9839
3.8063 -1.0249 -0.9979 0.9839
3.8209 -0.9691 -0.9979 0.9839
3.8477 -0.8571 -0.9979 0.9839
3.8598 -0.8008 -0.9979 0.9839
3.8711 -0.7443 -0.9979 0.9839
3.8816 -0.6877 -0.9980 0.9839
3.8912 -0.6309 -0.9980 0.9839
3.9001 -0.5740 -0.9980 0.9839
3.9080 -0.5169 -0.9980 0.9839
3.9152 -0.4598 -0.9980 0.9839
3.9270 -0.3452 -0.9980 0.9839
3.9354 -0.2303 -0.9980 0.9839
3.9405 -0.1152 -0.9980 0.9839
3.9421 0.0000 -0.9980 0.9839
3.9417 0.0576 -0.9980 0.9839
3.9384 0.1727 -0.9980 0.9839
3.9316 0.2877 -0.9980 0.9839
3.9215 0.4025 -0.9980 0.9839
3.9081 0.5169 -0.9980 0.9839
3.8816 0.6877 -0.9980 0.9839
3.8711 0.7443 -0.9980 0.9839
3.8477 0.8571 -0.9979 0.9839
3.8347 0.9132 -0.9979 0.9839
3.8063 1.0248 -0.9979 0.9839
3.7747 1.1356 -0.9979 0.9839
3.7577 1.1906 -0.9979 0.9839
3.7399 1.2455 -0.9979 0.9839
3.6605 1.4617 -0.9978 0.9839
3.5929 1.6206 -0.9978 0.9839
3.5439 1.7249 -0.9978 0.9839
3.5182 1.7764 -0.9978 0.9839
3.4648 1.8785 -0.9977 0.9839
3.4369 1.9289 -0.9977 0.9839
3.3789 2.0284 -0.9977 0.9839
3.2867 2.1744 -0.9977 0.9839
3.2545 2.2222 -0.9976 0.9839
3.2216 2.2695 -0.9976 0.9839
3.1880 2.3162 -0.9976 0.9839
3.1538 2.3626 -0.9976 0.9839
3.0833 2.4536 -0.9975 0.9839
3.0471 2.4983 -0.9975 0.9839
3.0102 2.5425 -0.9975 0.9839
2.9727 2.5862 -0.9975 0.9839
2.9345 2.6293 -0.9975 0.9839
2.8163 2.7552 -0.9974 0.9839
2.7757 2.7960 -0.9974 0.9839
2.6927 2.8758 -0.9973 0.9839
2.6503 2.9147 -0.9973 0.9839
2.6074 2.9531 -0.9973 0.9839
2.5198 3.0279 -0.9973 0.9839
2.3385 3.1696 -0.9972 0.9839
2.2918 3.2034 -0.9971 0.9839
2.2447 3.2365 -0.9971 0.9839
2.0516 3.3617 -0.9970 0.9839
1.9524 3.4201 -0.9970 0.9839
1.9022 3.4481 -0.9969 0.9839
1.8006 3.5021 -0.9969 0.9839
1.6452 3.5773 -0.9968 0.9839
1.5927 3.6009 -0.9968 0.9839
1.5399 3.6237 -0.9968 0.9839
1.4867 3.6457 -0.9967 0.9839
1.3795 3.6873 -0.9967 0.9839
1.2711 3.7259 -0.9966 0.9839
1.2165 3.7440 -0.9966 0.9839
1.1616 3.7613 -0.9966 0.9839
1.0512 3.7933 -0.9965 0.9839
0.9956 3.8082 -0.9965 0.9839
0.9398 3.8222 -0.9964 0.9839
0.8838 3.8354 -0.9964 0.9839
0.7714 3.8595 -0.9964 0.9839
0.7149 3.8701 -0.9963 0.9839
0.6014 3.8891 -0.9963 0.9839
0.4875 3.9049 -0.9962 0.9839
0.4304 3.9114 -0.9962 0.9839
0.3732 3.9172 -0.9962 0.9839
0.3159 3.9221 -0.9961 0.9839
0.2585 3.9262 -0.9961 0.9839
0.2011 3.9294 -0.9961 0.9839
-0.0287 3.9340 -0.9959 0.9839
-0.2585 3.9251 -0.9958 0.9839
-0.3158 3.9209 -0.9958 0.9839
-0.3730 3.9157 -0.9958 0.9839
-0.4302 3.9097 -0.9957 0.9839
-0.7143 3.8673 -0.9956 0.9839
-0.7707 3.8563 -0.9956 0.9839
-0.9389 3.8185 -0.9955 0.9839
-1.0500 3.7892 -0.9954 0.9839
-1.2150 3.7393 -0.9953 0.9839
-1.2694 3.7210 -0.9953 0.9839
-1.3776 3.6821 -0.9953 0.9839
-1.4311 3.6615 -0.9952 0.9839
-1.4845 3.6401 -0.9952 0.9839
-1.5374 3.6179 -0.9952 0.9839
-0.3430 0.7754 -0.2146 0.9965
-0.3267 0.7102 -0.1979 0.9968
-0.3125 0.6541 -0.1835 0.9970
-0.3001 0.6054 -0.1711 0.9972
-0.2911 0.5662 -0.1612 0.9974
-0.2978 0.5398 -0.1561 0.9975
-0.3009 0.5271 -0.1537 0.9975
-0.3039 0.5147 -0.1513 0.9975
-0.3145 0.4679 -0.1427 0.9977
-0.3169 0.4569 -0.1408 0.9977
-0.3191 0.4461 -0.1389 0.9977
-0.3242 0.4262 -0.1356 0.9978
-0.3293 0.4077 -0.1327 0.9978
-0.3363 0.3809 -0.1287 0.9979
-0.3386 0.3724 -0.1274 0.9979
-0.3408 0.3640 -0.1262 0.9979
-0.3450 0.3475 -0.1240 0.9980
-0.3465 0.3390 -0.1227 0.9980
-0.3479 0.3305 -0.1215 0.9980
-0.3517 0.3060 -0.1180 0.9981
-0.3529 0.2980 -0.1169 0.9981
-0.3540 0.2902 -0.1159 0.9981
-0.3550 0.2825 -0.1149 0.9981
-0.3570 0.2674 -0.1129 0.9982
-0.3587 0.2527 -0.1111 0.9982
-0.3602 0.2383 -0.1093 0.9982
-0.3609 0.2312 -0.1085 0.9982
-0.3616 0.2243 -0.1077 0.9982
-0.3622 0.2174 -0.1069 0.9983
-0.3627 0.2106 -0.1062 0.9983
-0.3633 0.2039 -0.1055 0.9983
-0.3643 0.1907 -0.1041 0.9983
-0.3660 0.1782 -0.1031 0.9983
-0.3694 0.1412 -0.1001 0.9984
-0.3701 0.1293 -0.0993 0.9984
-0.3705 0.1233 -0.0989 0.9984
-0.3710 0.1116 -0.0981 0.9984
-0.3713 0.1058 -0.0977 0.9984
-0.3715 0.1000 -0.0974 0.9984
-0.3717 0.0943 -0.0971 0.9984
-0.3718 0.0885 -0.0968 0.9984
-0.3719 0.0828 -0.0965 0.9984
-0.3720 0.0771 -0.0962 0.9984
-0.3721 0.0715 -0.0959 0.9984
-0.3721 0.0547 -0.0952 0.9984
-0.3720 0.0492 -0.0950 0.9985
-0.3718 0.0382 -0.0946 0.9985
-0.3712 0.0217 -0.0941 0.9985
-0.3710 0.0162 -0.0940 0.9985
-0.3704 0.0054 -0.0938 0.9985
-0.3638 -0.0000 -0.0964 0.9985
-0.3641 -0.0053 -0.0965 0.9985
-0.3651 -0.0268 -0.0970 0.9985
-0.3653 -0.0321 -0.0972 0.9985
-0.3654 -0.0375 -0.0973 0.9985
-0.3655 -0.0429 -0.0975 0.9985
-0.3656 -0.0484 -0.0977 0.9985
-0.3657 -0.0593 -0.0982 0.9985
-0.3653 -0.0870 -0.0995 0.9984
-0.3652 -0.0926 -0.0998 0.9984
-0.3647 -0.1039 -0.1005 0.9984
-0.3631 -0.1328 -0.1025 0.9984
-0.3627 -0.1388 -0.1029 0.9984
-0.3622 -0.1446 -0.1034 0.9984
-0.3612 -0.1566 -0.1043 0.9984
-0.3584 -0.1809 -0.1064 0.9983
-0.3575 -0.1871 -0.1069 0.9983
-0.3566 -0.1933 -0.1075 0.9983
-0.3494 -0.2617 -0.1157 0.9982
-0.3484 -0.2691 -0.1166 0.9982
-0.3474 -0.2764 -0.1176 0.9982
-0.3463 -0.2839 -0.1187 0.9981
-0.3452 -0.2916 -0.1197 0.9981
-0.3440 -0.2993 -0.1208 0.9981
-0.3400 -0.3230 -0.1243 0.9981
-0.3386 -0.3312 -0.1255 0.9980
-0.3308 -0.3638 -0.1303 0.9980
-0.3285 -0.3721 -0.1315 0.9979
-0.3161 -0.4156 -0.1384 0.9978
-0.3076 -0.4435 -0.1430 0.9978
-0.3050 -0.4537 -0.1449 0.9977
-0.2970 -0.4868 -0.1511 0.9976
-0.2942 -0.4982 -0.1533 0.9976
-0.2911 -0.5100 -0.1556 0.9976
-0.2879 -0.5220 -0.1580 0.9975
-0.2884 -0.6271 -0.1829 0.9971
-0.2999 -0.6779 -0.1964 0.9969
-1.3966 -3.4245 -0.9800 0.9848
-1.1942 -3.5006 -0.9801 0.9848
-1.1430 -3.5178 -0.9801 0.9848
-1.0915 -3.5343 -0.9801 0.9848
-1.0398 -3.5498 -0.9802 0.9848
-0.9878 -3.5648 -0.9802 0.9848
-0.9357 -3.5789 -0.9802 0.9848
-0.8833 -3.5923 -0.9803 0.9848
-0.8307 -3.6050 -0.9803 0.9848
-0.7780 -3.6168 -0.9803 0.9848
-0.7251 -3.6279 -0.9803 0.9848
-0.3837 -2.7466 -0.7349 0.9886
-0.3452 -2.7647 -0.7383 0.9885
-0.0213 -2.9167 -0.7729 0.9880
0.0214 -2.9368 -0.7782 0.9879
0.1088 -2.9777 -0.7896 0.9877
0.1535 -2.9986 -0.7956 0.9877
0.1989 -3.0198 -0.8019 0.9876
0.2449 -3.0414 -0.8085 0.9875
0.4375 -3.1314 -0.8378 0.9870
0.5692 -3.0814 -0.8303 0.9871
0.6064 -3.0342 -0.8199 0.9873
0.8314 -3.6081 -0.9811 0.9848
0.8841 -3.5957 -0.9812 0.9848
0.9366 -3.5825 -0.9812 0.9848
0.9888 -3.5685 -0.9812 0.9848
1.1444 -3.5220 -0.9813 0.9848
1.1957 -3.5050 -0.9813 0.9848
1.3483 -3.4495 -0.9814 0.9848
1.4486 -3.4088 -0.9815 0.9848
1.4983 -3.3874 -0.9815 0.9848
1.5477 -3.3652 -0.9815 0.9848
1.5967 -3.3423 -0.9815 0.9848
1.6454 -3.3188 -0.9816 0.9848
1.7418 -3.2694 -0.9816 0.9848
1.8835 -3.1902 -0.9817 0.9848
1.9300 -3.1624 -0.9817 0.9848
1.9760 -3.1339 -0.9817 0.9848
2.0216 -3.1048 -0.9818 0.9848
2.0668 -3.0750 -0.9818 0.9848
2.1116 -3.0445 -0.9818 0.9848
2.2431 -2.9493 -0.9819 0.9848
2.3285 -2.8826 -0.9819 0.9848
2.3704 -2.8484 -0.9819 0.9848
2.4118 -2.8135 -0.9820 0.9848
2.4931 -2.7419 -0.9820 0.9848
2.5329 -2.7052 -0.9820 0.9848
2.5723 -2.6680 -0.9820 0.9848
2.6493 -2.5918 -0.9821 0.9848
2.6901 -2.5559 -0.9833 0.9848
2.8033 -2.5118 -0.9974 0.9845
2.8398 -2.4707 -0.9974 0.9845
2.9455 -2.3439 -0.9975 0.9845
3.0128 -2.2570 -0.9975 0.9845
3.0455 -2.2127 -0.9975 0.9845
3.1698 -2.0312 -0.9976 0.9845
3.1992 -1.9847 -0.9976 0.9845
3.2832 -1.8427 -0.9976 0.9845
3.3357 -1.7459 -0.9977 0.9845
3.3609 -1.6971 -0.9977 0.9845
3.3854 -1.6478 -0.9977 0.9845
3.4322 -1.5482 -0.9977 0.9845
3.4545 -1.4979 -0.9977 0.9845
3.4760 -1.4473 -0.9977 0.9845
3.5169 -1.3452 -0.9978 0.9845
3.5362 -1.2936 -0.9978 0.9845
3.5548 -1.2419 -0.9978 0.9845
3.5726 -1.1898 -0.9978 0.9845
3.5897 -1.1374 -0.9978 0.9845
3.6214 -1.0321 -0.9978 0.9845
3.6633 -0.8724 -0.9978 0.9845
3.6756 -0.8188 -0.9978 0.9845
3.6872 -0.7650 -0.9979 0.9845
3.6980 -0.7111 -0.9979 0.9845
3.7080 -0.6569 -0.9979 0.9845
3.7401 -0.4392 -0.9979 0.9845
3.7514 -0.3298 -0.9979 0.9845
3.7659 0.0000 -0.9979 0.9845
3.7655 0.0550 -0.9979 0.9845
3.7643 0.1100 -0.9979 0.9845
3.7594 0.2200 -0.9979 0.9845
3.7558 0.2749 -0.9979 0.9845
3.7514 0.3298 -0.9979 0.9845
3.7401 0.4391 -0.9979 0.9845
3.7333 0.4938 -0.9979 0.9845
3.7257 0.5483 -0.9979 0.9845
3.7080 0.6569 -0.9979 0.9845
3.6980 0.7110 -0.9979 0.9845
3.6501 0.9258 -0.9978 0.9845
3.6215 1.0321 -0.9978 0.9845
3.5897 1.1374 -0.9978 0.9845
3.5726 1.1897 -0.9978 0.9845
3.5363 1.2936 -0.9978 0.9845
3.5170 1.3451 -0.9978 0.9845
3.4969 1.3963 -0.9978 0.9845
3.4761 1.4473 -0.9977 0.9845
3.4092 1.5981 -0.9977 0.9845
3.3855 1.6478 -0.9977 0.9845
3.3610 1.6970 -0.9977 0.9845
3.2832 1.8426 -0.9976 0.9845
3.2279 1.9377 -0.9976 0.9845
3.1698 2.0311 -0.9976 0.9845
3.1090 2.1228 -0.9976 0.9845
3.0776 2.1680 -0.9975 0.9845
3.0456 2.2127 -0.9975 0.9845
2.9795 2.3007 -0.9975 0.9845
2.8757 2.4289 -0.9974 0.9845
2.8398 2.4706 -0.9974 0.9845
2.7287 2.5926 -0.9974 0.9845
2.6516 2.6711 -0.9973 0.9845
2.6123 2.7095 -0.9973 0.9845
2.5723 2.7473 -0.9973 0.9845
2.3647 2.9274 -0.9972 0.9845
2.3216 2.9616 -0.9972 0.9845
2.2340 3.0280 -0.9971 0.9845
1.9600 3.2116 -0.9970 0.9846
1.9128 3.2398 -0.9969 0.9846
1.8652 3.2673 -0.9969 0.9846
1.7689 3.3202 -0.9969 0.9846
1.7201 3.3456 -0.9968 0.9846
1.6710 3.3703 -0.9968 0.9846
1.4711 3.4618 -0.9967 0.9846
1.4204 3.4829 -0.9967 0.9846
1.3179 3.5227 -0.9966 0.9846
1.2662 3.5415 -0.9966 0.9846
1.1097 3.5933 -0.9965 0.9846
0.9511 3.6382 -0.9965 0.9846
0.7369 3.6871 -0.9963 0.9846
0.6829 3.6973 -0.9963 0.9846
0.6288 3.7068 -0.9963 0.9846
0.5746 3.7155 -0.9963 0.9846
0.5202 3.7234 -0.9962 0.9846
0.4657 3.7305 -0.9962 0.9846
0.3565 3.7423 -0.9961 0.9846
0.1922 3.7541 -0.9961 0.9846
0.0824 3.7578 -0.9960 0.9846
0.0275 3.7585 -0.9960 0.9846
-0.0275 3.7584 -0.9959 0.9846
-0.0824 3.7575 -0.9959 0.9846
-0.1373 3.7558 -0.9959 0.9846
-0.1921 3.7533 -0.9959 0.9846
-0.2469 3.7499 -0.9958 0.9846
-0.3017 3.7459 -0.9958 0.9846
-0.4110 3.7352 -0.9957 0.9846
-0.4655 3.7287 -0.9957 0.9846
-0.5199 3.7215 -0.9957 0.9846
-0.5742 3.7133 -0.9957 0.9846
-0.7364 3.6843 -0.9956 0.9846
-0.8437 3.6610 -0.9955 0.9846
-0.9502 3.6346 -0.9955 0.9846
-1.1608 3.5725 -0.9954 0.9846
-1.2128 3.5551 -0.9953 0.9846
-1.2646 3.5368 -0.9953 0.9846
-1.3673 3.4982 -0.9953 0.9846
-1.4183 3.4778 -0.9952 0.9846
-0.3129 0.7364 -0.2120 0.9967
-0.2999 0.6779 -0.1964 0.9969
-0.2884 0.6271 -0.1829 0.9971
-0.2783 0.5826 -0.1711 0.9973
-0.2880 0.5220 -0.1580 0.9975
-0.2911 0.5099 -0.1556 0.9976
-0.2941 0.4982 -0.1533 0.9976
-0.2970 0.4867 -0.1511 0.9976
-0.2998 0.4755 -0.1489 0.9977
-0.3025 0.4645 -0.1469 0.9977
-0.3050 0.4537 -0.1449 0.9977
-0.3106 0.4341 -0.1414 0.9978
-0.3161 0.4156 -0.1384 0.9978
-0.3213 0.3977 -0.1355 0.9979
-0.3237 0.3890 -0.1341 0.9979
-0.3261 0.3804 -0.1328 0.9979
-0.3308 0.3637 -0.1303 0.9980
-0.3352 0.3477 -0.1280 0.9980
-0.3370 0.3395 -0.1268 0.9980
-0.3427 0.3070 -0.1219 0.9981
-0.3484 0.2690 -0.1166 0.9982
-0.3494 0.2617 -0.1157 0.9982
-0.3520 0.2404 -0.1130 0.9982
-0.3536 0.2265 -0.1113 0.9983
-0.3543 0.2198 -0.1105 0.9983
-0.3549 0.2130 -0.1097 0.9983
-0.3555 0.2064 -0.1089 0.9983
-0.3566 0.1933 -0.1075 0.9983
-0.3584 0.1809 -0.1064 0.9983
-0.3600 0.1688 -0.1054 0.9984
-0.3606 0.1627 -0.1048 0.9984
-0.3612 0.1566 -0.1043 0.9984
-0.3622 0.1446 -0.1034 0.9984
-0.3631 0.1329 -0.1025 0.9984
-0.3635 0.1270 -0.1020 0.9984
-0.3639 0.1212 -0.1016 0.9984
-0.3645 0.1096 -0.1009 0.9984
-0.3652 0.0926 -0.0998 0.9984
-0.3654 0.0814 -0.0992 0.9985
-0.3656 0.0758 -0.0989 0.9985
-0.3657 0.0648 -0.0984 0.9985
-0.3656 0.0484 -0.0977 0.9985
-0.3655 0.0429 -0.0975 0.9985
-0.3651 0.0267 -0.0970 0.9985
-0.3649 0.0213 -0.0969 0.9985
-0.3644 0.0106 -0.0966 0.9985
-0.3580 -0.0053 -0.0991 0.9985
-0.3583 -0.0105 -0.0993 0.9985
-0.3586 -0.0157 -0.0994 0.9985
-0.3591 -0.0316 -0.0998 0.9985
-0.3594 -0.0475 -0.1004 0.9985
-0.3595 -0.0529 -0.1006 0.9985
-0.3593 -0.0746 -0.1016 0.9985
-0.3592 -0.0800 -0.1019 0.9985
-0.3590 -0.0855 -0.1022 0.9985
-0.3589 -0.0910 -0.1025 0.9985
-0.3587 -0.0966 -0.1028 0.9985
-0.3584 -0.1021 -0.1032 0.9985
-0.3581 -0.1077 -0.1035 0.9984
-0.3578 -0.1134 -0.1039 0.9984
-0.3575 -0.1191 -0.1043 0.9984
-0.3571 -0.1248 -0.1047 0.9984
-0.3567 -0.1305 -0.1052 0.9984
-0.3547 -0.1538 -0.1070 0.9984
-0.3526 -0.1716 -0.1086 0.9984
-0.3499 -0.1897 -0.1102 0.9983
-0.3479 -0.2088 -0.1123 0.9983
-0.3472 -0.2154 -0.1131 0.9983
-0.3464 -0.2220 -0.1139 0.9983
-0.3448 -0.2355 -0.1156 0.9983
-0.3421 -0.2562 -0.1183 0.9982
-0.3400 -0.2706 -0.1203 0.9982
-0.3365 -0.2928 -0.1235 0.9982
-0.3352 -0.3003 -0.1246 0.9981
-0.3338 -0.3080 -0.1258 0.9981
-0.3232 -0.3555 -0.1330 0.9980
-0.3110 -0.3968 -0.1396 0.9979
-0.3028 -0.4232 -0.1441 0.9978
-0.2999 -0.4323 -0.1457 0.9978
-0.2968 -0.4416 -0.1473 0.9978
-0.2819 -0.4938 -0.1574 0.9976
-0.2644 -0.5534 -0.1698 0.9975
-0.2604 -0.5662 -0.1726 0.9974
-0.2754 -0.6480 -0.1949 0.9971
-1.2886 -3.2968 -0.9800 0.9854
-1.1430 -3.3504 -0.9801 0.9854
-1.0939 -3.3667 -0.9801 0.9854
-0.8955 -3.4253 -0.9802 0.9854
-0.7951 -3.4501 -0.9803 0.9854
-0.6432 -3.4820 -0.9804 0.9854
-0.5922 -3.4911 -0.9804 0.9854
-0.3836 -2.7455 -0.7675 0.9886
-0.2668 -2.8004 -0.7789 0.9884
-0.2271 -2.8191 -0.7830 0.9883
-0.0213 -2.9155 -0.8073 0.9880
0.0648 -2.9558 -0.8186 0.9878
0.1088 -2.9764 -0.8246 0.9877
0.1988 -3.0185 -0.8376 0.9875
0.3879 -3.1070 -0.8669 0.9871
0.4373 -3.1300 -0.8751 0.9870
0.4877 -3.1536 -0.8835 0.9868
0.5926 -3.4933 -0.9810 0.9854
0.7451 -3.4642 -0.9811 0.9854
0.7957 -3.4530 -0.9811 0.9854
1.0458 -3.3862 -0.9812 0.9854
1.0952 -3.3706 -0.9813 0.9854
1.1443 -3.3544 -0.9813 0.9854
1.2903 -3.3012 -0.9814 0.9854
1.4811 -3.2205 -0.9815 0.9854
1.5280 -3.1987 -0.9815 0.9854
1.5747 -3.1761 -0.9815 0.9854
1.6210 -3.1528 -0.9815 0.9854
1.6669 -3.1288 -0.9816 0.9854
1.7124 -3.1042 -0.9816 0.9854
1.8910 -2.9991 -0.9817 0.9854
1.9347 -2.9713 -0.9817 0.9854
1.9780 -2.9428 -0.9817 0.9854
2.0208 -2.9136 -0.9818 0.9854
2.1467 -2.8225 -0.9818 0.9854
2.1877 -2.7908 -0.9818 0.9854
2.2283 -2.7586 -0.9819 0.9854
2.2684 -2.7258 -0.9819 0.9854
2.3080 -2.6925 -0.9819 0.9854
2.3472 -2.6585 -0.9819 0.9854
2.4240 -2.5889 -0.9820 0.9854
2.4652 -2.5569 -0.9834 0.9854
2.5747 -2.5188 -0.9973 0.9852
2.6827 -2.4037 -0.9973 0.9852
2.7176 -2.3643 -0.9974 0.9852
2.8832 -2.1598 -0.9974 0.9852
2.9452 -2.0747 -0.9975 0.9852
3.0046 -1.9879 -0.9975 0.9852
3.0334 -1.9438 -0.9975 0.9852
3.0890 -1.8544 -0.9975 0.9852
3.1158 -1.8091 -0.9976 0.9852
3.1419 -1.7633 -0.9976 0.9852
3.1674 -1.7173 -0.9976 0.9852
3.1922 -1.6708 -0.9976 0.9852
3.2625 -1.5294 -0.9976 0.9852
3.3058 -1.4334 -0.9977 0.9852
3.3464 -1.3363 -0.9977 0.9852
3.3841 -1.2380 -0.9977 0.9852
3.4018 -1.1884 -0.9977 0.9852
3.4352 -1.0885 -0.9977 0.9852
3.4930 -0.8859 -0.9978 0.9852
3.5056 -0.8349 -0.9978 0.9852
3.5285 -0.7321 -0.9978 0.9852
3.5389 -0.6805 -0.9978 0.9852
3.5484 -0.6287 -0.9978 0.9852
3.5573 -0.5768 -0.9978 0.9852
3.5653 -0.5247 -0.9978 0.9852
3.5849 -0.3680 -0.9978 0.9852
3.5976 -0.2105 -0.9978 0.9852
3.6023 -0.1053 -0.9978 0.9852
3.6034 -0.0527 -0.9978 0.9852
3.6034 0.0526 -0.9978 0.9852
3.6023 0.1053 -0.9978 0.9852
3.6003 0.1579 -0.9978 0.9852
3.5942 0.2630 -0.9978 0.9852
3.5849 0.3679 -0.9978 0.9852
3.5726 0.4725 -0.9978 0.9852
3.5573 0.5767 -0.9978 0.9852
3.5389 0.6804 -0.9978 0.9852
3.5174 0.7836 -0.9978 0.9852
3.4796 0.9369 -0.9977 0.9852
3.4656 0.9877 -0.9977 0.9852
3.4352 1.0884 -0.9977 0.9852
3.4189 1.1385 -0.9977 0.9852
3.3265 1.3850 -0.9977 0.9852
3.3059 1.4334 -0.9977 0.9852
3.2625 1.5294 -0.9976 0.9852
3.2163 1.6240 -0.9976 0.9852
3.1922 1.6708 -0.9976 0.9852
3.0890 1.8543 -0.9975 0.9852
3.0046 1.9879 -0.9975 0.9852
2.9752 2.0315 -0.9975 0.9852
2.9452 2.0748 -0.9975 0.9852
2.9145 2.1175 -0.9975 0.9852
2.8513 2.2017 -0.9974 0.9852
2.8188 2.2431 -0.9974 0.9852
2.7857 2.2840 -0.9974 0.9852
2.7519 2.3245 -0.9974 0.9852
2.7176 2.3643 -0.9974 0.9852
2.6827 2.4037 -0.9973 0.9852
2.6473 2.4427 -0.9973 0.9852
2.4999 2.5929 -0.9972 0.9852
2.4230 2.6648 -0.9972 0.9852
2.3837 2.6998 -0.9972 0.9852
2.3440 2.7343 -0.9972 0.9852
2.3037 2.7682 -0.9971 0.9852
2.1801 2.8663 -0.9971 0.9852
2.1379 2.8978 -0.9971 0.9852
2.0953 2.9287 -0.9970 0.9852
2.0087 2.9885 -0.9970 0.9852
1.8757 3.0735 -0.9969 0.9852
1.7850 3.1268 -0.9969 0.9852
1.7391 3.1524 -0.9969 0.9852
1.5042 3.2706 -0.9967 0.9852
1.4562 3.2921 -0.9967 0.9852
1.4079 3.3130 -0.9967 0.9852
1.3593 3.3331 -0.9967 0.9852
1.2612 3.3713 -0.9966 0.9852
1.2118 3.3892 -0.9966 0.9852
1.1621 3.4065 -0.9966 0.9852
1.0620 3.4388 -0.9965 0.9852
1.0117 3.4539 -0.9965 0.9852
0.8593 3.4946 -0.9964 0.9852
0.4979 3.5634 -0.9962 0.9852
0.4457 3.5702 -0.9962 0.9852
0.3935 3.5762 -0.9962 0.9852
0.1314 3.5950 -0.9960 0.9852
0.0788 3.5963 -0.9960 0.9852
0.0263 3.5971 -0.9960 0.9852
-0.0788 3.5961 -0.9959 0.9852
-0.1314 3.5945 -0.9959 0.9852
-0.2363 3.5889 -0.9958 0.9852
-0.2888 3.5850 -0.9958 0.9852
-0.3933 3.5748 -0.9958 0.9852
-0.5496 3.5538 -0.9957 0.9852
-0.6531 3.5361 -0.9956 0.9852
-0.8074 3.5038 -0.9955 0.9852
-0.8585 3.4915 -0.9955 0.9852
-1.0106 3.4502 -0.9954 0.9852
-1.0609 3.4351 -0.9954 0.9852
-1.1110 3.4191 -0.9954 0.9852
-1.2103 3.3850 -0.9953 0.9852
-1.2596 3.3669 -0.9953 0.9852
-1.3086 3.3480 -0.9953 0.9852
-0.2857 0.7005 -0.2095 0.9969
-0.2754 0.6479 -0.1949 0.9971
-0.2662 0.6018 -0.1822 0.9973
-0.2604 0.5662 -0.1726 0.9974
-0.2644 0.5534 -0.1698 0.9975
-0.2682 0.5409 -0.1672 0.9975
-0.2753 0.5168 -0.1621 0.9976
-0.2787 0.5051 -0.1597 0.9976
-0.2819 0.4937 -0.1574 0.9976
-0.2849 0.4826 -0.1552 0.9977
-0.2879 0.4716 -0.1530 0.9977
-0.2907 0.4610 -0.1509 0.9977
-0.2998 0.4323 -0.1457 0.9978
-0.3110 0.3968 -0.1396 0.9979
-0.3161 0.3798 -0.1368 0.9980
-0.3210 0.3635 -0.1343 0.9980
-0.3255 0.3476 -0.1319 0.9980
-0.3277 0.3398 -0.1307 0.9980
-0.3338 0.3080 -0.1258 0.9981
-0.3351 0.3003 -0.1246 0.9981
-0.3365 0.2927 -0.1235 0.9982
-0.3389 0.2779 -0.1213 0.9982
-0.3400 0.2706 -0.1203 0.9982
-0.3421 0.2563 -0.1184 0.9982
-0.3431 0.2492 -0.1174 0.9982
-0.3440 0.2423 -0.1165 0.9983
-0.3449 0.2355 -0.1156 0.9983
-0.3457 0.2287 -0.1148 0.9983
-0.3465 0.2220 -0.1139 0.9983
-0.3472 0.2154 -0.1131 0.9983
-0.3485 0.2023 -0.1116 0.9983
-0.3491 0.1959 -0.1108 0.9983
-0.3518 0.1776 -0.1091 0.9984
-0.3534 0.1657 -0.1081 0.9984
-0.3541 0.1597 -0.1075 0.9984
-0.3547 0.1538 -0.1070 0.9984
-0.3552 0.1479 -0.1065 0.9984
-0.3557 0.1420 -0.1061 0.9984
-0.3567 0.1305 -0.1052 0.9984
-0.3571 0.1248 -0.1047 0.9984
-0.3578 0.1134 -0.1039 0.9984
-0.3581 0.1077 -0.1035 0.9984
-0.3584 0.1021 -0.1032 0.9985
-0.3586 0.0966 -0.1028 0.9985
-0.3588 0.0910 -0.1025 0.9985
-0.3592 0.0800 -0.1019 0.9985
-0.3594 0.0691 -0.1013 0.9985
-0.3594 0.0637 -0.1011 0.9985
-0.3594 0.0422 -0.1002 0.9985
-0.3593 0.0368 -0.1000 0.9985
-0.3590 0.0262 -0.0997 0.9985
-0.3580 0.0052 -0.0991 0.9985
-0.3518 0.0000 -0.1016 0.9985
-0.3524 -0.0103 -0.1018 0.9985
-0.3526 -0.0155 -0.1019 0.9985
-0.3528 -0.0206 -0.1021 0.9985
-0.3533 -0.0415 -0.1028 0.9985
-0.3534 -0.0520 -0.1032 0.9985
-0.3534 -0.0573 -0.1034 0.9985
-0.3533 -0.0679 -0.1039 0.9985
-0.3525 -0.0949 -0.1054 0.9985
-0.3522 -0.1004 -0.1058 0.9985
-0.3519 -0.1059 -0.1062 0.9985
-0.3516 -0.1114 -0.1065 0.9985
-0.3512 -0.1170 -0.1069 0.9985
-0.3508 -0.1226 -0.1073 0.9985
-0.3494 -0.1395 -0.1087 0.9984
-0.3489 -0.1453 -0.1092 0.9984
-0.3483 -0.1511 -0.1097 0.9984
-0.3462 -0.1685 -0.1112 0.9984
-0.3435 -0.1863 -0.1128 0.9984
-0.3425 -0.1922 -0.1134 0.9984
-0.3418 -0.1984 -0.1141 0.9984
-0.3411 -0.2048 -0.1149 0.9983
-0.3404 -0.2112 -0.1157 0.9983
-0.3396 -0.2176 -0.1165 0.9983
-0.3388 -0.2241 -0.1173 0.9983
-0.3379 -0.2308 -0.1182 0.9983
-0.3370 -0.2374 -0.1191 0.9983
-0.3361 -0.2441 -0.1200 0.9983
-0.3329 -0.2649 -0.1229 0.9982
-0.3317 -0.2720 -0.1239 0.9982
-0.3293 -0.2865 -0.1261 0.9982
-0.3265 -0.3013 -0.1283 0.9982
-0.3251 -0.3089 -0.1295 0.9981
-0.3183 -0.3399 -0.1345 0.9981
-0.3160 -0.3476 -0.1357 0.9980
-0.3137 -0.3553 -0.1369 0.9980
-0.3010 -0.3957 -0.1436 0.9979
-0.2982 -0.4042 -0.1451 0.9979
-0.2894 -0.4305 -0.1498 0.9978
-0.2796 -0.4581 -0.1550 0.9978
-0.2762 -0.4679 -0.1569 0.9977
-0.2699 -0.4893 -0.1614 0.9977
-0.2631 -0.5116 -0.1662 0.9976
-0.2594 -0.5232 -0.1687 0.9976
-0.2556 -0.5350 -0.1713 0.9975
-0.2475 -0.5595 -0.1767 0.9975
-0.2457 -0.5781 -0.1814 0.9974
-0.2609 -0.6675 -0.2070 0.9970
-1.1890 -3.1780 -0.9801 0.9860
-0.9539 -3.2568 -0.9802 0.9860
-0.9063 -3.2704 -0.9802 0.9860
-0.8104 -3.2957 -0.9803 0.9860
-0.6165 -3.3377 -0.9804 0.9860
-0.3834 -2.7444 -0.8004 0.9885
-0.0634 -2.8945 -0.8363 0.9880
-0.0213 -2.9143 -0.8418 0.9879
0.1987 -3.0172 -0.8734 0.9875
0.2447 -3.0387 -0.8806 0.9874
0.3877 -3.1055 -0.9040 0.9871
0.4699 -3.3634 -0.9810 0.9860
0.5680 -3.3484 -0.9810 0.9860
0.6169 -3.3399 -0.9810 0.9860
0.6656 -3.3306 -0.9811 0.9860
0.7142 -3.3206 -0.9811 0.9860
0.7627 -3.3099 -0.9811 0.9860
0.8110 -3.2985 -0.9811 0.9860
0.8592 -3.2864 -0.9812 0.9860
0.9549 -3.2600 -0.9812 0.9860
1.0498 -3.2309 -0.9813 0.9860
1.0969 -3.2153 -0.9813 0.9860
1.2368 -3.1644 -0.9813 0.9860
1.3288 -3.1270 -0.9814 0.9860
1.5094 -3.0443 -0.9815 0.9860
1.5537 -3.0220 -0.9815 0.9860
1.5977 -2.9991 -0.9815 0.9860
1.6848 -2.9513 -0.9816 0.9860
1.8545 -2.8480 -0.9817 0.9859
1.9370 -2.7928 -0.9817 0.9859
2.0970 -2.6751 -0.9818 0.9859
2.1359 -2.6442 -0.9818 0.9859
2.1743 -2.6128 -0.9818 0.9859
2.2123 -2.5808 -0.9819 0.9859
2.3113 -2.5420 -0.9924 0.9858
2.3596 -2.5201 -0.9972 0.9857
2.4323 -2.4501 -0.9972 0.9857
2.5374 -2.3413 -0.9973 0.9857
2.6049 -2.2662 -0.9973 0.9857
2.7018 -2.1500 -0.9973 0.9857
2.7936 -2.0296 -0.9974 0.9857
2.8230 -1.9887 -0.9974 0.9857
2.8518 -1.9472 -0.9974 0.9857
2.8799 -1.9054 -0.9974 0.9857
2.9608 -1.7774 -0.9975 0.9857
3.0597 -1.6015 -0.9975 0.9857
3.1271 -1.4659 -0.9976 0.9857
3.1482 -1.4201 -0.9976 0.9857
3.1686 -1.3740 -0.9976 0.9857
3.2259 -1.2338 -0.9976 0.9857
3.2436 -1.1866 -0.9976 0.9857
3.2769 -1.0913 -0.9976 0.9857
3.3480 -0.8492 -0.9977 0.9857
3.3601 -0.8002 -0.9977 0.9857
3.3714 -0.7510 -0.9977 0.9857
3.3920 -0.6522 -0.9977 0.9857
3.4361 -0.3527 -0.9977 0.9857
3.4450 -0.2521 -0.9977 0.9857
3.4509 -0.1514 -0.9977 0.9857
3.4527 -0.1010 -0.9977 0.9857
3.4539 -0.0505 -0.9977 0.9857
3.4542 0.0000 -0.9977 0.9857
3.4539 0.0505 -0.9977 0.9857
3.4483 0.2018 -0.9977 0.9857
3.4450 0.2521 -0.9977 0.9857
3.4361 0.3527 -0.9977 0.9857
3.4173 0.5029 -0.9977 0.9857
3.4096 0.5528 -0.9977 0.9857
3.3920 0.6522 -0.9977 0.9857
3.3821 0.7017 -0.9977 0.9857
3.3601 0.8002 -0.9977 0.9857
3.3480 0.8492 -0.9977 0.9857
3.3352 0.8980 -0.9977 0.9857
3.3217 0.9466 -0.9977 0.9857
3.3075 0.9951 -0.9977 0.9857
3.2926 1.0433 -0.9977 0.9857
3.2607 1.1390 -0.9976 0.9857
3.2436 1.1865 -0.9976 0.9857
3.2075 1.2807 -0.9976 0.9857
3.1884 1.3275 -0.9976 0.9857
3.1686 1.3739 -0.9976 0.9857
3.1271 1.4659 -0.9976 0.9857
3.0597 1.6015 -0.9975 0.9857
3.0360 1.6460 -0.9975 0.9857
3.0116 1.6902 -0.9975 0.9857
2.9345 1.8205 -0.9975 0.9857
2.8518 1.9472 -0.9974 0.9857
2.8230 1.9887 -0.9974 0.9857
2.7936 2.0296 -0.9974 0.9857
2.7018 2.1500 -0.9974 0.9857
2.6700 2.1892 -0.9973 0.9857
2.6377 2.2280 -0.9973 0.9857
2.6049 2.2662 -0.9973 0.9857
2.5374 2.3413 -0.9973 0.9857
2.5029 2.3781 -0.9972 0.9857
2.3962 2.4853 -0.9972 0.9857
2.3225 2.5542 -0.9972 0.9857
2.2467 2.6209 -0.9971 0.9857
2.1691 2.6853 -0.9971 0.9857
2.1296 2.7166 -0.9971 0.9857
2.0492 2.7776 -0.9970 0.9857
2.0084 2.8072 -0.9970 0.9857
1.9254 2.8645 -0.9970 0.9857
1.5779 3.0690 -0.9968 0.9857
1.5328 3.0917 -0.9967 0.9857
1.3029 3.1949 -0.9966 0.9857
1.2089 3.2315 -0.9966 0.9857
1.1616 3.2487 -0.9966 0.9857
1.0661 3.2811 -0.9965 0.9857
1.0180 3.2962 -0.9965 0.9857
0.9697 3.3107 -0.9965 0.9857
0.9212 3.3245 -0.9964 0.9857
0.8725 3.3374 -0.9964 0.9857
0.8236 3.3498 -0.9964 0.9857
0.7746 3.3614 -0.9964 0.9857
0.7254 3.3723 -0.9963 0.9857
0.6760 3.3824 -0.9963 0.9857
0.6265 3.3918 -0.9963 0.9857
0.5768 3.4005 -0.9963 0.9857
0.5271 3.4085 -0.9962 0.9857
0.2266 3.4410 -0.9961 0.9857
0.1763 3.4438 -0.9961 0.9857
0.0756 3.4474 -0.9960 0.9857
0.0252 3.4480 -0.9960 0.9857
-0.0252 3.4479 -0.9959 0.9857
-0.0756 3.4471 -0.9959 0.9857
-0.2768 3.4364 -0.9958 0.9857
-0.3270 3.4320 -0.9958 0.9857
-0.4770 3.4141 -0.9957 0.9857
-0.5268 3.4066 -0.9957 0.9858
-0.6755 3.3800 -0.9956 0.9858
-0.7248 3.3697 -0.9956 0.9858
-0.8230 3.3469 -0.9955 0.9858
-0.8717 3.3345 -0.9955 0.9858
-0.9204 3.3212 -0.9955 0.9858
-1.0169 3.2928 -0.9954 0.9858
-1.1602 3.2448 -0.9954 0.9858
-0.2475 0.5595 -0.1767 0.9975
-0.2516 0.5470 -0.1739 0.9975
-0.2556 0.5350 -0.1713 0.9975
-0.2630 0.5116 -0.1662 0.9976
-0.2731 0.4784 -0.1591 0.9977
-0.2762 0.4678 -0.1569 0.9977
-0.2830 0.4487 -0.1532 0.9978
-0.2924 0.4216 -0.1482 0.9979
-0.2954 0.4128 -0.1466 0.9979
-0.3010 0.3957 -0.1436 0.9979
-0.3036 0.3873 -0.1422 0.9980
-0.3160 0.3475 -0.1357 0.9980
-0.3203 0.3322 -0.1333 0.9981
-0.3251 0.3088 -0.1295 0.9981
-0.3279 0.2938 -0.1272 0.9982
-0.3305 0.2792 -0.1250 0.9982
-0.3329 0.2649 -0.1229 0.9982
-0.3351 0.2510 -0.1209 0.9983
-0.3361 0.2442 -0.1200 0.9983
-0.3379 0.2307 -0.1182 0.9983
-0.3388 0.2241 -0.1173 0.9983
-0.3417 0.1984 -0.1141 0.9984
-0.3435 0.1862 -0.1128 0.9984
-0.3462 0.1685 -0.1112 0.9984
-0.3470 0.1627 -0.1107 0.9984
-0.3483 0.1511 -0.1097 0.9984
-0.3494 0.1395 -0.1087 0.9984
-0.3500 0.1338 -0.1082 0.9984
-0.3504 0.1282 -0.1078 0.9984
-0.3508 0.1225 -0.1073 0.9985
-0.3516 0.1114 -0.1065 0.9985
-0.3522 0.1004 -0.1058 0.9985
-0.3525 0.0949 -0.1054 0.9985
-0.3527 0.0895 -0.1051 0.9985
-0.3529 0.0840 -0.1048 0.9985
-0.3532 0.0733 -0.1042 0.9985
-0.3534 0.0626 -0.1037 0.9985
-0.3534 0.0520 -0.1032 0.9985
-0.3533 0.0415 -0.1028 0.9985
-0.3533 0.0362 -0.1026 0.9985
-0.3530 0.0259 -0.1022 0.9985
-0.3461 0.0000 -0.1041 0.9986
-0.3463 -0.0051 -0.1042 0.9986
-0.3466 -0.0102 -0.1043 0.9986
-0.3468 -0.0152 -0.1045 0.9986
-0.3473 -0.0305 -0.1049 0.9985
-0.3475 -0.0564 -0.1059 0.9985
-0.3475 -0.0616 -0.1062 0.9985
-0.3474 -0.0668 -0.1064 0.9985
-0.3471 -0.0773 -0.1070 0.9985
-0.3469 -0.0827 -0.1073 0.9985
-0.3462 -0.0987 -0.1083 0.9985
-0.3459 -0.1041 -0.1087 0.9985
-0.3448 -0.1204 -0.1099 0.9985
-0.3422 -0.1484 -0.1122 0.9984
-0.3408 -0.1598 -0.1133 0.9984
-0.3372 -0.1828 -0.1154 0.9984
-0.3362 -0.1887 -0.1160 0.9984
-0.3345 -0.2008 -0.1174 0.9984
-0.3338 -0.2071 -0.1182 0.9984
-0.3321 -0.2197 -0.1198 0.9983
-0.3303 -0.2327 -0.1216 0.9983
-0.3236 -0.2734 -0.1275 0.9982
-0.3209 -0.2876 -0.1297 0.9982
-0.3165 -0.3096 -0.1332 0.9982
-0.3091 -0.3400 -0.1382 0.9981
-0.3043 -0.3550 -0.1407 0.9980
-0.3018 -0.3627 -0.1420 0.9980
-0.2966 -0.3784 -0.1446 0.9980
-0.2911 -0.3946 -0.1475 0.9980
-0.2853 -0.4113 -0.1506 0.9979
-0.2791 -0.4287 -0.1539 0.9979
-0.2758 -0.4375 -0.1556 0.9978
-0.2724 -0.4465 -0.1574 0.9978
-0.2654 -0.4648 -0.1610 0.9978
-0.2583 -0.4848 -0.1653 0.9977
-0.2548 -0.4955 -0.1676 0.9977
-0.2511 -0.5065 -0.1701 0.9976
-0.2433 -0.5291 -0.1752 0.9976
-0.2392 -0.5408 -0.1779 0.9975
-0.2304 -0.5649 -0.1836 0.9975
-0.2383 -0.6369 -0.2046 0.9972
-0.2451 -0.6855 -0.2190 0.9970
-1.0067 -3.0982 -0.9802 0.9865
-0.9613 -3.1127 -0.9802 0.9865
-0.8700 -3.1396 -0.9803 0.9865
-0.7779 -3.1637 -0.9803 0.9865
-0.6386 -3.1951 -0.9804 0.9865
-0.5450 -3.2125 -0.9804 0.9865
-0.4980 -3.2203 -0.9805 0.9865
-0.2269 -2.8167 -0.8503 0.9883
-0.1867 -2.8355 -0.8550 0.9882
0.0214 -2.9330 -0.8825 0.9878
0.0648 -2.9533 -0.8888 0.9877
0.1087 -2.9739 -0.8954 0.9876
0.1533 -2.9947 -0.9023 0.9876
0.1986 -3.0159 -0.9094 0.9875
0.2446 -3.0374 -0.9169 0.9874
0.2914 -3.0593 -0.9247 0.9872
0.3391 -3.0815 -0.9328 0.9871
0.4511 -3.2287 -0.9809 0.9865
0.4982 -3.2219 -0.9810 0.9865
0.5922 -3.2062 -0.9810 0.9865
0.7786 -3.1664 -0.9811 0.9865
0.8247 -3.1548 -0.9811 0.9865
1.0077 -3.1015 -0.9812 0.9865
1.0530 -3.0865 -0.9813 0.9865
1.0980 -3.0709 -0.9813 0.9865
1.1873 -3.0376 -0.9813 0.9865
1.2315 -3.0200 -0.9813 0.9865
1.2756 -3.0018 -0.9814 0.9865
1.3194 -2.9829 -0.9814 0.9865
1.4060 -2.9432 -0.9814 0.9865
1.4489 -2.9224 -0.9815 0.9865
1.4915 -2.9010 -0.9815 0.9865
1.6173 -2.8330 -0.9815 0.9865
1.6585 -2.8092 -0.9816 0.9865
1.7802 -2.7339 -0.9816 0.9865
1.8199 -2.7077 -0.9816 0.9865
1.9370 -2.6255 -0.9817 0.9865
1.9752 -2.5970 -0.9817 0.9865
2.1136 -2.5398 -0.9942 0.9863
2.1567 -2.5159 -0.9971 0.9863
2.1932 -2.4841 -0.9971 0.9863
2.2294 -2.4518 -0.9971 0.9863
2.2650 -2.4190 -0.9971 0.9863
2.3690 -2.3176 -0.9972 0.9863
2.4684 -2.2117 -0.9972 0.9863
2.5630 -2.1014 -0.9973 0.9863
2.5935 -2.0638 -0.9973 0.9863
2.6528 -1.9872 -0.9973 0.9863
2.7374 -1.8691 -0.9974 0.9862
2.8168 -1.7475 -0.9974 0.9862
2.8908 -1.6224 -0.9974 0.9862
2.9592 -1.4942 -0.9975 0.9862
3.0017 -1.4072 -0.9975 0.9862
3.0416 -1.3189 -0.9975 0.9862
3.0789 -1.2295 -0.9975 0.9862
3.1135 -1.1390 -0.9976 0.9862
3.1299 -1.0934 -0.9976 0.9862
3.1606 -1.0015 -0.9976 0.9862
3.2015 -0.8620 -0.9976 0.9862
3.2362 -0.7209 -0.9976 0.9862
3.2464 -0.6735 -0.9976 0.9862
3.2648 -0.5784 -0.9976 0.9862
3.2870 -0.4348 -0.9976 0.9862
3.2983 -0.3386 -0.9977 0.9862
3.3029 -0.2904 -0.9977 0.9862
3.3068 -0.2420 -0.9977 0.9862
3.3157 0.0000 -0.9977 0.9862
3.3153 0.0484 -0.9977 0.9862
3.3143 0.0968 -0.9977 0.9862
3.3100 0.1937 -0.9977 0.9862
3.2983 0.3385 -0.9977 0.9862
3.2930 0.3866 -0.9977 0.9862
3.2870 0.4348 -0.9976 0.9862
3.2803 0.4827 -0.9976 0.9862
3.2729 0.5306 -0.9976 0.9862
3.2560 0.6261 -0.9976 0.9862
3.2465 0.6736 -0.9976 0.9862
3.2363 0.7209 -0.9976 0.9862
3.2253 0.7681 -0.9976 0.9862
3.2015 0.8620 -0.9976 0.9862
3.1885 0.9087 -0.9976 0.9862
3.1749 0.9552 -0.9976 0.9862
3.1606 1.0015 -0.9976 0.9862
3.1299 1.0934 -0.9976 0.9862
3.0966 1.1843 -0.9976 0.9862
3.0789 1.2295 -0.9975 0.9862
3.0220 1.3631 -0.9975 0.9862
2.9592 1.4942 -0.9975 0.9862
2.9371 1.5373 -0.9975 0.9862
2.8421 1.7062 -0.9974 0.9862
2.8169 1.7475 -0.9974 0.9862
2.7910 1.7884 -0.9974 0.9862
2.7645 1.8290 -0.9974 0.9862
2.6816 1.9483 -0.9973 0.9862
2.6234 2.0257 -0.9973 0.9863
2.5630 2.1014 -0.9973 0.9863
2.4684 2.2117 -0.9972 0.9863
2.4357 2.2474 -0.9972 0.9863
2.3690 2.3176 -0.9972 0.9863
2.3001 2.3857 -0.9971 0.9863
2.2650 2.4190 -0.9971 0.9863
2.2294 2.4518 -0.9971 0.9863
2.1933 2.4841 -0.9971 0.9863
2.1567 2.5159 -0.9971 0.9863
2.0821 2.5777 -0.9970 0.9863
2.0443 2.6078 -0.9970 0.9863
1.9671 2.6663 -0.9970 0.9863
1.8483 2.7497 -0.9969 0.9863
1.8078 2.7764 -0.9969 0.9863
1.6002 2.9006 -0.9968 0.9863
1.5576 2.9236 -0.9968 0.9863
1.5147 2.9460 -0.9967 0.9863
1.4279 2.9889 -0.9967 0.9863
1.3399 3.0292 -0.9967 0.9863
1.2954 3.0484 -0.9966 0.9863
1.2058 3.0848 -0.9966 0.9863
1.1150 3.1186 -0.9965 0.9863
1.0234 3.1497 -0.9965 0.9863
0.9772 3.1643 -0.9965 0.9863
0.9309 3.1781 -0.9964 0.9863
0.8843 3.1913 -0.9964 0.9863
0.7906 3.2156 -0.9964 0.9863
0.6489 3.2470 -0.9963 0.9863
0.6014 3.2560 -0.9963 0.9863
0.5538 3.2644 -0.9962 0.9863
0.4581 3.2790 -0.9962 0.9863
0.4101 3.2852 -0.9962 0.9863
0.3140 3.2957 -0.9961 0.9863
0.2658 3.2998 -0.9961 0.9863
0.2175 3.3032 -0.9961 0.9863
0.1692 3.3060 -0.9960 0.9863
0.0725 3.3093 -0.9960 0.9863
0.0242 3.3100 -0.9960 0.9863
-0.0242 3.3099 -0.9959 0.9863
-0.0726 3.3091 -0.9959 0.9863
-0.1692 3.3054 -0.9959 0.9863
-0.2657 3.2989 -0.9958 0.9863
-0.3139 3.2945 -0.9958 0.9863
-0.4100 3.2839 -0.9957 0.9863
-0.4579 3.2774 -0.9957 0.9863
-0.5057 3.2703 -0.9957 0.9863
-0.6011 3.2540 -0.9957 0.9863
-0.7430 3.2243 -0.9956 0.9863
-0.7900 3.2130 -0.9956 0.9863
-0.8835 3.1884 -0.9955 0.9863
-1.0682 3.1310 -0.9954 0.9863
-0.2322 0.5940 -0.1919 0.9973
-0.2304 0.5649 -0.1836 0.9975
-0.2433 0.5290 -0.1752 0.9976
-0.2616 0.4743 -0.1630 0.9977
-0.2690 0.4555 -0.1592 0.9978
-0.2725 0.4464 -0.1574 0.9978
-0.2791 0.4286 -0.1539 0.9979
-0.2823 0.4199 -0.1522 0.9979
-0.2853 0.4113 -0.1506 0.9979
-0.2882 0.4029 -0.1491 0.9979
-0.2939 0.3863 -0.1461 0.9980
-0.3018 0.3627 -0.1420 0.9980
-0.3132 0.3248 -0.1358 0.9981
-0.3148 0.3171 -0.1345 0.9981
-0.3165 0.3096 -0.1332 0.9982
-0.3195 0.2948 -0.1308 0.9982
-0.3248 0.2664 -0.1264 0.9982
-0.3261 0.2595 -0.1254 0.9983
-0.3272 0.2527 -0.1244 0.9983
-0.3283 0.2459 -0.1234 0.9983
-0.3303 0.2327 -0.1216 0.9983
-0.3312 0.2262 -0.1207 0.9983
-0.3329 0.2134 -0.1190 0.9983
-0.3338 0.2070 -0.1182 0.9984
-0.3345 0.2008 -0.1174 0.9984
-0.3362 0.1887 -0.1160 0.9984
-0.3391 0.1712 -0.1143 0.9984
-0.3400 0.1655 -0.1138 0.9984
-0.3408 0.1598 -0.1133 0.9984
-0.3422 0.1484 -0.1122 0.9984
-0.3428 0.1427 -0.1117 0.9985
-0.3433 0.1371 -0.1112 0.9985
-0.3452 0.1150 -0.1095 0.9985
-0.3456 0.1095 -0.1091 0.9985
-0.3467 0.0879 -0.1076 0.9985
-0.3469 0.0826 -0.1073 0.9985
-0.3471 0.0773 -0.1070 0.9985
-0.3475 0.0616 -0.1062 0.9985
-0.3475 0.0511 -0.1057 0.9985
-0.3475 0.0408 -0.1053 0.9985
-0.3472 0.0254 -0.1047 0.9985
-0.3468 0.0152 -0.1045 0.9986
-0.3463 0.0051 -0.1042 0.9986
-0.3404 0.0000 -0.1066 0.9986
-0.3407 -0.0050 -0.1067 0.9986
-0.3410 -0.0100 -0.1068 0.9986
-0.3415 -0.0250 -0.1072 0.9986
-0.3416 -0.0300 -0.1073 0.9986
-0.3418 -0.0452 -0.1079 0.9986
-0.3418 -0.0503 -0.1081 0.9986
-0.3417 -0.0605 -0.1086 0.9985
-0.3414 -0.0761 -0.1095 0.9985
-0.3404 -0.0970 -0.1108 0.9985
-0.3393 -0.1130 -0.1119 0.9985
-0.3389 -0.1184 -0.1124 0.9985
-0.3384 -0.1238 -0.1128 0.9985
-0.3379 -0.1292 -0.1132 0.9985
-0.3374 -0.1348 -0.1137 0.9985
-0.3368 -0.1402 -0.1142 0.9985
-0.3348 -0.1570 -0.1157 0.9985
-0.3340 -0.1626 -0.1163 0.9984
-0.3321 -0.1739 -0.1173 0.9984
-0.3311 -0.1795 -0.1179 0.9984
-0.3281 -0.1970 -0.1198 0.9984
-0.3265 -0.2093 -0.1214 0.9984
-0.3257 -0.2155 -0.1222 0.9984
-0.3217 -0.2410 -0.1258 0.9983
-0.3206 -0.2475 -0.1268 0.9983
-0.3194 -0.2542 -0.1278 0.9983
-0.3169 -0.2677 -0.1299 0.9983
-0.3156 -0.2746 -0.1309 0.9982
-0.3142 -0.2815 -0.1321 0.9982
-0.3128 -0.2886 -0.1332 0.9982
-0.3112 -0.2957 -0.1344 0.9982
-0.3080 -0.3103 -0.1368 0.9982
-0.3045 -0.3252 -0.1394 0.9981
-0.3023 -0.3326 -0.1407 0.9981
-0.2951 -0.3546 -0.1444 0.9981
-0.2871 -0.3775 -0.1484 0.9980
-0.2815 -0.3934 -0.1514 0.9980
-0.2723 -0.4182 -0.1562 0.9979
-0.2586 -0.4530 -0.1633 0.9978
-0.2510 -0.4712 -0.1671 0.9978
-0.2471 -0.4806 -0.1691 0.9977
-0.2432 -0.4907 -0.1714 0.9977
-0.2395 -0.5012 -0.1739 0.9977
-0.2314 -0.5232 -0.1791 0.9976
-0.2227 -0.5460 -0.1846 0.9975
-0.2180 -0.5578 -0.1875 0.9975
-0.2176 -0.6085 -0.2023 0.9973
-0.9241 -2.9921 -0.9802 0.9870
-0.8363 -3.0180 -0.9803 0.9870
-0.7922 -3.0300 -0.9803 0.9870
-0.7478 -3.0413 -0.9803 0.9870
-0.7033 -3.0520 -0.9803 0.9870
-0.6587 -3.0620 -0.9804 0.9870
-0.6139 -3.0714 -0.9804 0.9870
-0.3057 -2.7786 -0.8750 0.9884
-0.2665 -2.7970 -0.8795 0.9883
-0.2268 -2.8156 -0.8842 0.9882
0.1086 -2.9726 -0.9311 0.9876
0.1532 -2.9934 -0.9382 0.9875
0.1985 -3.0145 -0.9456 0.9874
0.2445 -3.0361 -0.9534 0.9873
0.3427 -3.1148 -0.9809 0.9870
0.4789 -3.0971 -0.9810 0.9870
0.5241 -3.0898 -0.9810 0.9870
0.5692 -3.0819 -0.9810 0.9869
0.6142 -3.0734 -0.9810 0.9869
0.7038 -3.0542 -0.9811 0.9869
0.7483 -3.0437 -0.9811 0.9869
0.7928 -3.0325 -0.9811 0.9869
0.8811 -3.0082 -0.9812 0.9869
0.9687 -2.9813 -0.9812 0.9869
1.0121 -2.9669 -0.9812 0.9869
1.0554 -2.9519 -0.9813 0.9869
1.1838 -2.9030 -0.9813 0.9869
1.2262 -2.8854 -0.9813 0.9869
1.3927 -2.8091 -0.9814 0.9869
1.4336 -2.7885 -0.9814 0.9869
1.5146 -2.7456 -0.9815 0.9869
1.5546 -2.7232 -0.9815 0.9869
1.6725 -2.6526 -0.9816 0.9869
1.7111 -2.6279 -0.9816 0.9869
1.7873 -2.5770 -0.9816 0.9869
1.8302 -2.5581 -0.9846 0.9869
1.9649 -2.5067 -0.9970 0.9867
2.0014 -2.4777 -0.9970 0.9867
2.0374 -2.4483 -0.9970 0.9867
2.0730 -2.4183 -0.9970 0.9867
2.1082 -2.3878 -0.9970 0.9867
2.1771 -2.3252 -0.9971 0.9867
2.2442 -2.2607 -0.9971 0.9867
2.3094 -2.1943 -0.9971 0.9867
2.3726 -2.1259 -0.9972 0.9867
2.4035 -2.0910 -0.9972 0.9867
2.4338 -2.0558 -0.9972 0.9867
2.4929 -1.9838 -0.9972 0.9867
2.5216 -1.9472 -0.9973 0.9867
2.5775 -1.8727 -0.9973 0.9867
2.6047 -1.8349 -0.9973 0.9867
2.6312 -1.7966 -0.9973 0.9867
2.6827 -1.7190 -0.9973 0.9867
2.7076 -1.6796 -0.9973 0.9867
2.7787 -1.5595 -0.9974 0.9867
2.8444 -1.4362 -0.9974 0.9867
2.8853 -1.3526 -0.9974 0.9867
2.9236 -1.2677 -0.9975 0.9867
2.9418 -1.2248 -0.9975 0.9867
2.9764 -1.1384 -0.9975 0.9867
3.0085 -1.0509 -0.9975 0.9867
3.0648 -0.8734 -0.9975 0.9867
3.0891 -0.7836 -0.9975 0.9867
3.1002 -0.7384 -0.9976 0.9867
3.1106 -0.6930 -0.9976 0.9867
3.1205 -0.6474 -0.9976 0.9867
3.1381 -0.5560 -0.9976 0.9867
3.1530 -0.4641 -0.9976 0.9867
3.1595 -0.4179 -0.9976 0.9867
3.1704 -0.3254 -0.9976 0.9867
3.1748 -0.2791 -0.9976 0.9867
3.1857 -0.0931 -0.9976 0.9867
3.1867 -0.0466 -0.9976 0.9867
3.1867 0.0466 -0.9976 0.9867
3.1857 0.0931 -0.9976 0.9867
3.1840 0.1396 -0.9976 0.9867
3.1816 0.1861 -0.9976 0.9867
3.1530 0.4640 -0.9976 0.9867
3.1459 0.5100 -0.9976 0.9867
3.1296 0.6017 -0.9976 0.9867
3.1002 0.7383 -0.9976 0.9867
3.0890 0.7835 -0.9975 0.9867
3.0235 1.0069 -0.9975 0.9867
2.9928 1.0948 -0.9975 0.9867
2.9764 1.1384 -0.9975 0.9867
2.9419 1.2249 -0.9975 0.9867
2.9236 1.2677 -0.9975 0.9867
2.9048 1.3102 -0.9975 0.9867
2.8652 1.3946 -0.9974 0.9867
2.8444 1.4362 -0.9974 0.9867
2.8231 1.4777 -0.9974 0.9867
2.7787 1.5595 -0.9974 0.9867
2.7076 1.6797 -0.9974 0.9867
2.6313 1.7967 -0.9973 0.9867
2.5776 1.8727 -0.9973 0.9867
2.5499 1.9102 -0.9973 0.9867
2.5217 1.9471 -0.9973 0.9867
2.4636 2.0199 -0.9972 0.9867
2.4338 2.0557 -0.9972 0.9867
2.3413 2.1603 -0.9972 0.9867
2.3094 2.1942 -0.9971 0.9867
2.2109 2.2932 -0.9971 0.9867
2.1772 2.3252 -0.9971 0.9867
2.1082 2.3878 -0.9970 0.9867
2.0375 2.4482 -0.9970 0.9867
1.9650 2.5066 -0.9970 0.9867
1.9281 2.5351 -0.9970 0.9867
1.8908 2.5629 -0.9969 0.9867
1.8531 2.5902 -0.9969 0.9867
1.7377 2.6688 -0.9969 0.9867
1.6985 2.6938 -0.9968 0.9867
1.5381 2.7882 -0.9968 0.9867
1.4144 2.8527 -0.9967 0.9867
1.3725 2.8730 -0.9967 0.9867
1.3304 2.8927 -0.9966 0.9867
1.2452 2.9303 -0.9966 0.9867
1.2023 2.9480 -0.9966 0.9867
1.1155 2.9818 -0.9965 0.9867
1.0718 2.9977 -0.9965 0.9867
0.9837 3.0276 -0.9965 0.9867
0.8948 3.0549 -0.9964 0.9867
0.8500 3.0676 -0.9964 0.9867
0.8051 3.0796 -0.9964 0.9867
0.7147 3.1016 -0.9963 0.9867
0.6238 3.1211 -0.9963 0.9867
0.5781 3.1298 -0.9963 0.9867
0.5323 3.1378 -0.9962 0.9867
0.3942 3.1580 -0.9962 0.9867
0.1162 3.1798 -0.9960 0.9868
0.0232 3.1818 -0.9960 0.9868
-0.0697 3.1809 -0.9959 0.9868
-0.1162 3.1795 -0.9959 0.9868
-0.1626 3.1773 -0.9959 0.9868
-0.2554 3.1711 -0.9958 0.9868
-0.4861 3.1436 -0.9957 0.9868
-0.5320 3.1361 -0.9957 0.9868
-0.5778 3.1280 -0.9957 0.9868
-0.7142 3.0994 -0.9956 0.9868
-0.8045 3.0771 -0.9955 0.9868
-0.8493 3.0649 -0.9955 0.9868
-0.8940 3.0521 -0.9955 0.9868
-0.9827 3.0245 -0.9955 0.9868
-0.2180 0.5578 -0.1875 0.9975
-0.2227 0.5460 -0.1846 0.9975
-0.2314 0.5231 -0.1791 0.9976
-0.2355 0.5120 -0.1764 0.9976
-0.2395 0.5012 -0.1739 0.9977
-0.2433 0.4906 -0.1714 0.9977
-0.2657 0.4353 -0.1596 0.9979
-0.2690 0.4266 -0.1579 0.9979
-0.2723 0.4181 -0.1562 0.9979
-0.2754 0.4098 -0.1545 0.9979
-0.2899 0.3698 -0.1471 0.9980
-0.2925 0.3621 -0.1457 0.9981
-0.2976 0.3471 -0.1431 0.9981
-0.3023 0.3325 -0.1407 0.9981
-0.3045 0.3252 -0.1394 0.9981
-0.3080 0.3102 -0.1368 0.9982
-0.3127 0.2885 -0.1332 0.9982
-0.3142 0.2815 -0.1321 0.9982
-0.3169 0.2677 -0.1299 0.9983
-0.3238 0.2281 -0.1240 0.9983
-0.3248 0.2217 -0.1231 0.9984
-0.3274 0.2030 -0.1206 0.9984
-0.3281 0.1970 -0.1198 0.9984
-0.3331 0.1682 -0.1168 0.9984
-0.3340 0.1625 -0.1163 0.9984
-0.3355 0.1514 -0.1152 0.9985
-0.3362 0.1458 -0.1147 0.9985
-0.3368 0.1402 -0.1142 0.9985
-0.3374 0.1347 -0.1137 0.9985
-0.3384 0.1238 -0.1128 0.9985
-0.3389 0.1184 -0.1124 0.9985
-0.3393 0.1130 -0.1119 0.9985
-0.3397 0.1077 -0.1115 0.9985
-0.3400 0.1023 -0.1112 0.9985
-0.3407 0.0917 -0.1104 0.9985
-0.3409 0.0865 -0.1101 0.9985
-0.3413 0.0760 -0.1095 0.9985
-0.3417 0.0605 -0.1086 0.9985
-0.3418 0.0503 -0.1081 0.9986
-0.3418 0.0452 -0.1079 0.9986
-0.3418 0.0402 -0.1077 0.9986
-0.3417 0.0351 -0.1075 0.9986
-0.3416 0.0300 -0.1073 0.9986
-0.3415 0.0250 -0.1072 0.9986
-0.3412 0.0149 -0.1069 0.9986
-0.3409 0.0100 -0.1068 0.9986
-0.3352 -0.0049 -0.1090 0.9986
-0.3357 -0.0147 -0.1093 0.9986
-0.3362 -0.0395 -0.1101 0.9986
-0.3363 -0.0445 -0.1103 0.9986
-0.3362 -0.0495 -0.1105 0.9986
-0.3361 -0.0595 -0.1110 0.9986
-0.3360 -0.0646 -0.1113 0.9986
-0.3357 -0.0748 -0.1119 0.9986
-0.3355 -0.0799 -0.1122 0.9986
-0.3350 -0.0902 -0.1128 0.9985
-0.3343 -0.1006 -0.1136 0.9985
-0.3340 -0.1059 -0.1139 0.9985
-0.3336 -0.1111 -0.1143 0.9985
-0.3331 -0.1164 -0.1148 0.9985
-0.3327 -0.1217 -0.1152 0.9985
-0.3316 -0.1324 -0.1161 0.9985
-0.3310 -0.1378 -0.1166 0.9985
-0.3272 -0.1652 -0.1192 0.9985
-0.3242 -0.1820 -0.1209 0.9984
-0.3203 -0.2053 -0.1237 0.9984
-0.3194 -0.2113 -0.1246 0.9984
-0.3185 -0.2175 -0.1254 0.9984
-0.3175 -0.2237 -0.1263 0.9984
-0.3153 -0.2362 -0.1281 0.9983
-0.3142 -0.2427 -0.1291 0.9983
-0.3118 -0.2556 -0.1311 0.9983
-0.3105 -0.2623 -0.1322 0.9983
-0.3091 -0.2689 -0.1333 0.9983
-0.3077 -0.2757 -0.1344 0.9983
-0.3062 -0.2826 -0.1355 0.9982
-0.3047 -0.2895 -0.1367 0.9982
-0.2997 -0.3108 -0.1404 0.9982
-0.2978 -0.3181 -0.1417 0.9982
-0.2936 -0.3325 -0.1442 0.9981
-0.2861 -0.3541 -0.1480 0.9981
-0.2834 -0.3616 -0.1494 0.9981
-0.2806 -0.3690 -0.1508 0.9981
-0.2778 -0.3766 -0.1522 0.9980
-0.2719 -0.3921 -0.1552 0.9980
-0.2689 -0.4000 -0.1568 0.9980
-0.2657 -0.4081 -0.1584 0.9980
-0.2557 -0.4331 -0.1636 0.9979
-0.2484 -0.4503 -0.1673 0.9978
-0.2407 -0.4681 -0.1712 0.9978
-0.2281 -0.4961 -0.1776 0.9977
-0.2240 -0.5065 -0.1801 0.9977
-0.2198 -0.5172 -0.1828 0.9976
-0.2108 -0.5392 -0.1883 0.9976
-0.2010 -0.5623 -0.1942 0.9975
-0.1985 -0.5819 -0.2000 0.9974
-0.8473 -2.8926 -0.9803 0.9874
-0.8049 -2.9048 -0.9803 0.9874
-0.7624 -2.9162 -0.9803 0.9874
-0.7197 -2.9271 -0.9803 0.9874
-0.5042 -2.9722 -0.9805 0.9874
-0.4607 -2.9793 -0.9805 0.9874
-0.3830 -2.7412 -0.9001 0.9884
-0.3445 -2.7592 -0.9043 0.9884
-0.1460 -2.8521 -0.9288 0.9881
-0.0213 -2.9105 -0.9466 0.9878
0.0214 -2.9306 -0.9531 0.9877
0.0647 -2.9507 -0.9599 0.9877
0.1982 -3.0093 -0.9808 0.9874
0.2421 -3.0062 -0.9808 0.9874
0.2860 -3.0023 -0.9809 0.9874
0.3298 -2.9979 -0.9809 0.9874
0.4609 -2.9807 -0.9809 0.9874
0.5045 -2.9738 -0.9810 0.9874
0.6774 -2.9395 -0.9811 0.9874
0.8480 -2.8952 -0.9811 0.9874
0.9323 -2.8693 -0.9812 0.9874
0.9741 -2.8554 -0.9812 0.9874
1.0984 -2.8102 -0.9813 0.9874
1.1801 -2.7770 -0.9813 0.9874
1.2205 -2.7595 -0.9813 0.9874
1.3007 -2.7229 -0.9814 0.9874
1.4577 -2.6424 -0.9815 0.9874
1.5343 -2.5987 -0.9815 0.9874
1.5722 -2.5761 -0.9815 0.9874
1.6604 -2.5500 -0.9897 0.9873
1.7835 -2.4929 -0.9969 0.9872
1.8556 -2.4398 -0.9969 0.9872
1.8911 -2.4125 -0.9969 0.9872
1.9262 -2.3846 -0.9969 0.9872
1.9951 -2.3274 -0.9970 0.9872
2.0290 -2.2980 -0.9970 0.9872
2.0623 -2.2682 -0.9970 0.9872
2.0953 -2.2378 -0.9970 0.9872
2.1599 -2.1757 -0.9971 0.9872
2.1915 -2.1440 -0.9971 0.9872
2.2226 -2.1118 -0.9971 0.9872
2.2532 -2.0791 -0.9971 0.9872
2.2834 -2.0460 -0.9971 0.9872
2.3423 -1.9784 -0.9972 0.9872
2.4269 -1.8740 -0.9972 0.9872
2.4540 -1.8384 -0.9972 0.9872
2.4806 -1.8023 -0.9972 0.9872
2.5068 -1.7659 -0.9972 0.9872
2.5323 -1.7291 -0.9973 0.9872
2.5574 -1.6920 -0.9973 0.9872
2.5819 -1.6545 -0.9973 0.9872
2.6058 -1.6166 -0.9973 0.9872
2.6291 -1.5783 -0.9973 0.9872
2.6520 -1.5397 -0.9973 0.9872
2.6742 -1.5008 -0.9973 0.9872
2.6959 -1.4616 -0.9973 0.9872
2.7375 -1.3823 -0.9974 0.9872
2.7574 -1.3421 -0.9974 0.9872
2.7768 -1.3017 -0.9974 0.9872
2.8312 -1.1788 -0.9974 0.9872
2.8482 -1.1373 -0.9974 0.9872
2.8953 -1.0115 -0.9974 0.9872
3.0119 -0.5791 -0.9975 0.9872
3.0276 -0.4909 -0.9975 0.9872
3.0463 -0.3577 -0.9975 0.9872
3.0512 -0.3132 -0.9975 0.9872
3.0554 -0.2686 -0.9975 0.9872
3.0620 -0.1792 -0.9975 0.9872
3.0659 -0.0896 -0.9975 0.9872
3.0672 0.0000 -0.9975 0.9872
3.0659 0.0896 -0.9975 0.9872
3.0620 0.1792 -0.9975 0.9872
3.0590 0.2239 -0.9975 0.9872
3.0462 0.3577 -0.9975 0.9872
3.0345 0.4466 -0.9975 0.9872
3.0120 0.5791 -0.9975 0.9872
3.0032 0.6230 -0.9975 0.9872
2.9937 0.6669 -0.9975 0.9872
2.9836 0.7105 -0.9975 0.9872
2.9729 0.7541 -0.9975 0.9872
2.9496 0.8406 -0.9975 0.9872
2.9370 0.8836 -0.9975 0.9872
2.9099 0.9690 -0.9975 0.9872
2.8954 1.0114 -0.9974 0.9872
2.8645 1.0956 -0.9974 0.9872
2.8482 1.1373 -0.9974 0.9872
2.8137 1.2200 -0.9974 0.9872
2.7170 1.4221 -0.9974 0.9872
2.6959 1.4616 -0.9973 0.9872
2.6742 1.5008 -0.9973 0.9872
2.6520 1.5398 -0.9973 0.9872
2.6058 1.6165 -0.9973 0.9872
2.5819 1.6544 -0.9973 0.9872
2.5574 1.6920 -0.9973 0.9872
2.5323 1.7291 -0.9973 0.9872
2.4807 1.8023 -0.9972 0.9872
2.4540 1.8384 -0.9972 0.9872
2.4269 1.8739 -0.9972 0.9872
2.3992 1.9092 -0.9972 0.9872
2.3710 1.9440 -0.9972 0.9872
2.2533 2.0791 -0.9971 0.9872
2.2226 2.1118 -0.9971 0.9872
2.1915 2.1440 -0.9971 0.9872
2.1599 2.1757 -0.9971 0.9872
2.1279 2.2070 -0.9971 0.9872
2.0953 2.2379 -0.9970 0.9872
1.8557 2.4398 -0.9969 0.9872
1.8198 2.4666 -0.9969 0.9872
1.7469 2.5186 -0.9969 0.9872
1.6725 2.5685 -0.9968 0.9872
1.6347 2.5926 -0.9968 0.9872
1.5966 2.6162 -0.9968 0.9872
1.5194 2.6616 -0.9967 0.9872
1.4803 2.6834 -0.9967 0.9872
1.3209 2.7651 -0.9966 0.9872
1.1984 2.8202 -0.9966 0.9872
1.1571 2.8373 -0.9966 0.9872
1.1155 2.8539 -0.9965 0.9872
1.0736 2.8698 -0.9965 0.9872
1.0316 2.8851 -0.9965 0.9872
0.9468 2.9139 -0.9964 0.9872
0.9041 2.9274 -0.9964 0.9872
0.8181 2.9524 -0.9964 0.9872
0.7749 2.9639 -0.9964 0.9872
0.7315 2.9749 -0.9963 0.9872
0.6879 2.9852 -0.9963 0.9872
0.6004 3.0039 -0.9963 0.9872
0.5564 3.0123 -0.9962 0.9872
0.5123 3.0200 -0.9962 0.9872
