ply
format ascii 1.0
element vertex 1615
property float32 x
property float32 y
property float32 z
property float32 I
end_header
4.4461 -35.6127 3.4407 0.8657
4.9738 -35.6005 3.4462 0.8655
5.2896 -31.1818 3.0321 0.8807
6.2280 -31.1617 3.0465 0.8801
6.7010 -31.1521 3.0549 0.8798
8.1367 -31.1232 3.0841 0.8787
9.1104 -31.1036 3.1072 0.8779
10.0992 -31.0822 3.1332 0.8769
12.1318 -31.0383 3.1949 0.8747
1.3539 -3.1860 0.3319 0.9862
14.2534 -30.9925 3.2704 0.8719
14.8002 -30.9807 3.2916 0.8711
6.1400 -11.9423 1.2874 0.9475
16.4856 -30.9443 3.3613 0.8686
7.1337 -12.9312 1.4159 0.9424
19.4705 -30.8798 3.4998 0.8636
20.0982 -30.8662 3.5312 0.8624
20.7374 -30.8524 3.5639 0.8612
21.3887 -30.8383 3.5980 0.8600
22.0527 -30.8240 3.6335 0.8587
22.7300 -30.8093 3.6705 0.8574
23.4215 -30.7944 3.7091 0.8560
11.2366 -13.1077 1.6552 0.9330
11.2812 -12.4070 1.6076 0.9348
29.5616 -30.6617 4.0832 0.8427
30.4201 -30.6432 4.1395 0.8407
33.1466 -30.5843 4.3238 0.8342
35.1057 -30.5420 4.4610 0.8295
37.1951 -30.4968 4.6112 0.8243
16.4221 -11.9313 1.9460 0.9217
16.1544 -11.0304 1.8753 0.9244
15.9884 -10.5778 1.8379 0.9259
17.6770 -11.3272 2.0128 0.9191
20.7130 -12.0260 2.2962 0.9082
21.0327 -11.4032 2.2937 0.9083
57.0948 -28.8291 6.1319 0.7734
59.1395 -28.7849 6.3056 0.7677
26.1750 -11.8070 2.7529 0.8910
26.6321 -11.5479 2.7829 0.8899
26.3122 -10.9553 2.7325 0.8918
30.7475 -11.7599 3.1560 0.8761
30.8479 -11.2845 3.1490 0.8763
31.6610 -11.0601 3.2152 0.8739
36.9298 -12.2982 3.7316 0.8552
37.7504 -11.9616 3.7965 0.8529
42.5464 -12.8003 4.2595 0.8365
36.2758 -4.2599 3.5016 0.8635
35.7707 -3.6716 3.4473 0.8655
35.8293 -3.1494 3.4482 0.8654
35.8874 -2.6266 3.4497 0.8654
35.4912 9.5561 3.5237 0.8627
26.2798 7.9064 2.6310 0.8956
22.3503 8.1759 2.2816 0.9088
20.5987 9.2916 2.1664 0.9132
20.6790 10.0650 2.2048 0.9117
20.4331 10.3173 2.1945 0.9121
15.7199 9.7520 1.7735 0.9284
15.4658 9.9102 1.7610 0.9288
15.2152 10.0662 1.7490 0.9293
11.3063 8.9972 1.3852 0.9436
11.1833 9.1693 1.3864 0.9435
10.8318 9.1490 1.3593 0.9446
6.1577 9.1611 1.0582 0.9566
-2.6983 9.2125 0.9203 0.9622
-2.0888 4.9155 0.5120 0.9788
-2.1402 4.4800 0.4760 0.9802
-2.1565 4.3497 0.4654 0.9807
-2.2848 4.0024 0.4418 0.9817
-2.4646 4.0386 0.4536 0.9812
-2.5588 4.0583 0.4600 0.9809
-8.3457 9.1786 1.1893 0.9514
-13.9227 9.2112 1.6004 0.9351
-14.0971 9.0332 1.6051 0.9349
-14.4683 8.6855 1.6178 0.9344
-14.8463 8.3321 1.6321 0.9339
-15.0382 8.1532 1.6400 0.9336
-19.7018 9.9481 2.1159 0.9151
-20.0569 9.4023 2.1236 0.9148
-1.2442 0.5613 0.1309 0.9945
-1.2418 0.5385 0.1298 0.9946
-1.2394 0.5161 0.1287 0.9946
-1.2372 0.4941 0.1277 0.9947
-1.2331 0.4511 0.1259 0.9947
-1.2241 0.3879 0.1231 0.9949
-1.2219 0.3676 0.1223 0.9949
-1.2200 0.3477 0.1216 0.9949
-1.2182 0.3280 0.1209 0.9949
-1.2091 0.2142 0.1177 0.9951
-1.2054 0.1775 0.1168 0.9951
-1.2035 0.1592 0.1164 0.9951
-1.1998 0.1232 0.1156 0.9952
-1.1974 0.1053 0.1152 0.9952
-1.1938 0.0874 0.1148 0.9952
-1.1903 0.0696 0.1143 0.9952
-1.1869 0.0521 0.1139 0.9952
-1.1835 0.0346 0.1135 0.9953
-1.1803 0.0172 0.1132 0.9953
-1.1394 0.0000 0.0965 0.9954
-1.1454 -0.0335 0.0971 0.9954
-1.1484 -0.0504 0.0974 0.9954
-1.1548 -0.0845 0.0981 0.9954
-1.1616 -0.1192 0.0989 0.9953
-1.1651 -0.1368 0.0994 0.9953
-1.1672 -0.1544 0.0997 0.9953
-1.1690 -0.1721 0.1001 0.9953
-1.1708 -0.1898 0.1005 0.9952
-1.1748 -0.2437 0.1016 0.9952
-1.1760 -0.2620 0.1021 0.9952
-1.1787 -0.2990 0.1030 0.9951
-1.1802 -0.3178 0.1035 0.9951
-1.1834 -0.3561 0.1047 0.9951
-1.1876 -0.3955 0.1060 0.9950
-1.1902 -0.4158 0.1068 0.9950
-1.1929 -0.4364 0.1076 0.9949
-1.1957 -0.4573 0.1084 0.9949
-1.2005 -0.4998 0.1101 0.9948
-1.2044 -0.5433 0.1119 0.9947
-19.5259 -11.7216 1.9289 0.9126
-19.3133 -11.9813 1.9250 0.9128
-19.1682 -12.6816 1.9467 0.9119
-3.3808 -2.8556 0.3748 0.9824
-3.3330 -2.8998 0.3742 0.9824
-3.2652 -2.9256 0.3713 0.9826
-3.2123 -2.9640 0.3702 0.9826
-2.9346 -2.9561 0.3528 0.9834
-2.8003 -2.9046 0.3417 0.9839
-2.7459 -2.9327 0.3403 0.9840
-2.5961 -3.0285 0.3379 0.9841
-2.5457 -3.0590 0.3371 0.9842
-2.4954 -3.0893 0.3364 0.9842
-2.4454 -3.1195 0.3357 0.9842
-2.3428 -3.1756 0.3342 0.9843
-2.1969 -3.2684 0.3336 0.9843
-1.8868 -3.0918 0.3068 0.9856
-7.8163 -31.7890 2.7727 0.8769
-7.2488 -31.4564 2.7341 0.8785
-6.7639 -31.4452 2.7243 0.8789
-5.3287 -31.4121 2.6985 0.8799
-4.8559 -31.4013 2.6912 0.8802
-4.3857 -31.3912 2.6846 0.8805
-3.7459 -34.0441 2.9009 0.8715
-0.7832 -35.7274 3.0268 0.8664
0.6449 -12.5980 1.0684 0.9506
2.8712 -35.6485 3.0291 0.8663
4.4461 -35.6131 3.0398 0.8658
0.5867 -3.1761 0.2736 0.9871
6.2281 -31.1619 2.6915 0.8802
7.6550 -31.1329 2.7154 0.8792
8.6217 -31.1135 2.7345 0.8784
9.1104 -31.1036 2.7451 0.8780
10.0993 -31.0823 2.7681 0.8770
10.6001 -31.0714 2.7806 0.8765
11.1057 -31.0605 2.7939 0.8760
1.3492 -3.0502 0.2825 0.9867
14.8002 -30.9807 2.9080 0.8712
6.1472 -11.9563 1.1387 0.9475
16.5942 -31.1482 2.9892 0.8679
7.1331 -12.9303 1.2508 0.9424
17.6509 -30.9191 3.0155 0.8668
20.0982 -30.8662 3.1197 0.8626
20.7374 -30.8524 3.1486 0.8614
21.3887 -30.8383 3.1787 0.8601
22.0527 -30.8239 3.2101 0.8589
23.4215 -30.7944 3.2769 0.8561
24.8499 -30.7636 3.3495 0.8532
25.5883 -30.7476 3.3881 0.8516
11.3069 -12.8062 1.4469 0.9337
11.3361 -12.4674 1.4272 0.9346
11.4935 -12.2753 1.4243 0.9347
29.5616 -30.6617 3.6074 0.8428
33.1466 -30.5843 3.8199 0.8344
34.1108 -30.5634 3.8792 0.8321
35.1057 -30.5420 3.9412 0.8296
36.1331 -30.5197 4.0060 0.8271
37.1951 -30.4968 4.0739 0.8244
4.0568 -3.0390 0.4293 0.9799
16.3520 -11.8804 1.7119 0.9221
16.1760 -11.3952 1.6759 0.9236
16.0074 -10.9300 1.6417 0.9251
21.1582 -13.9981 2.1487 0.9032
21.2584 -12.7616 2.1001 0.9053
21.0402 -11.8084 2.0435 0.9077
21.1554 -11.4698 2.0382 0.9079
26.7652 -12.5470 2.5037 0.8881
26.5084 -11.9574 2.4630 0.8898
26.6930 -11.5743 2.4642 0.8898
30.9492 -11.8371 2.8065 0.8755
31.0788 -11.3689 2.8029 0.8756
7.9653 -2.7825 0.7146 0.9667
7.9965 -2.6630 0.7139 0.9667
36.6956 -11.6274 3.2603 0.8568
37.1852 -11.1874 3.2890 0.8557
35.6499 -3.6592 3.0353 0.8660
35.8402 -2.6232 3.0437 0.8657
87.7384 -2.5648 7.4344 0.7030
49.7317 9.5621 4.2893 0.8160
44.1991 9.1700 3.8233 0.8343
35.9522 8.5620 3.1302 0.8621
35.0092 9.4264 3.0708 0.8646
26.2592 7.9002 2.3226 0.8958
26.0126 8.2424 2.3112 0.8962
25.9385 8.6379 2.3155 0.8961
22.2955 8.1560 2.0108 0.9091
21.4000 8.9100 1.9634 0.9111
21.0991 9.1487 1.9478 0.9118
20.5908 9.6525 1.9261 0.9128
16.5931 9.3125 1.6116 0.9265
16.3085 9.4688 1.5972 0.9271
16.0367 9.6270 1.5842 0.9277
15.7777 9.7879 1.5726 0.9282
15.5223 9.9464 1.5615 0.9287
11.3480 9.0304 1.2283 0.9434
6.1655 9.1728 0.9361 0.9566
-2.1003 4.5671 0.4258 0.9800
-2.1344 4.3052 0.4070 0.9809
-2.1504 4.1828 0.3983 0.9813
-2.1685 4.0705 0.3906 0.9817
-2.3615 3.7454 0.3750 0.9824
-2.5537 3.7993 0.3877 0.9818
-2.6629 3.8395 0.3958 0.9814
-2.9126 3.9480 0.4155 0.9805
-3.1017 4.0782 0.4340 0.9796
-13.8465 9.1608 1.4062 0.9355
-14.0225 8.9854 1.4106 0.9353
-20.7272 10.8488 1.9815 0.9104
-1.2044 0.5433 0.1119 0.9947
-1.1929 0.4364 0.1076 0.9949
-1.1876 0.3955 0.1060 0.9950
-1.1834 0.3561 0.1047 0.9951
-1.1802 0.3178 0.1035 0.9951
-1.1787 0.2990 0.1030 0.9951
-1.1760 0.2620 0.1021 0.9952
-1.1725 0.2077 0.1009 0.9952
-1.1708 0.1898 0.1005 0.9952
-1.1690 0.1721 0.1001 0.9953
-1.1672 0.1544 0.0997 0.9953
-1.1651 0.1368 0.0994 0.9953
-1.1549 0.0845 0.0981 0.9954
-1.1484 0.0504 0.0974 0.9954
-1.1454 0.0335 0.0971 0.9954
-1.1068 -0.0162 0.0814 0.9956
-1.1096 -0.0324 0.0816 0.9956
-1.1125 -0.0487 0.0819 0.9955
-1.1215 -0.0986 0.0828 0.9955
-1.1247 -0.1154 0.0832 0.9955
-1.1346 -0.1670 0.0843 0.9954
-1.1381 -0.2016 0.0850 0.9954
-1.1390 -0.2190 0.0853 0.9954
-1.1411 -0.2542 0.0860 0.9953
-1.1423 -0.2720 0.0864 0.9953
-1.1434 -0.2900 0.0868 0.9953
-1.1460 -0.3266 0.0876 0.9952
-1.1473 -0.3452 0.0881 0.9952
-1.1554 -0.4227 0.0905 0.9951
-1.1578 -0.4429 0.0912 0.9950
-1.1603 -0.4633 0.0919 0.9950
-1.1629 -0.4842 0.0926 0.9950
-1.1655 -0.5054 0.0934 0.9949
-1.1672 -0.5265 0.0942 0.9949
-1.1689 -0.5480 0.0950 0.9948
-1.2434 -0.6052 0.1017 0.9945
-1.4718 -0.7704 0.1222 0.9934
-19.6069 -11.7702 1.6819 0.9124
-3.7538 -2.8121 0.3450 0.9814
-3.5277 -2.9797 0.3396 0.9816
-3.2544 -2.8314 0.3173 0.9828
-3.2004 -2.9530 0.3203 0.9827
-2.8071 -2.8277 0.2930 0.9841
-2.7673 -2.9555 0.2978 0.9839
-2.6787 -2.9461 0.2928 0.9842
-2.5930 -2.9369 0.2881 0.9844
-2.5121 -3.1100 0.2940 0.9841
-2.4616 -3.1403 0.2935 0.9841
-2.3612 -3.2005 0.2925 0.9842
-2.3112 -3.2304 0.2921 0.9842
-2.2114 -3.2900 0.2916 0.9842
-2.1417 -3.2893 0.2887 0.9844
-7.8163 -31.7891 2.4076 0.8770
-7.2488 -31.4564 2.3741 0.8786
-5.3287 -31.4121 2.3433 0.8800
-4.8560 -31.4018 2.3370 0.8803
-4.3858 -31.3916 2.3312 0.8806
-3.9178 -31.3815 2.3259 0.8809
-3.4088 -35.7826 2.6436 0.8657
-2.8810 -35.7718 2.6394 0.8659
-2.3549 -35.7612 2.6358 0.8661
-1.8300 -35.7505 2.6328 0.8663
-1.3062 -35.7399 2.6303 0.8664
-0.7833 -35.7286 2.6284 0.8665
0.7825 -35.6948 2.6259 0.8666
1.3041 -35.6836 2.6262 0.8666
2.3482 -35.6610 2.6284 0.8665
4.4462 -35.6135 2.6396 0.8659
4.9740 -35.6014 2.6438 0.8657
6.7009 -31.1521 2.3435 0.8800
7.1765 -31.1425 2.3505 0.8797
9.1104 -31.1036 2.3837 0.8781
9.6028 -31.0930 2.3934 0.8776
10.0992 -31.0822 2.4036 0.8771
10.6001 -31.0714 2.4145 0.8766
11.1056 -31.0605 2.4260 0.8761
11.6161 -31.0494 2.4382 0.8755
1.3378 -3.1480 0.2516 0.9864
1.3448 -2.9241 0.2367 0.9872
14.8002 -30.9807 2.5252 0.8714
15.5229 -31.3089 2.5701 0.8692
16.6667 -31.2842 2.6070 0.8675
18.4478 -31.2457 2.6687 0.8646
20.0982 -30.8662 2.7089 0.8627
21.3887 -30.8383 2.7602 0.8603
23.4216 -30.7944 2.8455 0.8563
24.1279 -30.7792 2.8763 0.8548
26.3442 -30.7312 2.9770 0.8501
27.1184 -30.7145 3.0134 0.8485
31.3028 -30.6241 3.2207 0.8389
32.2111 -30.6045 3.2678 0.8368
34.1108 -30.5634 3.3685 0.8322
35.1057 -30.5419 3.4223 0.8298
36.1331 -30.5198 3.4786 0.8272
38.2939 -30.4731 3.5993 0.8218
16.1986 -11.7690 1.4726 0.9228
43.1102 -30.3690 3.8783 0.8094
21.4739 -14.2070 1.8937 0.9019
21.0482 -12.2206 1.7900 0.9070
21.1603 -11.8757 1.7846 0.9073
21.1075 -11.4438 1.7659 0.9082
26.1649 -12.2656 2.1253 0.8906
8.6236 -3.4435 0.6829 0.9634
7.8301 -2.9948 0.6166 0.9669
7.9868 -2.6597 0.6191 0.9668
36.8989 -11.6918 2.8468 0.8562
37.4671 -11.2721 2.8776 0.8548
41.1598 -11.7301 3.1477 0.8423
41.7678 -11.2462 3.1813 0.8407
47.6379 -12.0830 3.6146 0.8211
49.0055 -11.6706 3.7050 0.8171
95.8841 -16.9873 7.1618 0.6767
36.2953 -4.2622 2.6877 0.8637
36.0014 -2.6350 2.6549 0.8652
36.7168 -2.1485 2.7050 0.8628
87.7206 -2.5643 6.4543 0.7033
48.4984 8.5921 3.6224 0.8207
43.9016 9.1083 3.2976 0.8354
36.3259 8.0919 2.7371 0.8613
36.0351 8.5817 2.7244 0.8619
26.2023 8.3025 2.0215 0.8956
25.7384 8.9912 2.0052 0.8964
22.2412 8.1360 1.7418 0.9094
22.0782 8.4442 1.7385 0.9095
21.5654 8.9788 1.7180 0.9106
21.1984 9.5621 1.7103 0.9109
21.0000 9.8444 1.7058 0.9112
20.8503 10.1484 1.7055 0.9112
16.0962 9.6626 1.3807 0.9275
16.0044 9.9285 1.3852 0.9272
3.2540 3.7958 0.3677 0.9801
2.9991 3.8257 0.3575 0.9807
2.8369 3.8451 0.3514 0.9810
2.6802 3.8641 0.3459 0.9813
2.6037 3.8736 0.3433 0.9815
2.5284 3.8829 0.3408 0.9816
2.4542 3.8921 0.3384 0.9817
2.3404 3.9639 0.3385 0.9817
-2.0439 4.8099 0.3844 0.9793
-2.0781 4.5188 0.3658 0.9802
-2.1128 4.2616 0.3498 0.9811
-2.1291 4.1413 0.3425 0.9815
-2.1892 3.8349 0.3248 0.9824
-2.2446 3.5600 0.3095 0.9833
-2.3628 3.5154 0.3115 0.9832
-2.6672 3.6153 0.3304 0.9821
-2.7777 3.6521 0.3375 0.9818
-3.2058 3.8523 0.3686 0.9801
-13.7713 9.1111 1.2144 0.9359
-1.4753 0.7999 0.1234 0.9933
-1.4718 0.7704 0.1222 0.9934
-1.4717 0.7431 0.1213 0.9934
-1.1690 0.5480 0.0950 0.9948
-1.1655 0.5054 0.0934 0.9949
-1.1578 0.4428 0.0912 0.9950
-1.1554 0.4227 0.0905 0.9951
-1.1508 0.3832 0.0892 0.9951
-1.1488 0.3640 0.0886 0.9952
-1.1460 0.3266 0.0876 0.9952
-1.1447 0.3082 0.0872 0.9953
-1.1422 0.2720 0.0864 0.9953
-1.1411 0.2542 0.0860 0.9953
-1.1246 0.1154 0.0832 0.9955
-1.1215 0.0986 0.0828 0.9955
-1.1184 0.0819 0.0825 0.9955
-1.1125 0.0488 0.0819 0.9955
-1.1096 0.0325 0.0816 0.9956
-1.0331 0.0000 0.0645 0.9959
-1.0421 -0.0304 0.0651 0.9958
-1.0538 -0.0617 0.0659 0.9958
-1.0661 -0.0937 0.0668 0.9957
-1.0725 -0.1101 0.0673 0.9957
-1.0859 -0.1436 0.0684 0.9956
-1.0930 -0.1608 0.0690 0.9956
-1.1002 -0.1784 0.0696 0.9955
-1.1065 -0.2128 0.0703 0.9955
-1.1147 -0.3532 0.0730 0.9953
-1.1161 -0.3717 0.0734 0.9953
-1.1244 -0.4490 0.0756 0.9952
-1.1267 -0.4691 0.0762 0.9951
-1.1337 -0.5314 0.0781 0.9950
-1.1716 -0.5703 0.0813 0.9948
-1.4422 -0.7549 0.1016 0.9935
-1.4418 -0.7817 0.1024 0.9934
-19.6885 -11.8192 1.4333 0.9121
-3.7102 -2.6956 0.2862 0.9818
-3.7572 -3.0806 0.3033 0.9807
-3.3122 -2.7976 0.2706 0.9828
-2.8533 -2.7914 0.2491 0.9841
-2.8245 -2.9296 0.2540 0.9838
-2.7847 -2.9741 0.2543 0.9838
-2.6953 -2.9643 0.2501 0.9841
-2.6088 -2.9548 0.2460 0.9843
-2.6218 -3.0584 0.2514 0.9840
-2.4781 -3.1612 0.2507 0.9840
-2.3770 -3.2219 0.2499 0.9841
-2.3266 -3.2520 0.2496 0.9841
-4.3720 -12.2277 0.8105 0.9493
-7.8163 -31.7891 2.0432 0.8770
-6.2825 -31.4341 2.0007 0.8794
-5.3287 -31.4123 1.9886 0.8801
-4.8561 -31.4021 1.9832 0.8804
-3.9179 -31.3819 1.9739 0.8810
-3.4088 -35.7830 2.2435 0.8658
-2.8811 -35.7723 2.2399 0.8660
-1.8300 -35.7510 2.2343 0.8663
-0.7832 -35.7294 2.2305 0.8666
-0.2610 -35.7181 2.2294 0.8666
1.8260 -35.6730 2.2294 0.8666
3.3951 -35.6381 2.2344 0.8663
4.4462 -35.6140 2.2401 0.8660
5.2325 -33.8363 2.1370 0.8718
0.6277 -3.1407 0.1999 0.9872
6.7010 -31.1524 1.9888 0.8801
7.1765 -31.1426 1.9947 0.8798
7.6550 -31.1329 2.0010 0.8794
9.1104 -31.1036 2.0229 0.8782
9.6028 -31.0929 2.0311 0.8777
10.0993 -31.0822 2.0398 0.8772
11.1057 -31.0605 2.0588 0.8762
1.3215 -3.3809 0.2266 0.9856
1.3299 -3.1295 0.2122 0.9865
1.3407 -2.8065 0.1941 0.9876
15.5229 -31.3089 2.1811 0.8693
6.1777 -12.0158 0.8433 0.9473
16.6667 -31.2842 2.2124 0.8676
18.4479 -31.2457 2.2647 0.8647
19.0609 -31.2324 2.2837 0.8636
20.0982 -30.8662 2.2989 0.8628
20.7374 -30.8524 2.3202 0.8616
21.3887 -30.8383 2.3424 0.8604
22.7300 -30.8093 2.3896 0.8577
23.4215 -30.7944 2.4148 0.8564
25.5883 -30.7476 2.4967 0.8519
26.3442 -30.7312 2.5264 0.8503
27.9120 -30.6974 2.5895 0.8468
11.5069 -12.2895 1.0508 0.9348
31.3028 -30.6241 2.7332 0.8390
33.5107 -30.9202 2.8458 0.8330
35.4049 -30.8023 2.9290 0.8285
36.3712 -30.7209 2.9715 0.8263
4.0536 -3.0366 0.3161 0.9799
43.1102 -30.3690 3.2913 0.8095
44.4347 -30.3404 3.3582 0.8060
45.8145 -30.3105 3.4286 0.8024
51.9761 -30.1774 3.7512 0.7859
57.4305 -30.0596 4.0458 0.7712
26.3939 -13.3271 1.8454 0.8883
7.7500 -3.7722 0.5380 0.9660
26.2862 -12.3225 1.8119 0.8902
7.7768 -3.5079 0.5325 0.9664
7.6222 -3.3050 0.5185 0.9673
7.5681 -3.1510 0.5117 0.9677
7.8466 -3.0011 0.5243 0.9669
7.5033 -2.7448 0.4987 0.9685
7.9126 -2.5072 0.5181 0.9673
41.4938 -11.8253 2.6929 0.8412
42.4140 -11.4202 2.7415 0.8386
62.8266 -12.0800 3.9931 0.7738
68.1269 -12.0697 4.3183 0.7578
35.5706 -3.1266 2.2287 0.8667
35.8887 -2.6268 2.2459 0.8657
36.5219 -1.6020 2.2817 0.8637
87.5525 -2.5595 5.4668 0.7040
65.5001 9.6396 4.1322 0.7669
44.1825 8.4951 2.8081 0.8350
36.4462 8.1187 2.3305 0.8610
36.3845 8.6649 2.3344 0.8608
35.9880 9.1281 2.3173 0.8617
32.0647 8.6336 2.0726 0.8754
26.1819 8.2961 1.7142 0.8958
25.7168 8.9836 1.7002 0.8966
22.1872 8.1163 1.4745 0.9097
16.0483 9.9558 1.1787 0.9271
3.3000 3.7375 0.3112 0.9802
3.2131 3.7481 0.3081 0.9804
3.1279 3.7585 0.3052 0.9806
2.8819 3.7890 0.2971 0.9811
2.8028 3.7989 0.2946 0.9813
2.5731 3.8281 0.2879 0.9817
2.4989 3.8376 0.2858 0.9818
2.4258 3.8471 0.2839 0.9819
2.3537 3.8565 0.2820 0.9821
2.3312 4.0834 0.2935 0.9813
2.5283 4.9173 0.3451 0.9781
-2.7198 9.2856 0.6039 0.9620
-2.8625 9.2686 0.6054 0.9619
-1.9438 5.4366 0.3604 0.9771
-1.9644 5.2509 0.3499 0.9778
-2.0039 4.9141 0.3312 0.9790
-2.0396 4.6114 0.3147 0.9800
-2.0564 4.4716 0.3072 0.9805
-2.0744 4.3425 0.3004 0.9809
-2.0917 4.2190 0.2939 0.9813
-2.1302 3.9986 0.2828 0.9820
-2.1507 3.8987 0.2779 0.9823
-2.1705 3.8021 0.2733 0.9826
-2.1897 3.7089 0.2688 0.9829
-2.2270 3.5321 0.2606 0.9834
-2.2484 3.4532 0.2572 0.9836
-2.3958 3.4543 0.2624 0.9833
-2.4793 3.4655 0.2659 0.9831
-2.5651 3.4770 0.2697 0.9828
-2.7444 3.5010 0.2776 0.9823
-3.3203 3.6518 0.3080 0.9804
-1.4446 0.8108 0.1034 0.9934
-1.4418 0.7817 0.1024 0.9934
-1.1337 0.5315 0.0781 0.9950
-1.1314 0.5104 0.0775 0.9950
-1.1290 0.4895 0.0768 0.9951
-1.1201 0.4098 0.0744 0.9952
-1.1161 0.3717 0.0734 0.9953
-1.1147 0.3532 0.0730 0.9953
-1.1135 0.3350 0.0726 0.9954
-1.1123 0.3170 0.0722 0.9954
-1.1112 0.2992 0.0718 0.9954
-1.1102 0.2816 0.0715 0.9954
-1.1083 0.2469 0.0709 0.9955
-1.1074 0.2298 0.0706 0.9955
-1.0725 0.1101 0.0673 0.9957
-1.0598 0.0775 0.0663 0.9958
-1.0479 0.0460 0.0655 0.9958
-1.0421 0.0305 0.0651 0.9958
-1.0375 0.0152 0.0648 0.9959
-0.9685 0.0000 0.0497 0.9961
-0.9762 -0.0286 0.0501 0.9961
-0.9897 -0.0724 0.0509 0.9960
-0.9951 -0.0875 0.0512 0.9960
-1.0121 -0.1339 0.0524 0.9959
-1.0180 -0.1498 0.0528 0.9959
-1.0407 -0.2318 0.0547 0.9957
-1.0456 -0.2652 0.0553 0.9957
-1.0510 -0.2995 0.0561 0.9956
-1.0539 -0.3171 0.0565 0.9956
-1.0750 -0.4111 0.0590 0.9954
-1.0767 -0.4300 0.0595 0.9954
-1.0785 -0.4490 0.0599 0.9953
-1.0804 -0.4685 0.0604 0.9953
-1.0845 -0.5084 0.0614 0.9952
-1.0867 -0.5289 0.0620 0.9952
-1.4204 -0.7434 0.0822 0.9936
-1.4187 -0.7691 0.0828 0.9936
-1.4171 -0.7953 0.0834 0.9935
-1.4185 -0.8515 0.0849 0.9934
-1.4486 -0.8986 0.0874 0.9932
-3.5756 -2.5189 0.2244 0.9826
-3.4998 -2.5427 0.2219 0.9828
-3.4255 -2.5661 0.2196 0.9830
-3.3527 -2.5889 0.2173 0.9832
-3.2115 -2.6331 0.2130 0.9835
-3.0753 -2.6756 0.2091 0.9838
-2.9130 -2.6878 0.2033 0.9843
-2.8857 -2.8232 0.2071 0.9840
-2.8717 -2.8927 0.2091 0.9838
-2.7121 -2.9828 0.2068 0.9840
-2.4913 -3.0842 0.2034 0.9842
-2.3929 -3.2435 0.2068 0.9840
-2.2915 -3.3039 0.2063 0.9840
-4.3491 -12.1636 0.6626 0.9496
-2.8484 -9.2230 0.4952 0.9621
-2.7007 -9.2204 0.4928 0.9622
-2.5080 -9.5934 0.5086 0.9611
-7.8164 -31.7892 1.6792 0.8771
-7.2488 -31.4564 1.6559 0.8787
-3.4089 -35.7834 1.8439 0.8659
-2.8811 -35.7727 1.8410 0.8661
-1.8300 -35.7514 1.8363 0.8664
-1.3062 -35.7407 1.8346 0.8665
-0.7833 -35.7294 1.8332 0.8666
-0.2610 -35.7182 1.8323 0.8667
0.7825 -35.6956 1.8315 0.8668
1.3042 -35.6843 1.8317 0.8667
2.8713 -35.6504 1.8347 0.8665
3.3951 -35.6385 1.8364 0.8664
1.1291 -9.0434 0.4675 0.9642
1.2630 -9.0395 0.4682 0.9641
1.3973 -9.0357 0.4690 0.9640
0.6340 -3.1720 0.1659 0.9871
0.6616 -3.0754 0.1614 0.9875
2.0803 -9.0275 0.4752 0.9636
7.6550 -31.1329 1.6446 0.8795
8.1367 -31.1232 1.6502 0.8791
10.0992 -31.0822 1.6765 0.8773
10.6001 -31.0714 1.6841 0.8768
1.3178 -3.2314 0.1790 0.9861
1.3221 -3.1111 0.1734 0.9866
1.3261 -2.9981 0.1682 0.9870
1.3335 -2.7914 0.1587 0.9877
16.6667 -31.2841 1.8183 0.8676
17.8448 -31.2587 1.8464 0.8657
19.0608 -31.2324 1.8769 0.8637
19.6844 -31.2189 1.8932 0.8626
20.0982 -30.8662 1.8894 0.8628
20.7374 -30.8524 1.9069 0.8617
22.0526 -30.8240 1.9442 0.8592
23.4215 -30.7944 1.9846 0.8564
24.1278 -30.7791 2.0062 0.8550
24.8498 -30.7635 2.0286 0.8535
27.1184 -30.7145 2.1018 0.8487
30.4201 -30.6432 2.2149 0.8412
32.5649 -30.9407 2.3042 0.8353
35.4913 -30.8774 2.4131 0.8283
4.0521 -3.0354 0.2597 0.9799
41.8372 -30.3965 2.6527 0.8129
43.1102 -30.3690 2.7050 0.8096
44.4347 -30.3404 2.7600 0.8061
45.8145 -30.3106 2.8179 0.8025
50.3292 -30.2130 3.0112 0.7905
21.2580 -12.3424 1.2609 0.9062
53.7039 -30.1401 3.1590 0.7814
55.5195 -30.1009 3.2396 0.7765
7.5613 -3.5446 0.4284 0.9671
7.5993 -3.4279 0.4276 0.9672
7.5457 -2.7603 0.4122 0.9683
7.7590 -2.7104 0.4216 0.9676
7.9032 -2.5042 0.4253 0.9673
42.1822 -12.6907 2.2596 0.8383
41.7837 -11.9079 2.2287 0.8403
46.9477 -12.6409 2.4940 0.8231
53.3769 -11.8902 2.8052 0.8033
67.5512 -11.9677 3.5191 0.7597
35.4912 -4.1678 1.8331 0.8666
35.4715 -3.6409 1.8291 0.8669
36.1496 -2.1153 1.8575 0.8650
87.1225 -3.8216 4.4734 0.7052
87.4660 -2.5569 4.4886 0.7044
65.5342 8.6682 3.3910 0.7674
49.3866 8.0071 2.5664 0.8184
44.6444 8.5840 2.3321 0.8335
36.3982 8.1080 1.9129 0.8613
35.8065 10.2045 1.9099 0.8615
31.2510 9.4020 1.6740 0.8775
30.4520 9.6490 1.6386 0.8799
25.9012 9.4749 1.4147 0.8954
7.7858 4.2212 0.4543 0.9651
6.9502 4.1722 0.4158 0.9681
6.7794 4.3441 0.4130 0.9683
6.7976 4.4972 0.4181 0.9679
6.8235 4.6591 0.4238 0.9674
6.9104 5.1766 0.4429 0.9660
6.9444 5.3623 0.4501 0.9655
6.9796 5.5541 0.4576 0.9649
3.0896 3.7124 0.2477 0.9808
2.9267 3.7334 0.2433 0.9812
2.8475 3.7437 0.2413 0.9813
2.7696 3.7539 0.2393 0.9815
2.6930 3.7640 0.2374 0.9816
2.3981 3.8031 0.2306 0.9822
2.2829 3.9988 0.2362 0.9817
2.3217 4.2084 0.2465 0.9809
2.3687 4.4459 0.2584 0.9800
2.4392 4.7441 0.2736 0.9789
2.5186 5.0798 0.2908 0.9775
2.6089 5.4608 0.3104 0.9761
-2.7205 9.2880 0.4965 0.9620
-1.9434 5.1950 0.2845 0.9780
-1.9630 5.0223 0.2766 0.9786
-1.9824 4.8613 0.2693 0.9792
-2.0010 4.7090 0.2625 0.9797
-2.1321 3.8651 0.2264 0.9825
-2.1521 3.7700 0.2227 0.9828
-2.1715 3.6780 0.2191 0.9830
-2.2153 3.5136 0.2131 0.9835
-2.3825 3.4352 0.2144 0.9834
-2.4639 3.4441 0.2172 0.9832
-2.6365 3.4666 0.2234 0.9827
-2.7266 3.4784 0.2267 0.9825
-2.8195 3.4906 0.2302 0.9822
-2.9225 3.5119 0.2344 0.9819
-3.0296 3.5343 0.2388 0.9815
-5.6718 4.9345 0.3856 0.9703
-5.6910 4.8070 0.3821 0.9706
-5.7100 4.6818 0.3788 0.9709
-5.8017 4.0871 0.3640 0.9720
-5.8205 3.9743 0.3615 0.9722
-5.8575 3.7534 0.3569 0.9725
-1.4171 0.7954 0.0834 0.9935
-1.4186 0.7691 0.0828 0.9936
-1.1839 0.5978 0.0680 0.9947
-1.0845 0.5084 0.0614 0.9952
-1.0804 0.4685 0.0604 0.9953
-1.0767 0.4300 0.0595 0.9954
-1.0750 0.4112 0.0590 0.9954
-1.0733 0.3927 0.0586 0.9954
-1.0621 0.3537 0.0574 0.9955
-1.0569 0.3349 0.0569 0.9956
-1.0539 0.3171 0.0565 0.9956
-1.0510 0.2996 0.0561 0.9956
-1.0483 0.2823 0.0557 0.9957
-1.0242 0.1661 0.0532 0.9959
-1.0180 0.1498 0.0528 0.9959
-1.0063 0.1182 0.0520 0.9960
-1.0006 0.1027 0.0516 0.9960
-0.9845 0.0576 0.0506 0.9961
-0.9803 0.0430 0.0503 0.9961
-0.9762 0.0286 0.0501 0.9961
-0.9723 0.0142 0.0499 0.9961
-0.9184 -0.0269 0.0369 0.9963
-0.9219 -0.0404 0.0371 0.9963
-0.9255 -0.0541 0.0373 0.9963
-0.9292 -0.0680 0.0374 0.9963
-0.9331 -0.0820 0.0376 0.9963
-0.9528 -0.1402 0.0387 0.9962
-0.9580 -0.1553 0.0390 0.9961
-0.9634 -0.1707 0.0393 0.9961
-0.9728 -0.2018 0.0399 0.9960
-0.9747 -0.2171 0.0401 0.9960
-0.9766 -0.2326 0.0404 0.9960
-0.9786 -0.2482 0.0406 0.9960
-0.9828 -0.2801 0.0411 0.9959
-0.9938 -0.3309 0.0421 0.9958
-1.0091 -0.3691 0.0432 0.9957
-1.0216 -0.4079 0.0442 0.9956
-1.0229 -0.4259 0.0445 0.9956
-1.0243 -0.4441 0.0449 0.9955
-1.0257 -0.4627 0.0452 0.9955
-1.0272 -0.4815 0.0456 0.9955
-1.0322 -0.5403 0.0468 0.9953
-1.2465 -0.6758 0.0570 0.9943
-1.4130 -0.7930 0.0651 0.9935
-1.4222 -0.8823 0.0673 0.9933
-3.6172 -2.5482 0.1778 0.9824
-3.5400 -2.5720 0.1759 0.9826
-3.4645 -2.5953 0.1740 0.9828
-3.3905 -2.6181 0.1722 0.9830
-3.3180 -2.6404 0.1704 0.9832
-3.1037 -2.7003 0.1653 0.9837
-3.0176 -2.7037 0.1628 0.9839
-2.7732 -2.7130 0.1559 0.9846
-2.7479 -2.8502 0.1591 0.9843
-2.7290 -3.0014 0.1630 0.9839
-2.6409 -2.9912 0.1604 0.9842
-2.5556 -2.9813 0.1578 0.9844
-2.5143 -3.0213 0.1580 0.9844
-2.1814 -3.1453 0.1538 0.9848
-3.4388 -9.1918 0.3944 0.9615
-2.6847 -9.1660 0.3839 0.9625
-2.5393 -9.1637 0.3822 0.9626
-2.2534 -9.1647 0.3793 0.9629
-2.1135 -9.1715 0.3783 0.9630
-1.9742 -9.1782 0.3773 0.9631
-5.8042 -31.4234 1.2843 0.8799
-5.3289 -31.4131 1.2806 0.8802
-4.3860 -31.3928 1.2740 0.8808
-3.9179 -31.3827 1.2711 0.8811
-3.7462 -34.0473 1.3767 0.8719
-3.4090 -35.7839 1.4447 0.8660
-2.8812 -35.7732 1.4424 0.8662
-2.3549 -35.7625 1.4405 0.8663
-1.3062 -35.7407 1.4374 0.8666
-0.2610 -35.7181 1.4356 0.8668
1.3042 -35.6843 1.4352 0.8668
1.8260 -35.6730 1.4356 0.8668
2.3483 -35.6617 1.4364 0.8667
0.9903 -8.9995 0.3639 0.9644
1.5240 -8.9837 0.3662 0.9642
2.4913 -8.9904 0.3750 0.9633
10.0993 -31.0822 1.3135 0.8774
11.1056 -31.0605 1.3258 0.8763
1.3099 -3.2119 0.1394 0.9862
1.3144 -3.0930 0.1351 0.9866
1.3186 -2.9812 0.1310 0.9870
15.5229 -31.3089 1.4045 0.8694
17.8448 -31.2587 1.4467 0.8658
19.0609 -31.2324 1.4706 0.8637
19.6844 -31.2190 1.4833 0.8627
21.3886 -30.8383 1.5084 0.8605
2.7504 -3.7280 0.1862 0.9816
23.4215 -30.7944 1.5550 0.8565
24.8498 -30.7635 1.5894 0.8536
27.9120 -30.6973 1.6676 0.8470
11.5291 -12.3132 0.6780 0.9347
32.5649 -30.9407 1.8054 0.8354
10.7623 -9.9303 0.5886 0.9431
10.7109 -9.5970 0.5780 0.9441
10.6823 -9.2936 0.5691 0.9449
3.9365 -3.0397 0.1999 0.9803
4.0505 -3.0343 0.2034 0.9799
11.9728 -8.6987 0.5948 0.9425
12.3541 -8.7028 0.6074 0.9413
44.4347 -30.3404 2.1625 0.8062
45.8145 -30.3106 2.2079 0.8026
50.8820 -30.5449 2.3852 0.7885
7.6305 -4.4303 0.3546 0.9653
7.7761 -4.3642 0.3584 0.9649
7.9250 -4.2967 0.3623 0.9646
7.8830 -4.1260 0.3576 0.9650
7.9268 -4.0025 0.3569 0.9651
7.0611 -3.4368 0.3156 0.9691
7.3072 -3.4255 0.3244 0.9682
7.6195 -3.1724 0.3317 0.9675
7.8040 -3.1162 0.3377 0.9669
7.4214 -2.5925 0.3160 0.9690
7.9579 -2.6501 0.3371 0.9670
7.8938 -2.5012 0.3328 0.9674
47.2735 -12.7286 1.9677 0.8220
47.6002 -12.0735 1.9737 0.8215
52.7427 -12.5606 2.1791 0.8049
52.9702 -11.7996 2.1812 0.8047
53.8594 -11.1743 2.2108 0.8024
57.1871 -10.9957 2.3406 0.7921
68.3177 -11.0764 2.7817 0.7580
35.8919 -4.2148 1.4525 0.8653
35.5784 -3.6519 1.4375 0.8666
35.5511 -2.6020 1.4327 0.8670
87.4674 -3.8367 3.5189 0.7043
87.2979 -2.5520 3.5102 0.7050
64.9941 8.5968 2.6350 0.7692
54.6748 8.0464 2.2212 0.8015
45.9437 8.8337 1.8804 0.8292
44.8569 9.3065 1.8413 0.8324
10.8536 3.9704 0.4645 0.9548
10.5207 4.0238 0.4527 0.9559
10.4839 4.1864 0.4537 0.9558
10.5071 4.3746 0.4574 0.9555
10.5543 4.7608 0.4654 0.9547
10.5895 4.9641 0.4701 0.9543
7.5150 3.7945 0.3384 0.9669
7.2451 3.7921 0.3287 0.9678
6.8123 3.8232 0.3140 0.9692
6.6917 3.8852 0.3110 0.9695
6.7046 4.0248 0.3143 0.9692
6.7458 4.4630 0.3251 0.9681
6.7966 4.7878 0.3341 0.9673
6.9596 5.7062 0.3617 0.9646
3.3916 3.6221 0.1994 0.9803
2.8139 3.6995 0.1868 0.9816
2.7372 3.7099 0.1853 0.9817
2.6617 3.7202 0.1838 0.9819
2.5874 3.7304 0.1825 0.9820
2.5142 3.7405 0.1811 0.9821
2.3009 3.7699 0.1775 0.9825
2.2450 3.9324 0.1820 0.9820
2.6095 5.6738 0.2510 0.9753
-2.7212 9.2903 0.3891 0.9620
-1.8798 5.5105 0.2340 0.9770
-1.9022 5.3203 0.2271 0.9776
-1.9232 5.1410 0.2206 0.9783
-1.9620 4.8113 0.2088 0.9794
-1.9803 4.6602 0.2035 0.9799
-1.9984 4.5182 0.1986 0.9804
-2.0508 4.1364 0.1856 0.9817
-2.0718 4.0297 0.1821 0.9820
-2.0933 3.9293 0.1789 0.9823
-2.1140 3.8322 0.1759 0.9826
-2.1357 3.7412 0.1731 0.9829
-2.1590 3.6569 0.1707 0.9831
-2.1817 3.5750 0.1683 0.9834
-2.2037 3.4952 0.1661 0.9836
-2.2252 3.4176 0.1639 0.9838
-2.2935 3.4123 0.1652 0.9837
-2.3712 3.4189 0.1672 0.9835
-2.4508 3.4257 0.1693 0.9833
-2.5331 3.4337 0.1715 0.9831
-2.7092 3.4561 0.1765 0.9826
-2.9015 3.4866 0.1823 0.9820
-3.1175 3.5309 0.1893 0.9813
-3.3593 3.5879 0.1975 0.9805
-5.5954 5.1629 0.3060 0.9700
-5.6123 5.0287 0.3029 0.9703
-5.6513 4.7734 0.2973 0.9708
-5.6704 4.6493 0.2947 0.9711
-5.6893 4.5274 0.2922 0.9713
-5.7079 4.4075 0.2898 0.9715
-5.7262 4.2896 0.2876 0.9718
-5.7984 3.8362 0.2794 0.9726
-1.4130 0.7930 0.0651 0.9935
-1.2466 0.6759 0.0570 0.9943
-1.0322 0.5403 0.0468 0.9953
-1.0288 0.5008 0.0460 0.9954
-1.0272 0.4816 0.0456 0.9955
-1.0257 0.4627 0.0452 0.9955
-1.0243 0.4441 0.0449 0.9955
-1.0229 0.4259 0.0445 0.9956
-1.0158 0.3886 0.0437 0.9957
-1.0091 0.3691 0.0432 0.9957
-1.0015 0.3499 0.0426 0.9958
-0.9874 0.3129 0.0416 0.9959
-0.9851 0.2964 0.0413 0.9959
-0.9786 0.2482 0.0406 0.9960
-0.9766 0.2326 0.0404 0.9960
-0.9747 0.2171 0.0401 0.9960
-0.9728 0.2018 0.0399 0.9960
-0.9689 0.1863 0.0397 0.9961
-0.9634 0.1707 0.0393 0.9961
-0.9580 0.1554 0.0390 0.9961
-0.9528 0.1403 0.0387 0.9962
-0.9427 0.1107 0.0382 0.9962
-0.9378 0.0963 0.0379 0.9962
-0.9331 0.0821 0.0376 0.9963
-0.9292 0.0680 0.0374 0.9963
-0.9255 0.0542 0.0373 0.9963
-0.9184 0.0268 0.0369 0.9963
-0.8639 -0.0126 0.0251 0.9965
-0.8701 -0.0382 0.0253 0.9965
-0.8910 -0.1179 0.0262 0.9964
-0.8954 -0.1318 0.0263 0.9964
-0.8999 -0.1459 0.0265 0.9964
-0.9045 -0.1602 0.0267 0.9963
-0.9140 -0.1896 0.0272 0.9963
-0.9197 -0.2333 0.0276 0.9962
-0.9213 -0.2480 0.0278 0.9962
-0.9230 -0.2630 0.0279 0.9962
-0.9275 -0.2939 0.0283 0.9961
-0.9403 -0.3285 0.0290 0.9960
-0.9470 -0.3464 0.0293 0.9960
-0.9539 -0.3648 0.0297 0.9959
-0.9597 -0.3832 0.0301 0.9959
-0.9748 -0.4397 0.0311 0.9957
-0.9758 -0.4574 0.0314 0.9957
-0.9780 -0.4938 0.0319 0.9956
-0.9792 -0.5125 0.0322 0.9956
-0.9804 -0.5315 0.0324 0.9955
-1.1001 -0.6174 0.0367 0.9950
-1.4151 -0.8495 0.0480 0.9934
-4.3663 -2.8887 0.1523 0.9793
-3.7401 -2.5538 0.1318 0.9820
-3.6597 -2.5782 0.1303 0.9822
-3.5044 -2.6252 0.1274 0.9826
-3.3554 -2.6701 0.1248 0.9830
-3.2831 -2.6919 0.1235 0.9832
-3.2122 -2.7132 0.1223 0.9833
-3.1378 -2.7299 0.1210 0.9835
-2.9923 -2.6811 0.1169 0.9841
-2.8338 -2.8546 0.1170 0.9840
-2.7529 -2.8554 0.1154 0.9843
-2.4926 -2.6621 0.1061 0.9855
-2.4842 -2.7322 0.1074 0.9853
-2.4755 -2.8038 0.1088 0.9851
-2.3458 -2.9925 0.1106 0.9849
-2.2917 -3.0132 0.1102 0.9850
-2.4254 -3.2875 0.1189 0.9838
-3.7340 -9.1562 0.2877 0.9612
-3.5759 -9.1487 0.2858 0.9615
-3.2659 -9.1342 0.2823 0.9619
-2.9642 -9.1230 0.2791 0.9623
-2.8159 -9.1176 0.2777 0.9625
-2.3812 -9.1083 0.2739 0.9630
-2.1014 -9.1194 0.2723 0.9632
-1.9630 -9.1262 0.2716 0.9633
-1.8253 -9.1330 0.2710 0.9634
-1.6886 -9.1422 0.2705 0.9635
-1.6275 -9.5942 0.2832 0.9618
-4.3860 -31.3932 0.9223 0.8809
-2.3549 -35.7630 1.0428 0.8664
-1.3062 -35.7407 1.0406 0.8667
0.2609 -35.7068 1.0390 0.8668
0.7825 -35.6956 1.0389 0.8669
1.3041 -35.6843 1.0390 0.8668
1.8260 -35.6730 1.0393 0.8668
0.7223 -8.9671 0.2618 0.9646
0.9855 -8.9563 0.2622 0.9646
1.1175 -8.9508 0.2625 0.9645
1.2498 -8.9454 0.2628 0.9645
1.6499 -8.9321 0.2643 0.9643
0.6469 -3.2365 0.0960 0.9869
0.7009 -3.0414 0.0908 0.9876
2.6202 -8.9455 0.2712 0.9634
2.7653 -8.9538 0.2727 0.9632
10.0993 -31.0822 0.9509 0.8774
1.3068 -3.0751 0.0972 0.9867
1.3154 -2.8602 0.0916 0.9875
1.3232 -2.6687 0.0867 0.9882
6.2262 -12.1100 0.3962 0.9470
7.1304 -12.9254 0.4295 0.9426
5.6484 -9.8945 0.3315 0.9554
5.5600 -9.4171 0.3182 0.9572
5.6784 -9.0057 0.3098 0.9583
5.8613 -9.0016 0.3126 0.9579
6.2429 -9.0011 0.3187 0.9571
2.6883 -3.7575 0.1344 0.9817
2.7474 -3.7239 0.1347 0.9817
7.0587 -9.0045 0.3329 0.9552
24.8499 -30.7635 1.1507 0.8536
29.5616 -30.6617 1.2393 0.8433
30.4201 -30.6431 1.2564 0.8413
31.3028 -30.6241 1.2742 0.8393
10.2868 -9.4915 0.4073 0.9455
10.2650 -9.1975 0.4010 0.9463
10.9034 -8.6765 0.4055 0.9458
4.0489 -3.0331 0.1472 0.9800
4.0103 -2.9137 0.1442 0.9804
12.3104 -8.6720 0.4382 0.9415
47.2537 -30.2795 1.6330 0.7988
49.2925 -30.5792 1.6878 0.7928
7.6298 -4.4299 0.2567 0.9653
7.7114 -4.3279 0.2573 0.9652
7.8240 -4.2419 0.2590 0.9650
6.6055 -3.4573 0.2169 0.9706
7.0333 -3.4233 0.2276 0.9692
7.5361 -3.3993 0.2406 0.9675
7.6319 -2.7918 0.2365 0.9680
7.9483 -2.6469 0.2438 0.9670
7.8844 -2.4982 0.2407 0.9674
7.8221 -2.3533 0.2377 0.9678
7.9448 -2.2642 0.2404 0.9675
8.0641 -2.1713 0.2430 0.9671
47.9720 -12.1678 1.4400 0.8203
52.7116 -12.5532 1.5766 0.8051
16.3789 -3.3982 0.4867 0.9353
83.4483 -11.0379 2.4492 0.7140
35.2962 -3.6229 1.0324 0.8676
35.9218 -2.6291 1.0480 0.8658
41.4290 -2.4242 1.2075 0.8470
87.0671 -3.8191 2.5358 0.7056
79.3497 8.1446 2.3210 0.7267
71.6942 8.4192 2.1004 0.7491
60.2774 8.8710 1.7728 0.7836
60.0008 9.7280 1.7686 0.7841
54.1627 9.5957 1.6005 0.8024
11.0889 3.8737 0.3418 0.9541
10.7174 3.9205 0.3321 0.9554
10.3258 4.1232 0.3235 0.9565
10.3986 4.6905 0.3319 0.9554
7.6730 3.5970 0.2466 0.9667
7.4408 3.6216 0.2408 0.9674
7.0302 3.6796 0.2309 0.9687
6.6794 3.7486 0.2229 0.9698
6.6521 3.8621 0.2238 0.9697
6.6708 4.1383 0.2284 0.9691
6.6968 4.4305 0.2336 0.9684
6.7191 4.5878 0.2367 0.9680
6.7443 4.7510 0.2400 0.9675
6.7741 4.9217 0.2436 0.9670
6.8370 5.2793 0.2513 0.9660
6.9082 5.6641 0.2599 0.9649
6.9457 5.8667 0.2645 0.9643
3.4372 3.5650 0.1441 0.9804
3.2635 3.5891 0.1411 0.9808
3.1793 3.6008 0.1398 0.9810
2.9361 3.6347 0.1359 0.9815
2.7811 3.6564 0.1337 0.9818
2.5580 3.6880 0.1306 0.9822
2.4858 3.6982 0.1297 0.9823
2.4147 3.7083 0.1288 0.9824
2.3446 3.7183 0.1279 0.9826
2.2754 3.7282 0.1271 0.9827
2.2214 3.7624 0.1271 0.9827
2.2167 3.8829 0.1301 0.9823
2.2256 4.0342 0.1341 0.9817
2.2620 4.2455 0.1400 0.9809
2.3017 4.4765 0.1465 0.9801
2.4984 5.4322 0.1740 0.9764
-2.7182 9.2803 0.2814 0.9620
-1.8096 5.8596 0.1784 0.9758
-1.8821 5.2640 0.1627 0.9779
-1.9035 5.0882 0.1581 0.9785
-1.9612 4.6152 0.1459 0.9801
-1.9785 4.4733 0.1423 0.9806
-2.0128 4.2136 0.1359 0.9815
-2.0537 3.9946 0.1307 0.9822
-2.1242 3.7210 0.1247 0.9830
-2.1475 3.6373 0.1229 0.9832
-2.1702 3.5561 0.1212 0.9835
-2.1923 3.4770 0.1196 0.9837
-2.2138 3.4000 0.1181 0.9839
-2.2829 3.3964 0.1191 0.9838
-2.3601 3.4029 0.1205 0.9836
-2.4392 3.4095 0.1220 0.9834
-2.5203 3.4162 0.1235 0.9832
-3.0954 3.5060 0.1361 0.9815
-3.2137 3.5345 0.1390 0.9811
-3.3372 3.5643 0.1421 0.9807
-5.5268 5.4070 0.2250 0.9695
-5.5365 5.2604 0.2222 0.9699
-5.5540 5.1247 0.2199 0.9702
-5.6315 4.6173 0.2119 0.9713
-5.6505 4.4965 0.2101 0.9715
-5.6878 4.2608 0.2068 0.9720
-5.7240 4.0323 0.2037 0.9724
-5.7417 3.9205 0.2023 0.9726
-1.4230 0.8828 0.0487 0.9933
-1.4151 0.8495 0.0480 0.9934
-1.4147 0.8214 0.0476 0.9935
-0.9791 0.5125 0.0322 0.9956
-0.9780 0.4939 0.0319 0.9956
-0.9769 0.4755 0.0316 0.9957
-0.9718 0.4214 0.0308 0.9958
-0.9539 0.3648 0.0297 0.9959
-0.9470 0.3464 0.0293 0.9960
-0.9338 0.3110 0.0286 0.9961
-0.9275 0.2939 0.0283 0.9961
-0.9181 0.2186 0.0275 0.9962
-0.9166 0.2042 0.0273 0.9962
-0.9092 0.1748 0.0269 0.9963
-0.9045 0.1602 0.0267 0.9963
-0.8999 0.1459 0.0265 0.9964
-0.8954 0.1318 0.0263 0.9964
-0.8867 0.1041 0.0260 0.9964
-0.8832 0.0907 0.0258 0.9965
-0.8766 0.0641 0.0256 0.9965
-0.8733 0.0511 0.0255 0.9965
-0.8670 0.0254 0.0252 0.9965
-0.8639 0.0127 0.0251 0.9965
-0.8184 -0.0120 0.0147 0.9967
-0.8267 -0.0484 0.0149 0.9967
-0.8296 -0.0607 0.0150 0.9967
-0.8414 -0.1113 0.0153 0.9966
-0.8446 -0.1243 0.0154 0.9966
-0.8525 -0.1510 0.0156 0.9965
-0.8663 -0.2063 0.0160 0.9964
-0.8687 -0.2339 0.0162 0.9964
-0.8862 -0.3096 0.0169 0.9963
-0.9036 -0.3608 0.0175 0.9961
-0.9090 -0.3785 0.0177 0.9961
-0.9141 -0.3964 0.0179 0.9960
-0.9313 -0.4875 0.0189 0.9958
-0.9328 -0.5236 0.0193 0.9957
-1.1483 -0.6893 0.0241 0.9947
-4.2444 -2.8081 0.0917 0.9798
-3.7033 -2.6088 0.0816 0.9820
-3.6233 -2.6325 0.0807 0.9822
-3.3936 -2.7005 0.0781 0.9828
-2.8114 -2.6712 0.0698 0.9846
-2.8072 -2.7463 0.0707 0.9844
-2.5483 -2.9727 0.0705 0.9845
-2.4960 -2.9992 0.0703 0.9845
-2.4209 -2.9971 0.0694 0.9847
-2.3901 -3.3407 0.0740 0.9837
-2.3383 -3.3714 0.0739 0.9837
-2.2867 -3.4022 0.0738 0.9837
-2.2908 -3.6333 0.0774 0.9830
-4.2302 -9.1982 0.1823 0.9603
-3.5573 -9.1012 0.1760 0.9617
-3.4023 -9.0942 0.1749 0.9619
-2.9482 -9.0738 0.1718 0.9625
-2.8003 -9.0673 0.1709 0.9627
-2.6544 -9.0623 0.1701 0.9629
-2.5098 -9.0573 0.1693 0.9631
-2.3674 -9.0557 0.1686 0.9632
-2.2279 -9.0610 0.1680 0.9634
-1.6821 -9.1068 0.1668 0.9636
-1.5944 -9.3987 0.1717 0.9626
-4.3861 -31.3936 0.5709 0.8809
-3.9180 -31.3834 0.5696 0.8811
-2.3550 -35.7634 0.6455 0.8664
-1.3062 -35.7407 0.6441 0.8667
-0.7832 -35.7294 0.6436 0.8668
-0.2610 -35.7181 0.6433 0.8668
0.3281 -8.9779 0.1618 0.9647
0.5881 -8.9300 0.1612 0.9648
0.7188 -8.9246 0.1612 0.9648
1.2439 -8.9027 0.1619 0.9647
1.3759 -8.8973 0.1621 0.9646
1.6414 -8.8863 0.1627 0.9645
0.6535 -3.2697 0.0600 0.9867
0.6814 -3.1675 0.0583 0.9871
2.4621 -8.8850 0.1660 0.9638
2.6058 -8.8965 0.1669 0.9636
1.3083 -2.8448 0.0564 0.9876
1.3164 -2.6551 0.0534 0.9882
6.2284 -12.1143 0.2453 0.9470
5.3089 -9.9650 0.2033 0.9558
5.2526 -9.2011 0.1908 0.9585
5.4613 -8.9487 0.1888 0.9589
5.8202 -8.9385 0.1921 0.9582
2.6872 -3.7560 0.0832 0.9817
2.7444 -3.7199 0.0833 0.9817
2.8239 -3.7128 0.0840 0.9815
7.0027 -8.9331 0.2044 0.9556
7.2167 -8.9341 0.2068 0.9551
27.1184 -30.7145 0.7379 0.8488
27.9120 -30.6973 0.7472 0.8471
29.5616 -30.6617 0.7670 0.8433
30.4201 -30.6431 0.7776 0.8414
9.9538 -9.7380 0.2508 0.9458
10.0911 -8.7792 0.2409 0.9479
10.2428 -8.6515 0.2415 0.9478
10.8269 -8.6157 0.2492 0.9461
12.6686 -8.6502 0.2763 0.9405
15.8613 -9.8398 0.3362 0.9280
6.6519 -3.4817 0.1352 0.9704
6.7757 -3.4213 0.1367 0.9701
7.2484 -3.3979 0.1442 0.9685
7.5049 -3.3853 0.1483 0.9676
7.1671 -2.9841 0.1398 0.9694
7.6756 -2.8078 0.1472 0.9678
7.3419 -2.4450 0.1394 0.9695
7.8751 -2.4953 0.1488 0.9675
7.8129 -2.3505 0.1469 0.9679
8.1777 -2.2019 0.1525 0.9667
15.8523 -3.5313 0.2925 0.9371
15.6272 -3.2422 0.2874 0.9381
16.6884 -2.7057 0.3045 0.9346
24.0072 -3.5332 0.4370 0.9075
35.4164 -3.6352 0.6412 0.8672
35.8671 -3.1527 0.6484 0.8658
41.3008 -2.4168 0.7451 0.8475
76.8691 -2.2471 1.3849 0.7352
98.5416 8.6615 1.7815 0.6732
84.6967 9.9460 1.5358 0.7109
60.1506 9.7523 1.0974 0.7837
19.4149 3.7330 0.3561 0.9240
16.0256 3.5698 0.2957 0.9364
15.3401 3.8909 0.2850 0.9386
15.3757 4.1400 0.2868 0.9383
15.4118 4.3922 0.2886 0.9379
11.2614 3.7502 0.2138 0.9536
10.3325 4.6607 0.2041 0.9557
7.6152 3.5698 0.1515 0.9669
7.1660 3.6183 0.1446 0.9684
6.6435 3.7285 0.1372 0.9700
6.6219 3.8446 0.1379 0.9698
6.6259 3.9775 0.1392 0.9696
6.6299 4.1129 0.1405 0.9693
6.6368 4.2528 0.1420 0.9690
6.6681 4.5530 0.1454 0.9682
6.6948 4.7161 0.1475 0.9678
6.7239 4.8852 0.1497 0.9673
6.8940 5.8229 0.1625 0.9645
3.4827 3.5082 0.0890 0.9804
3.3946 3.5209 0.0881 0.9806
3.3084 3.5333 0.0872 0.9808
3.1410 3.5575 0.0855 0.9812
3.0598 3.5692 0.0847 0.9814
2.9017 3.5921 0.0832 0.9817
2.8248 3.6033 0.0825 0.9818
2.7491 3.6144 0.0818 0.9820
2.4581 3.6568 0.0794 0.9825
2.3879 3.6671 0.0788 0.9826
2.2505 3.6874 0.0778 0.9829
2.1944 3.7166 0.0777 0.9829
2.1892 3.8346 0.0795 0.9825
2.1836 3.9581 0.0814 0.9821
2.2508 4.3777 0.0886 0.9805
2.3352 4.8880 0.0976 0.9786
2.4037 5.2264 0.1036 0.9772
2.4876 5.6239 0.1107 0.9757
-1.7612 6.0129 0.1128 0.9752
-1.7889 5.7925 0.1092 0.9760
-1.8149 5.5859 0.1058 0.9768
-1.8842 5.0364 0.0968 0.9787
-1.9047 4.8732 0.0942 0.9793
-1.9242 4.7186 0.0918 0.9798
-1.9604 4.4323 0.0873 0.9808
-2.0886 3.7862 0.0779 0.9828
-2.1127 3.7010 0.0767 0.9831
-2.1361 3.6181 0.0757 0.9833
-2.1588 3.5375 0.0746 0.9836
-2.2025 3.3827 0.0727 0.9840
-2.2723 3.3808 0.0734 0.9838
-2.6757 3.4134 0.0781 0.9828
-2.7653 3.4234 0.0793 0.9825
-2.8604 3.4372 0.0805 0.9823
-2.9640 3.4577 0.0820 0.9819
-3.0760 3.4840 0.0837 0.9816
-5.4773 5.3586 0.1380 0.9698
-5.4955 5.2214 0.1365 0.9701
-5.5535 4.8316 0.1326 0.9710
-5.5734 4.7077 0.1314 0.9712
-5.5930 4.5858 0.1303 0.9715
-5.6123 4.4661 0.1292 0.9717
-5.6312 4.3483 0.1281 0.9719
-5.6499 4.2324 0.1271 0.9722
-5.6683 4.1183 0.1262 0.9724
-5.6864 4.0059 0.1253 0.9726
-5.7220 3.7857 0.1236 0.9729
-0.9313 0.4875 0.0189 0.9958
-0.9299 0.4526 0.0186 0.9959
-0.9194 0.4147 0.0182 0.9960
-0.8977 0.3433 0.0173 0.9962
-0.8919 0.3262 0.0171 0.9962
-0.8862 0.3096 0.0169 0.9963
-0.8807 0.2933 0.0167 0.9963
-0.8713 0.2621 0.0164 0.9964
-0.8688 0.2339 0.0162 0.9964
-0.8675 0.2200 0.0161 0.9964
-0.8663 0.2063 0.0160 0.9964
-0.8606 0.1786 0.0158 0.9965
-0.8565 0.1647 0.0157 0.9965
-0.8525 0.1511 0.0156 0.9965
-0.8485 0.1376 0.0155 0.9966
-0.8354 0.0857 0.0151 0.9966
-0.8296 0.0607 0.0150 0.9967
-0.8267 0.0484 0.0149 0.9967
-0.8239 0.0361 0.0149 0.9967
-0.8184 0.0120 0.0147 0.9967
-0.7750 0.0000 0.0054 0.9969
-0.7799 -0.0228 0.0054 0.9969
-0.7823 -0.0343 0.0054 0.9969
-0.7925 -0.0813 0.0055 0.9968
-0.7952 -0.0934 0.0055 0.9968
-0.8032 -0.1303 0.0056 0.9968
-0.8061 -0.1428 0.0057 0.9967
-0.8096 -0.1557 0.0057 0.9967
-0.8131 -0.1687 0.0058 0.9967
-0.8167 -0.1819 0.0058 0.9967
-0.8380 -0.2927 0.0061 0.9965
-0.8428 -0.3083 0.0062 0.9964
-0.8478 -0.3243 0.0063 0.9964
-0.8672 -0.3912 0.0066 0.9962
-0.8717 -0.4086 0.0067 0.9962
-0.8810 -0.4449 0.0068 0.9961
-0.8883 -0.4816 0.0070 0.9960
-0.8895 -0.5339 0.0072 0.9959
-0.9722 -0.6032 0.0079 0.9954
-3.8312 -2.6159 0.0321 0.9816
-3.7478 -2.6402 0.0318 0.9818
-3.6664 -2.6638 0.0314 0.9820
-3.3579 -2.7532 0.0301 0.9828
-3.1723 -2.6795 0.0288 0.9835
-3.1523 -2.7425 0.0289 0.9834
-3.0614 -2.7431 0.0285 0.9837
-2.9921 -2.7608 0.0282 0.9838
-2.9150 -2.7696 0.0278 0.9840
-2.8397 -2.7782 0.0275 0.9842
-2.7662 -2.7866 0.0272 0.9844
-2.5554 -2.8104 0.0263 0.9849
-2.5830 -3.0132 0.0275 0.9842
-2.4981 -3.0018 0.0270 0.9845
-2.2450 -3.1379 0.0267 0.9847
-2.3544 -3.3946 0.0286 0.9836
-2.2474 -3.8066 0.0306 0.9825
-2.3230 -4.0693 0.0325 0.9814
-3.8534 -9.0679 0.0682 0.9614
-3.5389 -9.0543 0.0673 0.9619
-2.9334 -9.0281 0.0657 0.9627
-2.3538 -9.0036 0.0645 0.9635
-2.2166 -9.0150 0.0643 0.9635
-2.0807 -9.0293 0.0642 0.9636
-1.9453 -9.0435 0.0641 0.9637
-1.6756 -9.0719 0.0639 0.9638
-1.5463 -9.9997 0.0701 0.9603
-4.3861 -31.3940 0.2195 0.8809
-3.9181 -31.3838 0.2191 0.8812
-3.7465 -34.0496 0.2372 0.8719
-2.3550 -35.7634 0.2482 0.8664
-1.8300 -35.7520 0.2479 0.8666
-1.3062 -35.7407 0.2477 0.8667
-0.7832 -35.7294 0.2475 0.8668
-0.2610 -35.7181 0.2474 0.8669
0.0658 -9.0022 0.0624 0.9646
0.3252 -8.8987 0.0617 0.9650
0.4553 -8.8933 0.0617 0.9650
0.8457 -8.8769 0.0618 0.9650
0.9762 -8.8714 0.0618 0.9649
1.1069 -8.8659 0.0619 0.9649
1.2379 -8.8604 0.0620 0.9648
1.3694 -8.8550 0.0621 0.9648
1.6336 -8.8439 0.0623 0.9647
0.6603 -3.3037 0.0233 0.9866
0.6882 -3.1994 0.0227 0.9870
0.7146 -3.1009 0.0220 0.9874
0.7396 -3.0077 0.0215 0.9877
0.9534 -3.0871 0.0224 0.9872
1.0390 -2.9061 0.0214 0.9877
1.2754 -3.4090 0.0252 0.9855
1.2812 -3.2779 0.0244 0.9860
1.2919 -3.0400 0.0229 0.9869
1.2967 -2.9316 0.0222 0.9873
1.3056 -2.7329 0.0210 0.9880
1.3136 -2.5548 0.0199 0.9886
4.9214 -9.2378 0.0725 0.9590
5.2507 -8.8933 0.0715 0.9595
5.4239 -8.8873 0.0721 0.9592
5.5999 -8.8812 0.0727 0.9589
5.7796 -8.8761 0.0734 0.9585
5.9651 -8.8746 0.0741 0.9581
6.1542 -8.8731 0.0748 0.9577
2.6860 -3.7543 0.0320 0.9817
2.7415 -3.7159 0.0320 0.9817
7.1611 -8.8652 0.0789 0.9554
7.5990 -8.8644 0.0809 0.9544
27.1184 -30.7145 0.2838 0.8488
11.4437 -12.2220 0.1160 0.9352
29.5616 -30.6617 0.2950 0.8434
9.6190 -9.4104 0.0932 0.9476
9.6496 -8.9036 0.0909 0.9488
9.9418 -8.6493 0.0913 0.9487
3.9301 -3.0347 0.0344 0.9803
4.0458 -3.0307 0.0350 0.9800
4.0073 -2.9114 0.0343 0.9804
15.4287 -9.5714 0.1258 0.9299
7.6421 -4.4371 0.0612 0.9653
7.6930 -4.3175 0.0611 0.9653
6.6990 -3.5063 0.0524 0.9702
6.9785 -3.3966 0.0538 0.9694
7.2194 -3.3843 0.0552 0.9686
7.4740 -3.3714 0.0568 0.9677
7.6198 -3.3040 0.0575 0.9673
7.1997 -2.7536 0.0534 0.9696
7.1665 -2.6216 0.0529 0.9699
7.1340 -2.4921 0.0523 0.9702
7.8658 -2.4924 0.0571 0.9675
7.7434 -2.2068 0.0558 0.9683
8.4226 -2.1363 0.0602 0.9658
15.5648 -3.2293 0.1101 0.9384
16.2584 -2.6361 0.1141 0.9362
23.5220 -3.1113 0.1643 0.9095
23.7712 -2.7915 0.1658 0.9087
35.5374 -3.6477 0.2474 0.8668
36.1050 -3.1736 0.2510 0.8650
36.1008 -2.6423 0.2507 0.8652
44.6612 -2.6134 0.3099 0.8361
76.4083 4.4710 0.5301 0.7363
47.7362 3.4939 0.3315 0.8258
44.3917 3.9019 0.3086 0.8367
27.5103 3.6388 0.1922 0.8949
24.4953 3.6050 0.1715 0.9057
19.5394 3.4617 0.1374 0.9237
15.7991 3.2779 0.1118 0.9375
15.2044 3.6209 0.1083 0.9394
15.2387 3.8652 0.1089 0.9390
15.2735 4.1125 0.1096 0.9387
15.3087 4.3628 0.1103 0.9383
11.4404 3.6250 0.0831 0.9531
10.3291 3.7785 0.0762 0.9570
10.1194 3.8704 0.0750 0.9576
10.1913 4.2432 0.0765 0.9568
10.2352 4.4380 0.0773 0.9564
7.5594 3.5437 0.0578 0.9672
6.9392 3.6320 0.0542 0.9692
6.6071 4.3712 0.0549 0.9688
6.6191 4.5195 0.0555 0.9684
6.7090 5.0257 0.0581 0.9670
6.7408 5.2051 0.0590 0.9665
6.7737 5.3903 0.0600 0.9660
6.8077 5.5818 0.0610 0.9654
6.8430 5.7799 0.0620 0.9648
6.8795 5.9851 0.0632 0.9642
6.9173 6.1979 0.0643 0.9635
6.9566 6.4187 0.0656 0.9628
3.1852 3.5029 0.0328 0.9812
3.1037 3.5152 0.0325 0.9814
3.0238 3.5272 0.0322 0.9816
2.8682 3.5506 0.0316 0.9819
2.7178 3.5732 0.0311 0.9822
2.5722 3.5952 0.0306 0.9825
2.5011 3.6059 0.0304 0.9826
2.4309 3.6165 0.0302 0.9827
2.3618 3.6269 0.0300 0.9828
2.2935 3.6373 0.0298 0.9829
2.2261 3.6475 0.0296 0.9831
2.1681 3.6720 0.0295 0.9831
2.1622 3.7874 0.0302 0.9827
2.1562 3.9083 0.0309 0.9823
2.2022 4.2831 0.0334 0.9809
2.3908 5.4050 0.0409 0.9766
2.4763 5.8270 0.0439 0.9750
-1.7406 5.9426 0.0429 0.9755
-1.8198 5.3344 0.0390 0.9777
-1.8431 5.1551 0.0379 0.9783
-1.8652 4.9858 0.0369 0.9789
-1.8861 4.8256 0.0359 0.9795
-1.9059 4.6736 0.0350 0.9800
-1.9247 4.5293 0.0341 0.9805
-1.9426 4.3921 0.0333 0.9810
-1.9804 4.1457 0.0318 0.9818
-2.0021 4.0382 0.0312 0.9821
-2.0784 3.7677 0.0298 0.9829
-2.1257 3.6004 0.0290 0.9834
-2.1918 3.3663 0.0278 0.9841
-2.2620 3.3655 0.0281 0.9839
-2.5783 3.3900 0.0295 0.9831
-2.6626 3.3967 0.0299 0.9829
-2.7492 3.4035 0.0303 0.9827
-2.8402 3.4130 0.0308 0.9824
-3.0569 3.4623 0.0320 0.9817
-3.2939 3.5180 0.0334 0.9809
-3.4203 3.5477 0.0341 0.9805
-5.4177 5.4575 0.0533 0.9697
-5.4366 5.3188 0.0527 0.9700
-5.4948 4.9234 0.0511 0.9709
-5.6494 3.9797 0.0479 0.9727
-5.6674 3.8698 0.0475 0.9729
-5.7028 3.6543 0.0469 0.9733
-0.8887 0.4988 0.0071 0.9959
-0.8883 0.4817 0.0070 0.9960
-0.8810 0.4448 0.0068 0.9961
-0.8763 0.4265 0.0068 0.9961
-0.8528 0.3406 0.0064 0.9963
-0.8287 0.2626 0.0060 0.9965
-0.8242 0.2480 0.0060 0.9966
-0.8229 0.2345 0.0059 0.9966
-0.8210 0.2082 0.0059 0.9966
-0.8167 0.1820 0.0058 0.9967
-0.8061 0.1428 0.0057 0.9967
-0.8032 0.1302 0.0056 0.9968
-0.7952 0.0934 0.0055 0.9968
-0.7925 0.0813 0.0055 0.9968
-0.7849 0.0459 0.0054 0.9969
-0.7823 0.0343 0.0054 0.9969
-0.7799 0.0228 0.0054 0.9969
-0.7774 0.0114 0.0054 0.9969
-0.7381 0.0000 -0.0031 0.9971
-0.7493 -0.0548 -0.0031 0.9970
-0.7516 -0.0661 -0.0031 0.9970
-0.7562 -0.0888 -0.0032 0.9970
-0.7585 -0.1003 -0.0032 0.9969
-0.7608 -0.1120 -0.0032 0.9969
-0.7656 -0.1357 -0.0032 0.9969
-0.7680 -0.1477 -0.0032 0.9969
-0.7706 -0.1598 -0.0033 0.9969
-0.7737 -0.1723 -0.0033 0.9968
-0.7948 -0.2777 -0.0035 0.9966
-0.8031 -0.3071 -0.0036 0.9966
-0.8118 -0.3380 -0.0037 0.9965
-0.8163 -0.3539 -0.0037 0.9964
-0.8207 -0.3702 -0.0037 0.9964
-0.8244 -0.3864 -0.0038 0.9964
-0.8282 -0.4031 -0.0038 0.9963
-0.8321 -0.4201 -0.0039 0.9963
-0.8360 -0.4376 -0.0039 0.9962
-0.8401 -0.4555 -0.0040 0.9962
-0.8443 -0.4738 -0.0040 0.9961
-0.8486 -0.5094 -0.0041 0.9960
-0.8486 -0.5264 -0.0041 0.9960
-0.8486 -0.5437 -0.0042 0.9960
-13.5357 -8.9551 -0.0674 0.9371
-3.8784 -2.6482 -0.0195 0.9814
-3.7105 -2.6959 -0.0191 0.9818
-3.4523 -2.6658 -0.0181 0.9827
-3.3610 -2.7557 -0.0181 0.9828
-3.3001 -2.7875 -0.0180 0.9829
-3.1093 -2.7052 -0.0171 0.9836
-3.0972 -2.7751 -0.0173 0.9835
-2.9746 -2.8263 -0.0171 0.9837
-2.9550 -2.8910 -0.0172 0.9836
-2.8177 -2.8383 -0.0166 0.9841
-2.6542 -2.8348 -0.0161 0.9846
-2.5834 -2.9260 -0.0162 0.9845
-2.4502 -3.0334 -0.0162 0.9845
-2.4231 -3.3869 -0.0173 0.9835
-2.3706 -3.4180 -0.0173 0.9835
-2.2660 -3.4801 -0.0173 0.9835
-5.8558 -9.9180 -0.0479 0.9550
-4.7099 -9.1608 -0.0428 0.9596
-4.3238 -9.0509 -0.0417 0.9607
-3.9929 -9.0272 -0.0410 0.9613
-3.5231 -9.0138 -0.0402 0.9620
-3.3709 -9.0105 -0.0400 0.9622
-3.0718 -9.0041 -0.0395 0.9627
-2.4916 -8.9917 -0.0388 0.9634
-2.3499 -8.9887 -0.0386 0.9635
-2.2107 -8.9910 -0.0385 0.9636
-2.0749 -9.0042 -0.0384 0.9637
-1.8051 -9.0319 -0.0383 0.9638
-1.6708 -9.0456 -0.0382 0.9639
-1.5541 -9.1611 -0.0386 0.9635
-3.7466 -34.0504 -0.1423 0.8719
-1.8300 -35.7520 -0.1488 0.8666
-0.0652 -8.9204 -0.0371 0.9649
0.0650 -8.8914 -0.0369 0.9651
0.1946 -8.8746 -0.0369 0.9651
0.3237 -8.8579 -0.0368 0.9652
0.5825 -8.8460 -0.0368 0.9652
0.8417 -8.8352 -0.0369 0.9651
0.9719 -8.8324 -0.0369 0.9651
1.1024 -8.8296 -0.0370 0.9650
1.4964 -8.8211 -0.0372 0.9648
1.6288 -8.8183 -0.0373 0.9648
1.7619 -8.8154 -0.0374 0.9647
0.6613 -3.0740 -0.0131 0.9875
0.7467 -3.0366 -0.0130 0.9876
0.9231 -3.1512 -0.0136 0.9870
1.0114 -2.9646 -0.0130 0.9875
1.0390 -2.9060 -0.0128 0.9877
1.2792 -3.1367 -0.0141 0.9865
1.2845 -3.0227 -0.0136 0.9869
1.2896 -2.9155 -0.0132 0.9873
1.2988 -2.7186 -0.0125 0.9880
1.3071 -2.5422 -0.0119 0.9886
4.7379 -8.8933 -0.0419 0.9605
4.8799 -8.8458 -0.0420 0.9604
5.0463 -8.8396 -0.0423 0.9601
5.3870 -8.8268 -0.0430 0.9595
5.9234 -8.8126 -0.0441 0.9584
6.1108 -8.8105 -0.0446 0.9580
2.8177 -3.7047 -0.0193 0.9816
6.8996 -8.8016 -0.0465 0.9563
7.1078 -8.7993 -0.0470 0.9558
7.3208 -8.7968 -0.0476 0.9553
7.5389 -8.7943 -0.0481 0.9547
7.7626 -8.7920 -0.0487 0.9542
27.9119 -30.6973 -0.1724 0.8471
11.3933 -12.1682 -0.0693 0.9355
9.5322 -9.8869 -0.0571 0.9465
9.4998 -9.2938 -0.0552 0.9482
4.1570 -3.5112 -0.0226 0.9785
10.4257 -8.5482 -0.0560 0.9475
10.7497 -8.5542 -0.0571 0.9465
4.0442 -3.0296 -0.0210 0.9800
14.6647 -9.7020 -0.0731 0.9321
14.6551 -9.3908 -0.0723 0.9327
14.6883 -9.1121 -0.0718 0.9332
7.5010 -4.5029 -0.0364 0.9656
7.4525 -4.3269 -0.0358 0.9661
7.4054 -4.1561 -0.0353 0.9666
6.7468 -3.5313 -0.0316 0.9700
6.8415 -3.4545 -0.0318 0.9698
