ply
format ascii 1.0
element vertex 1594
property float32 x
property float32 y
property float32 z
property float32 I
end_header
2.5101 5.6748 -0.9969 0.9752
2.4268 5.7107 -0.9969 0.9752
2.2587 5.7787 -0.9968 0.9752
1.9170 5.9000 -0.9966 0.9752
1.8305 5.9271 -0.9966 0.9752
1.7437 5.9530 -0.9966 0.9752
1.4810 6.0230 -0.9965 0.9752
1.3042 6.0632 -0.9964 0.9752
1.0371 6.1138 -0.9963 0.9752
0.6781 6.1630 -0.9961 0.9752
0.4074 6.1861 -0.9960 0.9752
0.0453 6.1983 -0.9958 0.9752
-0.1358 6.1965 -0.9958 0.9752
-0.2264 6.1936 -0.9957 0.9752
-0.3014 4.5766 -0.7369 0.9816
-0.3466 4.3032 -0.6936 0.9827
-0.3903 4.0973 -0.6612 0.9835
-0.4914 3.5174 -0.5706 0.9857
-0.5374 3.4753 -0.5650 0.9859
-0.5888 3.4710 -0.5656 0.9858
-0.8001 3.4723 -0.5725 0.9857
-0.8548 3.4764 -0.5752 0.9856
-1.3261 3.5445 -0.6080 0.9848
-1.3900 3.5563 -0.6134 0.9847
-1.4551 3.5682 -0.6191 0.9845
-1.5215 3.5804 -0.6250 0.9844
-1.5890 3.5924 -0.6311 0.9842
-1.6577 3.6045 -0.6374 0.9841
-1.7301 3.6215 -0.6448 0.9839
-1.9614 3.6818 -0.6702 0.9832
-3.0689 5.3757 -0.9945 0.9752
-3.1470 5.3301 -0.9944 0.9752
-3.2244 5.2834 -0.9944 0.9752
-3.3772 5.1866 -0.9943 0.9752
-3.4525 5.1365 -0.9943 0.9752
-0.4267 0.5784 -0.1155 0.9971
-0.4220 0.5383 -0.1099 0.9972
-0.4228 0.5234 -0.1081 0.9973
-0.4235 0.5089 -0.1064 0.9973
-0.4254 0.4679 -0.1016 0.9974
-0.4264 0.4423 -0.0987 0.9975
-0.4299 0.4084 -0.0953 0.9976
-0.4311 0.3977 -0.0942 0.9976
-0.4332 0.3769 -0.0922 0.9977
-0.4366 0.3474 -0.0896 0.9977
-0.4377 0.3380 -0.0888 0.9978
-0.4397 0.3195 -0.0873 0.9978
-0.4406 0.3104 -0.0866 0.9978
-0.4436 0.2752 -0.0839 0.9979
-0.4452 0.2498 -0.0820 0.9979
-0.4456 0.2416 -0.0814 0.9979
-0.4460 0.2334 -0.0809 0.9980
-0.4479 0.1713 -0.0770 0.9981
-0.4480 0.1639 -0.0766 0.9981
-0.4485 0.1493 -0.0759 0.9981
-0.4488 0.1350 -0.0753 0.9981
-0.4489 0.1280 -0.0750 0.9981
-0.4490 0.1209 -0.0747 0.9981
-0.4490 0.1070 -0.0742 0.9981
-0.4488 0.0932 -0.0736 0.9981
-0.4485 0.0795 -0.0732 0.9982
-0.4483 0.0727 -0.0730 0.9982
-0.4481 0.0659 -0.0728 0.9982
-0.4471 0.0459 -0.0722 0.9982
-0.4457 0.0261 -0.0717 0.9982
-0.4447 0.0130 -0.0715 0.9982
-0.4441 0.0065 -0.0714 0.9982
-0.4310 0.0000 -0.0741 0.9983
-0.4321 -0.0126 -0.0744 0.9982
-0.4331 -0.0254 -0.0746 0.9982
-0.4339 -0.0381 -0.0749 0.9982
-0.4346 -0.0511 -0.0753 0.9982
-0.4349 -0.0575 -0.0755 0.9982
-0.4352 -0.0640 -0.0757 0.9982
-0.4358 -0.0971 -0.0768 0.9982
-0.4357 -0.1173 -0.0776 0.9982
-0.4355 -0.1310 -0.0782 0.9982
-0.4350 -0.1449 -0.0789 0.9981
-0.4340 -0.1661 -0.0799 0.9981
-0.4337 -0.1732 -0.0803 0.9981
-0.4333 -0.1804 -0.0808 0.9981
-0.4330 -0.1877 -0.0812 0.9981
-0.4327 -0.1952 -0.0817 0.9981
-0.4317 -0.2180 -0.0832 0.9980
-0.4313 -0.2257 -0.0838 0.9980
-0.4303 -0.2415 -0.0849 0.9980
-0.4284 -0.2658 -0.0867 0.9980
-0.4260 -0.2909 -0.0887 0.9979
-0.4181 -0.3532 -0.0942 0.9978
-0.4167 -0.3625 -0.0950 0.9978
-0.4148 -0.3827 -0.0971 0.9977
-0.4139 -0.4049 -0.0996 0.9977
-0.4091 -0.4916 -0.1100 0.9974
-0.4081 -0.5052 -0.1117 0.9974
-0.4047 -0.5486 -0.1173 0.9972
-0.4236 -0.6107 -0.1279 0.9970
-3.0829 -4.8894 -0.9945 0.9768
-3.0112 -4.9341 -0.9945 0.9768
-2.9389 -4.9777 -0.9945 0.9768
-2.8660 -5.0203 -0.9945 0.9768
-1.5928 -3.0980 -0.5993 0.9860
-1.4607 -3.0577 -0.5830 0.9863
-1.3205 -2.9854 -0.5616 0.9868
-1.2686 -2.9854 -0.5581 0.9869
-2.0263 -5.4162 -0.9949 0.9768
-1.9470 -5.4455 -0.9949 0.9768
-1.8673 -5.4735 -0.9950 0.9768
-1.3812 -5.6172 -0.9952 0.9768
-1.1338 -5.6729 -0.9953 0.9768
-1.0508 -5.6891 -0.9953 0.9768
-0.9676 -5.7040 -0.9954 0.9768
-0.7168 -5.7416 -0.9955 0.9768
-0.6329 -5.7517 -0.9955 0.9768
-0.2958 -5.7797 -0.9957 0.9768
-0.1301 -3.5594 -0.6128 0.9856
-0.0780 -3.5572 -0.6121 0.9857
-0.0260 -3.5550 -0.6116 0.9857
0.0775 -3.5341 -0.6082 0.9858
0.1865 -3.6438 -0.6277 0.9853
0.3587 -3.7650 -0.6507 0.9848
0.4465 -3.5763 -0.6201 0.9855
0.5025 -3.2494 -0.5657 0.9867
1.0518 -5.6943 -0.9963 0.9768
0.8664 -3.7598 -0.6638 0.9845
1.0039 -3.8402 -0.6829 0.9840
1.5467 -5.5816 -0.9965 0.9768
1.6281 -5.5586 -0.9965 0.9768
1.7092 -5.5344 -0.9965 0.9768
2.0299 -5.4259 -0.9967 0.9768
2.1090 -5.3958 -0.9967 0.9768
2.2659 -5.3323 -0.9968 0.9768
2.3437 -5.2987 -0.9968 0.9768
2.6496 -5.1535 -0.9970 0.9768
2.7247 -5.1144 -0.9970 0.9768
3.0192 -4.9471 -0.9971 0.9768
3.1627 -4.8571 -0.9972 0.9767
2.2919 -2.9237 -0.6391 0.9850
2.4429 -3.0242 -0.6688 0.9843
3.7085 -4.4562 -0.9974 0.9767
2.5668 -2.9071 -0.6672 0.9844
3.9628 -4.1103 -0.9823 0.9771
4.0225 -4.0521 -0.9823 0.9771
3.7439 -3.6627 -0.9011 0.9790
3.4790 -3.3054 -0.8256 0.9807
3.5952 -3.2213 -0.8305 0.9806
3.7661 -3.0879 -0.8379 0.9804
3.8220 -3.0414 -0.8404 0.9804
3.9863 -2.8963 -0.8477 0.9802
4.0929 -2.7946 -0.8526 0.9801
4.7054 -3.0151 -0.9615 0.9776
4.8972 -2.9398 -0.9827 0.9771
4.9397 -2.8680 -0.9827 0.9771
5.0216 -2.7225 -0.9828 0.9771
5.0610 -2.6489 -0.9828 0.9771
5.3227 -2.3080 -0.9981 0.9767
5.4190 -2.0726 -0.9982 0.9767
5.4487 -1.9932 -0.9982 0.9767
5.4773 -1.9134 -0.9982 0.9767
5.5048 -1.8332 -0.9982 0.9767
5.6027 -1.5086 -0.9982 0.9767
5.6242 -1.4266 -0.9983 0.9767
5.6445 -1.3442 -0.9983 0.9767
5.6981 -1.0956 -0.9983 0.9767
5.7278 -0.9287 -0.9983 0.9767
5.7525 -0.7609 -0.9983 0.9767
5.7631 -0.6768 -0.9983 0.9767
5.7724 -0.5925 -0.9983 0.9767
5.7928 -0.3390 -0.9983 0.9767
5.7972 -0.2543 -0.9983 0.9767
5.8021 -0.0848 -0.9983 0.9767
5.8028 -0.0000 -0.9983 0.9767
5.8021 0.0848 -0.9983 0.9767
5.8003 0.1696 -0.9983 0.9767
5.7929 0.3389 -0.9983 0.9767
5.7873 0.4236 -0.9983 0.9767
5.7804 0.5081 -0.9983 0.9767
5.7278 0.9286 -0.9983 0.9767
5.6981 1.0956 -0.9983 0.9767
5.6445 1.3442 -0.9983 0.9767
5.5561 1.6716 -0.9982 0.9767
5.5310 1.7526 -0.9982 0.9767
5.5048 1.8332 -0.9982 0.9767
5.4774 1.9134 -0.9982 0.9767
5.4488 1.9932 -0.9982 0.9767
5.3560 2.2300 -0.9981 0.9767
5.2884 2.3854 -0.9981 0.9767
5.2162 2.5388 -0.9981 0.9767
5.1785 2.6148 -0.9981 0.9767
5.1396 2.6901 -0.9981 0.9767
5.0997 2.7649 -0.9980 0.9767
5.0587 2.8391 -0.9980 0.9767
5.0166 2.9126 -0.9980 0.9767
4.9291 3.0578 -0.9980 0.9767
4.8838 3.1295 -0.9979 0.9767
4.7901 3.2707 -0.9979 0.9767
4.7417 3.3402 -0.9979 0.9767
4.3502 3.4617 -0.9565 0.9777
4.4304 3.7421 -0.9977 0.9767
4.3751 3.8064 -0.9977 0.9767
4.0851 4.1150 -0.9976 0.9767
4.0244 4.1742 -0.9976 0.9767
3.1456 3.4596 -0.8045 0.9812
2.8337 3.5081 -0.7759 0.9819
2.7537 3.6205 -0.7826 0.9817
2.7672 3.8677 -0.8182 0.9809
3.0913 4.9027 -0.9972 0.9768
3.0192 4.9472 -0.9971 0.9768
2.9465 4.9906 -0.9971 0.9768
2.8732 5.0330 -0.9971 0.9768
2.6496 5.1536 -0.9970 0.9768
2.4210 5.2642 -0.9969 0.9768
2.2660 5.3323 -0.9968 0.9768
2.1878 5.3646 -0.9968 0.9768
2.1091 5.3959 -0.9967 0.9768
2.0299 5.4259 -0.9967 0.9768
1.7093 5.5345 -0.9966 0.9768
1.6281 5.5586 -0.9965 0.9768
1.5467 5.5816 -0.9965 0.9768
1.3829 5.6241 -0.9964 0.9768
1.3005 5.6435 -0.9964 0.9768
1.1349 5.6786 -0.9963 0.9768
1.0518 5.6944 -0.9963 0.9768
0.8849 5.7223 -0.9962 0.9768
0.6332 5.7549 -0.9961 0.9768
0.4647 5.7706 -0.9960 0.9768
0.3804 5.7765 -0.9960 0.9768
0.2959 5.7813 -0.9959 0.9768
-0.1268 5.7864 -0.9958 0.9768
-0.2114 5.7837 -0.9957 0.9768
-0.2958 5.7797 -0.9957 0.9768
-0.3803 5.7746 -0.9956 0.9768
-0.3462 4.2983 -0.7419 0.9827
-0.3902 4.0965 -0.7080 0.9834
-0.4280 3.8898 -0.6733 0.9842
-0.4577 3.6665 -0.6357 0.9851
-0.5367 3.4709 -0.6043 0.9858
-0.7475 3.4750 -0.6115 0.9857
-0.8565 3.4834 -0.6171 0.9855
-0.9118 3.4877 -0.6202 0.9855
-1.0853 3.5141 -0.6328 0.9852
-1.1447 3.5229 -0.6373 0.9851
-1.2049 3.5319 -0.6420 0.9850
-1.4579 3.5752 -0.6643 0.9845
-1.5245 3.5874 -0.6706 0.9843
-1.5923 3.6000 -0.6772 0.9842
-1.8725 3.7768 -0.7253 0.9830
-1.9487 3.7902 -0.7332 0.9829
-2.7924 5.0619 -0.9946 0.9768
-2.9389 4.9778 -0.9945 0.9768
-3.0112 4.9341 -0.9945 0.9768
-3.1540 4.8437 -0.9944 0.9768
-0.4671 0.6950 -0.1441 0.9966
-0.4034 0.5639 -0.1193 0.9972
-0.4047 0.5486 -0.1173 0.9972
-0.4060 0.5337 -0.1154 0.9973
-0.4081 0.5052 -0.1117 0.9974
-0.4091 0.4915 -0.1100 0.9974
-0.4100 0.4782 -0.1084 0.9974
-0.4108 0.4653 -0.1068 0.9975
-0.4134 0.4164 -0.1010 0.9976
-0.4144 0.3937 -0.0983 0.9977
-0.4148 0.3827 -0.0971 0.9977
-0.4167 0.3625 -0.0950 0.9978
-0.4181 0.3532 -0.0942 0.9978
-0.4219 0.3258 -0.0917 0.9978
-0.4251 0.2995 -0.0895 0.9979
-0.4260 0.2909 -0.0887 0.9979
-0.4284 0.2657 -0.0867 0.9980
-0.4291 0.2576 -0.0861 0.9980
-0.4297 0.2495 -0.0855 0.9980
-0.4303 0.2414 -0.0849 0.9980
-0.4313 0.2257 -0.0838 0.9980
-0.4317 0.2180 -0.0832 0.9980
-0.4330 0.1877 -0.0812 0.9981
-0.4337 0.1732 -0.0803 0.9981
-0.4340 0.1660 -0.0799 0.9981
-0.4344 0.1589 -0.0796 0.9981
-0.4347 0.1519 -0.0792 0.9981
-0.4356 0.1241 -0.0779 0.9982
-0.4357 0.1173 -0.0776 0.9982
-0.4358 0.1038 -0.0771 0.9982
-0.4357 0.0838 -0.0763 0.9982
-0.4355 0.0772 -0.0761 0.9982
-0.4354 0.0706 -0.0759 0.9982
-0.4349 0.0575 -0.0755 0.9982
-0.4346 0.0511 -0.0753 0.9982
-0.4340 0.0381 -0.0749 0.9982
-0.4335 0.0318 -0.0748 0.9982
-0.4331 0.0254 -0.0746 0.9982
-0.4326 0.0190 -0.0745 0.9982
-0.4315 0.0063 -0.0743 0.9982
-0.4202 -0.0123 -0.0771 0.9983
-0.4207 -0.0185 -0.0773 0.9983
-0.4211 -0.0246 -0.0774 0.9983
-0.4215 -0.0309 -0.0775 0.9983
-0.4222 -0.0433 -0.0779 0.9983
-0.4227 -0.0559 -0.0782 0.9983
-0.4231 -0.0686 -0.0786 0.9983
-0.4232 -0.0750 -0.0789 0.9983
-0.4233 -0.0814 -0.0791 0.9982
-0.4234 -0.0879 -0.0793 0.9982
-0.4234 -0.0943 -0.0796 0.9982
-0.4234 -0.1009 -0.0799 0.9982
-0.4233 -0.1074 -0.0801 0.9982
-0.4232 -0.1140 -0.0804 0.9982
-0.4228 -0.1272 -0.0810 0.9982
-0.4226 -0.1339 -0.0813 0.9982
-0.4223 -0.1407 -0.0817 0.9982
-0.4212 -0.1611 -0.0827 0.9982
-0.4207 -0.1680 -0.0831 0.9982
-0.4202 -0.1750 -0.0835 0.9982
-0.4197 -0.1820 -0.0839 0.9981
-0.4192 -0.1891 -0.0844 0.9981
-0.4184 -0.2037 -0.0854 0.9981
-0.4175 -0.2186 -0.0865 0.9981
-0.4164 -0.2337 -0.0876 0.9981
-0.4150 -0.2491 -0.0888 0.9980
-0.4142 -0.2570 -0.0894 0.9980
-0.4125 -0.2729 -0.0908 0.9980
-0.4116 -0.2810 -0.0914 0.9980
-0.4097 -0.2976 -0.0929 0.9979
-0.4058 -0.3531 -0.0987 0.9978
-0.4050 -0.3629 -0.0998 0.9978
-0.4042 -0.3729 -0.1009 0.9978
-0.3984 -0.4382 -0.1087 0.9976
-0.3965 -0.4626 -0.1118 0.9975
-0.3955 -0.4752 -0.1134 0.9975
-0.3943 -0.4882 -0.1151 0.9975
-0.3931 -0.5015 -0.1169 0.9974
-0.3970 -0.5907 -0.1306 0.9971
-0.4679 -0.7421 -0.1610 0.9964
-1.3239 -2.9931 -0.6005 0.9868
-2.0476 -5.0211 -0.9949 0.9782
-1.9741 -5.0506 -0.9949 0.9782
-1.9002 -5.0790 -0.9950 0.9782
-1.8258 -5.1064 -0.9950 0.9782
-1.7510 -5.1328 -0.9950 0.9782
-1.6759 -5.1580 -0.9951 0.9782
-1.5246 -5.2050 -0.9951 0.9782
-1.3719 -5.2477 -0.9952 0.9782
-1.2181 -5.2860 -0.9953 0.9782
-1.1407 -5.3034 -0.9953 0.9782
-0.8291 -5.3617 -0.9954 0.9782
-0.7507 -5.3734 -0.9955 0.9782
-0.6722 -5.3840 -0.9955 0.9782
-0.4356 -5.4088 -0.9956 0.9782
-0.3566 -5.4148 -0.9956 0.9782
-0.2774 -5.4196 -0.9957 0.9782
-0.0783 -3.5730 -0.6557 0.9856
-0.0261 -3.5708 -0.6552 0.9856
0.0779 -3.5560 -0.6526 0.9856
0.1865 -3.6430 -0.6693 0.9853
0.2415 -3.6668 -0.6742 0.9852
0.4476 -3.5853 -0.6629 0.9854
0.9081 -5.3530 -0.9962 0.9782
0.5792 -3.1355 -0.5850 0.9871
1.0642 -5.3246 -0.9963 0.9782
0.8726 -3.7865 -0.7129 0.9843
1.3736 -5.2541 -0.9964 0.9782
1.6784 -5.1655 -0.9965 0.9782
1.9775 -5.0593 -0.9967 0.9782
2.6939 -4.7190 -0.9970 0.9781
2.7627 -4.6792 -0.9970 0.9781
2.2661 -3.1674 -0.7146 0.9843
2.3005 -3.1182 -0.7110 0.9844
2.3552 -3.0966 -0.7138 0.9843
2.3027 -2.9374 -0.6848 0.9849
2.4459 -3.0279 -0.7142 0.9843
2.5739 -2.9152 -0.7135 0.9843
3.6011 -3.9605 -0.9821 0.9785
3.7155 -3.8537 -0.9822 0.9785
3.2502 -3.0881 -0.8226 0.9819
3.3041 -3.0487 -0.8249 0.9819
3.3576 -3.0084 -0.8272 0.9818
3.4106 -2.9672 -0.8294 0.9818
4.1220 -3.1829 -0.9555 0.9790
3.7855 -2.8358 -0.8678 0.9809
4.3320 -3.1474 -0.9825 0.9785
4.3776 -3.0838 -0.9825 0.9785
4.4223 -3.0196 -0.9825 0.9785
4.4660 -2.9546 -0.9825 0.9785
4.5088 -2.8892 -0.9825 0.9785
4.5915 -2.7563 -0.9826 0.9785
4.6313 -2.6889 -0.9826 0.9785
4.6702 -2.6211 -0.9826 0.9785
4.7450 -2.4836 -0.9826 0.9785
4.8498 -2.4488 -0.9968 0.9781
4.8905 -2.3803 -0.9979 0.9781
4.9581 -2.2365 -0.9980 0.9781
5.0215 -2.0907 -0.9980 0.9781
5.1085 -1.8687 -0.9980 0.9781
5.1610 -1.7187 -0.9981 0.9781
5.2091 -1.5672 -0.9981 0.9781
5.2528 -1.4143 -0.9981 0.9781
5.3099 -1.1829 -0.9981 0.9781
5.3266 -1.1051 -0.9981 0.9781
5.3423 -1.0272 -0.9981 0.9781
5.3567 -0.9491 -0.9981 0.9781
5.3700 -0.8707 -0.9981 0.9781
5.3822 -0.7921 -0.9982 0.9781
5.3933 -0.7134 -0.9982 0.9781
5.4118 -0.5555 -0.9982 0.9781
5.4194 -0.4764 -0.9982 0.9781
5.4310 -0.3178 -0.9982 0.9781
5.4351 -0.2384 -0.9982 0.9781
5.4380 -0.1589 -0.9982 0.9781
5.4398 0.0795 -0.9982 0.9781
5.4380 0.1589 -0.9982 0.9781
5.4351 0.2384 -0.9982 0.9781
5.4310 0.3178 -0.9982 0.9781
5.4194 0.4764 -0.9982 0.9781
5.4119 0.5555 -0.9982 0.9781
5.4031 0.6345 -0.9982 0.9781
5.3701 0.8707 -0.9982 0.9781
5.3267 1.1051 -0.9981 0.9781
5.3099 1.1828 -0.9981 0.9781
5.2315 1.4909 -0.9981 0.9781
5.1857 1.6432 -0.9981 0.9781
5.1610 1.7187 -0.9981 0.9781
5.1353 1.7939 -0.9980 0.9781
5.0806 1.9432 -0.9980 0.9781
4.9904 2.1639 -0.9980 0.9781
4.9581 2.2365 -0.9980 0.9781
4.8905 2.3804 -0.9979 0.9781
4.8552 2.4515 -0.9979 0.9781
4.8187 2.5221 -0.9979 0.9781
4.7813 2.5923 -0.9979 0.9781
4.5789 2.9341 -0.9978 0.9781
4.5355 3.0007 -0.9978 0.9781
4.4911 3.0665 -0.9978 0.9781
4.4457 3.1318 -0.9977 0.9781
4.3039 3.3234 -0.9977 0.9781
4.2048 3.4475 -0.9976 0.9781
4.1538 3.5086 -0.9976 0.9781
4.1021 3.5688 -0.9976 0.9781
4.0494 3.6282 -0.9976 0.9781
3.9958 3.6869 -0.9976 0.9781
3.8862 3.8020 -0.9975 0.9781
3.7156 3.9683 -0.9974 0.9781
3.6571 4.0221 -0.9974 0.9781
3.0621 3.4682 -0.8489 0.9814
2.9739 3.4691 -0.8384 0.9816
2.9061 3.4920 -0.8335 0.9817
2.8065 3.5802 -0.8347 0.9817
2.7747 3.6481 -0.8409 0.9815
2.7655 3.7485 -0.8547 0.9812
3.0973 4.4658 -0.9972 0.9781
3.0317 4.5105 -0.9971 0.9781
2.9654 4.5541 -0.9971 0.9781
2.8984 4.5969 -0.9971 0.9781
2.7627 4.6793 -0.9970 0.9781
2.5548 4.7954 -0.9969 0.9781
2.4134 4.8677 -0.9969 0.9781
2.3420 4.9023 -0.9968 0.9781
2.1247 4.9997 -0.9967 0.9781
2.0513 5.0301 -0.9967 0.9782
1.9775 5.0594 -0.9967 0.9782
1.8288 5.1147 -0.9966 0.9782
1.7538 5.1407 -0.9966 0.9782
1.6027 5.1894 -0.9965 0.9782
1.5266 5.2121 -0.9965 0.9782
1.2967 5.2735 -0.9964 0.9782
1.2194 5.2916 -0.9963 0.9782
1.1419 5.3087 -0.9963 0.9782
1.0642 5.3246 -0.9963 0.9782
0.9081 5.3531 -0.9962 0.9782
0.8297 5.3657 -0.9962 0.9782
0.7513 5.3770 -0.9961 0.9782
0.6726 5.3872 -0.9961 0.9782
0.5938 5.3963 -0.9961 0.9782
0.5148 5.4042 -0.9960 0.9782
0.2775 5.4210 -0.9959 0.9782
0.0397 5.4274 -0.9958 0.9782
-0.0396 5.4272 -0.9958 0.9782
-0.1189 5.4259 -0.9958 0.9782
-0.2774 5.4197 -0.9957 0.9782
-0.3565 5.4149 -0.9957 0.9782
-0.4356 5.4089 -0.9956 0.9782
-0.3902 4.0956 -0.7548 0.9834
-0.4577 3.6666 -0.6779 0.9851
-0.4961 3.5509 -0.6578 0.9855
-0.5897 3.4762 -0.6469 0.9858
-0.8582 3.4903 -0.6595 0.9855
-1.1468 3.5294 -0.6809 0.9850
-1.2071 3.5384 -0.6860 0.9849
-1.3312 3.5582 -0.6970 0.9847
-1.5135 3.7112 -0.7354 0.9838
-1.7898 4.2117 -0.8396 0.9816
-1.8100 4.0921 -0.8210 0.9820
-1.8435 3.8589 -0.7847 0.9828
-1.8780 3.7878 -0.7757 0.9830
-1.9565 3.8054 -0.7851 0.9827
-2.6186 4.7468 -0.9947 0.9782
-2.7560 4.6680 -0.9946 0.9782
-0.4679 0.7421 -0.1610 0.9964
-0.4218 0.6479 -0.1418 0.9969
-0.3874 0.5585 -0.1247 0.9972
-0.3918 0.5152 -0.1188 0.9974
-0.3931 0.5015 -0.1169 0.9974
-0.3975 0.4502 -0.1102 0.9976
-0.4000 0.4150 -0.1058 0.9977
-0.4008 0.4037 -0.1044 0.9977
-0.4027 0.3826 -0.1019 0.9977
-0.4042 0.3729 -0.1009 0.9978
-0.4058 0.3531 -0.0987 0.9978
-0.4066 0.3434 -0.0977 0.9978
-0.4080 0.3246 -0.0957 0.9979
-0.4086 0.3155 -0.0947 0.9979
-0.4097 0.2976 -0.0929 0.9979
-0.4116 0.2810 -0.0914 0.9980
-0.4125 0.2729 -0.0908 0.9980
-0.4150 0.2491 -0.0888 0.9980
-0.4164 0.2337 -0.0876 0.9981
-0.4169 0.2261 -0.0870 0.9981
-0.4175 0.2185 -0.0865 0.9981
-0.4180 0.2111 -0.0859 0.9981
-0.4184 0.2036 -0.0854 0.9981
-0.4197 0.1820 -0.0839 0.9981
-0.4202 0.1749 -0.0835 0.9982
-0.4220 0.1474 -0.0820 0.9982
-0.4223 0.1406 -0.0817 0.9982
-0.4230 0.1205 -0.0807 0.9982
-0.4232 0.1139 -0.0804 0.9982
-0.4233 0.1073 -0.0801 0.9982
-0.4234 0.0943 -0.0796 0.9982
-0.4234 0.0879 -0.0793 0.9982
-0.4231 0.0686 -0.0786 0.9983
-0.4229 0.0623 -0.0784 0.9983
-0.4227 0.0559 -0.0782 0.9983
-0.4225 0.0496 -0.0781 0.9983
-0.4222 0.0434 -0.0779 0.9983
-0.4219 0.0371 -0.0777 0.9983
-0.4196 0.0061 -0.0770 0.9983
-0.4078 0.0000 -0.0795 0.9983
-0.4083 -0.0060 -0.0796 0.9983
-0.4093 -0.0180 -0.0799 0.9983
-0.4097 -0.0240 -0.0800 0.9983
-0.4101 -0.0300 -0.0802 0.9983
-0.4107 -0.0422 -0.0805 0.9983
-0.4114 -0.0605 -0.0811 0.9983
-0.4115 -0.0668 -0.0813 0.9983
-0.4116 -0.0729 -0.0815 0.9983
-0.4116 -0.0854 -0.0820 0.9983
-0.4116 -0.0980 -0.0825 0.9983
-0.4113 -0.1107 -0.0830 0.9983
-0.4111 -0.1172 -0.0833 0.9983
-0.4109 -0.1236 -0.0836 0.9983
-0.4106 -0.1301 -0.0840 0.9982
-0.4103 -0.1366 -0.0843 0.9982
-0.4099 -0.1432 -0.0846 0.9982
-0.4095 -0.1498 -0.0850 0.9982
-0.4090 -0.1565 -0.0854 0.9982
-0.4085 -0.1632 -0.0858 0.9982
-0.4079 -0.1699 -0.0861 0.9982
-0.4073 -0.1766 -0.0866 0.9982
-0.4067 -0.1835 -0.0870 0.9982
-0.4060 -0.1904 -0.0874 0.9982
-0.4055 -0.1974 -0.0879 0.9982
-0.4051 -0.2045 -0.0885 0.9982
-0.4034 -0.2264 -0.0902 0.9981
-0.4031 -0.2340 -0.0909 0.9981
-0.4028 -0.2418 -0.0916 0.9981
-0.4025 -0.2496 -0.0923 0.9981
-0.4016 -0.2657 -0.0939 0.9980
-0.4012 -0.2739 -0.0947 0.9980
-0.4007 -0.2822 -0.0955 0.9980
-0.3982 -0.3169 -0.0992 0.9979
-0.3974 -0.3259 -0.1002 0.9979
-0.3966 -0.3350 -0.1012 0.9979
-0.3949 -0.3539 -0.1034 0.9978
-0.3927 -0.3731 -0.1056 0.9978
-0.3910 -0.3825 -0.1066 0.9978
-0.3893 -0.3922 -0.1077 0.9978
-0.3871 -0.4134 -0.1104 0.9977
-0.3851 -0.4361 -0.1134 0.9976
-0.3839 -0.4479 -0.1150 0.9976
-0.3814 -0.4722 -0.1183 0.9975
-0.3801 -0.4849 -0.1201 0.9975
-0.3786 -0.4978 -0.1219 0.9975
-0.3737 -0.5387 -0.1278 0.9973
-1.6006 -2.9014 -0.6460 0.9866
-1.5553 -3.0251 -0.6631 0.9862
-1.5198 -3.0654 -0.6670 0.9862
-1.4646 -3.0657 -0.6624 0.9862
-1.2752 -3.0009 -0.6357 0.9868
-1.8580 -4.7535 -0.9950 0.9794
-1.7884 -4.7803 -0.9950 0.9794
-1.6480 -4.8307 -0.9951 0.9794
-1.5773 -4.8545 -0.9951 0.9794
-1.3632 -4.9194 -0.9952 0.9794
-1.2912 -4.9389 -0.9952 0.9794
-0.8540 -5.0340 -0.9954 0.9794
-0.7803 -5.0461 -0.9955 0.9794
-0.7065 -5.0571 -0.9955 0.9794
-0.4100 -5.0904 -0.9956 0.9794
-0.2611 -5.1005 -0.9957 0.9794
0.0262 -3.5846 -0.6989 0.9855
0.1323 -3.6187 -0.7060 0.9854
0.2414 -3.6661 -0.7163 0.9851
0.4101 -5.0923 -0.9960 0.9794
0.3997 -3.6322 -0.7124 0.9852
0.8546 -5.0378 -0.9962 0.9794
0.5836 -3.1597 -0.6264 0.9870
0.7471 -3.4732 -0.6926 0.9856
0.9478 -3.8546 -0.7739 0.9840
1.2927 -4.9445 -0.9964 0.9794
1.3648 -4.9253 -0.9964 0.9794
1.5083 -4.8836 -0.9965 0.9794
1.5795 -4.8612 -0.9965 0.9794
1.6504 -4.8378 -0.9965 0.9794
1.8610 -4.7612 -0.9966 0.9794
1.9304 -4.7336 -0.9966 0.9794
1.9995 -4.7051 -0.9967 0.9794
2.0680 -4.6755 -0.9967 0.9794
2.1362 -4.6450 -0.9967 0.9794
2.3379 -4.5473 -0.9968 0.9794
2.4042 -4.5127 -0.9968 0.9794
2.4699 -4.4773 -0.9969 0.9794
2.5352 -4.4408 -0.9969 0.9794
2.5999 -4.4034 -0.9969 0.9794
2.6858 -4.2596 -0.9817 0.9797
2.7478 -4.2201 -0.9818 0.9797
2.8093 -4.1796 -0.9818 0.9797
2.6189 -3.1469 -0.7982 0.9835
2.5273 -2.9481 -0.7570 0.9843
2.5834 -2.9260 -0.7610 0.9842
3.3888 -3.7270 -0.9820 0.9797
3.4429 -3.6771 -0.9821 0.9797
3.4964 -3.6265 -0.9821 0.9797
3.6522 -3.4701 -0.9822 0.9797
3.7026 -3.4164 -0.9822 0.9797
3.7522 -3.3620 -0.9822 0.9797
3.8490 -3.2511 -0.9822 0.9797
4.0327 -3.0209 -0.9823 0.9797
4.1194 -2.9019 -0.9824 0.9797
4.2026 -2.7804 -0.9824 0.9797
4.3206 -2.5937 -0.9824 0.9797
4.3582 -2.5303 -0.9825 0.9797
4.4051 -2.4723 -0.9848 0.9796
4.4992 -2.4393 -0.9978 0.9794
4.5344 -2.3734 -0.9978 0.9794
4.6020 -2.2399 -0.9978 0.9794
4.6343 -2.1725 -0.9978 0.9794
4.7252 -1.9674 -0.9979 0.9794
4.7808 -1.8286 -0.9979 0.9794
4.8071 -1.7585 -0.9979 0.9794
4.8323 -1.6881 -0.9979 0.9794
4.8565 -1.6173 -0.9979 0.9794
4.8797 -1.5462 -0.9979 0.9794
4.9018 -1.4748 -0.9979 0.9794
4.9229 -1.4030 -0.9980 0.9794
4.9429 -1.3309 -0.9980 0.9794
4.9619 -1.2586 -0.9980 0.9794
4.9798 -1.1859 -0.9980 0.9794
4.9966 -1.1130 -0.9980 0.9794
5.0123 -1.0399 -0.9980 0.9794
5.0406 -0.8930 -0.9980 0.9794
5.0843 -0.5971 -0.9980 0.9794
5.0996 -0.4482 -0.9980 0.9794
5.1056 -0.3737 -0.9980 0.9794
5.1105 -0.2990 -0.9980 0.9794
5.1144 -0.2244 -0.9980 0.9794
5.1193 0.0000 -0.9980 0.9794
5.1188 0.0748 -0.9980 0.9794
5.1106 0.2990 -0.9980 0.9794
5.1056 0.3737 -0.9980 0.9794
5.0925 0.5227 -0.9980 0.9794
5.0843 0.5971 -0.9980 0.9794
5.0750 0.6713 -0.9980 0.9794
5.0270 0.9666 -0.9980 0.9794
4.9797 1.1859 -0.9980 0.9794
4.9429 1.3309 -0.9980 0.9794
4.8323 1.6881 -0.9979 0.9794
4.8071 1.7585 -0.9979 0.9794
4.7536 1.8982 -0.9979 0.9794
4.7252 1.9673 -0.9979 0.9794
4.5345 2.3734 -0.9978 0.9794
4.4992 2.4393 -0.9978 0.9794
4.4631 2.5048 -0.9978 0.9794
4.4259 2.5696 -0.9977 0.9794
4.3878 2.6340 -0.9977 0.9794
4.2679 2.8237 -0.9977 0.9794
4.1835 2.9470 -0.9976 0.9794
4.0954 3.0679 -0.9976 0.9794
3.9568 3.2442 -0.9975 0.9794
3.9089 3.3016 -0.9975 0.9794
3.8601 3.3583 -0.9975 0.9794
3.8106 3.4143 -0.9975 0.9794
3.7602 3.4695 -0.9974 0.9794
3.7090 3.5240 -0.9974 0.9794
3.6043 3.6307 -0.9974 0.9794
3.5508 3.6829 -0.9974 0.9794
3.4415 3.7849 -0.9973 0.9794
3.3857 3.8347 -0.9973 0.9794
3.0131 3.5148 -0.9025 0.9813
2.9374 3.5297 -0.8952 0.9815
2.8804 3.5658 -0.8936 0.9815
3.0365 4.1158 -0.9971 0.9794
2.9760 4.1596 -0.9971 0.9794
2.9148 4.2025 -0.9971 0.9794
2.8530 4.2445 -0.9971 0.9794
2.5999 4.4035 -0.9969 0.9794
2.4700 4.4773 -0.9969 0.9794
2.3379 4.5473 -0.9968 0.9794
2.2712 4.5809 -0.9968 0.9794
2.1362 4.6450 -0.9967 0.9794
1.9995 4.7052 -0.9967 0.9794
1.9304 4.7337 -0.9967 0.9794
1.8610 4.7613 -0.9966 0.9794
1.7210 4.8133 -0.9966 0.9794
1.6504 4.8378 -0.9965 0.9794
1.5795 4.8613 -0.9965 0.9794
1.4367 4.9050 -0.9964 0.9794
1.2203 4.9628 -0.9963 0.9794
1.0746 4.9960 -0.9963 0.9794
1.0015 5.0110 -0.9962 0.9794
0.9282 5.0249 -0.9962 0.9794
0.8546 5.0378 -0.9962 0.9794
0.6329 5.0700 -0.9961 0.9794
0.5588 5.0785 -0.9961 0.9794
0.4845 5.0859 -0.9960 0.9794
0.1866 5.1049 -0.9959 0.9794
-0.1865 5.1041 -0.9957 0.9794
-0.3356 5.0961 -0.9957 0.9794
-0.4100 5.0905 -0.9956 0.9794
-0.4577 3.6657 -0.7202 0.9851
-0.5888 3.4708 -0.6863 0.9858
-0.6427 3.4793 -0.6898 0.9857
-0.6971 3.4877 -0.6934 0.9856
-0.7521 3.4962 -0.6972 0.9855
-0.9472 3.6230 -0.7301 0.9849
-1.0068 3.6330 -0.7350 0.9848
-1.0671 3.6432 -0.7401 0.9846
-1.5063 4.8772 -0.9952 0.9794
-1.5773 4.8545 -0.9951 0.9794
-1.6481 4.8308 -0.9951 0.9794
-1.7184 4.8061 -0.9951 0.9794
-1.8580 4.7535 -0.9950 0.9794
-1.9272 4.7257 -0.9950 0.9794
-1.7890 4.2098 -0.8917 0.9815
-1.8269 3.9724 -0.8524 0.9823
-1.8429 3.8577 -0.8335 0.9827
-1.9786 3.8485 -0.8436 0.9825
-2.0609 3.8684 -0.8545 0.9823
-2.4646 4.4676 -0.9947 0.9794
-2.5296 4.4310 -0.9947 0.9794
-2.5940 4.3934 -0.9947 0.9794
-0.3723 0.5718 -0.1330 0.9972
-0.3754 0.5248 -0.1258 0.9974
-0.3771 0.5111 -0.1238 0.9974
-0.3801 0.4848 -0.1201 0.9975
-0.3814 0.4722 -0.1183 0.9975
-0.3827 0.4599 -0.1166 0.9976
-0.3839 0.4478 -0.1150 0.9976
-0.3871 0.4134 -0.1104 0.9977
-0.3940 0.3635 -0.1045 0.9978
-0.3974 0.3259 -0.1002 0.9979
-0.3989 0.3080 -0.0982 0.9979
-0.3995 0.2993 -0.0973 0.9980
-0.4001 0.2907 -0.0964 0.9980
-0.4012 0.2739 -0.0947 0.9980
-0.4021 0.2576 -0.0931 0.9981
-0.4025 0.2497 -0.0923 0.9981
-0.4028 0.2418 -0.0916 0.9981
-0.4031 0.2341 -0.0909 0.9981
-0.4034 0.2264 -0.0902 0.9981
-0.4039 0.2189 -0.0896 0.9981
-0.4045 0.2117 -0.0890 0.9981
-0.4051 0.2045 -0.0885 0.9982
-0.4056 0.1974 -0.0879 0.9982
-0.4060 0.1904 -0.0874 0.9982
-0.4067 0.1834 -0.0870 0.9982
-0.4079 0.1698 -0.0861 0.9982
-0.4095 0.1498 -0.0850 0.9982
-0.4109 0.1236 -0.0836 0.9983
-0.4113 0.1107 -0.0830 0.9983
-0.4117 0.0854 -0.0820 0.9983
-0.4116 0.0729 -0.0815 0.9983
-0.4115 0.0667 -0.0813 0.9983
-0.4114 0.0605 -0.0811 0.9983
-0.4112 0.0544 -0.0809 0.9983
-0.4107 0.0421 -0.0805 0.9983
-0.4104 0.0361 -0.0803 0.9983
-0.4101 0.0300 -0.0802 0.9983
-0.4097 0.0239 -0.0800 0.9983
-0.4088 0.0119 -0.0797 0.9983
-0.4083 0.0059 -0.0796 0.9983
-0.3976 -0.0058 -0.0821 0.9984
-0.3980 -0.0117 -0.0822 0.9984
-0.3988 -0.0234 -0.0825 0.9984
-0.3992 -0.0293 -0.0826 0.9984
-0.3998 -0.0411 -0.0830 0.9984
-0.4000 -0.0470 -0.0832 0.9984
-0.4003 -0.0589 -0.0836 0.9983
-0.4005 -0.0710 -0.0840 0.9983
-0.4005 -0.0770 -0.0842 0.9983
-0.4005 -0.0831 -0.0845 0.9983
-0.4004 -0.0893 -0.0847 0.9983
-0.3995 -0.1202 -0.0861 0.9983
-0.3993 -0.1265 -0.0865 0.9983
-0.3991 -0.1329 -0.0868 0.9983
-0.3988 -0.1393 -0.0872 0.9983
-0.3983 -0.1523 -0.0880 0.9983
-0.3979 -0.1589 -0.0885 0.9983
-0.3971 -0.1722 -0.0894 0.9982
-0.3967 -0.1789 -0.0899 0.9982
-0.3956 -0.1997 -0.0915 0.9982
-0.3953 -0.2069 -0.0921 0.9982
-0.3951 -0.2142 -0.0928 0.9982
-0.3948 -0.2216 -0.0935 0.9982
-0.3922 -0.2678 -0.0981 0.9981
-0.3910 -0.2841 -0.0998 0.9980
-0.3903 -0.2924 -0.1007 0.9980
-0.3896 -0.3008 -0.1016 0.9980
-0.3880 -0.3181 -0.1036 0.9980
-0.3842 -0.3545 -0.1079 0.9979
-0.3831 -0.3640 -0.1091 0.9978
-0.3796 -0.3823 -0.1112 0.9978
-0.3778 -0.3918 -0.1124 0.9978
-0.3759 -0.4014 -0.1136 0.9978
-0.3733 -0.4228 -0.1165 0.9977
-0.3693 -0.4572 -0.1214 0.9976
-0.3645 -0.4941 -0.1268 0.9975
-0.3628 -0.5071 -0.1287 0.9975
-0.3608 -0.5204 -0.1307 0.9974
-0.3589 -0.5339 -0.1328 0.9974
-0.3659 -0.5995 -0.1450 0.9971
-0.3850 -0.6521 -0.1564 0.9969
-2.0452 -4.2811 -0.9797 0.9808
-1.2786 -3.0087 -0.6750 0.9867
-1.3336 -3.2700 -0.7292 0.9857
-1.6225 -4.5379 -0.9951 0.9805
-1.5561 -4.5613 -0.9951 0.9805
-1.4893 -4.5836 -0.9951 0.9805
-1.3548 -4.6254 -0.9952 0.9805
-1.1509 -4.6808 -0.9953 0.9805
-1.0824 -4.6973 -0.9953 0.9805
-1.0137 -4.7127 -0.9954 0.9805
-0.8757 -4.7406 -0.9954 0.9805
-0.7368 -4.7645 -0.9955 0.9805
-0.6671 -4.7749 -0.9955 0.9805
-0.5273 -4.7926 -0.9956 0.9805
-0.3871 -4.8063 -0.9956 0.9805
-0.3169 -4.8116 -0.9957 0.9805
-0.2465 -4.8158 -0.9957 0.9805
-0.1761 -4.8191 -0.9957 0.9805
-0.0790 -3.6053 -0.7446 0.9854
0.0789 -3.5998 -0.7435 0.9854
0.1322 -3.6179 -0.7475 0.9853
0.1864 -3.6414 -0.7529 0.9852
0.2414 -3.6652 -0.7584 0.9851
0.3872 -4.8079 -0.9960 0.9805
0.3587 -3.7649 -0.7809 0.9847
0.4007 -3.6416 -0.7565 0.9851
0.7373 -4.7676 -0.9961 0.9805
0.5488 -3.2349 -0.6775 0.9867
0.8860 -3.8449 -0.8147 0.9840
1.2205 -4.6684 -0.9963 0.9805
1.2886 -4.6502 -0.9964 0.9805
1.4240 -4.6108 -0.9964 0.9805
1.4913 -4.5896 -0.9965 0.9805
1.8877 -4.4422 -0.9966 0.9805
1.9525 -4.4143 -0.9967 0.9805
2.1114 -4.2586 -0.9815 0.9808
2.2351 -4.1954 -0.9815 0.9808
2.3568 -4.1285 -0.9816 0.9808
2.4766 -4.0581 -0.9816 0.9808
2.5357 -4.0216 -0.9817 0.9808
2.6523 -3.9459 -0.9817 0.9808
2.7665 -3.8669 -0.9818 0.9808
2.3126 -3.1345 -0.8043 0.9842
2.2276 -2.9288 -0.7598 0.9851
2.3083 -2.8576 -0.7585 0.9851
3.1474 -3.5649 -0.9819 0.9808
3.1993 -3.5186 -0.9820 0.9808
3.3506 -3.3752 -0.9820 0.9808
3.4480 -3.2760 -0.9821 0.9808
3.4956 -3.2254 -0.9821 0.9808
3.5885 -3.1220 -0.9821 0.9808
3.6783 -3.0159 -0.9822 0.9808
3.7221 -2.9619 -0.9822 0.9808
3.7650 -2.9072 -0.9822 0.9808
3.8485 -2.7961 -0.9822 0.9808
3.8890 -2.7396 -0.9823 0.9808
3.9675 -2.6249 -0.9823 0.9808
4.0427 -2.5079 -0.9823 0.9808
4.1079 -2.4660 -0.9893 0.9806
4.2134 -2.3646 -0.9976 0.9805
4.2476 -2.3029 -0.9977 0.9805
4.3446 -2.1146 -0.9977 0.9805
4.3751 -2.0509 -0.9977 0.9805
4.4333 -1.9223 -0.9977 0.9805
4.4609 -1.8573 -0.9978 0.9805
4.5382 -1.6601 -0.9978 0.9805
4.5620 -1.5936 -0.9978 0.9805
4.6067 -1.4597 -0.9978 0.9805
4.6276 -1.3922 -0.9978 0.9805
4.6664 -1.2564 -0.9978 0.9805
4.6843 -1.1881 -0.9978 0.9805
4.7011 -1.1196 -0.9979 0.9805
4.7170 -1.0507 -0.9979 0.9805
4.7586 -0.8431 -0.9979 0.9805
4.7813 -0.7036 -0.9979 0.9805
4.7999 -0.5637 -0.9979 0.9805
4.8246 -0.2823 -0.9979 0.9805
4.8308 -0.1412 -0.9979 0.9805
4.8283 0.2118 -0.9979 0.9805
4.8246 0.2823 -0.9979 0.9805
4.8143 0.4232 -0.9979 0.9805
4.7911 0.6337 -0.9979 0.9805
4.7813 0.7037 -0.9979 0.9805
4.7705 0.7734 -0.9979 0.9805
4.7586 0.8431 -0.9979 0.9805
4.7319 0.9817 -0.9979 0.9805
4.7012 1.1196 -0.9979 0.9805
4.6843 1.1882 -0.9979 0.9805
4.6664 1.2564 -0.9978 0.9805
4.6475 1.3245 -0.9978 0.9805
4.6276 1.3922 -0.9978 0.9805
4.6067 1.4596 -0.9978 0.9805
4.5848 1.5268 -0.9978 0.9805
4.5620 1.5936 -0.9978 0.9805
4.5134 1.7262 -0.9978 0.9805
4.4876 1.7920 -0.9978 0.9805
4.4609 1.8573 -0.9978 0.9805
4.4332 1.9223 -0.9977 0.9805
4.3132 2.1779 -0.9977 0.9805
4.2134 2.3647 -0.9976 0.9805
4.1783 2.4259 -0.9976 0.9805
4.1424 2.4867 -0.9976 0.9805
4.1055 2.5469 -0.9976 0.9805
4.0678 2.6066 -0.9976 0.9805
4.0292 2.6657 -0.9976 0.9805
3.8236 2.9525 -0.9975 0.9805
3.7355 3.0628 -0.9974 0.9805
3.6903 3.1170 -0.9974 0.9805
3.6443 3.1705 -0.9974 0.9805
3.5975 3.2234 -0.9974 0.9805
3.5016 3.3270 -0.9973 0.9805
3.4027 3.4277 -0.9973 0.9805
3.3010 3.5255 -0.9972 0.9805
3.2491 3.5733 -0.9972 0.9805
2.9233 3.8435 -0.9971 0.9805
2.7518 3.9676 -0.9970 0.9805
2.5751 4.0841 -0.9969 0.9805
2.3319 4.2271 -0.9968 0.9805
2.2699 4.2606 -0.9968 0.9805
2.2073 4.2932 -0.9968 0.9805
2.0808 4.3556 -0.9967 0.9805
1.9525 4.4143 -0.9967 0.9805
1.8226 4.4693 -0.9966 0.9805
1.6911 4.5203 -0.9965 0.9805
1.6248 4.5444 -0.9965 0.9805
1.5582 4.5675 -0.9965 0.9805
1.4913 4.5896 -0.9965 0.9805
1.3565 4.6310 -0.9964 0.9805
1.2886 4.6502 -0.9964 0.9805
1.0835 4.7018 -0.9963 0.9805
0.8763 4.7443 -0.9962 0.9805
0.6675 4.7777 -0.9961 0.9805
0.5276 4.7949 -0.9960 0.9805
0.4575 4.8020 -0.9960 0.9805
0.3872 4.8079 -0.9960 0.9805
0.2466 4.8169 -0.9959 0.9805
0.1057 4.8218 -0.9959 0.9805
-0.1057 4.8213 -0.9958 0.9805
-0.3168 4.8116 -0.9957 0.9805
-0.3871 4.8063 -0.9956 0.9805
-0.4267 3.8775 -0.8055 0.9842
-0.4574 3.6639 -0.7624 0.9850
-0.4986 3.5685 -0.7440 0.9854
-0.6085 3.5871 -0.7512 0.9852
-0.6643 3.5964 -0.7552 0.9852
-0.9448 4.7272 -0.9954 0.9805
-1.0137 4.7128 -0.9954 0.9805
-1.1509 4.6809 -0.9953 0.9805
-1.4222 4.6051 -0.9952 0.9805
-1.4893 4.5837 -0.9952 0.9805
-1.6225 4.5379 -0.9951 0.9805
-1.6886 4.5136 -0.9951 0.9805
-1.8197 4.4621 -0.9950 0.9805
-1.8846 4.4349 -0.9950 0.9805
-1.8080 4.0876 -0.9229 0.9819
-1.8423 3.8564 -0.8825 0.9827
-2.3271 4.2185 -0.9948 0.9805
-0.4156 0.7280 -0.1731 0.9966
-0.3850 0.6521 -0.1564 0.9969
-0.3568 0.5479 -0.1350 0.9973
-0.3589 0.5339 -0.1328 0.9974
-0.3609 0.5203 -0.1307 0.9974
-0.3627 0.5071 -0.1287 0.9975
-0.3720 0.4340 -0.1180 0.9977
-0.3759 0.4015 -0.1136 0.9978
-0.3778 0.3918 -0.1124 0.9978
-0.3842 0.3545 -0.1079 0.9979
-0.3852 0.3452 -0.1068 0.9979
-0.3862 0.3360 -0.1057 0.9979
-0.3871 0.3270 -0.1046 0.9979
-0.3910 0.2840 -0.0998 0.9980
-0.3916 0.2759 -0.0989 0.9980
-0.3922 0.2677 -0.0981 0.9981
-0.3927 0.2598 -0.0972 0.9981
-0.3932 0.2520 -0.0964 0.9981
-0.3936 0.2442 -0.0956 0.9981
-0.3944 0.2290 -0.0942 0.9981
-0.3948 0.2215 -0.0935 0.9982
-0.3953 0.2069 -0.0921 0.9982
-0.3955 0.1997 -0.0915 0.9982
-0.3962 0.1857 -0.0904 0.9982
-0.3976 0.1655 -0.0889 0.9982
-0.3983 0.1523 -0.0880 0.9983
-0.3986 0.1458 -0.0876 0.9983
-0.3995 0.1202 -0.0861 0.9983
-0.3998 0.1139 -0.0858 0.9983
-0.4000 0.1077 -0.0855 0.9983
-0.4005 0.0892 -0.0847 0.9983
-0.4005 0.0831 -0.0845 0.9983
-0.4005 0.0770 -0.0842 0.9983
-0.4005 0.0709 -0.0840 0.9983
-0.4003 0.0589 -0.0836 0.9983
-0.3995 0.0351 -0.0828 0.9984
-0.3992 0.0292 -0.0826 0.9984
-0.3985 0.0175 -0.0824 0.9984
-0.3976 0.0058 -0.0821 0.9984
-0.3900 0.0000 -0.0850 0.9984
-0.3904 -0.0057 -0.0851 0.9984
-0.3907 -0.0114 -0.0852 0.9984
-0.3910 -0.0171 -0.0853 0.9984
-0.3913 -0.0229 -0.0855 0.9984
-0.3915 -0.0287 -0.0856 0.9984
-0.3918 -0.0344 -0.0858 0.9984
-0.3920 -0.0403 -0.0859 0.9984
-0.3922 -0.0461 -0.0861 0.9984
-0.3923 -0.0519 -0.0863 0.9984
-0.3924 -0.0578 -0.0865 0.9984
-0.3926 -0.0695 -0.0869 0.9984
-0.3926 -0.0755 -0.0872 0.9984
-0.3926 -0.0875 -0.0877 0.9984
-0.3925 -0.0935 -0.0880 0.9983
-0.3924 -0.0996 -0.0883 0.9983
-0.3923 -0.1056 -0.0886 0.9983
-0.3920 -0.1179 -0.0893 0.9983
-0.3918 -0.1241 -0.0896 0.9983
-0.3916 -0.1304 -0.0900 0.9983
-0.3913 -0.1367 -0.0904 0.9983
-0.3910 -0.1430 -0.0908 0.9983
-0.3903 -0.1558 -0.0916 0.9983
-0.3885 -0.1821 -0.0936 0.9982
-0.3874 -0.1956 -0.0946 0.9982
-0.3868 -0.2097 -0.0959 0.9982
-0.3856 -0.2315 -0.0981 0.9982
-0.3847 -0.2464 -0.0996 0.9981
-0.3841 -0.2541 -0.1004 0.9981
-0.3835 -0.2618 -0.1013 0.9981
-0.3822 -0.2777 -0.1030 0.9981
-0.3798 -0.3023 -0.1059 0.9980
-0.3770 -0.3280 -0.1090 0.9980
-0.3737 -0.3551 -0.1124 0.9979
-0.3722 -0.3641 -0.1136 0.9979
-0.3703 -0.3731 -0.1146 0.9979
-0.3684 -0.3821 -0.1157 0.9978
-0.3645 -0.4009 -0.1181 0.9978
-0.3624 -0.4105 -0.1194 0.9978
-0.3545 -0.4662 -0.1277 0.9976
-0.3488 -0.5030 -0.1335 0.9975
-0.3467 -0.5159 -0.1355 0.9975
-0.3445 -0.5291 -0.1377 0.9974
-0.3397 -0.5566 -0.1422 0.9973
-0.3420 -0.5792 -0.1467 0.9973
-0.3769 -0.6832 -0.1702 0.9968
-0.4094 -0.7684 -0.1898 0.9964
-1.5553 -3.0252 -0.7418 0.9862
-1.9367 -4.0539 -0.9797 0.9818
-1.3889 -3.0200 -0.7249 0.9865
-1.2827 -3.0184 -0.7152 0.9867
-1.5745 -4.2086 -0.9799 0.9818
-1.5129 -4.2313 -0.9799 0.9818
-1.2188 -4.3984 -0.9953 0.9815
-1.0898 -4.4323 -0.9953 0.9815
-0.9599 -4.4626 -0.9954 0.9815
-0.6317 -4.5213 -0.9955 0.9815
-0.3665 -4.5511 -0.9956 0.9815
-0.2334 -4.5601 -0.9957 0.9815
-0.1668 -4.5632 -0.9957 0.9815
-0.0265 -3.6214 -0.7897 0.9853
0.0264 -3.6211 -0.7896 0.9853
0.0794 -3.6207 -0.7897 0.9853
0.1323 -3.6204 -0.7900 0.9853
0.1863 -3.6406 -0.7949 0.9852
0.2413 -3.6645 -0.8008 0.9851
0.4017 -3.6511 -0.8010 0.9851
0.4510 -3.6129 -0.7940 0.9852
0.6321 -4.5239 -0.9961 0.9815
0.7056 -3.5307 -0.7851 0.9854
1.0259 -4.4520 -0.9962 0.9815
1.2844 -4.3849 -0.9964 0.9815
1.3277 -4.2989 -0.9811 0.9817
1.3904 -4.2793 -0.9812 0.9817
1.4529 -4.2586 -0.9812 0.9817
1.6382 -4.1911 -0.9813 0.9817
1.6993 -4.1669 -0.9813 0.9817
1.7600 -4.1417 -0.9813 0.9817
1.8204 -4.1157 -0.9814 0.9817
1.8804 -4.0887 -0.9814 0.9817
2.0579 -4.0028 -0.9815 0.9817
2.1162 -3.9723 -0.9815 0.9817
2.2315 -3.9090 -0.9815 0.9817
2.2885 -3.8761 -0.9816 0.9817
2.3449 -3.8423 -0.9816 0.9817
2.4563 -3.7724 -0.9816 0.9817
2.5112 -3.7361 -0.9817 0.9817
2.5656 -3.6991 -0.9817 0.9817
2.6727 -3.6228 -0.9817 0.9817
2.8291 -3.5024 -0.9818 0.9817
2.9304 -3.4184 -0.9818 0.9817
3.1254 -3.2417 -0.9819 0.9817
3.2646 -3.1018 -0.9820 0.9817
3.3540 -3.0052 -0.9820 0.9817
3.3976 -2.9559 -0.9820 0.9817
3.4405 -2.9060 -0.9821 0.9817
3.5647 -2.7526 -0.9821 0.9817
3.6438 -2.6473 -0.9822 0.9817
3.6821 -2.5939 -0.9822 0.9817
3.7565 -2.4853 -0.9822 0.9817
3.8379 -2.4593 -0.9940 0.9815
3.9220 -2.3544 -0.9975 0.9814
3.9560 -2.2969 -0.9975 0.9814
3.9892 -2.2389 -0.9975 0.9814
4.0837 -2.0620 -0.9976 0.9814
4.1134 -2.0021 -0.9976 0.9814
4.1703 -1.8811 -0.9976 0.9814
4.1974 -1.8200 -0.9976 0.9814
4.2236 -1.7585 -0.9976 0.9814
4.2732 -1.6344 -0.9977 0.9814
4.3192 -1.5088 -0.9977 0.9814
4.3409 -1.4456 -0.9977 0.9814
4.3616 -1.3820 -0.9977 0.9814
4.4002 -1.2540 -0.9977 0.9814
4.4181 -1.1896 -0.9977 0.9814
4.4510 -1.0600 -0.9977 0.9814
4.4661 -0.9948 -0.9978 0.9814
4.4933 -0.8639 -0.9978 0.9814
4.5362 -0.6000 -0.9978 0.9814
4.5518 -0.4672 -0.9978 0.9814
4.5713 -0.2005 -0.9978 0.9814
4.5753 0.0668 -0.9978 0.9814
4.5679 0.2673 -0.9978 0.9814
4.5517 0.4672 -0.9978 0.9814
4.5269 0.6662 -0.9978 0.9814
4.5166 0.7323 -0.9978 0.9814
4.5055 0.7982 -0.9978 0.9814
4.4801 0.9295 -0.9978 0.9814
4.4510 1.0600 -0.9977 0.9814
4.3616 1.3820 -0.9977 0.9814
4.3409 1.4456 -0.9977 0.9814
4.3193 1.5089 -0.9977 0.9814
4.2732 1.6344 -0.9977 0.9814
4.1974 1.8200 -0.9976 0.9814
4.1423 1.9418 -0.9976 0.9814
4.1134 2.0021 -0.9976 0.9814
4.0531 2.1214 -0.9976 0.9814
4.0216 2.1804 -0.9976 0.9814
3.9892 2.2388 -0.9975 0.9814
3.9560 2.2969 -0.9975 0.9814
3.9220 2.3544 -0.9975 0.9814
3.8871 2.4114 -0.9975 0.9814
3.8149 2.5239 -0.9975 0.9814
3.7394 2.6342 -0.9974 0.9814
3.7004 2.6885 -0.9974 0.9814
3.6202 2.7954 -0.9974 0.9814
3.4504 3.0019 -0.9973 0.9815
3.4061 3.0519 -0.9973 0.9815
3.3611 3.1013 -0.9973 0.9815
3.3154 3.1500 -0.9973 0.9815
3.2689 3.1980 -0.9972 0.9815
3.1740 3.2921 -0.9972 0.9815
3.1255 3.3380 -0.9972 0.9815
3.0264 3.4278 -0.9971 0.9815
2.6602 3.7183 -0.9970 0.9815
2.4945 3.8310 -0.9969 0.9815
2.3241 3.9364 -0.9968 0.9815
2.2080 4.0024 -0.9968 0.9815
2.0900 4.0650 -0.9967 0.9815
1.9097 4.1524 -0.9966 0.9815
1.6013 4.2800 -0.9965 0.9815
1.5385 4.3029 -0.9965 0.9815
1.4754 4.3248 -0.9965 0.9815
1.4120 4.3457 -0.9964 0.9815
1.3484 4.3658 -0.9964 0.9815
0.9607 4.4663 -0.9962 0.9815
0.7640 4.5037 -0.9961 0.9815
0.6981 4.5143 -0.9961 0.9815
0.5659 4.5325 -0.9961 0.9815
0.4996 4.5402 -0.9960 0.9815
0.4332 4.5469 -0.9960 0.9815
0.3667 4.5525 -0.9960 0.9815
0.1668 4.5638 -0.9959 0.9815
0.1001 4.5657 -0.9959 0.9815
-0.2334 4.5601 -0.9957 0.9815
-0.3000 4.5562 -0.9957 0.9815
-0.3665 4.5511 -0.9956 0.9815
-0.4330 4.5451 -0.9956 0.9815
-0.4571 3.6614 -0.8046 0.9850
-0.5559 3.5946 -0.7932 0.9852
-0.6117 3.6061 -0.7976 0.9851
-0.6683 3.6180 -0.8023 0.9851
-0.8946 4.4762 -0.9954 0.9815
-0.9599 4.4626 -0.9954 0.9815
-1.0250 4.4480 -0.9954 0.9815
-1.0898 4.4324 -0.9953 0.9815
-1.4735 4.3192 -0.9952 0.9815
-1.5364 4.2971 -0.9951 0.9815
-1.5990 4.2741 -0.9951 0.9815
-1.6612 4.2502 -0.9951 0.9815
-1.7231 4.2253 -0.9951 0.9815
-1.7846 4.1996 -0.9950 0.9815
-1.9668 4.1170 -0.9949 0.9815
-2.0267 4.0877 -0.9949 0.9815
-0.3397 0.5566 -0.1422 0.9973
-0.3422 0.5427 -0.1399 0.9974
-0.3488 0.5030 -0.1335 0.9975
-0.3528 0.4782 -0.1296 0.9976
-0.3546 0.4661 -0.1277 0.9976
-0.3562 0.4545 -0.1259 0.9976
-0.3579 0.4430 -0.1242 0.9977
-0.3594 0.4318 -0.1225 0.9977
-0.3608 0.4209 -0.1209 0.9977
-0.3722 0.3641 -0.1136 0.9979
-0.3780 0.3193 -0.1079 0.9980
-0.3798 0.3023 -0.1059 0.9980
-0.3807 0.2939 -0.1049 0.9980
-0.3846 0.2464 -0.0996 0.9981
-0.3852 0.2389 -0.0988 0.9981
-0.3856 0.2315 -0.0981 0.9982
-0.3865 0.2169 -0.0966 0.9982
-0.3874 0.1956 -0.0946 0.9982
-0.3885 0.1821 -0.0936 0.9982
-0.3890 0.1755 -0.0931 0.9983
-0.3895 0.1689 -0.0926 0.9983
-0.3899 0.1623 -0.0921 0.9983
-0.3903 0.1558 -0.0916 0.9983
-0.3916 0.1304 -0.0900 0.9983
-0.3920 0.1179 -0.0893 0.9983
-0.3922 0.1118 -0.0889 0.9983
-0.3923 0.1056 -0.0886 0.9983
-0.3925 0.0935 -0.0880 0.9983
-0.3926 0.0875 -0.0877 0.9984
-0.3926 0.0814 -0.0874 0.9984
-0.3926 0.0755 -0.0872 0.9984
-0.3926 0.0696 -0.0869 0.9984
-0.3925 0.0636 -0.0867 0.9984
-0.3924 0.0577 -0.0865 0.9984
-0.3921 0.0461 -0.0861 0.9984
-0.3920 0.0402 -0.0859 0.9984
-0.3915 0.0286 -0.0856 0.9984
-0.3835 -0.0056 -0.0881 0.9984
-0.3847 -0.0282 -0.0886 0.9984
-0.3849 -0.0338 -0.0887 0.9984
-0.3854 -0.0567 -0.0895 0.9984
-0.3855 -0.0683 -0.0899 0.9984
-0.3855 -0.0800 -0.0904 0.9984
-0.3855 -0.0859 -0.0907 0.9984
-0.3853 -0.0977 -0.0913 0.9984
-0.3852 -0.1037 -0.0916 0.9984
-0.3850 -0.1097 -0.0920 0.9984
-0.3843 -0.1280 -0.0930 0.9983
-0.3840 -0.1341 -0.0934 0.9983
-0.3830 -0.1529 -0.0947 0.9983
-0.3825 -0.1593 -0.0952 0.9983
-0.3820 -0.1657 -0.0957 0.9983
-0.3810 -0.1786 -0.0967 0.9983
-0.3795 -0.1917 -0.0977 0.9983
-0.3792 -0.1985 -0.0983 0.9982
-0.3788 -0.2054 -0.0990 0.9982
-0.3784 -0.2124 -0.0997 0.9982
-0.3775 -0.2266 -0.1011 0.9982
-0.3770 -0.2339 -0.1019 0.9982
-0.3765 -0.2412 -0.1027 0.9982
-0.3752 -0.2562 -0.1044 0.9981
-0.3745 -0.2638 -0.1052 0.9981
-0.3730 -0.2794 -0.1070 0.9981
-0.3703 -0.3036 -0.1100 0.9980
-0.3693 -0.3119 -0.1110 0.9980
-0.3683 -0.3204 -0.1121 0.9980
-0.3672 -0.3290 -0.1132 0.9980
-0.3660 -0.3377 -0.1144 0.9980
-0.3648 -0.3466 -0.1156 0.9979
-0.3615 -0.3642 -0.1179 0.9979
-0.3595 -0.3729 -0.1190 0.9979
-0.3575 -0.3818 -0.1201 0.9979
-0.3554 -0.3909 -0.1214 0.9978
-0.3511 -0.4096 -0.1239 0.9978
-0.3471 -0.4297 -0.1269 0.9977
-0.3453 -0.4405 -0.1286 0.9977
-0.3435 -0.4517 -0.1304 0.9977
-0.3417 -0.4631 -0.1322 0.9976
-0.3396 -0.4748 -0.1341 0.9976
-0.3376 -0.4867 -0.1361 0.9976
-0.3330 -0.5114 -0.1402 0.9975
-0.3253 -0.5510 -0.1470 0.9974
-0.3225 -0.5649 -0.1494 0.9973
-0.3673 -0.7144 -0.1845 0.9967
-1.8386 -3.8487 -0.9798 0.9826
-1.3944 -3.0320 -0.7666 0.9864
-1.3407 -3.0311 -0.7613 0.9865
-1.5530 -3.9732 -0.9799 0.9826
-1.4948 -3.9955 -0.9799 0.9826
-1.1994 -4.0945 -0.9800 0.9826
-1.1394 -4.1118 -0.9801 0.9826
-1.0792 -4.1280 -0.9801 0.9826
-0.9582 -4.1580 -0.9801 0.9826
-0.8974 -4.1717 -0.9802 0.9826
-0.8363 -4.1845 -0.9802 0.9826
-0.7138 -4.2074 -0.9802 0.9826
-0.6522 -4.2175 -0.9803 0.9826
-0.5287 -4.2350 -0.9803 0.9826
-0.4668 -4.2424 -0.9804 0.9826
-0.3427 -4.2545 -0.9804 0.9826
-0.2805 -4.2591 -0.9804 0.9826
-0.2182 -4.2628 -0.9805 0.9826
-0.1559 -4.2657 -0.9805 0.9826
0.1331 -3.6417 -0.8371 0.9852
0.1864 -3.6415 -0.8376 0.9851
0.2970 -3.6878 -0.8498 0.9849
0.4028 -3.6607 -0.8459 0.9850
0.5909 -4.2289 -0.9808 0.9826
0.9596 -4.1617 -0.9810 0.9826
1.0197 -4.1473 -0.9810 0.9826
1.1405 -4.1159 -0.9811 0.9826
1.2604 -4.0811 -0.9811 0.9826
1.3199 -4.0623 -0.9811 0.9826
1.4381 -4.0222 -0.9812 0.9826
1.6131 -3.9556 -0.9813 0.9826
1.7281 -3.9070 -0.9813 0.9826
1.8416 -3.8551 -0.9814 0.9826
1.8978 -3.8278 -0.9814 0.9826
1.9536 -3.7998 -0.9814 0.9826
2.0090 -3.7709 -0.9814 0.9826
2.1724 -3.6795 -0.9815 0.9826
2.2260 -3.6475 -0.9815 0.9826
2.3839 -3.5467 -0.9816 0.9826
2.4866 -3.4757 -0.9816 0.9826
2.5372 -3.4391 -0.9817 0.9826
2.3612 -3.0121 -0.8792 0.9844
2.4438 -3.0254 -0.8933 0.9842
2.7340 -3.2853 -0.9818 0.9826
2.8289 -3.2041 -0.9818 0.9826
2.9668 -3.0772 -0.9819 0.9826
3.0115 -3.0336 -0.9819 0.9826
3.0990 -2.9444 -0.9819 0.9826
3.1838 -2.8527 -0.9820 0.9826
3.2252 -2.8060 -0.9820 0.9826
3.3453 -2.6621 -0.9820 0.9826
3.4589 -2.5130 -0.9821 0.9826
3.5117 -2.4738 -0.9867 0.9825
3.6213 -2.3958 -0.9974 0.9823
3.7868 -2.1253 -0.9975 0.9823
3.8175 -2.0697 -0.9975 0.9823
3.8474 -2.0137 -0.9975 0.9823
3.9320 -1.8432 -0.9975 0.9823
3.9587 -1.7857 -0.9975 0.9823
4.0564 -1.5514 -0.9976 0.9823
4.1000 -1.4323 -0.9976 0.9823
4.1590 -1.2513 -0.9976 0.9823
4.2527 -0.8823 -0.9977 0.9823
4.2652 -0.8201 -0.9977 0.9823
4.2874 -0.6951 -0.9977 0.9823
4.3138 -0.5066 -0.9977 0.9823
4.3268 -0.3803 -0.9977 0.9823
4.3319 -0.3171 -0.9977 0.9823
4.3360 -0.2537 -0.9977 0.9823
4.3416 -0.1269 -0.9977 0.9823
4.3430 -0.0635 -0.9977 0.9823
4.3435 0.0000 -0.9977 0.9823
4.3430 0.0635 -0.9977 0.9823
4.3393 0.1904 -0.9977 0.9823
4.3360 0.2537 -0.9977 0.9823
4.3319 0.3170 -0.9977 0.9823
4.3138 0.5066 -0.9977 0.9823
4.3059 0.5696 -0.9977 0.9823
4.2971 0.6324 -0.9977 0.9823
4.2767 0.7577 -0.9977 0.9823
4.2527 0.8823 -0.9977 0.9823
4.2394 0.9443 -0.9977 0.9823
4.2251 1.0062 -0.9977 0.9823
4.2099 1.0679 -0.9976 0.9823
4.1769 1.1904 -0.9976 0.9823
4.1402 1.3119 -0.9976 0.9823
4.1206 1.3722 -0.9976 0.9823
4.1001 1.4323 -0.9976 0.9823
4.0786 1.4920 -0.9976 0.9823
4.0564 1.5514 -0.9976 0.9823
4.0332 1.6105 -0.9976 0.9823
3.9587 1.7857 -0.9975 0.9823
3.9047 1.9005 -0.9975 0.9823
3.7553 2.1804 -0.9974 0.9823
3.6899 2.2891 -0.9974 0.9823
3.6213 2.3959 -0.9974 0.9823
3.5859 2.4484 -0.9974 0.9823
3.5496 2.5005 -0.9974 0.9823
3.5127 2.5521 -0.9973 0.9823
3.4749 2.6031 -0.9973 0.9823
3.4365 2.6536 -0.9973 0.9823
3.3167 2.8015 -0.9973 0.9823
3.2754 2.8496 -0.9972 0.9823
3.2333 2.8971 -0.9972 0.9823
3.1472 2.9902 -0.9972 0.9823
3.1031 3.0358 -0.9972 0.9823
3.0130 3.1250 -0.9971 0.9823
2.8729 3.2539 -0.9971 0.9823
2.7765 3.3363 -0.9970 0.9823
2.6777 3.4159 -0.9970 0.9823
2.6275 3.4546 -0.9970 0.9823
2.5253 3.5297 -0.9969 0.9823
2.4209 3.6018 -0.9969 0.9823
2.3680 3.6367 -0.9968 0.9823
2.3146 3.6709 -0.9968 0.9823
2.2606 3.7042 -0.9968 0.9823
2.2062 3.7368 -0.9968 0.9823
2.1513 3.7685 -0.9967 0.9823
1.9273 3.8873 -0.9967 0.9824
1.8703 3.9150 -0.9966 0.9824
1.8128 3.9418 -0.9966 0.9824
1.7550 3.9678 -0.9966 0.9824
1.6968 3.9929 -0.9965 0.9824
1.6383 4.0171 -0.9965 0.9824
1.5793 4.0405 -0.9965 0.9824
1.4006 4.1055 -0.9964 0.9824
1.2800 4.1445 -0.9964 0.9824
1.2193 4.1626 -0.9963 0.9824
1.1583 4.1800 -0.9963 0.9824
1.0971 4.1963 -0.9963 0.9824
0.7253 4.2755 -0.9961 0.9824
0.5372 4.3029 -0.9960 0.9824
0.4742 4.3101 -0.9960 0.9824
0.4112 4.3164 -0.9960 0.9824
0.3481 4.3219 -0.9960 0.9824
0.2849 4.3264 -0.9959 0.9824
0.1583 4.3326 -0.9959 0.9824
0.0950 4.3344 -0.9959 0.9824
0.0317 4.3352 -0.9958 0.9824
-0.2848 4.3254 -0.9957 0.9824
-0.4257 3.8687 -0.8940 0.9842
-0.5055 3.6177 -0.8391 0.9851
-0.8493 4.2496 -0.9954 0.9824
-0.9731 4.2227 -0.9954 0.9824
-1.0960 4.1923 -0.9953 0.9824
-1.2180 4.1582 -0.9953 0.9824
-1.5181 4.0577 -0.9951 0.9824
-1.5771 4.0350 -0.9951 0.9824
-1.6359 4.0114 -0.9951 0.9824
-1.7523 3.9617 -0.9950 0.9824
-1.8100 3.9355 -0.9950 0.9824
-1.8672 3.9086 -0.9950 0.9824
-1.9241 3.8808 -0.9950 0.9824
-0.3225 0.5649 -0.1494 0.9973
-0.3280 0.5375 -0.1446 0.9974
-0.3306 0.5243 -0.1424 0.9975
-0.3330 0.5114 -0.1402 0.9975
-0.3354 0.4989 -0.1381 0.9975
-0.3376 0.4867 -0.1361 0.9976
-0.3453 0.4405 -0.1286 0.9977
-0.3533 0.4002 -0.1226 0.9978
-0.3595 0.3729 -0.1190 0.9979
-0.3635 0.3556 -0.1168 0.9979
-0.3648 0.3466 -0.1156 0.9979
-0.3683 0.3204 -0.1121 0.9980
-0.3693 0.3119 -0.1110 0.9980
-0.3703 0.3036 -0.1100 0.9980
-0.3712 0.2954 -0.1090 0.9981
-0.3721 0.2873 -0.1080 0.9981
-0.3738 0.2716 -0.1061 0.9981
-0.3745 0.2638 -0.1052 0.9981
-0.3752 0.2561 -0.1044 0.9981
-0.3758 0.2486 -0.1035 0.9982
-0.3764 0.2412 -0.1027 0.9982
-0.3775 0.2266 -0.1011 0.9982
-0.3789 0.2054 -0.0990 0.9982
-0.3792 0.1985 -0.0983 0.9982
-0.3795 0.1916 -0.0977 0.9983
-0.3816 0.1721 -0.0961 0.9983
-0.3821 0.1657 -0.0957 0.9983
-0.3829 0.1529 -0.0947 0.9983
-0.3833 0.1466 -0.0943 0.9983
-0.3840 0.1341 -0.0934 0.9983
-0.3848 0.1157 -0.0923 0.9984
-0.3853 0.0977 -0.0913 0.9984
-0.3854 0.0918 -0.0910 0.9984
-0.3855 0.0859 -0.0907 0.9984
-0.3855 0.0800 -0.0904 0.9984
-0.3855 0.0741 -0.0902 0.9984
-0.3855 0.0683 -0.0899 0.9984
-0.3854 0.0567 -0.0895 0.9984
-0.3853 0.0509 -0.0893 0.9984
-0.3849 0.0338 -0.0887 0.9984
-0.3847 0.0282 -0.0886 0.9984
-0.3841 0.0168 -0.0883 0.9984
-0.3766 0.0000 -0.0909 0.9985
-0.3775 -0.0165 -0.0912 0.9984
-0.3777 -0.0221 -0.0913 0.9984
-0.3786 -0.0501 -0.0922 0.9984
-0.3786 -0.0557 -0.0924 0.9984
-0.3787 -0.0671 -0.0928 0.9984
-0.3787 -0.0728 -0.0931 0.9984
-0.3787 -0.0786 -0.0934 0.9984
-0.3785 -0.0901 -0.0939 0.9984
-0.3782 -0.1018 -0.0946 0.9984
-0.3781 -0.1077 -0.0949 0.9984
-0.3776 -0.1196 -0.0956 0.9984
-0.3773 -0.1257 -0.0960 0.9984
-0.3770 -0.1317 -0.0964 0.9984
-0.3766 -0.1378 -0.0968 0.9984
-0.3762 -0.1439 -0.0972 0.9983
-0.3758 -0.1501 -0.0977 0.9983
-0.3749 -0.1625 -0.0986 0.9983
-0.3743 -0.1689 -0.0991 0.9983
-0.3730 -0.1816 -0.1002 0.9983
-0.3722 -0.1879 -0.1007 0.9983
-0.3707 -0.2080 -0.1026 0.9983
-0.3702 -0.2150 -0.1033 0.9982
-0.3692 -0.2290 -0.1049 0.9982
-0.3685 -0.2362 -0.1057 0.9982
-0.3648 -0.2732 -0.1100 0.9981
-0.3639 -0.2810 -0.1110 0.9981
-0.3620 -0.2968 -0.1130 0.9981
-0.3587 -0.3214 -0.1163 0.9980
-0.3548 -0.3471 -0.1198 0.9980
-0.3511 -0.3641 -0.1221 0.9979
-0.3447 -0.3904 -0.1257 0.9979
-0.3424 -0.3995 -0.1270 0.9978
-0.3377 -0.4181 -0.1297 0.9978
-0.3352 -0.4277 -0.1312 0.9978
-0.3312 -0.4489 -0.1347 0.9977
-0.3269 -0.4714 -0.1385 0.9976
-0.3246 -0.4830 -0.1405 0.9976
-0.3197 -0.5071 -0.1447 0.9975
-0.3114 -0.5454 -0.1516 0.9974
-0.3237 -0.6296 -0.1709 0.9971
-0.3560 -0.7453 -0.1994 0.9966
-1.3460 -3.0431 -0.8033 0.9864
-1.5876 -3.7358 -0.9799 0.9834
-1.5328 -3.7587 -0.9799 0.9834
-1.4224 -3.8021 -0.9799 0.9834
-1.1980 -3.8791 -0.9800 0.9834
-1.0842 -3.9126 -0.9801 0.9834
-0.9695 -3.9428 -0.9801 0.9834
-0.9118 -3.9567 -0.9802 0.9834
-0.7958 -3.9818 -0.9802 0.9834
-0.5619 -4.0219 -0.9803 0.9834
-0.3852 -4.0430 -0.9804 0.9834
-0.3260 -4.0483 -0.9804 0.9834
-0.2669 -4.0527 -0.9804 0.9834
-0.0890 -4.0609 -0.9805 0.9834
0.1875 -3.6632 -0.8854 0.9850
0.2412 -3.6628 -0.8861 0.9850
0.2970 -3.6870 -0.8929 0.9849
0.3587 -3.7648 -0.9129 0.9846
0.5033 -4.0316 -0.9808 0.9834
0.4800 -3.4357 -0.8374 0.9858
0.5215 -3.3725 -0.8238 0.9861
0.5622 -3.3143 -0.8115 0.9863
0.7964 -3.9846 -0.9809 0.9834
0.8546 -3.9727 -0.9809 0.9834
1.0279 -3.9318 -0.9810 0.9834
1.2559 -3.8654 -0.9811 0.9834
1.3684 -3.8272 -0.9812 0.9834
1.4797 -3.7857 -0.9812 0.9834
1.5349 -3.7638 -0.9812 0.9834
1.5898 -3.7411 -0.9813 0.9834
1.7523 -3.6681 -0.9813 0.9834
1.8058 -3.6422 -0.9813 0.9834
1.9115 -3.5880 -0.9814 0.9834
2.0671 -3.5011 -0.9815 0.9834
2.1181 -3.4706 -0.9815 0.9834
2.1686 -3.4393 -0.9815 0.9834
2.2186 -3.4074 -0.9815 0.9834
2.2683 -3.3746 -0.9816 0.9834
2.3174 -3.3412 -0.9816 0.9834
2.3660 -3.3071 -0.9816 0.9834
2.3788 -3.0346 -0.9308 0.9843
2.4531 -3.0368 -0.9424 0.9841
2.6014 -3.1259 -0.9817 0.9834
2.6468 -3.0876 -0.9817 0.9834
2.7360 -3.0091 -0.9818 0.9834
2.8229 -2.9279 -0.9818 0.9834
2.9486 -2.8015 -0.9818 0.9834
3.0687 -2.6698 -0.9819 0.9834
3.1830 -2.5329 -0.9820 0.9834
3.3422 -2.4283 -0.9973 0.9831
3.4119 -2.3296 -0.9973 0.9831
3.4785 -2.2290 -0.9973 0.9831
3.5108 -2.1780 -0.9973 0.9831
3.5423 -2.1264 -0.9973 0.9831
3.5730 -2.0745 -0.9974 0.9831
