ply
format ascii 1.0
element vertex 1594
property float32 x
property float32 y
property float32 z
property float32 I
end_header
-0.3737 0.3551 -0.1124 0.9979
-0.3749 0.3459 -0.1112 0.9979
-0.3771 0.3280 -0.1090 0.9980
-0.3780 0.3193 -0.1079 0.9980
-0.3790 0.3107 -0.1069 0.9980
-0.3799 0.3023 -0.1059 0.9980
-0.3815 0.2857 -0.1039 0.9981
-0.3822 0.2777 -0.1030 0.9981
-0.3829 0.2697 -0.1021 0.9981
-0.3841 0.2541 -0.1004 0.9981
-0.3846 0.2465 -0.0996 0.9981
-0.3852 0.2389 -0.0988 0.9981
-0.3865 0.2169 -0.0966 0.9982
-0.3871 0.2026 -0.0953 0.9982
-0.3874 0.1956 -0.0946 0.9982
-0.3878 0.1887 -0.0941 0.9982
-0.3885 0.1821 -0.0936 0.9982
-0.3895 0.1689 -0.0926 0.9983
-0.3899 0.1623 -0.0921 0.9983
-0.3910 0.1430 -0.0908 0.9983
-0.3918 0.1241 -0.0896 0.9983
-0.3922 0.1117 -0.0889 0.9983
-0.3925 0.0934 -0.0880 0.9983
-0.3926 0.0875 -0.0877 0.9984
-0.3926 0.0814 -0.0874 0.9984
-0.3926 0.0755 -0.0872 0.9984
-0.3925 0.0696 -0.0869 0.9984
-0.3923 0.0518 -0.0863 0.9984
-0.3913 0.0229 -0.0855 0.9984
-0.3910 0.0171 -0.0853 0.9984
-0.3903 0.0057 -0.0851 0.9984
-0.3838 -0.0112 -0.0882 0.9984
-0.3844 -0.0225 -0.0884 0.9984
-0.3846 -0.0282 -0.0886 0.9984
-0.3848 -0.0339 -0.0887 0.9984
-0.3850 -0.0396 -0.0889 0.9984
-0.3852 -0.0453 -0.0891 0.9984
-0.3853 -0.0510 -0.0893 0.9984
-0.3854 -0.0568 -0.0895 0.9984
-0.3855 -0.0684 -0.0899 0.9984
-0.3855 -0.0800 -0.0904 0.9984
-0.3854 -0.0859 -0.0907 0.9984
-0.3854 -0.0918 -0.0910 0.9984
-0.3852 -0.1037 -0.0916 0.9984
-0.3850 -0.1097 -0.0920 0.9984
-0.3848 -0.1158 -0.0923 0.9984
-0.3833 -0.1466 -0.0943 0.9983
-0.3829 -0.1530 -0.0947 0.9983
-0.3825 -0.1593 -0.0952 0.9983
-0.3815 -0.1721 -0.0961 0.9983
-0.3810 -0.1786 -0.0967 0.9983
-0.3803 -0.1851 -0.0972 0.9983
-0.3785 -0.2124 -0.0997 0.9982
-0.3770 -0.2339 -0.1019 0.9982
-0.3764 -0.2412 -0.1027 0.9982
-0.3758 -0.2487 -0.1035 0.9982
-0.3745 -0.2638 -0.1052 0.9981
-0.3721 -0.2873 -0.1080 0.9981
-0.3713 -0.2954 -0.1090 0.9981
-0.3703 -0.3036 -0.1100 0.9980
-0.3693 -0.3120 -0.1110 0.9980
-0.3660 -0.3377 -0.1144 0.9980
-0.3648 -0.3466 -0.1156 0.9979
-0.3634 -0.3556 -0.1168 0.9979
-0.3615 -0.3642 -0.1179 0.9979
-0.3595 -0.3729 -0.1190 0.9979
-0.3575 -0.3818 -0.1201 0.9979
-0.3554 -0.3909 -0.1214 0.9978
-0.3533 -0.4002 -0.1226 0.9978
-0.3511 -0.4096 -0.1239 0.9978
-0.3489 -0.4192 -0.1253 0.9978
-0.3471 -0.4297 -0.1269 0.9977
-0.3454 -0.4406 -0.1286 0.9977
-0.3416 -0.4631 -0.1322 0.9976
-0.3397 -0.4748 -0.1341 0.9976
-0.3353 -0.4989 -0.1381 0.9975
-0.3306 -0.5243 -0.1424 0.9975
-0.3492 -0.6555 -0.1706 0.9970
-0.3673 -0.7145 -0.1845 0.9967
-1.8386 -3.8487 -0.9798 0.9826
-1.7822 -3.8753 -0.9798 0.9826
-1.7255 -3.9011 -0.9798 0.9826
-1.6683 -3.9259 -0.9798 0.9826
-1.5530 -3.9732 -0.9799 0.9826
-1.4363 -4.0171 -0.9799 0.9826
-1.2590 -4.0765 -0.9800 0.9826
-1.1394 -4.1118 -0.9801 0.9826
-1.0792 -4.1280 -0.9801 0.9826
-1.0188 -4.1436 -0.9801 0.9826
-0.8974 -4.1717 -0.9802 0.9826
-0.8363 -4.1846 -0.9802 0.9826
-0.6522 -4.2175 -0.9803 0.9826
-0.5905 -4.2268 -0.9803 0.9826
-0.5287 -4.2350 -0.9803 0.9826
-0.4668 -4.2424 -0.9804 0.9826
-0.3427 -4.2545 -0.9804 0.9826
-0.2804 -4.2592 -0.9804 0.9826
-0.0936 -4.2677 -0.9805 0.9826
0.0312 -4.2689 -0.9806 0.9826
0.1559 -4.2664 -0.9806 0.9826
0.2805 -4.2602 -0.9807 0.9826
0.4670 -4.2442 -0.9808 0.9826
0.5290 -4.2371 -0.9808 0.9826
0.6526 -4.2200 -0.9809 0.9826
0.7757 -4.1994 -0.9809 0.9826
0.7012 -3.2598 -0.7659 0.9864
0.7094 -3.0782 -0.7256 0.9871
0.8114 -3.1034 -0.7368 0.9869
0.9166 -3.1295 -0.7491 0.9867
1.0816 -3.1704 -0.7695 0.9863
1.0822 -3.0266 -0.7383 0.9869
1.3167 -3.2286 -0.8009 0.9858
1.3785 -3.2439 -0.8096 0.9856
1.4418 -3.2596 -0.8187 0.9855
1.4648 -2.9544 -0.7575 0.9866
1.4283 -2.6809 -0.6978 0.9876
2.0639 -3.7413 -0.9815 0.9826
2.1184 -3.7109 -0.9815 0.9826
2.1725 -3.6796 -0.9815 0.9826
2.2261 -3.6475 -0.9815 0.9826
2.2792 -3.6147 -0.9816 0.9826
2.3839 -3.5467 -0.9816 0.9826
2.4356 -3.5116 -0.9816 0.9826
2.4867 -3.4757 -0.9817 0.9826
2.5372 -3.4391 -0.9817 0.9826
2.6857 -3.3248 -0.9818 0.9826
2.7818 -3.2451 -0.9818 0.9826
2.8290 -3.2042 -0.9818 0.9826
2.9216 -3.1203 -0.9819 0.9826
2.9669 -3.0773 -0.9819 0.9826
3.0116 -3.0337 -0.9819 0.9826
3.0557 -2.9894 -0.9819 0.9826
3.0991 -2.9445 -0.9819 0.9826
3.1418 -2.8989 -0.9820 0.9826
3.2253 -2.8060 -0.9820 0.9826
3.2660 -2.7586 -0.9820 0.9826
3.3060 -2.7107 -0.9820 0.9826
3.3453 -2.6621 -0.9820 0.9826
3.4568 -2.5895 -0.9921 0.9824
3.5497 -2.5006 -0.9974 0.9823
3.5859 -2.4485 -0.9974 0.9823
3.6561 -2.3427 -0.9974 0.9823
3.8176 -2.0698 -0.9975 0.9823
3.8475 -2.0138 -0.9975 0.9823
3.8765 -1.9574 -0.9975 0.9823
3.9048 -1.9006 -0.9975 0.9823
3.9587 -1.7857 -0.9976 0.9823
3.9845 -1.7277 -0.9976 0.9823
4.0093 -1.6693 -0.9976 0.9823
4.1001 -1.4323 -0.9976 0.9823
4.1207 -1.3723 -0.9976 0.9823
4.1403 -1.3119 -0.9976 0.9823
4.1591 -1.2513 -0.9976 0.9823
4.1770 -1.1904 -0.9977 0.9823
4.1939 -1.1293 -0.9977 0.9823
4.2100 -1.0679 -0.9977 0.9823
4.2252 -1.0062 -0.9977 0.9823
4.2395 -0.9444 -0.9977 0.9823
4.2875 -0.6951 -0.9977 0.9823
4.3139 -0.5066 -0.9977 0.9823
4.3209 -0.4435 -0.9977 0.9823
4.3269 -0.3803 -0.9977 0.9823
4.3320 -0.3171 -0.9977 0.9823
4.3362 -0.2537 -0.9977 0.9823
4.3394 -0.1904 -0.9977 0.9823
4.3417 -0.1270 -0.9977 0.9823
4.3431 -0.0635 -0.9977 0.9823
4.3417 0.1269 -0.9977 0.9823
4.3394 0.1903 -0.9977 0.9823
4.3269 0.3803 -0.9977 0.9823
4.3209 0.4435 -0.9977 0.9823
4.3139 0.5066 -0.9977 0.9823
4.3060 0.5695 -0.9977 0.9823
4.2972 0.6324 -0.9977 0.9823
4.2875 0.6951 -0.9977 0.9823
4.2769 0.7577 -0.9977 0.9823
4.2653 0.8201 -0.9977 0.9823
4.2529 0.8823 -0.9977 0.9823
4.2395 0.9443 -0.9977 0.9823
4.2252 1.0062 -0.9977 0.9823
4.2100 1.0678 -0.9977 0.9823
4.1939 1.1292 -0.9977 0.9823
4.1770 1.1904 -0.9977 0.9823
4.1591 1.2513 -0.9976 0.9823
4.1403 1.3119 -0.9976 0.9823
4.1207 1.3723 -0.9976 0.9823
4.1002 1.4323 -0.9976 0.9823
4.0565 1.5514 -0.9976 0.9823
4.0333 1.6105 -0.9976 0.9823
4.0093 1.6693 -0.9976 0.9823
3.9845 1.7277 -0.9976 0.9823
3.8766 1.9574 -0.9975 0.9823
3.8475 2.0137 -0.9975 0.9823
3.8176 2.0698 -0.9975 0.9823
3.7869 2.1253 -0.9975 0.9823
3.7554 2.1804 -0.9975 0.9823
3.7231 2.2350 -0.9975 0.9823
3.6561 2.3427 -0.9974 0.9823
3.5860 2.4485 -0.9974 0.9823
3.5497 2.5006 -0.9974 0.9823
3.5128 2.5522 -0.9974 0.9823
3.4750 2.6032 -0.9973 0.9823
3.4366 2.6536 -0.9973 0.9823
3.3575 2.7528 -0.9973 0.9823
3.2754 2.8496 -0.9973 0.9823
3.1907 2.9440 -0.9972 0.9823
3.0130 3.1251 -0.9971 0.9823
2.9203 3.2117 -0.9971 0.9823
2.8730 3.2539 -0.9971 0.9823
2.7766 3.3364 -0.9970 0.9823
2.7274 3.3765 -0.9970 0.9823
2.6778 3.4159 -0.9970 0.9823
2.2063 3.7368 -0.9968 0.9823
2.1514 3.7686 -0.9968 0.9823
2.0402 3.8296 -0.9967 0.9823
1.9274 3.8874 -0.9967 0.9823
1.5695 3.4127 -0.8628 0.9847
1.4253 3.3540 -0.8371 0.9852
1.2277 3.4334 -0.8376 0.9851
1.1638 3.5816 -0.8651 0.9847
0.9740 4.2264 -0.9962 0.9824
0.9121 4.2400 -0.9962 0.9824
0.7253 4.2756 -0.9961 0.9824
0.6627 4.2856 -0.9961 0.9824
0.5372 4.3029 -0.9961 0.9824
0.3667 3.3323 -0.7700 0.9863
0.1615 3.1536 -0.7253 0.9871
0.1150 3.1448 -0.7229 0.9872
0.0225 3.0795 -0.7074 0.9874
-0.0655 2.9895 -0.6869 0.9878
-0.1078 2.9499 -0.6780 0.9880
-0.1905 2.8942 -0.6662 0.9882
-0.3205 2.9134 -0.6732 0.9880
-0.4538 2.9349 -0.6822 0.9879
-0.5448 2.9496 -0.6890 0.9878
-0.5910 2.9572 -0.6927 0.9877
-0.9113 4.2366 -0.9954 0.9824
-1.0347 4.2079 -0.9954 0.9824
-1.0960 4.1922 -0.9953 0.9824
-1.1571 4.1757 -0.9953 0.9824
-1.1251 3.6430 -0.8758 0.9845
-1.2356 3.4557 -0.8430 0.9851
-1.3954 3.4218 -0.8488 0.9849
-1.4627 3.4421 -0.8591 0.9848
-1.5650 3.5382 -0.8887 0.9842
-1.8099 3.9355 -0.9950 0.9824
-1.8672 3.9086 -0.9950 0.9824
-0.3225 0.5649 -0.1494 0.9973
-0.3253 0.5510 -0.1470 0.9974
-0.3330 0.5115 -0.1402 0.9975
-0.3376 0.4867 -0.1361 0.9976
-0.3397 0.4748 -0.1341 0.9976
-0.3416 0.4631 -0.1322 0.9976
-0.3471 0.4296 -0.1269 0.9977
-0.3489 0.4192 -0.1253 0.9978
-0.3595 0.3729 -0.1190 0.9979
-0.3615 0.3642 -0.1179 0.9979
-0.3635 0.3555 -0.1168 0.9979
-0.3660 0.3377 -0.1144 0.9980
-0.3671 0.3289 -0.1132 0.9980
-0.3682 0.3204 -0.1121 0.9980
-0.3703 0.3036 -0.1100 0.9980
-0.3712 0.2954 -0.1090 0.9981
-0.3721 0.2873 -0.1080 0.9981
-0.3730 0.2794 -0.1070 0.9981
-0.3738 0.2715 -0.1061 0.9981
-0.3752 0.2562 -0.1044 0.9981
-0.3759 0.2486 -0.1035 0.9982
-0.3765 0.2412 -0.1027 0.9982
-0.3770 0.2339 -0.1019 0.9982
-0.3775 0.2266 -0.1011 0.9982
-0.3788 0.2054 -0.0990 0.9982
-0.3795 0.1916 -0.0977 0.9983
-0.3810 0.1786 -0.0967 0.9983
-0.3815 0.1721 -0.0961 0.9983
-0.3825 0.1593 -0.0952 0.9983
-0.3829 0.1529 -0.0947 0.9983
-0.3833 0.1466 -0.0943 0.9983
-0.3840 0.1341 -0.0934 0.9983
-0.3850 0.1097 -0.0920 0.9984
-0.3851 0.1037 -0.0916 0.9984
-0.3854 0.0918 -0.0910 0.9984
-0.3855 0.0800 -0.0904 0.9984
-0.3855 0.0741 -0.0902 0.9984
-0.3855 0.0625 -0.0897 0.9984
-0.3853 0.0510 -0.0893 0.9984
-0.3774 -0.0166 -0.0912 0.9984
-0.3777 -0.0221 -0.0913 0.9984
-0.3784 -0.0445 -0.0920 0.9984
-0.3786 -0.0501 -0.0922 0.9984
-0.3787 -0.0671 -0.0928 0.9984
-0.3787 -0.0786 -0.0934 0.9984
-0.3786 -0.0843 -0.0936 0.9984
-0.3784 -0.0960 -0.0942 0.9984
-0.3782 -0.1018 -0.0946 0.9984
-0.3776 -0.1196 -0.0956 0.9984
-0.3766 -0.1378 -0.0968 0.9984
-0.3762 -0.1439 -0.0972 0.9983
-0.3749 -0.1626 -0.0986 0.9983
-0.3744 -0.1689 -0.0991 0.9983
-0.3738 -0.1752 -0.0997 0.9983
-0.3731 -0.1816 -0.1002 0.9983
-0.3722 -0.1880 -0.1007 0.9983
-0.3716 -0.1945 -0.1012 0.9983
-0.3712 -0.2012 -0.1019 0.9983
-0.3707 -0.2080 -0.1026 0.9983
-0.3702 -0.2150 -0.1033 0.9982
-0.3691 -0.2290 -0.1049 0.9982
-0.3664 -0.2582 -0.1082 0.9982
-0.3656 -0.2657 -0.1091 0.9981
-0.3648 -0.2733 -0.1100 0.9981
-0.3620 -0.2968 -0.1130 0.9981
-0.3609 -0.3049 -0.1141 0.9981
-0.3598 -0.3131 -0.1151 0.9980
-0.3587 -0.3214 -0.1163 0.9980
-0.3574 -0.3298 -0.1174 0.9980
-0.3562 -0.3384 -0.1186 0.9980
-0.3548 -0.3471 -0.1198 0.9980
-0.3531 -0.3557 -0.1210 0.9979
-0.3510 -0.3642 -0.1221 0.9979
-0.3446 -0.3904 -0.1257 0.9979
-0.3424 -0.3995 -0.1270 0.9978
-0.3377 -0.4181 -0.1297 0.9978
-0.3352 -0.4276 -0.1312 0.9978
-0.3332 -0.4381 -0.1329 0.9977
-0.3312 -0.4489 -0.1347 0.9977
-0.3246 -0.4830 -0.1405 0.9976
-0.3171 -0.5195 -0.1469 0.9975
-0.3143 -0.5323 -0.1492 0.9975
-0.3083 -0.5589 -0.1541 0.9974
-0.3237 -0.6296 -0.1709 0.9971
-1.6960 -3.6877 -0.9798 0.9834
-1.6419 -3.7121 -0.9798 0.9834
-1.5328 -3.7587 -0.9799 0.9834
-1.4224 -3.8021 -0.9799 0.9834
-1.1412 -3.8963 -0.9801 0.9834
-0.9695 -3.9429 -0.9801 0.9834
-0.7958 -3.9819 -0.9802 0.9834
-0.7375 -3.9932 -0.9802 0.9834
-0.4442 -4.0369 -0.9804 0.9834
-0.3852 -4.0430 -0.9804 0.9834
-0.2669 -4.0528 -0.9804 0.9834
-0.2076 -4.0564 -0.9805 0.9834
-0.1484 -4.0590 -0.9805 0.9834
-0.0890 -4.0609 -0.9805 0.9834
-0.0297 -4.0619 -0.9806 0.9834
0.0297 -4.0620 -0.9806 0.9834
0.0890 -4.0612 -0.9806 0.9834
0.3261 -4.0495 -0.9807 0.9834
0.3853 -4.0445 -0.9807 0.9834
0.4444 -4.0385 -0.9808 0.9834
0.5622 -4.0240 -0.9808 0.9834
0.6210 -4.0155 -0.9808 0.9834
0.7381 -3.9958 -0.9809 0.9834
0.7964 -3.9847 -0.9809 0.9834
0.8546 -3.9727 -0.9809 0.9834
0.7094 -3.0782 -0.7625 0.9871
0.8114 -3.1034 -0.7743 0.9869
0.8636 -3.1164 -0.7806 0.9868
0.9167 -3.1295 -0.7872 0.9867
0.9707 -3.1429 -0.7940 0.9866
1.0256 -3.1565 -0.8012 0.9864
1.3167 -3.2286 -0.8417 0.9858
1.4418 -3.2596 -0.8604 0.9854
1.4304 -3.1101 -0.8264 0.9860
1.4129 -2.9575 -0.7912 0.9866
1.8058 -3.6423 -0.9814 0.9834
1.9638 -3.5598 -0.9814 0.9834
2.0157 -3.5309 -0.9815 0.9834
2.0671 -3.5011 -0.9815 0.9834
2.1181 -3.4707 -0.9815 0.9834
2.1686 -3.4394 -0.9815 0.9834
2.2683 -3.3747 -0.9816 0.9834
2.3174 -3.3413 -0.9816 0.9834
2.3661 -3.3072 -0.9816 0.9834
2.5554 -3.1635 -0.9817 0.9834
2.6014 -3.1259 -0.9817 0.9834
3.2325 -2.5723 -0.9972 0.9831
3.2698 -2.5248 -0.9972 0.9831
3.3775 -2.3793 -0.9973 0.9831
3.6031 -2.0221 -0.9974 0.9831
3.6608 -1.9161 -0.9974 0.9831
3.6884 -1.8624 -0.9974 0.9831
3.7153 -1.8083 -0.9974 0.9831
3.8376 -1.5324 -0.9975 0.9831
3.9394 -1.2482 -0.9975 0.9831
3.9572 -1.1905 -0.9976 0.9831
3.9742 -1.1326 -0.9976 0.9831
4.0057 -1.0161 -0.9976 0.9831
4.0201 -0.9574 -0.9976 0.9831
4.0464 -0.8395 -0.9976 0.9831
4.0583 -0.7803 -0.9976 0.9831
4.0693 -0.7209 -0.9976 0.9831
4.0886 -0.6018 -0.9976 0.9831
4.0970 -0.5419 -0.9976 0.9831
4.1217 -0.3016 -0.9976 0.9831
4.1257 -0.2414 -0.9976 0.9831
4.1310 -0.1208 -0.9976 0.9831
4.1327 -0.0000 -0.9976 0.9831
4.1323 0.0604 -0.9976 0.9831
4.1168 0.3619 -0.9976 0.9831
4.1111 0.4220 -0.9976 0.9831
4.0970 0.5419 -0.9976 0.9831
4.0337 0.8986 -0.9976 0.9831
4.0201 0.9574 -0.9976 0.9831
4.0057 1.0160 -0.9976 0.9831
3.9904 1.0744 -0.9976 0.9831
3.9742 1.1326 -0.9976 0.9831
3.9394 1.2482 -0.9975 0.9831
3.9207 1.3057 -0.9975 0.9831
3.8148 1.5883 -0.9975 0.9831
3.7911 1.6438 -0.9975 0.9831
3.7666 1.6990 -0.9975 0.9831
3.7414 1.7539 -0.9975 0.9831
3.6884 1.8624 -0.9974 0.9831
3.6608 1.9161 -0.9974 0.9831
3.6323 1.9693 -0.9974 0.9831
3.5731 2.0746 -0.9974 0.9831
3.4457 2.2796 -0.9973 0.9831
3.2325 2.5723 -0.9972 0.9831
3.1945 2.6193 -0.9972 0.9831
3.1559 2.6656 -0.9972 0.9831
3.1165 2.7114 -0.9972 0.9831
3.0359 2.8012 -0.9972 0.9831
2.9946 2.8452 -0.9971 0.9831
2.9100 2.9314 -0.9971 0.9831
2.8230 3.0150 -0.9971 0.9831
2.7786 3.0559 -0.9970 0.9831
2.6880 3.1357 -0.9970 0.9831
2.5952 3.2128 -0.9970 0.9831
2.5479 3.2502 -0.9969 0.9831
2.5001 3.2871 -0.9969 0.9831
2.4517 3.3232 -0.9969 0.9832
2.3535 3.3932 -0.9969 0.9832
2.2532 3.4604 -0.9968 0.9832
2.2024 3.4929 -0.9968 0.9832
1.9944 3.6152 -0.9967 0.9832
1.8878 3.6718 -0.9966 0.9832
1.8339 3.6989 -0.9966 0.9832
1.7796 3.7252 -0.9966 0.9832
1.7250 3.7507 -0.9966 0.9832
1.5160 3.4275 -0.9047 0.9847
1.4432 3.3961 -0.8908 0.9849
1.2433 3.4773 -0.8915 0.9849
1.2124 3.5539 -0.9065 0.9847
1.1602 3.9609 -0.9963 0.9832
1.1021 3.9773 -0.9963 0.9832
1.0439 3.9929 -0.9963 0.9832
0.9267 4.0215 -0.9962 0.9832
0.8679 4.0345 -0.9962 0.9832
0.6902 4.0683 -0.9961 0.9832
0.6306 4.0779 -0.9961 0.9832
0.5112 4.0944 -0.9960 0.9832
0.3113 3.2671 -0.7922 0.9866
0.2589 3.2142 -0.7784 0.9868
0.0691 3.1533 -0.7614 0.9871
-0.2710 4.1158 -0.9957 0.9832
-0.3311 4.1113 -0.9957 0.9832
-0.3911 4.1059 -0.9956 0.9832
-0.5706 4.0845 -0.9956 0.9832
-0.6302 4.0757 -0.9955 0.9832
-0.6897 4.0659 -0.9955 0.9832
-0.7490 4.0552 -0.9955 0.9832
-0.8082 4.0437 -0.9955 0.9832
-0.9845 4.0041 -0.9954 0.9832
-1.1590 3.9568 -0.9953 0.9832
-1.2167 3.9394 -0.9953 0.9832
-1.2082 3.5414 -0.9033 0.9847
-1.2992 3.4729 -0.8951 0.9849
-0.3387 0.6832 -0.1841 0.9969
-0.3237 0.6296 -0.1709 0.9971
-0.3105 0.5829 -0.1594 0.9973
-0.3083 0.5589 -0.1541 0.9974
-0.3114 0.5454 -0.1516 0.9974
-0.3143 0.5323 -0.1492 0.9975
-0.3170 0.5196 -0.1469 0.9975
-0.3197 0.5071 -0.1447 0.9975
-0.3246 0.4830 -0.1405 0.9976
-0.3291 0.4600 -0.1365 0.9977
-0.3312 0.4489 -0.1347 0.9977
-0.3331 0.4380 -0.1329 0.9977
-0.3401 0.4087 -0.1284 0.9978
-0.3490 0.3727 -0.1233 0.9979
-0.3511 0.3641 -0.1221 0.9979
-0.3531 0.3557 -0.1210 0.9979
-0.3548 0.3471 -0.1198 0.9980
-0.3561 0.3384 -0.1186 0.9980
-0.3587 0.3214 -0.1163 0.9980
-0.3620 0.2968 -0.1130 0.9981
-0.3630 0.2889 -0.1120 0.9981
-0.3639 0.2810 -0.1110 0.9981
-0.3672 0.2507 -0.1073 0.9982
-0.3697 0.2219 -0.1041 0.9982
-0.3707 0.2080 -0.1026 0.9983
-0.3716 0.1945 -0.1012 0.9983
-0.3738 0.1752 -0.0997 0.9983
-0.3744 0.1689 -0.0991 0.9983
-0.3766 0.1378 -0.0968 0.9984
-0.3770 0.1317 -0.0964 0.9984
-0.3773 0.1257 -0.0960 0.9984
-0.3782 0.1018 -0.0946 0.9984
-0.3787 0.0671 -0.0928 0.9984
-0.3787 0.0614 -0.0926 0.9984
-0.3785 0.0500 -0.0922 0.9984
-0.3784 0.0444 -0.0920 0.9984
-0.3774 0.0165 -0.0912 0.9984
-0.3772 0.0110 -0.0911 0.9984
-0.3769 0.0055 -0.0910 0.9985
-0.3701 0.0000 -0.0937 0.9985
-0.3710 -0.0163 -0.0940 0.9985
-0.3712 -0.0218 -0.0941 0.9985
-0.3718 -0.0382 -0.0946 0.9985
-0.3720 -0.0492 -0.0950 0.9985
-0.3721 -0.0659 -0.0957 0.9984
-0.3721 -0.0715 -0.0959 0.9984
-0.3720 -0.0772 -0.0962 0.9984
-0.3718 -0.0886 -0.0968 0.9984
-0.3715 -0.1000 -0.0974 0.9984
-0.3705 -0.1234 -0.0989 0.9984
-0.3697 -0.1353 -0.0997 0.9984
-0.3689 -0.1473 -0.1006 0.9984
-0.3684 -0.1534 -0.1010 0.9984
-0.3674 -0.1657 -0.1020 0.9983
-0.3660 -0.1782 -0.1031 0.9983
-0.3652 -0.1844 -0.1036 0.9983
-0.3622 -0.2174 -0.1069 0.9983
-0.3615 -0.2243 -0.1077 0.9982
-0.3609 -0.2313 -0.1085 0.9982
-0.3602 -0.2383 -0.1093 0.9982
-0.3595 -0.2455 -0.1102 0.9982
-0.3587 -0.2527 -0.1111 0.9982
-0.3550 -0.2825 -0.1149 0.9981
-0.3529 -0.2981 -0.1169 0.9981
-0.3517 -0.3061 -0.1180 0.9981
-0.3505 -0.3141 -0.1191 0.9981
-0.3479 -0.3305 -0.1215 0.9980
-0.3465 -0.3390 -0.1227 0.9980
-0.3450 -0.3475 -0.1240 0.9980
-0.3429 -0.3557 -0.1251 0.9980
-0.3408 -0.3640 -0.1262 0.9979
-0.3386 -0.3725 -0.1274 0.9979
-0.3341 -0.3897 -0.1300 0.9979
-0.3293 -0.4077 -0.1327 0.9978
-0.3242 -0.4262 -0.1356 0.9978
-0.3169 -0.4569 -0.1408 0.9977
-0.3121 -0.4793 -0.1448 0.9976
-0.3095 -0.4908 -0.1469 0.9976
-0.3009 -0.5271 -0.1537 0.9975
-0.2945 -0.5529 -0.1586 0.9974
-0.2911 -0.5662 -0.1612 0.9974
-0.3001 -0.6054 -0.1711 0.9972
-0.3125 -0.6542 -0.1835 0.9970
-0.3267 -0.7103 -0.1979 0.9968
-1.5138 -3.5624 -0.9799 0.9842
-1.4617 -3.5843 -0.9799 0.9842
-1.3564 -3.6256 -0.9800 0.9842
-1.3033 -3.6451 -0.9800 0.9842
-1.1963 -3.6818 -0.9800 0.9842
-1.1424 -3.6990 -0.9801 0.9842
-1.0882 -3.7154 -0.9801 0.9842
-1.0339 -3.7310 -0.9801 0.9842
-0.9244 -3.7598 -0.9802 0.9842
-0.8694 -3.7730 -0.9802 0.9842
-0.8143 -3.7854 -0.9802 0.9842
-0.7588 -3.7970 -0.9802 0.9842
-0.7033 -3.8077 -0.9803 0.9841
-0.6476 -3.8177 -0.9803 0.9841
-0.5918 -3.8269 -0.9803 0.9841
-0.5358 -3.8351 -0.9803 0.9841
-0.4797 -3.8427 -0.9804 0.9841
-0.3673 -3.8553 -0.9804 0.9841
-0.1980 -3.8679 -0.9805 0.9841
-0.0849 -3.8723 -0.9805 0.9841
0.0283 -3.8733 -0.9806 0.9841
0.2545 -3.8654 -0.9807 0.9841
0.3110 -3.8614 -0.9807 0.9841
0.3674 -3.8566 -0.9807 0.9841
0.5361 -3.8370 -0.9808 0.9841
0.5921 -3.8289 -0.9808 0.9841
0.7594 -3.7996 -0.9809 0.9841
0.8701 -3.7759 -0.9810 0.9841
0.8114 -3.1034 -0.8121 0.9869
0.9167 -3.1295 -0.8255 0.9866
1.0256 -3.1565 -0.8402 0.9864
1.0350 -2.8946 -0.7782 0.9874
1.2561 -3.2136 -0.8735 0.9859
1.3785 -3.2439 -0.8923 0.9856
1.3757 -3.1102 -0.8609 0.9861
1.6196 -3.5216 -0.9813 0.9841
1.9220 -3.3668 -0.9814 0.9841
2.0196 -3.3093 -0.9815 0.9841
2.1156 -3.2490 -0.9815 0.9841
2.2097 -3.1859 -0.9815 0.9841
2.3019 -3.1201 -0.9816 0.9841
2.3473 -3.0862 -0.9816 0.9841
2.3922 -3.0517 -0.9816 0.9841
2.4805 -2.9806 -0.9817 0.9841
2.5238 -2.9441 -0.9817 0.9841
2.6506 -2.8308 -0.9817 0.9841
2.6917 -2.7918 -0.9818 0.9841
2.7722 -2.7121 -0.9818 0.9841
2.8503 -2.6300 -0.9818 0.9841
2.9702 -2.5840 -0.9966 0.9839
3.0091 -2.5416 -0.9971 0.9839
3.0459 -2.4974 -0.9972 0.9839
3.1868 -2.3154 -0.9972 0.9839
3.2204 -2.2686 -0.9972 0.9839
3.2532 -2.2214 -0.9972 0.9839
3.2854 -2.1736 -0.9973 0.9839
3.3169 -2.1254 -0.9973 0.9839
3.3476 -2.0767 -0.9973 0.9839
3.4355 -1.9281 -0.9973 0.9839
3.4633 -1.8777 -0.9973 0.9839
3.4905 -1.8269 -0.9973 0.9839
3.5168 -1.7758 -0.9974 0.9839
3.5673 -1.6723 -0.9974 0.9839
3.6147 -1.5673 -0.9974 0.9839
3.6590 -1.4611 -0.9974 0.9839
3.7196 -1.2994 -0.9974 0.9839
3.7383 -1.2449 -0.9975 0.9839
3.7561 -1.1902 -0.9975 0.9839
3.7731 -1.1352 -0.9975 0.9839
3.8047 -1.0245 -0.9975 0.9839
3.8331 -0.9129 -0.9975 0.9839
3.8582 -0.8005 -0.9975 0.9839
3.8694 -0.7440 -0.9975 0.9839
3.8984 -0.5737 -0.9975 0.9839
3.9064 -0.5167 -0.9975 0.9839
3.9253 -0.3450 -0.9975 0.9839
3.9299 -0.2876 -0.9975 0.9839
3.9366 -0.1727 -0.9975 0.9839
3.9388 -0.1152 -0.9975 0.9839
3.9404 0.0000 -0.9975 0.9839
3.9388 0.1151 -0.9975 0.9839
3.9367 0.1727 -0.9975 0.9839
3.9253 0.3450 -0.9975 0.9839
3.9198 0.4023 -0.9975 0.9839
3.8984 0.5737 -0.9975 0.9839
3.8695 0.7440 -0.9975 0.9839
3.8331 0.9129 -0.9975 0.9839
3.8193 0.9687 -0.9975 0.9839
3.8047 1.0244 -0.9975 0.9839
3.7893 1.0799 -0.9975 0.9839
3.7731 1.1351 -0.9975 0.9839
3.7196 1.2994 -0.9975 0.9839
3.7003 1.3536 -0.9974 0.9839
3.6373 1.5143 -0.9974 0.9839
3.6147 1.5673 -0.9974 0.9839
3.5673 1.6723 -0.9974 0.9839
3.5424 1.7242 -0.9974 0.9839
3.4069 1.9780 -0.9973 0.9839
3.3776 2.0276 -0.9973 0.9839
3.3476 2.0767 -0.9973 0.9839
3.2854 2.1736 -0.9973 0.9839
3.1526 2.3616 -0.9972 0.9839
3.1177 2.4074 -0.9972 0.9839
3.0460 2.4974 -0.9972 0.9839
2.8553 2.7129 -0.9971 0.9839
2.8153 2.7543 -0.9971 0.9839
2.7335 2.8352 -0.9970 0.9839
2.6917 2.8748 -0.9970 0.9839
2.6065 2.9521 -0.9970 0.9839
2.5190 3.0269 -0.9969 0.9839
2.4294 3.0991 -0.9969 0.9839
2.1965 3.2678 -0.9968 0.9839
2.1484 3.2995 -0.9968 0.9839
2.1000 3.3305 -0.9967 0.9839
1.9016 3.4471 -0.9967 0.9839
1.8000 3.5011 -0.9966 0.9839
1.7487 3.5269 -0.9966 0.9839
1.6448 3.5764 -0.9965 0.9839
1.5923 3.5999 -0.9965 0.9839
1.4137 3.4666 -0.9478 0.9847
1.3578 3.4737 -0.9442 0.9847
1.1614 3.7604 -0.9963 0.9839
1.0509 3.7925 -0.9963 0.9839
0.8837 3.8346 -0.9962 0.9839
0.7712 3.8586 -0.9962 0.9839
0.6581 3.8793 -0.9961 0.9839
0.6013 3.8884 -0.9961 0.9839
0.5444 3.8967 -0.9961 0.9839
0.3162 3.3192 -0.8441 0.9863
0.2611 3.2420 -0.8234 0.9867
0.0232 3.1755 -0.8039 0.9870
-0.0233 3.1901 -0.8076 0.9869
-0.0705 3.2157 -0.8143 0.9868
-0.1191 3.2589 -0.8256 0.9866
-0.2584 3.9246 -0.9957 0.9839
-0.6577 3.8771 -0.9955 0.9839
-0.7142 3.8669 -0.9955 0.9839
-0.7706 3.8560 -0.9955 0.9839
-0.8269 3.8443 -0.9955 0.9839
-0.9388 3.8182 -0.9954 0.9839
-0.9945 3.8040 -0.9954 0.9839
-1.1052 3.7731 -0.9953 0.9839
-1.1601 3.7565 -0.9953 0.9839
-1.2881 3.6026 -0.9686 0.9843
-1.3328 3.5625 -0.9629 0.9844
-1.4844 3.6400 -0.9952 0.9839
-0.3430 0.7754 -0.2147 0.9965
-0.3125 0.6542 -0.1835 0.9970
-0.3001 0.6054 -0.1711 0.9972
-0.2945 0.5529 -0.1586 0.9974
-0.3009 0.5271 -0.1537 0.9975
-0.3067 0.5026 -0.1491 0.9976
-0.3169 0.4568 -0.1408 0.9977
-0.3214 0.4357 -0.1371 0.9978
-0.3242 0.4262 -0.1356 0.9978
-0.3268 0.4169 -0.1341 0.9978
-0.3293 0.4077 -0.1327 0.9978
-0.3363 0.3809 -0.1287 0.9979
-0.3386 0.3724 -0.1274 0.9979
-0.3408 0.3640 -0.1262 0.9979
-0.3429 0.3557 -0.1251 0.9980
-0.3465 0.3390 -0.1227 0.9980
-0.3492 0.3223 -0.1203 0.9980
-0.3505 0.3140 -0.1191 0.9981
-0.3540 0.2902 -0.1159 0.9981
-0.3570 0.2674 -0.1129 0.9982
-0.3587 0.2527 -0.1111 0.9982
-0.3602 0.2383 -0.1093 0.9982
-0.3609 0.2312 -0.1085 0.9982
-0.3616 0.2243 -0.1077 0.9982
-0.3622 0.2174 -0.1069 0.9983
-0.3633 0.2039 -0.1055 0.9983
-0.3643 0.1907 -0.1041 0.9983
-0.3660 0.1782 -0.1031 0.9983
-0.3674 0.1657 -0.1020 0.9983
-0.3684 0.1534 -0.1010 0.9984
-0.3693 0.1413 -0.1001 0.9984
-0.3701 0.1293 -0.0993 0.9984
-0.3705 0.1234 -0.0989 0.9984
-0.3708 0.1175 -0.0985 0.9984
-0.3713 0.1057 -0.0977 0.9984
-0.3721 0.0715 -0.0959 0.9984
-0.3719 0.0437 -0.0948 0.9985
-0.3714 0.0271 -0.0943 0.9985
-0.3707 0.0109 -0.0939 0.9985
-0.3638 -0.0000 -0.0964 0.9985
-0.3644 -0.0107 -0.0966 0.9985
-0.3647 -0.0160 -0.0967 0.9985
-0.3649 -0.0214 -0.0969 0.9985
-0.3655 -0.0429 -0.0975 0.9985
-0.3656 -0.0539 -0.0979 0.9985
-0.3657 -0.0593 -0.0982 0.9985
-0.3656 -0.0704 -0.0987 0.9985
-0.3656 -0.0758 -0.0989 0.9985
-0.3650 -0.0983 -0.1002 0.9984
-0.3647 -0.1039 -0.1005 0.9984
-0.3635 -0.1270 -0.1020 0.9984
-0.3612 -0.1566 -0.1043 0.9984
-0.3606 -0.1627 -0.1048 0.9984
-0.3575 -0.1871 -0.1069 0.9983
-0.3566 -0.1933 -0.1075 0.9983
-0.3542 -0.2198 -0.1105 0.9983
-0.3528 -0.2335 -0.1121 0.9983
-0.3520 -0.2404 -0.1130 0.9982
-0.3512 -0.2474 -0.1138 0.9982
-0.3484 -0.2691 -0.1166 0.9982
-0.3451 -0.2915 -0.1197 0.9981
-0.3427 -0.3071 -0.1219 0.9981
-0.3414 -0.3150 -0.1231 0.9981
-0.3385 -0.3312 -0.1255 0.9980
-0.3351 -0.3477 -0.1280 0.9980
-0.3308 -0.3638 -0.1303 0.9980
-0.3261 -0.3804 -0.1328 0.9979
-0.3212 -0.3978 -0.1355 0.9979
-0.3187 -0.4066 -0.1369 0.9979
-0.3134 -0.4247 -0.1399 0.9978
-0.3105 -0.4341 -0.1414 0.9978
-0.3076 -0.4436 -0.1430 0.9978
-0.3050 -0.4537 -0.1449 0.9977
-0.2998 -0.4755 -0.1489 0.9977
-0.2970 -0.4867 -0.1511 0.9976
-0.2879 -0.5220 -0.1580 0.9975
-0.2812 -0.5469 -0.1629 0.9975
-0.2884 -0.6271 -0.1829 0.9971
-0.2999 -0.6779 -0.1964 0.9969
-0.3129 -0.7364 -0.2120 0.9967
-1.3965 -3.4243 -0.9800 0.9848
-1.3463 -3.4445 -0.9800 0.9848
-1.2452 -3.4825 -0.9800 0.9848
-1.1942 -3.5004 -0.9800 0.9848
-1.1429 -3.5176 -0.9801 0.9848
-1.0914 -3.5340 -0.9801 0.9848
-0.9877 -3.5645 -0.9801 0.9848
-0.8307 -3.6046 -0.9802 0.9848
-0.6720 -3.6379 -0.9803 0.9848
-0.5654 -3.6561 -0.9803 0.9848
-0.4583 -3.6712 -0.9804 0.9848
-0.4046 -3.6777 -0.9804 0.9848
-0.3509 -3.6832 -0.9804 0.9848
-0.2970 -3.6881 -0.9804 0.9848
-0.2431 -3.6921 -0.9805 0.9848
-0.1351 -3.6978 -0.9805 0.9848
0.0270 -3.7005 -0.9806 0.9848
0.0811 -3.6997 -0.9806 0.9848
0.2971 -3.6891 -0.9807 0.9848
0.3510 -3.6844 -0.9807 0.9848
0.5122 -3.6658 -0.9808 0.9848
0.5657 -3.6580 -0.9808 0.9848
0.7255 -3.6300 -0.9809 0.9848
0.7785 -3.6191 -0.9809 0.9848
0.7600 -3.0907 -0.8434 0.9869
0.9167 -3.1296 -0.8641 0.9866
0.9707 -3.1429 -0.8716 0.9865
1.0256 -3.1565 -0.8795 0.9864
1.0325 -3.0266 -0.8474 0.9869
1.0127 -2.8324 -0.7971 0.9876
1.4979 -3.3865 -0.9812 0.9848
1.5473 -3.3644 -0.9812 0.9848
1.5963 -3.3414 -0.9813 0.9848
1.6450 -3.3179 -0.9813 0.9848
1.7889 -3.2429 -0.9814 0.9848
1.8362 -3.2164 -0.9814 0.9848
2.0210 -3.1039 -0.9815 0.9848
2.1110 -3.0436 -0.9815 0.9848
2.1991 -2.9807 -0.9815 0.9848
2.2854 -2.9154 -0.9816 0.9848
2.3696 -2.8474 -0.9816 0.9848
2.4110 -2.8126 -0.9816 0.9848
2.4519 -2.7771 -0.9816 0.9848
2.4923 -2.7410 -0.9817 0.9848
2.6101 -2.6293 -0.9817 0.9848
2.6612 -2.6035 -0.9865 0.9847
2.7653 -2.5516 -0.9970 0.9846
2.8024 -2.5109 -0.9970 0.9846
2.8388 -2.4698 -0.9971 0.9845
2.8746 -2.4280 -0.9971 0.9845
2.9784 -2.2999 -0.9971 0.9845
3.0444 -2.2119 -0.9972 0.9845
3.1079 -2.1220 -0.9972 0.9845
3.1980 -1.9839 -0.9972 0.9845
3.2267 -1.9370 -0.9972 0.9845
3.2820 -1.8419 -0.9973 0.9845
3.3344 -1.7453 -0.9973 0.9845
3.3596 -1.6964 -0.9973 0.9845
3.3841 -1.6472 -0.9973 0.9845
3.4078 -1.5975 -0.9973 0.9845
3.4955 -1.3958 -0.9974 0.9845
3.5534 -1.2413 -0.9974 0.9845
3.5712 -1.1893 -0.9974 0.9845
3.6346 -0.9787 -0.9974 0.9845
3.6486 -0.9254 -0.9974 0.9845
3.6617 -0.8721 -0.9974 0.9845
3.6741 -0.8184 -0.9974 0.9845
3.6857 -0.7647 -0.9974 0.9845
3.6965 -0.7107 -0.9974 0.9845
3.7065 -0.6567 -0.9974 0.9845
3.7498 -0.3296 -0.9975 0.9845
3.7627 -0.1100 -0.9975 0.9845
3.7627 0.1100 -0.9975 0.9845
3.7607 0.1650 -0.9975 0.9845
3.7065 0.6566 -0.9974 0.9845
3.6965 0.7107 -0.9974 0.9845
3.6741 0.8184 -0.9974 0.9845
3.6617 0.8720 -0.9974 0.9845
3.6486 0.9254 -0.9974 0.9845
3.6347 0.9786 -0.9974 0.9845
3.6045 1.0844 -0.9974 0.9845
3.5882 1.1370 -0.9974 0.9845
3.5712 1.1893 -0.9974 0.9845
3.5534 1.2412 -0.9974 0.9845
3.5348 1.2930 -0.9974 0.9845
3.4955 1.3958 -0.9974 0.9845
3.4747 1.4467 -0.9973 0.9845
3.4309 1.5475 -0.9973 0.9845
3.3841 1.6471 -0.9973 0.9845
3.3596 1.6964 -0.9973 0.9845
3.3345 1.7453 -0.9973 0.9845
3.2820 1.8419 -0.9973 0.9845
3.1980 1.9839 -0.9972 0.9845
3.1078 2.1220 -0.9972 0.9845
3.0765 2.1672 -0.9972 0.9845
3.0117 2.2561 -0.9971 0.9845
2.9784 2.2998 -0.9971 0.9845
2.8024 2.5109 -0.9970 0.9846
2.6507 2.6701 -0.9970 0.9846
2.6114 2.7086 -0.9970 0.9846
2.2773 2.9942 -0.9968 0.9846
2.2333 3.0271 -0.9968 0.9846
2.0525 3.1521 -0.9967 0.9846
1.9594 3.2106 -0.9967 0.9846
1.6706 3.3694 -0.9966 0.9846
1.6211 3.3934 -0.9965 0.9846
1.5713 3.4166 -0.9965 0.9846
1.5212 3.4392 -0.9965 0.9846
1.4200 3.4820 -0.9964 0.9846
1.3689 3.5022 -0.9964 0.9846
1.2141 3.5587 -0.9964 0.9846
1.1095 3.5925 -0.9963 0.9846
1.0569 3.6082 -0.9963 0.9846
1.0040 3.6232 -0.9963 0.9846
0.9509 3.6374 -0.9962 0.9846
0.7906 3.6753 -0.9962 0.9846
0.7368 3.6864 -0.9961 0.9846
0.6828 3.6967 -0.9961 0.9846
0.6287 3.7062 -0.9961 0.9846
0.5745 3.7149 -0.9961 0.9846
0.5201 3.7227 -0.9960 0.9846
0.4657 3.7299 -0.9960 0.9846
0.4111 3.7362 -0.9960 0.9846
0.3565 3.7417 -0.9960 0.9846
0.1644 3.2117 -0.8521 0.9868
0.0234 3.2018 -0.8484 0.9868
-0.0235 3.2193 -0.8531 0.9868
-0.1212 3.3176 -0.8797 0.9864
-0.4654 3.7283 -0.9956 0.9846
-0.5199 3.7210 -0.9956 0.9846
-0.5742 3.7130 -0.9956 0.9846
-0.6824 3.6944 -0.9955 0.9846
-0.7900 3.6727 -0.9955 0.9846
-0.8969 3.6479 -0.9954 0.9846
-0.9501 3.6343 -0.9954 0.9846
-1.0031 3.6200 -0.9954 0.9846
-1.1084 3.5889 -0.9953 0.9846
-1.3160 3.5177 -0.9952 0.9846
-1.4182 3.4777 -0.9952 0.9846
-0.2999 0.6779 -0.1964 0.9969
-0.2775 0.5598 -0.1656 0.9974
-0.2846 0.5343 -0.1604 0.9975
-0.2911 0.5100 -0.1556 0.9976
-0.2941 0.4982 -0.1533 0.9976
-0.2970 0.4867 -0.1511 0.9976
-0.2998 0.4755 -0.1489 0.9977
-0.3076 0.4435 -0.1430 0.9978
-0.3133 0.4247 -0.1399 0.9978
-0.3161 0.4156 -0.1384 0.9978
-0.3213 0.3977 -0.1355 0.9979
-0.3237 0.3890 -0.1341 0.9979
-0.3285 0.3721 -0.1315 0.9979
-0.3330 0.3557 -0.1291 0.9980
-0.3370 0.3395 -0.1268 0.9980
-0.3385 0.3312 -0.1255 0.9980
-0.3400 0.3230 -0.1243 0.9981
-0.3427 0.3071 -0.1219 0.9981
-0.3439 0.2992 -0.1208 0.9981
-0.3451 0.2915 -0.1197 0.9981
-0.3484 0.2690 -0.1166 0.9982
-0.3503 0.2545 -0.1147 0.9982
-0.3512 0.2474 -0.1138 0.9982
-0.3535 0.2265 -0.1113 0.9983
-0.3549 0.2130 -0.1097 0.9983
-0.3555 0.2064 -0.1089 0.9983
-0.3566 0.1933 -0.1075 0.9983
-0.3592 0.1748 -0.1059 0.9983
-0.3600 0.1688 -0.1054 0.9984
-0.3606 0.1626 -0.1048 0.9984
-0.3627 0.1387 -0.1029 0.9984
-0.3631 0.1329 -0.1025 0.9984
-0.3639 0.1212 -0.1016 0.9984
-0.3647 0.1039 -0.1005 0.9984
-0.3650 0.0982 -0.1002 0.9984
-0.3652 0.0926 -0.0998 0.9984
-0.3653 0.0870 -0.0995 0.9984
-0.3657 0.0648 -0.0984 0.9985
-0.3657 0.0593 -0.0982 0.9985
-0.3656 0.0538 -0.0979 0.9985
-0.3654 0.0375 -0.0973 0.9985
-0.3653 0.0321 -0.0972 0.9985
-0.3647 0.0160 -0.0967 0.9985
-0.3641 0.0054 -0.0965 0.9985
-0.3580 -0.0053 -0.0991 0.9985
-0.3583 -0.0105 -0.0993 0.9985
-0.3590 -0.0263 -0.0997 0.9985
-0.3591 -0.0316 -0.0998 0.9985
-0.3592 -0.0369 -0.1000 0.9985
-0.3593 -0.0422 -0.1002 0.9985
-0.3594 -0.0637 -0.1011 0.9985
-0.3593 -0.0746 -0.1016 0.9985
-0.3592 -0.0800 -0.1019 0.9985
-0.3590 -0.0855 -0.1022 0.9985
-0.3581 -0.1078 -0.1035 0.9984
-0.3575 -0.1191 -0.1043 0.9984
-0.3567 -0.1305 -0.1052 0.9984
-0.3562 -0.1363 -0.1056 0.9984
-0.3557 -0.1421 -0.1061 0.9984
-0.3552 -0.1479 -0.1065 0.9984
-0.3541 -0.1597 -0.1075 0.9984
-0.3526 -0.1716 -0.1086 0.9984
-0.3517 -0.1776 -0.1091 0.9984
-0.3499 -0.1897 -0.1102 0.9983
-0.3465 -0.2220 -0.1139 0.9983
-0.3457 -0.2287 -0.1148 0.9983
-0.3449 -0.2355 -0.1156 0.9983
-0.3440 -0.2423 -0.1165 0.9983
-0.3431 -0.2493 -0.1174 0.9982
-0.3421 -0.2563 -0.1184 0.9982
-0.3365 -0.2927 -0.1235 0.9982
-0.3352 -0.3003 -0.1246 0.9981
-0.3338 -0.3080 -0.1258 0.9981
-0.3324 -0.3158 -0.1269 0.9981
-0.3293 -0.3318 -0.1294 0.9981
-0.3277 -0.3399 -0.1307 0.9980
-0.3255 -0.3477 -0.1319 0.9980
-0.3209 -0.3635 -0.1343 0.9980
-0.3185 -0.3716 -0.1355 0.9980
-0.3161 -0.3798 -0.1368 0.9980
-0.3136 -0.3882 -0.1382 0.9979
-0.3110 -0.3968 -0.1396 0.9979
-0.3084 -0.4055 -0.1410 0.9979
-0.3056 -0.4143 -0.1425 0.9979
-0.3028 -0.4232 -0.1441 0.9978
-0.2998 -0.4323 -0.1457 0.9978
-0.2936 -0.4510 -0.1490 0.9978
-0.2907 -0.4610 -0.1509 0.9977
-0.2878 -0.4717 -0.1530 0.9977
-0.2849 -0.4826 -0.1552 0.9977
-0.2786 -0.5051 -0.1597 0.9976
-0.2753 -0.5168 -0.1621 0.9976
-0.2682 -0.5409 -0.1672 0.9975
-0.2604 -0.5663 -0.1726 0.9974
-1.2885 -3.2966 -0.9800 0.9854
-1.1917 -3.3330 -0.9800 0.9854
-1.1429 -3.3502 -0.9801 0.9854
-0.9454 -3.4114 -0.9802 0.9854
-0.8954 -3.4250 -0.9802 0.9854
-0.8453 -3.4379 -0.9802 0.9854
-0.7950 -3.4499 -0.9802 0.9854
-0.7445 -3.4611 -0.9802 0.9854
-0.6939 -3.4718 -0.9803 0.9854
-0.6431 -3.4816 -0.9803 0.9854
-0.5411 -3.4991 -0.9803 0.9854
-0.4899 -3.5067 -0.9804 0.9854
-0.3358 -3.5250 -0.9804 0.9854
-0.2843 -3.5296 -0.9804 0.9854
-0.2327 -3.5336 -0.9805 0.9854
-0.1810 -3.5366 -0.9805 0.9854
-0.0776 -3.5406 -0.9805 0.9854
-0.0259 -3.5414 -0.9806 0.9854
0.1293 -3.5394 -0.9806 0.9854
0.2327 -3.5343 -0.9807 0.9854
0.3874 -3.5209 -0.9807 0.9854
0.4388 -3.5150 -0.9808 0.9854
0.4901 -3.5083 -0.9808 0.9854
0.5414 -3.5008 -0.9808 0.9854
0.5925 -3.4926 -0.9808 0.9854
0.6943 -3.4739 -0.9809 0.9854
0.7600 -3.0907 -0.8812 0.9869
0.8113 -3.1035 -0.8882 0.9868
0.8636 -3.1164 -0.8954 0.9867
0.9167 -3.1296 -0.9029 0.9866
0.9707 -3.1429 -0.9108 0.9864
1.0257 -3.1566 -0.9189 0.9863
1.1968 -3.1989 -0.9457 0.9859
1.4335 -3.2409 -0.9812 0.9854
1.5742 -3.1752 -0.9813 0.9854
1.6205 -3.1520 -0.9813 0.9854
1.8905 -2.9983 -0.9814 0.9854
2.0202 -2.9127 -0.9815 0.9854
2.1460 -2.8216 -0.9815 0.9854
2.2276 -2.7578 -0.9816 0.9854
2.2677 -2.7250 -0.9816 0.9854
2.3465 -2.6576 -0.9816 0.9854
2.3851 -2.6231 -0.9816 0.9854
2.4956 -2.5885 -0.9955 0.9852
2.5367 -2.5553 -0.9969 0.9852
2.6104 -2.4802 -0.9970 0.9852
2.6818 -2.4029 -0.9970 0.9852
2.8503 -2.2009 -0.9971 0.9852
2.8822 -2.1591 -0.9971 0.9852
2.9135 -2.1168 -0.9971 0.9852
2.9441 -2.0740 -0.9971 0.9852
2.9742 -2.0307 -0.9971 0.9852
3.0036 -1.9871 -0.9971 0.9852
3.0323 -1.9430 -0.9971 0.9852
3.0878 -1.8536 -0.9972 0.9852
3.1407 -1.7627 -0.9972 0.9852
3.1662 -1.7166 -0.9972 0.9852
3.1910 -1.6702 -0.9972 0.9852
3.2151 -1.6234 -0.9972 0.9852
3.2385 -1.5763 -0.9972 0.9852
3.2833 -1.4810 -0.9973 0.9852
3.3252 -1.3845 -0.9973 0.9852
3.3643 -1.2867 -0.9973 0.9852
3.3828 -1.2375 -0.9973 0.9852
3.4494 -1.0377 -0.9973 0.9852
3.4642 -0.9873 -0.9973 0.9852
3.4783 -0.9365 -0.9973 0.9852
3.4916 -0.8856 -0.9973 0.9852
3.5885 -0.3154 -0.9974 0.9852
3.5962 -0.2104 -0.9974 0.9852
3.5989 -0.1579 -0.9974 0.9852
3.6019 -0.0526 -0.9974 0.9852
3.6023 -0.0000 -0.9974 0.9852
3.6020 0.0527 -0.9974 0.9852
3.6008 0.1053 -0.9974 0.9852
3.5962 0.2104 -0.9974 0.9852
3.5639 0.5245 -0.9974 0.9852
3.5470 0.6284 -0.9974 0.9852
3.5374 0.6802 -0.9974 0.9852
3.5160 0.7832 -0.9974 0.9852
3.5042 0.8345 -0.9974 0.9852
3.4783 0.9366 -0.9973 0.9852
3.4642 0.9872 -0.9973 0.9852
3.4338 1.0880 -0.9973 0.9852
3.4005 1.1879 -0.9973 0.9852
3.3827 1.2374 -0.9973 0.9852
3.3643 1.2867 -0.9973 0.9852
3.3451 1.3357 -0.9973 0.9852
3.3252 1.3845 -0.9973 0.9852
3.3046 1.4329 -0.9973 0.9852
3.2833 1.4810 -0.9973 0.9852
3.2612 1.5288 -0.9973 0.9852
3.2385 1.5763 -0.9972 0.9852
3.2151 1.6234 -0.9972 0.9852
3.1910 1.6702 -0.9972 0.9852
3.1146 1.8084 -0.9972 0.9852
3.0604 1.8986 -0.9972 0.9852
3.0323 1.9430 -0.9971 0.9852
2.9741 2.0307 -0.9971 0.9852
2.9441 2.0739 -0.9971 0.9852
2.8822 2.1590 -0.9971 0.9852
2.8503 2.2009 -0.9971 0.9852
2.7847 2.2832 -0.9970 0.9852
2.7167 2.3635 -0.9970 0.9852
2.6464 2.4418 -0.9970 0.9852
2.5738 2.5180 -0.9969 0.9852
2.4991 2.5920 -0.9969 0.9852
2.4222 2.6639 -0.9969 0.9852
2.2623 2.8006 -0.9968 0.9852
2.1794 2.8654 -0.9968 0.9852
2.1373 2.8969 -0.9968 0.9852
2.0947 2.9278 -0.9967 0.9852
2.0516 2.9580 -0.9967 0.9852
2.0081 2.9876 -0.9967 0.9852
1.9642 3.0166 -0.9967 0.9852
1.9199 3.0449 -0.9967 0.9852
1.8752 3.0726 -0.9966 0.9852
1.7386 3.1516 -0.9966 0.9852
1.5988 3.2246 -0.9965 0.9852
1.5514 3.2475 -0.9965 0.9852
1.4558 3.2913 -0.9965 0.9852
1.3590 3.3323 -0.9964 0.9852
1.3101 3.3517 -0.9964 0.9852
1.1618 3.4057 -0.9963 0.9852
0.9609 3.4675 -0.9962 0.9852
0.9101 3.4811 -0.9962 0.9852
0.8591 3.4939 -0.9962 0.9852
0.7566 3.5173 -0.9961 0.9852
0.7051 3.5279 -0.9961 0.9852
0.6535 3.5378 -0.9961 0.9852
0.6017 3.5469 -0.9961 0.9852
0.5498 3.5552 -0.9961 0.9852
0.4456 3.5696 -0.9960 0.9852
0.3934 3.5756 -0.9960 0.9852
0.2179 3.3087 -0.9181 0.9863
0.1669 3.2601 -0.9038 0.9865
0.0709 3.2357 -0.8961 0.9867
-0.0730 3.3296 -0.9221 0.9863
-0.1313 3.5940 -0.9958 0.9852
-0.1838 3.5916 -0.9957 0.9852
-0.3410 3.5798 -0.9957 0.9852
-0.6014 3.5450 -0.9956 0.9852
-0.6531 3.5357 -0.9955 0.9852
-0.7561 3.5150 -0.9955 0.9852
-1.0105 3.4500 -0.9954 0.9852
-1.1108 3.4189 -0.9953 0.9852
-1.1607 3.4022 -0.9953 0.9852
-1.2102 3.3848 -0.9953 0.9852
-1.3086 3.3479 -0.9952 0.9852
-0.2857 0.7005 -0.2095 0.9969
-0.2718 0.5287 -0.1646 0.9975
-0.2753 0.5168 -0.1621 0.9976
-0.2818 0.4937 -0.1574 0.9976
-0.2907 0.4610 -0.1509 0.9977
-0.2936 0.4510 -0.1490 0.9978
-0.2968 0.4416 -0.1473 0.9978
-0.2998 0.4323 -0.1457 0.9978
-0.3028 0.4232 -0.1441 0.9978
-0.3160 0.3798 -0.1368 0.9980
-0.3185 0.3716 -0.1355 0.9980
-0.3233 0.3555 -0.1330 0.9980
-0.3293 0.3318 -0.1294 0.9981
-0.3324 0.3158 -0.1269 0.9981
-0.3365 0.2927 -0.1235 0.9982
-0.3377 0.2852 -0.1224 0.9982
-0.3389 0.2779 -0.1213 0.9982
-0.3440 0.2423 -0.1165 0.9983
-0.3448 0.2355 -0.1156 0.9983
-0.3457 0.2287 -0.1148 0.9983
-0.3465 0.2220 -0.1139 0.9983
-0.3485 0.2023 -0.1116 0.9983
-0.3508 0.1836 -0.1096 0.9984
-0.3517 0.1776 -0.1091 0.9984
-0.3540 0.1597 -0.1075 0.9984
-0.3547 0.1538 -0.1070 0.9984
-0.3557 0.1420 -0.1061 0.9984
-0.3574 0.1190 -0.1043 0.9984
-0.3578 0.1133 -0.1039 0.9984
-0.3588 0.0910 -0.1025 0.9985
-0.3593 0.0745 -0.1016 0.9985
-0.3595 0.0582 -0.1008 0.9985
-0.3594 0.0529 -0.1006 0.9985
-0.3594 0.0475 -0.1004 0.9985
-0.3593 0.0422 -0.1002 0.9985
-0.3591 0.0316 -0.0998 0.9985
-0.3590 0.0262 -0.0997 0.9985
-0.3588 0.0210 -0.0995 0.9985
-0.3585 0.0157 -0.0994 0.9985
-0.3583 0.0105 -0.0993 0.9985
-0.3580 0.0052 -0.0991 0.9985
-0.3518 0.0000 -0.1016 0.9985
-0.3524 -0.0103 -0.1018 0.9985
-0.3528 -0.0207 -0.1021 0.9985
-0.3533 -0.0415 -0.1028 0.9985
-0.3534 -0.0468 -0.1030 0.9985
-0.3534 -0.0573 -0.1034 0.9985
-0.3532 -0.0733 -0.1042 0.9985
-0.3525 -0.0949 -0.1054 0.9985
-0.3522 -0.1004 -0.1058 0.9985
-0.3512 -0.1170 -0.1069 0.9985
-0.3499 -0.1338 -0.1082 0.9984
-0.3494 -0.1396 -0.1087 0.9984
-0.3489 -0.1453 -0.1092 0.9984
-0.3477 -0.1569 -0.1102 0.9984
-0.3453 -0.1743 -0.1117 0.9984
-0.3444 -0.1803 -0.1123 0.9984
-0.3434 -0.1863 -0.1128 0.9984
-0.3424 -0.1922 -0.1134 0.9984
-0.3418 -0.1984 -0.1141 0.9984
-0.3411 -0.2048 -0.1149 0.9983
-0.3379 -0.2308 -0.1182 0.9983
-0.3351 -0.2510 -0.1209 0.9983
-0.3340 -0.2579 -0.1219 0.9982
-0.3329 -0.2649 -0.1229 0.9982
-0.3305 -0.2792 -0.1250 0.9982
-0.3292 -0.2864 -0.1261 0.9982
-0.3250 -0.3089 -0.1295 0.9981
-0.3203 -0.3323 -0.1333 0.9981
-0.3160 -0.3476 -0.1357 0.9980
-0.3137 -0.3554 -0.1369 0.9980
-0.3113 -0.3632 -0.1382 0.9980
-0.3062 -0.3791 -0.1408 0.9980
-0.3036 -0.3873 -0.1422 0.9980
-0.3010 -0.3957 -0.1436 0.9979
-0.2982 -0.4043 -0.1451 0.9979
-0.2953 -0.4129 -0.1466 0.9979
-0.2893 -0.4305 -0.1498 0.9978
-0.2762 -0.4679 -0.1569 0.9977
-0.2731 -0.4784 -0.1591 0.9977
-0.2594 -0.5232 -0.1687 0.9976
-0.2474 -0.5595 -0.1767 0.9975
-1.1889 -3.1779 -0.9800 0.9860
-1.1423 -3.1950 -0.9801 0.9860
-1.0485 -3.2271 -0.9801 0.9860
-0.9539 -3.2565 -0.9801 0.9860
-0.9062 -3.2702 -0.9802 0.9860
-0.8583 -3.2832 -0.9802 0.9860
-0.7621 -3.3070 -0.9802 0.9860
-0.6651 -3.3280 -0.9803 0.9860
-0.5187 -3.3541 -0.9803 0.9860
-0.4696 -3.3615 -0.9804 0.9860
-0.4205 -3.3680 -0.9804 0.9860
-0.3712 -3.3739 -0.9804 0.9860
-0.3219 -3.3790 -0.9804 0.9860
-0.2725 -3.3835 -0.9804 0.9860
-0.0744 -3.3939 -0.9805 0.9860
-0.0248 -3.3947 -0.9806 0.9860
0.2726 -3.3843 -0.9807 0.9860
0.3714 -3.3750 -0.9807 0.9860
0.5190 -3.3557 -0.9808 0.9860
0.5679 -3.3479 -0.9808 0.9860
0.7141 -3.3199 -0.9809 0.9860
0.7626 -3.3093 -0.9809 0.9860
0.8636 -3.1164 -0.9341 0.9866
0.9167 -3.1296 -0.9419 0.9865
0.9707 -3.1429 -0.9501 0.9864
1.0816 -3.1704 -0.9676 0.9861
1.1386 -3.1845 -0.9769 0.9860
1.2366 -3.1636 -0.9811 0.9860
1.3741 -3.1066 -0.9812 0.9860
1.5533 -3.0212 -0.9813 0.9860
1.5974 -2.9983 -0.9813 0.9860
1.6410 -2.9747 -0.9813 0.9860
1.6843 -2.9505 -0.9813 0.9860
1.7273 -2.9256 -0.9813 0.9860
1.7699 -2.9001 -0.9813 0.9860
1.8539 -2.8473 -0.9814 0.9860
2.0172 -2.7343 -0.9815 0.9860
2.0570 -2.7046 -0.9815 0.9860
2.1353 -2.6434 -0.9815 0.9860
2.2841 -2.5870 -0.9968 0.9857
2.3954 -2.4845 -0.9969 0.9857
2.5021 -2.3773 -0.9969 0.9857
2.6369 -2.2272 -0.9970 0.9857
2.6692 -2.1885 -0.9970 0.9857
2.7009 -2.1493 -0.9970 0.9857
2.7320 -2.1096 -0.9970 0.9857
2.7626 -2.0695 -0.9970 0.9857
2.7926 -2.0290 -0.9970 0.9857
2.8789 -1.9047 -0.9971 0.9857
2.9597 -1.7768 -0.9971 0.9857
3.0348 -1.6454 -0.9971 0.9857
3.0817 -1.5561 -0.9972 0.9857
3.1259 -1.4654 -0.9972 0.9857
3.1675 -1.3735 -0.9972 0.9857
3.2063 -1.2803 -0.9972 0.9857
3.2247 -1.2334 -0.9972 0.9857
3.2424 -1.1861 -0.9972 0.9857
3.3204 -0.9463 -0.9973 0.9857
3.3339 -0.8977 -0.9973 0.9857
3.3467 -0.8489 -0.9973 0.9857
3.3588 -0.7999 -0.9973 0.9857
3.3807 -0.7014 -0.9973 0.9857
3.3906 -0.6520 -0.9973 0.9857
3.3998 -0.6023 -0.9973 0.9857
3.4083 -0.5526 -0.9973 0.9857
3.4160 -0.5027 -0.9973 0.9857
3.4348 -0.3525 -0.9973 0.9857
3.4396 -0.3024 -0.9973 0.9857
3.4436 -0.2521 -0.9973 0.9857
3.4469 -0.2017 -0.9973 0.9857
3.4495 -0.1513 -0.9973 0.9857
3.4528 -0.0000 -0.9973 0.9857
3.4525 0.0504 -0.9973 0.9857
3.4495 0.1513 -0.9973 0.9857
3.4470 0.2017 -0.9973 0.9857
3.4160 0.5027 -0.9973 0.9857
3.4083 0.5525 -0.9973 0.9857
3.3998 0.6023 -0.9973 0.9857
3.3906 0.6519 -0.9973 0.9857
3.3701 0.7507 -0.9973 0.9857
3.3588 0.7999 -0.9973 0.9857
3.3467 0.8489 -0.9973 0.9857
3.3339 0.8977 -0.9973 0.9857
3.2913 1.0429 -0.9973 0.9857
3.2594 1.1386 -0.9972 0.9857
3.2424 1.1861 -0.9972 0.9857
3.1872 1.3270 -0.9972 0.9857
3.1675 1.3734 -0.9972 0.9857
3.0349 1.6454 -0.9972 0.9857
3.0105 1.6895 -0.9971 0.9857
2.9854 1.7333 -0.9971 0.9857
2.8789 1.9047 -0.9971 0.9857
2.8507 1.9465 -0.9971 0.9857
2.7926 2.0289 -0.9970 0.9857
2.7626 2.0695 -0.9970 0.9857
2.7320 2.1096 -0.9970 0.9857
2.6369 2.2272 -0.9970 0.9857
2.6040 2.2655 -0.9970 0.9857
2.5706 2.3032 -0.9969 0.9857
2.5021 2.3773 -0.9969 0.9857
2.3954 2.4845 -0.9969 0.9857
2.3588 2.5193 -0.9969 0.9857
2.2841 2.5870 -0.9968 0.9857
2.1289 2.7158 -0.9968 0.9857
2.0890 2.7466 -0.9967 0.9857
1.9249 2.8637 -0.9967 0.9857
1.8828 2.8915 -0.9966 0.9857
1.7974 2.9452 -0.9966 0.9857
1.7542 2.9710 -0.9966 0.9857
1.7105 2.9963 -0.9966 0.9857
1.5324 3.0908 -0.9965 0.9857
1.3492 3.1748 -0.9964 0.9857
1.3026 3.1942 -0.9964 0.9857
1.2087 3.2307 -0.9963 0.9857
1.1137 3.2645 -0.9963 0.9857
1.0659 3.2804 -0.9963 0.9857
0.8724 3.3368 -0.9962 0.9857
0.7744 3.3607 -0.9962 0.9857
0.6759 3.3817 -0.9961 0.9857
0.6264 3.3912 -0.9961 0.9857
0.5768 3.3998 -0.9961 0.9857
0.4771 3.4151 -0.9960 0.9857
0.0245 3.3556 -0.9693 0.9861
-0.0252 3.4475 -0.9958 0.9857
-0.0755 3.4466 -0.9958 0.9857
-0.1259 3.4450 -0.9958 0.9857
-0.1762 3.4428 -0.9957 0.9857
-0.2265 3.4398 -0.9957 0.9857
-0.4270 3.4203 -0.9956 0.9858
-0.4769 3.4137 -0.9956 0.9858
-0.5267 3.4063 -0.9956 0.9858
-0.5764 3.3981 -0.9956 0.9858
-0.7248 3.3694 -0.9955 0.9858
-0.7739 3.3584 -0.9955 0.9858
-0.8717 3.3342 -0.9954 0.9858
-0.9203 3.3210 -0.9954 0.9858
-1.0169 3.2925 -0.9954 0.9858
-1.0649 3.2773 -0.9953 0.9858
-1.1126 3.2613 -0.9953 0.9858
-1.2074 3.2272 -0.9953 0.9858
-0.2529 0.6200 -0.1934 0.9972
-0.2457 0.5781 -0.1814 0.9974
-0.2474 0.5595 -0.1767 0.9975
-0.2630 0.5116 -0.1662 0.9976
-0.2665 0.5004 -0.1637 0.9976
-0.2731 0.4785 -0.1591 0.9977
-0.2762 0.4679 -0.1569 0.9977
-0.2829 0.4487 -0.1532 0.9978
-0.2954 0.4128 -0.1466 0.9979
-0.2982 0.4042 -0.1451 0.9979
-0.3009 0.3957 -0.1436 0.9979
-0.3036 0.3873 -0.1422 0.9980
-0.3062 0.3791 -0.1408 0.9980
-0.3160 0.3475 -0.1357 0.9980
-0.3183 0.3399 -0.1345 0.9981
-0.3236 0.3165 -0.1307 0.9981
-0.3305 0.2792 -0.1250 0.9982
-0.3340 0.2579 -0.1219 0.9982
-0.3351 0.2510 -0.1209 0.9983
-0.3361 0.2442 -0.1200 0.9983
-0.3403 0.2111 -0.1157 0.9983
-0.3417 0.1984 -0.1141 0.9984
-0.3453 0.1743 -0.1117 0.9984
-0.3470 0.1627 -0.1107 0.9984
-0.3483 0.1511 -0.1097 0.9984
-0.3489 0.1452 -0.1092 0.9984
-0.3494 0.1395 -0.1087 0.9984
-0.3499 0.1338 -0.1082 0.9984
-0.3504 0.1282 -0.1078 0.9984
-0.3516 0.1114 -0.1065 0.9985
-0.3525 0.0949 -0.1054 0.9985
-0.3527 0.0895 -0.1051 0.9985
-0.3531 0.0786 -0.1045 0.9985
-0.3533 0.0679 -0.1039 0.9985
-0.3534 0.0520 -0.1032 0.9985
-0.3534 0.0467 -0.1030 0.9985
-0.3533 0.0414 -0.1028 0.9985
-0.3532 0.0362 -0.1026 0.9985
-0.3530 0.0258 -0.1022 0.9985
-0.3524 0.0103 -0.1018 0.9985
-0.3521 0.0051 -0.1017 0.9985
-0.3470 -0.0204 -0.1046 0.9985
-0.3472 -0.0254 -0.1047 0.9985
-0.3475 -0.0512 -0.1057 0.9985
-0.3475 -0.0564 -0.1059 0.9985
-0.3474 -0.0616 -0.1062 0.9985
-0.3474 -0.0668 -0.1064 0.9985
-0.3473 -0.0721 -0.1067 0.9985
-0.3471 -0.0773 -0.1070 0.9985
-0.3469 -0.0826 -0.1073 0.9985
-0.3467 -0.0879 -0.1076 0.9985
-0.3465 -0.0933 -0.1080 0.9985
-0.3459 -0.1041 -0.1087 0.9985
-0.3448 -0.1204 -0.1099 0.9985
-0.3438 -0.1315 -0.1108 0.9985
-0.3428 -0.1428 -0.1117 0.9985
-0.3408 -0.1598 -0.1133 0.9984
-0.3391 -0.1713 -0.1143 0.9984
-0.3382 -0.1770 -0.1148 0.9984
-0.3372 -0.1828 -0.1154 0.9984
-0.3352 -0.1946 -0.1166 0.9984
-0.3337 -0.2071 -0.1182 0.9984
-0.3329 -0.2134 -0.1190 0.9983
-0.3312 -0.2262 -0.1207 0.9983
-0.3293 -0.2393 -0.1225 0.9983
-0.3283 -0.2459 -0.1234 0.9983
-0.3272 -0.2527 -0.1244 0.9983
-0.3260 -0.2595 -0.1254 0.9983
-0.3195 -0.2948 -0.1308 0.9982
-0.3148 -0.3172 -0.1345 0.9981
-0.3113 -0.3325 -0.1371 0.9981
-0.3090 -0.3399 -0.1382 0.9981
-0.3067 -0.3474 -0.1394 0.9981
-0.2992 -0.3705 -0.1433 0.9980
-0.2939 -0.3864 -0.1461 0.9980
-0.2853 -0.4114 -0.1506 0.9979
-0.2690 -0.4555 -0.1592 0.9978
-0.2583 -0.4848 -0.1653 0.9977
-0.2511 -0.5065 -0.1701 0.9976
-0.2433 -0.5291 -0.1752 0.9976
-0.2303 -0.5650 -0.1836 0.9975
-1.0066 -3.0980 -0.9801 0.9865
-0.9612 -3.1125 -0.9801 0.9865
-0.9157 -3.1262 -0.9802 0.9865
-0.8699 -3.1393 -0.9802 0.9865
-0.7778 -3.1635 -0.9802 0.9865
-0.6851 -3.1850 -0.9803 0.9865
-0.6385 -3.1948 -0.9803 0.9865
-0.5449 -3.2122 -0.9803 0.9865
-0.4508 -3.2269 -0.9804 0.9865
-0.4037 -3.2332 -0.9804 0.9865
-0.3563 -3.2388 -0.9804 0.9865
-0.3090 -3.2438 -0.9804 0.9865
-0.2141 -3.2515 -0.9805 0.9865
-0.1666 -3.2544 -0.9805 0.9865
-0.0714 -3.2580 -0.9805 0.9865
0.0238 -3.2589 -0.9806 0.9865
0.1190 -3.2569 -0.9806 0.9865
0.2142 -3.2522 -0.9807 0.9865
0.3091 -3.2447 -0.9807 0.9865
0.3565 -3.2399 -0.9807 0.9865
0.4982 -3.2214 -0.9808 0.9865
0.5452 -3.2138 -0.9808 0.9865
0.6855 -3.1870 -0.9809 0.9865
0.8114 -3.1035 -0.9652 0.9867
0.9165 -3.1288 -0.9810 0.9865
1.1425 -3.0539 -0.9811 0.9865
1.2753 -3.0010 -0.9811 0.9865
1.3191 -2.9821 -0.9811 0.9865
1.3625 -2.9626 -0.9812 0.9865
1.4485 -2.9217 -0.9812 0.9865
1.4911 -2.9002 -0.9812 0.9865
1.5334 -2.8782 -0.9812 0.9865
1.6169 -2.8323 -0.9813 0.9865
1.6990 -2.7839 -0.9813 0.9865
1.8194 -2.7069 -0.9814 0.9865
1.8588 -2.6801 -0.9814 0.9865
2.0351 -2.5961 -0.9925 0.9863
2.1190 -2.5463 -0.9967 0.9863
2.2287 -2.4511 -0.9968 0.9863
2.2643 -2.4183 -0.9968 0.9863
2.3340 -2.3512 -0.9968 0.9863
2.3682 -2.3168 -0.9969 0.9863
2.4018 -2.2821 -0.9969 0.9863
2.4996 -2.1746 -0.9969 0.9863
2.5312 -2.1380 -0.9969 0.9863
2.5926 -2.0631 -0.9970 0.9863
2.6225 -2.0251 -0.9970 0.9863
2.6519 -1.9865 -0.9970 0.9863
2.6807 -1.9476 -0.9970 0.9863
2.7635 -1.8283 -0.9970 0.9863
2.7900 -1.7878 -0.9970 0.9863
2.8159 -1.7468 -0.9971 0.9863
2.8898 -1.6218 -0.9971 0.9863
2.9132 -1.5795 -0.9971 0.9863
2.9360 -1.5367 -0.9971 0.9863
2.9797 -1.4504 -0.9971 0.9863
3.0006 -1.4066 -0.9971 0.9863
3.0209 -1.3627 -0.9971 0.9863
3.0405 -1.3184 -0.9972 0.9863
3.0595 -1.2738 -0.9972 0.9863
3.0778 -1.2290 -0.9972 0.9863
3.0954 -1.1839 -0.9972 0.9863
3.1287 -1.0930 -0.9972 0.9863
3.1444 -1.0471 -0.9972 0.9863
3.1737 -0.9548 -0.9972 0.9863
3.1873 -0.9084 -0.9972 0.9863
3.2003 -0.8617 -0.9972 0.9863
3.2241 -0.7678 -0.9972 0.9863
3.2350 -0.7206 -0.9972 0.9863
3.2547 -0.6258 -0.9972 0.9863
3.2635 -0.5782 -0.9972 0.9863
3.2717 -0.5305 -0.9973 0.9863
3.2791 -0.4826 -0.9973 0.9863
3.2918 -0.3865 -0.9973 0.9863
3.3017 -0.2903 -0.9973 0.9863
3.3056 -0.2419 -0.9973 0.9863
3.3141 -0.0485 -0.9973 0.9863
3.3144 0.0000 -0.9973 0.9863
3.3141 0.0484 -0.9973 0.9863
3.3130 0.0968 -0.9973 0.9863
3.3055 0.2419 -0.9973 0.9863
3.2971 0.3384 -0.9973 0.9863
3.2918 0.3866 -0.9973 0.9863
3.2857 0.4346 -0.9973 0.9863
3.2791 0.4825 -0.9973 0.9863
3.2716 0.5304 -0.9973 0.9863
3.2635 0.5782 -0.9973 0.9863
3.2452 0.6733 -0.9972 0.9863
3.2350 0.7206 -0.9972 0.9863
3.1737 0.9548 -0.9972 0.9863
3.1594 1.0011 -0.9972 0.9863
3.1287 1.0929 -0.9972 0.9863
3.1124 1.1385 -0.9972 0.9863
3.0954 1.1839 -0.9972 0.9863
3.0778 1.2289 -0.9972 0.9863
3.0595 1.2738 -0.9972 0.9863
3.0006 1.4066 -0.9971 0.9863
2.9582 1.4936 -0.9971 0.9863
2.9360 1.5367 -0.9971 0.9863
2.9132 1.5794 -0.9971 0.9863
2.8898 1.6218 -0.9971 0.9863
2.8658 1.6639 -0.9971 0.9863
2.8411 1.7055 -0.9971 0.9863
2.7635 1.8284 -0.9970 0.9863
2.7365 1.8685 -0.9970 0.9863
2.6807 1.9476 -0.9970 0.9863
2.6226 2.0250 -0.9970 0.9863
2.5927 2.0631 -0.9970 0.9863
2.5622 2.1007 -0.9969 0.9863
2.4996 2.1746 -0.9969 0.9863
2.4019 2.2820 -0.9969 0.9863
2.3682 2.3168 -0.9969 0.9863
2.3341 2.3512 -0.9968 0.9863
2.2994 2.3850 -0.9968 0.9863
2.2287 2.4511 -0.9968 0.9863
2.1926 2.4834 -0.9968 0.9863
2.1190 2.5462 -0.9967 0.9863
2.0816 2.5769 -0.9967 0.9863
2.0436 2.6070 -0.9967 0.9863
1.9665 2.6655 -0.9967 0.9863
1.9273 2.6939 -0.9967 0.9863
1.8878 2.7218 -0.9966 0.9863
1.8478 2.7490 -0.9966 0.9863
1.7666 2.8017 -0.9966 0.9863
1.5998 2.8999 -0.9965 0.9863
1.5572 2.9229 -0.9965 0.9863
1.2952 3.0477 -0.9964 0.9863
1.1603 3.1013 -0.9963 0.9863
1.1148 3.1179 -0.9963 0.9863
1.0691 3.1338 -0.9963 0.9863
