ply
format ascii 1.0
element vertex 1595
property float32 x
property float32 y
property float32 z
property float32 I
end_header
-0.3340 -0.2579 -0.1219 0.9982
-0.3329 -0.2649 -0.1229 0.9982
-0.3293 -0.2864 -0.1261 0.9982
-0.3251 -0.3088 -0.1295 0.9981
-0.3235 -0.3166 -0.1307 0.9981
-0.3160 -0.3476 -0.1357 0.9980
-0.3137 -0.3553 -0.1369 0.9980
-0.3088 -0.3711 -0.1394 0.9980
-0.3062 -0.3791 -0.1408 0.9980
-0.3036 -0.3873 -0.1422 0.9980
-0.2982 -0.4042 -0.1451 0.9979
-0.2954 -0.4128 -0.1466 0.9979
-0.2894 -0.4305 -0.1498 0.9978
-0.2862 -0.4395 -0.1515 0.9978
-0.2829 -0.4487 -0.1532 0.9978
-0.2796 -0.4581 -0.1550 0.9978
-0.2763 -0.4679 -0.1569 0.9977
-0.2731 -0.4785 -0.1591 0.9977
-0.2699 -0.4893 -0.1614 0.9977
-0.2666 -0.5003 -0.1637 0.9976
-0.2631 -0.5116 -0.1662 0.9976
-0.2594 -0.5232 -0.1687 0.9976
-0.2516 -0.5471 -0.1739 0.9975
-0.2475 -0.5595 -0.1767 0.9975
-0.2457 -0.5781 -0.1814 0.9974
-0.2529 -0.6201 -0.1934 0.9972
-1.1890 -3.1779 -0.9801 0.9860
-1.0956 -3.2114 -0.9801 0.9860
-1.0013 -3.2423 -0.9801 0.9860
-0.9539 -3.2566 -0.9802 0.9860
-0.8103 -3.2955 -0.9802 0.9860
-0.6652 -3.3280 -0.9803 0.9860
-0.6165 -3.3375 -0.9803 0.9860
-0.4205 -3.3681 -0.9804 0.9860
-0.3713 -3.3740 -0.9804 0.9860
-0.3219 -3.3791 -0.9805 0.9860
-0.2725 -3.3836 -0.9805 0.9860
-0.2231 -3.3873 -0.9805 0.9860
-0.1735 -3.3903 -0.9805 0.9860
-0.0744 -3.3941 -0.9806 0.9860
0.0248 -3.3949 -0.9806 0.9860
0.1735 -3.3908 -0.9807 0.9860
0.2231 -3.3880 -0.9807 0.9860
0.3220 -3.3802 -0.9808 0.9860
0.4698 -3.3630 -0.9808 0.9860
0.6168 -3.3395 -0.9809 0.9860
0.6656 -3.3301 -0.9809 0.9860
0.8590 -3.2859 -0.9810 0.9860
0.9070 -3.2731 -0.9810 0.9860
0.9547 -3.2595 -0.9811 0.9860
1.0023 -3.2453 -0.9811 0.9860
1.0496 -3.2304 -0.9811 0.9860
1.0967 -3.2148 -0.9811 0.9860
1.1902 -3.1816 -0.9812 0.9860
1.2366 -3.1638 -0.9812 0.9860
1.2828 -3.1455 -0.9812 0.9860
1.3286 -3.1265 -0.9812 0.9860
1.4194 -3.0865 -0.9813 0.9860
1.5534 -3.0215 -0.9813 0.9860
1.5974 -2.9985 -0.9814 0.9860
1.7274 -2.9259 -0.9814 0.9860
1.7700 -2.9003 -0.9814 0.9860
1.8123 -2.8742 -0.9815 0.9860
1.8955 -2.8201 -0.9815 0.9860
1.9366 -2.7922 -0.9815 0.9860
2.0965 -2.6745 -0.9816 0.9860
2.3956 -2.4848 -0.9970 0.9857
2.5369 -2.3407 -0.9970 0.9857
2.5708 -2.3035 -0.9971 0.9857
2.6042 -2.2657 -0.9971 0.9857
2.6694 -2.1887 -0.9971 0.9857
2.7323 -2.1098 -0.9971 0.9857
2.7929 -2.0291 -0.9972 0.9857
2.8223 -1.9882 -0.9972 0.9857
2.8511 -1.9467 -0.9972 0.9857
2.8792 -1.9049 -0.9972 0.9857
2.9338 -1.8200 -0.9972 0.9857
2.9600 -1.7770 -0.9972 0.9857
3.0352 -1.6456 -0.9973 0.9857
3.1045 -1.5110 -0.9973 0.9857
3.1474 -1.4197 -0.9973 0.9857
3.2067 -1.2805 -0.9973 0.9857
3.2251 -1.2335 -0.9974 0.9857
3.2598 -1.1387 -0.9974 0.9857
3.2761 -1.0910 -0.9974 0.9857
3.2917 -1.0430 -0.9974 0.9857
3.3066 -0.9948 -0.9974 0.9857
3.3343 -0.8978 -0.9974 0.9857
3.3811 -0.7015 -0.9974 0.9857
3.3911 -0.6520 -0.9974 0.9857
3.4002 -0.6024 -0.9974 0.9857
3.4234 -0.4528 -0.9974 0.9857
3.4352 -0.3526 -0.9975 0.9857
3.4440 -0.2521 -0.9975 0.9857
3.4474 -0.2017 -0.9975 0.9857
3.4529 -0.0505 -0.9975 0.9857
3.4529 0.0505 -0.9975 0.9857
3.4518 0.1009 -0.9975 0.9857
3.4500 0.1513 -0.9975 0.9857
3.4440 0.2521 -0.9975 0.9857
3.4297 0.4027 -0.9975 0.9857
3.4234 0.4528 -0.9975 0.9857
3.4164 0.5028 -0.9974 0.9857
3.3811 0.7015 -0.9974 0.9857
3.3705 0.7508 -0.9974 0.9857
3.3471 0.8490 -0.9974 0.9857
3.3343 0.8978 -0.9974 0.9857
3.3066 0.9948 -0.9974 0.9857
3.2428 1.1862 -0.9974 0.9857
3.2251 1.2335 -0.9974 0.9857
3.1876 1.3272 -0.9973 0.9857
3.1474 1.4197 -0.9973 0.9857
3.1263 1.4655 -0.9973 0.9857
3.1045 1.5111 -0.9973 0.9857
3.0590 1.6011 -0.9973 0.9857
2.9068 1.8627 -0.9972 0.9857
2.8511 1.9467 -0.9972 0.9857
2.7929 2.0291 -0.9972 0.9857
2.7629 2.0698 -0.9971 0.9857
2.7323 2.1098 -0.9971 0.9857
2.6694 2.1888 -0.9971 0.9857
2.6371 2.2275 -0.9971 0.9857
2.6043 2.2657 -0.9971 0.9857
2.5708 2.3035 -0.9971 0.9857
2.5023 2.3775 -0.9970 0.9857
2.4673 2.4138 -0.9970 0.9857
2.4317 2.4496 -0.9970 0.9857
2.3957 2.4848 -0.9970 0.9857
2.2844 2.5873 -0.9969 0.9857
2.2463 2.6203 -0.9969 0.9857
2.1686 2.6847 -0.9969 0.9857
2.1291 2.7161 -0.9969 0.9857
2.0488 2.7770 -0.9968 0.9857
1.9250 2.8640 -0.9968 0.9857
1.7107 2.9966 -0.9967 0.9857
1.6667 3.0212 -0.9966 0.9857
1.6223 3.0452 -0.9966 0.9857
1.5326 3.0911 -0.9966 0.9857
1.4872 3.1131 -0.9966 0.9857
1.4415 3.1345 -0.9965 0.9857
1.3956 3.1551 -0.9965 0.9857
1.3493 3.1751 -0.9965 0.9857
1.3027 3.1944 -0.9965 0.9857
1.2088 3.2309 -0.9964 0.9857
1.1614 3.2482 -0.9964 0.9857
1.1138 3.2648 -0.9964 0.9857
0.9696 3.3102 -0.9963 0.9857
0.8724 3.3370 -0.9963 0.9857
0.8235 3.3493 -0.9962 0.9857
0.7745 3.3609 -0.9962 0.9857
0.6759 3.3820 -0.9962 0.9857
0.6264 3.3914 -0.9962 0.9857
0.4771 3.4153 -0.9961 0.9857
0.3270 3.4327 -0.9960 0.9857
0.2768 3.4371 -0.9960 0.9857
0.2265 3.4406 -0.9960 0.9857
0.1763 3.4435 -0.9959 0.9857
0.0755 3.4470 -0.9959 0.9857
-0.1259 3.4452 -0.9958 0.9857
-0.1762 3.4429 -0.9958 0.9857
-0.3270 3.4317 -0.9957 0.9857
-0.4770 3.4138 -0.9956 0.9858
-0.5268 3.4064 -0.9956 0.9858
-0.5765 3.3983 -0.9956 0.9858
-0.6261 3.3894 -0.9956 0.9858
-0.6755 3.3798 -0.9955 0.9858
-0.7248 3.3695 -0.9955 0.9858
-0.7739 3.3585 -0.9955 0.9858
-0.8717 3.3343 -0.9955 0.9858
-0.9203 3.3211 -0.9954 0.9858
-0.9687 3.3073 -0.9954 0.9858
-1.1126 3.2614 -0.9953 0.9858
-0.2609 0.6675 -0.2070 0.9970
-0.2529 0.6200 -0.1934 0.9972
-0.2456 0.5781 -0.1814 0.9974
-0.2516 0.5471 -0.1739 0.9975
-0.2556 0.5350 -0.1713 0.9975
-0.2631 0.5116 -0.1662 0.9976
-0.2666 0.5003 -0.1637 0.9976
-0.2731 0.4784 -0.1591 0.9977
-0.2763 0.4679 -0.1569 0.9977
-0.2830 0.4487 -0.1532 0.9978
-0.2862 0.4395 -0.1515 0.9978
-0.2894 0.4305 -0.1498 0.9978
-0.2924 0.4216 -0.1482 0.9979
-0.3010 0.3957 -0.1436 0.9979
-0.3062 0.3791 -0.1408 0.9980
-0.3088 0.3711 -0.1394 0.9980
-0.3113 0.3631 -0.1382 0.9980
-0.3160 0.3475 -0.1357 0.9980
-0.3183 0.3399 -0.1345 0.9981
-0.3219 0.3243 -0.1320 0.9981
-0.3235 0.3166 -0.1307 0.9981
-0.3251 0.3088 -0.1295 0.9981
-0.3293 0.2864 -0.1261 0.9982
-0.3329 0.2649 -0.1229 0.9982
-0.3340 0.2579 -0.1219 0.9982
-0.3361 0.2442 -0.1200 0.9983
-0.3370 0.2374 -0.1191 0.9983
-0.3396 0.2176 -0.1165 0.9983
-0.3404 0.2112 -0.1157 0.9983
-0.3418 0.1984 -0.1141 0.9984
-0.3425 0.1922 -0.1134 0.9984
-0.3444 0.1803 -0.1123 0.9984
-0.3462 0.1685 -0.1112 0.9984
-0.3477 0.1568 -0.1102 0.9984
-0.3483 0.1511 -0.1097 0.9984
-0.3489 0.1453 -0.1092 0.9984
-0.3494 0.1395 -0.1087 0.9984
-0.3508 0.1226 -0.1073 0.9985
-0.3519 0.1059 -0.1061 0.9985
-0.3522 0.1004 -0.1058 0.9985
-0.3527 0.0895 -0.1051 0.9985
-0.3532 0.0733 -0.1042 0.9985
-0.3533 0.0679 -0.1039 0.9985
-0.3534 0.0520 -0.1032 0.9985
-0.3534 0.0468 -0.1030 0.9985
-0.3533 0.0363 -0.1026 0.9985
-0.3528 0.0207 -0.1021 0.9985
-0.3521 0.0052 -0.1017 0.9985
-0.3464 -0.0050 -0.1042 0.9986
-0.3466 -0.0101 -0.1043 0.9986
-0.3468 -0.0152 -0.1045 0.9986
-0.3470 -0.0203 -0.1046 0.9985
-0.3473 -0.0305 -0.1049 0.9985
-0.3474 -0.0356 -0.1051 0.9985
-0.3475 -0.0459 -0.1055 0.9985
-0.3475 -0.0563 -0.1059 0.9985
-0.3474 -0.0668 -0.1064 0.9985
-0.3473 -0.0720 -0.1067 0.9985
-0.3471 -0.0773 -0.1070 0.9985
-0.3459 -0.1041 -0.1087 0.9985
-0.3456 -0.1095 -0.1091 0.9985
-0.3452 -0.1149 -0.1095 0.9985
-0.3448 -0.1204 -0.1099 0.9985
-0.3433 -0.1371 -0.1112 0.9985
-0.3428 -0.1427 -0.1117 0.9985
-0.3409 -0.1598 -0.1133 0.9984
-0.3372 -0.1829 -0.1154 0.9984
-0.3362 -0.1887 -0.1160 0.9984
-0.3329 -0.2133 -0.1190 0.9983
-0.3321 -0.2197 -0.1198 0.9983
-0.3293 -0.2393 -0.1225 0.9983
-0.3283 -0.2459 -0.1234 0.9983
-0.3236 -0.2733 -0.1275 0.9982
-0.3223 -0.2804 -0.1285 0.9982
-0.3209 -0.2875 -0.1297 0.9982
-0.3195 -0.2948 -0.1308 0.9982
-0.3165 -0.3096 -0.1332 0.9982
-0.3148 -0.3171 -0.1345 0.9981
-0.3132 -0.3248 -0.1358 0.9981
-0.3113 -0.3325 -0.1371 0.9981
-0.3091 -0.3399 -0.1382 0.9981
-0.3018 -0.3627 -0.1420 0.9980
-0.2993 -0.3705 -0.1433 0.9980
-0.2966 -0.3783 -0.1446 0.9980
-0.2911 -0.3946 -0.1475 0.9980
-0.2853 -0.4114 -0.1506 0.9979
-0.2823 -0.4199 -0.1522 0.9979
-0.2791 -0.4286 -0.1539 0.9979
-0.2690 -0.4555 -0.1592 0.9978
-0.2654 -0.4648 -0.1610 0.9978
-0.2617 -0.4743 -0.1630 0.9977
-0.2548 -0.4955 -0.1676 0.9977
-0.2511 -0.5064 -0.1701 0.9976
-0.2473 -0.5176 -0.1726 0.9976
-0.2392 -0.5407 -0.1779 0.9975
-0.2304 -0.5649 -0.1836 0.9975
-0.2451 -0.6855 -0.2190 0.9970
-1.0518 -3.0830 -0.9801 0.9865
-1.0067 -3.0980 -0.9801 0.9865
-0.9157 -3.1263 -0.9802 0.9865
-0.8700 -3.1394 -0.9802 0.9865
-0.8240 -3.1518 -0.9802 0.9865
-0.6385 -3.1949 -0.9803 0.9865
-0.5449 -3.2123 -0.9804 0.9865
-0.3564 -3.2390 -0.9804 0.9865
-0.3091 -3.2439 -0.9805 0.9865
-0.2616 -3.2482 -0.9805 0.9865
-0.1190 -3.2567 -0.9806 0.9865
-0.0715 -3.2581 -0.9806 0.9865
0.1190 -3.2570 -0.9807 0.9865
0.1666 -3.2550 -0.9807 0.9865
0.2617 -3.2489 -0.9807 0.9865
0.3091 -3.2448 -0.9808 0.9865
0.3565 -3.2400 -0.9808 0.9865
0.4038 -3.2345 -0.9808 0.9865
0.5452 -3.2139 -0.9809 0.9865
0.5921 -3.2057 -0.9809 0.9865
0.7321 -3.1769 -0.9810 0.9865
0.8246 -3.1543 -0.9810 0.9865
0.9165 -3.1290 -0.9810 0.9865
0.9621 -3.1153 -0.9811 0.9865
1.0528 -3.0861 -0.9811 0.9865
1.0978 -3.0704 -0.9811 0.9865
1.1426 -3.0541 -0.9811 0.9865
1.1871 -3.0372 -0.9812 0.9865
1.2314 -3.0195 -0.9812 0.9865
1.2754 -3.0013 -0.9812 0.9865
1.3626 -2.9628 -0.9812 0.9865
1.4486 -2.9219 -0.9813 0.9865
1.4912 -2.9005 -0.9813 0.9865
1.5335 -2.8784 -0.9813 0.9865
1.5754 -2.8558 -0.9813 0.9865
1.6582 -2.8086 -0.9814 0.9865
1.6991 -2.7841 -0.9814 0.9865
1.7397 -2.7591 -0.9814 0.9865
1.8196 -2.7072 -0.9815 0.9865
1.8590 -2.6804 -0.9815 0.9865
1.9375 -2.6262 -0.9820 0.9865
1.9874 -2.6130 -0.9878 0.9864
2.0817 -2.5772 -0.9968 0.9863
2.1192 -2.5465 -0.9968 0.9863
2.1928 -2.4836 -0.9969 0.9863
2.2645 -2.4186 -0.9969 0.9863
2.3684 -2.3171 -0.9970 0.9863
2.4020 -2.2823 -0.9970 0.9863
2.4998 -2.1749 -0.9970 0.9863
2.5315 -2.1382 -0.9970 0.9863
2.5929 -2.0634 -0.9971 0.9863
2.6809 -1.9478 -0.9971 0.9863
2.7092 -1.9085 -0.9971 0.9863
2.7368 -1.8687 -0.9971 0.9863
2.7638 -1.8285 -0.9971 0.9863
2.8414 -1.7057 -0.9972 0.9863
2.8661 -1.6640 -0.9972 0.9863
2.8901 -1.6220 -0.9972 0.9863
2.9800 -1.4505 -0.9972 0.9863
3.0010 -1.4068 -0.9973 0.9863
3.0781 -1.2291 -0.9973 0.9863
3.0958 -1.1841 -0.9973 0.9863
3.1128 -1.1387 -0.9973 0.9863
3.1597 -1.0012 -0.9973 0.9863
3.1741 -0.9550 -0.9973 0.9862
3.1877 -0.9085 -0.9973 0.9862
3.2007 -0.8618 -0.9973 0.9862
3.2245 -0.7679 -0.9974 0.9862
3.2551 -0.6259 -0.9974 0.9862
3.2720 -0.5305 -0.9974 0.9862
3.2794 -0.4827 -0.9974 0.9862
3.2922 -0.3866 -0.9974 0.9862
3.2975 -0.3385 -0.9974 0.9862
3.3021 -0.2903 -0.9974 0.9862
3.3059 -0.2420 -0.9974 0.9862
3.3092 -0.1936 -0.9974 0.9862
3.3116 -0.1453 -0.9974 0.9862
3.3148 0.0000 -0.9974 0.9862
3.3145 0.0484 -0.9974 0.9862
3.3134 0.0968 -0.9974 0.9862
3.2922 0.3866 -0.9974 0.9862
3.2794 0.4827 -0.9974 0.9862
3.2720 0.5305 -0.9974 0.9862
3.2551 0.6259 -0.9974 0.9862
3.2456 0.6734 -0.9974 0.9862
3.2354 0.7207 -0.9974 0.9862
3.2245 0.7679 -0.9974 0.9862
3.2129 0.8149 -0.9974 0.9862
3.2006 0.8618 -0.9973 0.9862
3.1877 0.9084 -0.9973 0.9862
3.1598 1.0012 -0.9973 0.9862
3.1448 1.0473 -0.9973 0.9862
3.1291 1.0931 -0.9973 0.9863
3.0212 1.3628 -0.9973 0.9863
3.0009 1.4068 -0.9973 0.9863
2.9801 1.4505 -0.9972 0.9863
2.9585 1.4938 -0.9972 0.9863
2.7368 1.8687 -0.9971 0.9863
2.7092 1.9085 -0.9971 0.9863
2.6810 1.9479 -0.9971 0.9863
2.6522 1.9868 -0.9971 0.9863
2.5314 2.1382 -0.9970 0.9863
2.4999 2.1749 -0.9970 0.9863
2.4678 2.2112 -0.9970 0.9863
2.3684 2.3171 -0.9970 0.9863
2.3343 2.3514 -0.9969 0.9863
2.2996 2.3852 -0.9969 0.9863
2.2289 2.4513 -0.9969 0.9863
2.1928 2.4836 -0.9969 0.9863
2.0818 2.5772 -0.9968 0.9863
2.0438 2.6073 -0.9968 0.9863
1.9667 2.6658 -0.9968 0.9863
1.9275 2.6941 -0.9968 0.9863
1.8075 2.7759 -0.9967 0.9863
1.6421 2.8766 -0.9966 0.9863
1.5999 2.9001 -0.9966 0.9863
1.5144 2.9456 -0.9966 0.9863
1.4276 2.9884 -0.9965 0.9863
1.3838 3.0089 -0.9965 0.9863
1.3397 3.0287 -0.9965 0.9863
1.2055 3.0844 -0.9964 0.9863
1.0692 3.1340 -0.9964 0.9863
0.9308 3.1777 -0.9963 0.9863
0.8842 3.1909 -0.9963 0.9863
0.7906 3.2152 -0.9962 0.9863
0.6489 3.2465 -0.9962 0.9863
0.6013 3.2555 -0.9961 0.9863
0.5536 3.2639 -0.9961 0.9863
0.5059 3.2716 -0.9961 0.9863
0.4581 3.2786 -0.9961 0.9863
0.3139 3.2953 -0.9960 0.9863
0.1692 3.3056 -0.9959 0.9863
0.0242 3.3096 -0.9959 0.9863
-0.0242 3.3096 -0.9959 0.9863
-0.0726 3.3088 -0.9958 0.9863
-0.1692 3.3051 -0.9958 0.9863
-0.2175 3.3022 -0.9958 0.9863
-0.2657 3.2987 -0.9957 0.9863
-0.3138 3.2943 -0.9957 0.9863
-0.6485 3.2446 -0.9956 0.9863
-0.7900 3.2128 -0.9955 0.9863
-0.8835 3.1882 -0.9955 0.9863
-0.9299 3.1749 -0.9954 0.9863
-0.9762 3.1609 -0.9954 0.9863
-1.0223 3.1462 -0.9954 0.9863
-1.0681 3.1309 -0.9954 0.9863
-0.2451 0.6855 -0.2190 0.9970
-0.2383 0.6369 -0.2046 0.9972
-0.2304 0.5649 -0.1836 0.9975
-0.2433 0.5291 -0.1752 0.9976
-0.2548 0.4955 -0.1676 0.9977
-0.2583 0.4848 -0.1653 0.9977
-0.2758 0.4374 -0.1556 0.9978
-0.2823 0.4199 -0.1522 0.9979
-0.2853 0.4114 -0.1506 0.9979
-0.2883 0.4029 -0.1491 0.9979
-0.2911 0.3945 -0.1475 0.9980
-0.2939 0.3864 -0.1461 0.9980
-0.3018 0.3627 -0.1420 0.9980
-0.3067 0.3474 -0.1394 0.9981
-0.3165 0.3096 -0.1332 0.9982
-0.3180 0.3022 -0.1320 0.9982
-0.3195 0.2948 -0.1308 0.9982
-0.3209 0.2876 -0.1297 0.9982
-0.3223 0.2804 -0.1285 0.9982
-0.3236 0.2733 -0.1275 0.9982
-0.3260 0.2595 -0.1254 0.9983
-0.3283 0.2459 -0.1234 0.9983
-0.3293 0.2393 -0.1225 0.9983
-0.3303 0.2327 -0.1216 0.9983
-0.3330 0.2134 -0.1190 0.9983
-0.3338 0.2070 -0.1182 0.9984
-0.3345 0.2008 -0.1174 0.9984
-0.3362 0.1887 -0.1160 0.9984
-0.3372 0.1828 -0.1154 0.9984
-0.3422 0.1484 -0.1122 0.9984
-0.3428 0.1427 -0.1117 0.9985
-0.3433 0.1371 -0.1112 0.9985
-0.3448 0.1204 -0.1099 0.9985
-0.3459 0.1041 -0.1087 0.9985
-0.3462 0.0987 -0.1083 0.9985
-0.3468 0.0879 -0.1076 0.9985
-0.3469 0.0827 -0.1073 0.9985
-0.3471 0.0773 -0.1070 0.9985
-0.3473 0.0720 -0.1067 0.9985
-0.3474 0.0668 -0.1064 0.9985
-0.3475 0.0512 -0.1057 0.9985
-0.3475 0.0408 -0.1053 0.9985
-0.3473 0.0305 -0.1049 0.9985
-0.3470 0.0203 -0.1046 0.9985
-0.3468 0.0152 -0.1045 0.9986
-0.3466 0.0101 -0.1043 0.9986
-0.3407 -0.0049 -0.1067 0.9986
-0.3412 -0.0150 -0.1069 0.9986
-0.3414 -0.0200 -0.1070 0.9986
-0.3417 -0.0351 -0.1075 0.9986
-0.3418 -0.0401 -0.1077 0.9986
-0.3418 -0.0452 -0.1079 0.9986
-0.3418 -0.0503 -0.1081 0.9986
-0.3418 -0.0554 -0.1084 0.9985
-0.3416 -0.0657 -0.1089 0.9985
-0.3415 -0.0708 -0.1092 0.9985
-0.3412 -0.0812 -0.1098 0.9985
-0.3407 -0.0917 -0.1104 0.9985
-0.3404 -0.0970 -0.1108 0.9985
-0.3401 -0.1023 -0.1112 0.9985
-0.3397 -0.1077 -0.1115 0.9985
-0.3379 -0.1292 -0.1132 0.9985
-0.3368 -0.1402 -0.1142 0.9985
-0.3356 -0.1513 -0.1152 0.9985
-0.3340 -0.1625 -0.1163 0.9984
-0.3331 -0.1682 -0.1168 0.9984
-0.3311 -0.1795 -0.1179 0.9984
-0.3301 -0.1853 -0.1185 0.9984
-0.3291 -0.1911 -0.1191 0.9984
-0.3281 -0.1970 -0.1198 0.9984
-0.3265 -0.2092 -0.1214 0.9984
-0.3257 -0.2154 -0.1222 0.9984
-0.3238 -0.2280 -0.1240 0.9983
-0.3217 -0.2410 -0.1258 0.9983
-0.3206 -0.2475 -0.1268 0.9983
-0.3169 -0.2677 -0.1299 0.9983
-0.3156 -0.2746 -0.1309 0.9982
-0.3142 -0.2815 -0.1321 0.9982
-0.3097 -0.3029 -0.1356 0.9982
-0.3063 -0.3177 -0.1381 0.9982
-0.3045 -0.3252 -0.1394 0.9981
-0.3024 -0.3325 -0.1407 0.9981
-0.3000 -0.3398 -0.1419 0.9981
-0.2976 -0.3471 -0.1431 0.9981
-0.2951 -0.3546 -0.1444 0.9981
-0.2925 -0.3621 -0.1457 0.9981
-0.2899 -0.3698 -0.1471 0.9980
-0.2871 -0.3775 -0.1484 0.9980
-0.2843 -0.3854 -0.1499 0.9980
-0.2815 -0.3934 -0.1514 0.9980
-0.2754 -0.4098 -0.1545 0.9979
-0.2690 -0.4266 -0.1579 0.9979
-0.2657 -0.4353 -0.1596 0.9979
-0.2549 -0.4620 -0.1652 0.9978
-0.2510 -0.4712 -0.1671 0.9978
-0.2471 -0.4805 -0.1691 0.9977
-0.2395 -0.5013 -0.1739 0.9977
-0.2355 -0.5120 -0.1764 0.9976
-0.2271 -0.5344 -0.1818 0.9976
-0.2132 -0.5698 -0.1904 0.9975
-0.2225 -0.6521 -0.2157 0.9971
-0.9677 -2.9781 -0.9802 0.9870
-0.9240 -2.9920 -0.9802 0.9870
-0.8803 -3.0052 -0.9802 0.9870
-0.8363 -3.0178 -0.9802 0.9870
-0.7478 -3.0411 -0.9803 0.9870
-0.7033 -3.0518 -0.9803 0.9870
-0.6586 -3.0618 -0.9803 0.9870
-0.6138 -3.0712 -0.9803 0.9870
-0.5238 -3.0879 -0.9804 0.9870
-0.4787 -3.0953 -0.9804 0.9870
-0.3426 -3.1135 -0.9805 0.9870
-0.2971 -3.1182 -0.9805 0.9870
-0.2058 -3.1257 -0.9805 0.9870
-0.1601 -3.1285 -0.9805 0.9870
-0.1144 -3.1305 -0.9806 0.9870
-0.0687 -3.1320 -0.9806 0.9870
-0.0229 -3.1327 -0.9806 0.9870
0.0686 -3.1321 -0.9806 0.9870
0.1601 -3.1289 -0.9807 0.9870
0.3427 -3.1145 -0.9808 0.9870
0.3882 -3.1092 -0.9808 0.9870
0.4789 -3.0967 -0.9808 0.9870
0.5241 -3.0895 -0.9809 0.9870
0.5692 -3.0815 -0.9809 0.9870
0.6141 -3.0729 -0.9809 0.9870
0.6590 -3.0637 -0.9809 0.9870
0.7037 -3.0538 -0.9809 0.9870
0.7482 -3.0433 -0.9810 0.9870
0.7927 -3.0321 -0.9810 0.9870
0.8369 -3.0202 -0.9810 0.9869
0.8809 -3.0077 -0.9810 0.9869
0.9248 -2.9946 -0.9810 0.9869
0.9685 -2.9809 -0.9811 0.9869
1.0120 -2.9664 -0.9811 0.9869
1.1836 -2.9025 -0.9812 0.9869
1.2259 -2.8849 -0.9812 0.9869
1.2680 -2.8668 -0.9812 0.9869
1.3513 -2.8286 -0.9812 0.9869
1.3925 -2.8086 -0.9813 0.9869
1.5143 -2.7450 -0.9813 0.9869
1.5543 -2.7227 -0.9813 0.9869
1.5939 -2.6997 -0.9814 0.9869
1.6332 -2.6762 -0.9814 0.9869
1.7115 -2.6284 -0.9818 0.9869
1.9646 -2.5062 -0.9968 0.9867
2.0370 -2.4477 -0.9968 0.9867
2.0726 -2.4177 -0.9968 0.9867
2.1078 -2.3873 -0.9968 0.9867
2.1425 -2.3563 -0.9969 0.9867
2.2437 -2.2602 -0.9969 0.9867
2.3089 -2.1938 -0.9969 0.9867
2.3408 -2.1598 -0.9969 0.9867
2.4924 -1.9833 -0.9970 0.9867
2.6041 -1.8345 -0.9971 0.9867
2.6821 -1.7186 -0.9971 0.9867
2.7549 -1.5995 -0.9971 0.9867
2.7780 -1.5591 -0.9971 0.9867
2.8224 -1.4773 -0.9972 0.9867
2.8438 -1.4359 -0.9972 0.9867
2.8645 -1.3942 -0.9972 0.9867
2.8845 -1.3522 -0.9972 0.9867
2.9040 -1.3099 -0.9972 0.9867
2.9229 -1.2674 -0.9972 0.9867
2.9587 -1.1814 -0.9972 0.9867
2.9757 -1.1381 -0.9972 0.9867
3.0077 -1.0507 -0.9973 0.9867
3.0765 -0.8284 -0.9973 0.9867
3.0994 -0.7381 -0.9973 0.9867
3.1099 -0.6928 -0.9973 0.9867
3.1197 -0.6472 -0.9973 0.9867
3.1373 -0.5558 -0.9973 0.9867
3.1451 -0.5099 -0.9973 0.9867
3.1522 -0.4639 -0.9973 0.9867
3.1695 -0.3254 -0.9973 0.9867
3.1807 -0.1861 -0.9973 0.9867
3.1862 0.0000 -0.9973 0.9867
3.1808 0.1861 -0.9973 0.9867
3.1695 0.3253 -0.9973 0.9867
3.1644 0.3716 -0.9973 0.9867
3.1587 0.4178 -0.9973 0.9867
3.1522 0.4639 -0.9973 0.9867
3.1288 0.6016 -0.9973 0.9867
3.0765 0.8284 -0.9973 0.9867
3.0640 0.8732 -0.9973 0.9867
3.0509 0.9179 -0.9973 0.9867
3.0228 1.0066 -0.9973 0.9867
2.9411 1.2246 -0.9972 0.9867
2.9229 1.2674 -0.9972 0.9867
2.8437 1.4359 -0.9972 0.9867
2.8224 1.4773 -0.9972 0.9867
2.7549 1.5995 -0.9971 0.9867
2.7312 1.6396 -0.9971 0.9867
2.7069 1.6793 -0.9971 0.9867
2.6821 1.7186 -0.9971 0.9867
2.6041 1.8345 -0.9971 0.9867
2.5493 1.9097 -0.9970 0.9867
2.5211 1.9468 -0.9970 0.9867
2.4924 1.9833 -0.9970 0.9867
2.4333 2.0553 -0.9970 0.9867
2.4029 2.0906 -0.9970 0.9867
2.3089 2.1937 -0.9969 0.9867
2.2438 2.2602 -0.9969 0.9867
2.1767 2.3248 -0.9969 0.9867
2.1425 2.3563 -0.9969 0.9867
2.1078 2.3873 -0.9968 0.9867
2.0726 2.4178 -0.9968 0.9867
1.9277 2.5346 -0.9968 0.9867
1.8528 2.5898 -0.9967 0.9867
1.8147 2.6165 -0.9967 0.9867
1.7762 2.6426 -0.9967 0.9867
1.6587 2.7178 -0.9966 0.9867
1.6187 2.7417 -0.9966 0.9867
1.5785 2.7650 -0.9966 0.9867
1.5379 2.7877 -0.9966 0.9867
1.4557 2.8313 -0.9965 0.9867
1.3723 2.8725 -0.9965 0.9867
1.3301 2.8923 -0.9965 0.9867
1.2450 2.9298 -0.9964 0.9867
1.2021 2.9476 -0.9964 0.9867
1.1588 2.9648 -0.9964 0.9867
1.0717 2.9973 -0.9964 0.9867
0.9836 3.0272 -0.9963 0.9867
0.9392 3.0412 -0.9963 0.9867
0.6692 3.1113 -0.9962 0.9867
0.6237 3.1207 -0.9962 0.9867
0.5322 3.1375 -0.9961 0.9868
0.4403 3.1516 -0.9961 0.9868
0.3942 3.1576 -0.9960 0.9868
0.3480 3.1629 -0.9960 0.9868
0.3018 3.1676 -0.9960 0.9868
0.2554 3.1716 -0.9960 0.9868
0.2090 3.1750 -0.9960 0.9868
0.1626 3.1776 -0.9959 0.9868
0.1162 3.1795 -0.9959 0.9868
0.0697 3.1809 -0.9959 0.9868
0.0232 3.1814 -0.9959 0.9868
-0.0233 3.1814 -0.9959 0.9868
-0.1162 3.1792 -0.9958 0.9868
-0.1626 3.1771 -0.9958 0.9868
-0.2090 3.1743 -0.9958 0.9868
-0.2554 3.1709 -0.9957 0.9868
-0.3479 3.1619 -0.9957 0.9868
-0.3941 3.1564 -0.9957 0.9868
-0.5320 3.1359 -0.9956 0.9868
-0.6688 3.1095 -0.9956 0.9868
-0.7142 3.0993 -0.9955 0.9868
-0.8044 3.0769 -0.9955 0.9868
-0.8493 3.0648 -0.9955 0.9868
-0.8940 3.0520 -0.9954 0.9868
-0.9384 3.0385 -0.9954 0.9868
-0.9827 3.0244 -0.9954 0.9868
-0.2225 0.6521 -0.2157 0.9971
-0.2175 0.6084 -0.2023 0.9973
-0.2132 0.5698 -0.1904 0.9975
-0.2227 0.5460 -0.1846 0.9975
-0.2271 0.5344 -0.1818 0.9976
-0.2314 0.5231 -0.1790 0.9976
-0.2355 0.5121 -0.1764 0.9976
-0.2395 0.5012 -0.1739 0.9977
-0.2433 0.4906 -0.1714 0.9977
-0.2510 0.4712 -0.1671 0.9978
-0.2549 0.4620 -0.1652 0.9978
-0.2586 0.4529 -0.1633 0.9978
-0.2657 0.4353 -0.1596 0.9979
-0.2691 0.4267 -0.1579 0.9979
-0.2723 0.4182 -0.1562 0.9979
-0.2754 0.4098 -0.1545 0.9979
-0.2785 0.4015 -0.1529 0.9980
-0.2815 0.3934 -0.1514 0.9980
-0.2871 0.3774 -0.1484 0.9980
-0.2951 0.3545 -0.1444 0.9981
-0.3045 0.3252 -0.1394 0.9981
-0.3080 0.3102 -0.1368 0.9982
-0.3096 0.3029 -0.1356 0.9982
-0.3169 0.2677 -0.1299 0.9983
-0.3238 0.2281 -0.1240 0.9983
-0.3257 0.2154 -0.1222 0.9984
-0.3265 0.2092 -0.1214 0.9984
-0.3281 0.1970 -0.1198 0.9984
-0.3301 0.1853 -0.1185 0.9984
-0.3312 0.1796 -0.1179 0.9984
-0.3340 0.1626 -0.1163 0.9984
-0.3348 0.1570 -0.1157 0.9985
-0.3356 0.1514 -0.1152 0.9985
-0.3362 0.1458 -0.1147 0.9985
-0.3374 0.1347 -0.1137 0.9985
-0.3384 0.1238 -0.1128 0.9985
-0.3393 0.1130 -0.1119 0.9985
-0.3407 0.0917 -0.1104 0.9985
-0.3412 0.0812 -0.1098 0.9985
-0.3417 0.0605 -0.1086 0.9985
-0.3418 0.0554 -0.1084 0.9985
-0.3418 0.0503 -0.1081 0.9986
-0.3418 0.0452 -0.1079 0.9986
-0.3418 0.0401 -0.1077 0.9986
-0.3415 0.0250 -0.1072 0.9986
-0.3414 0.0200 -0.1070 0.9986
-0.3412 0.0150 -0.1069 0.9986
-0.3409 0.0100 -0.1068 0.9986
-0.3407 0.0050 -0.1067 0.9986
-0.3357 -0.0147 -0.1093 0.9986
-0.3358 -0.0196 -0.1094 0.9986
-0.3360 -0.0246 -0.1096 0.9986
-0.3361 -0.0295 -0.1097 0.9986
-0.3362 -0.0345 -0.1099 0.9986
-0.3362 -0.0395 -0.1101 0.9986
-0.3363 -0.0445 -0.1103 0.9986
-0.3362 -0.0495 -0.1105 0.9986
-0.3361 -0.0596 -0.1110 0.9986
-0.3357 -0.0748 -0.1119 0.9986
-0.3355 -0.0799 -0.1122 0.9986
-0.3353 -0.0850 -0.1125 0.9985
-0.3350 -0.0902 -0.1128 0.9985
-0.3347 -0.0954 -0.1132 0.9985
-0.3343 -0.1005 -0.1136 0.9985
-0.3331 -0.1164 -0.1148 0.9985
-0.3304 -0.1432 -0.1171 0.9985
-0.3290 -0.1542 -0.1182 0.9985
-0.3281 -0.1596 -0.1187 0.9985
-0.3272 -0.1652 -0.1192 0.9985
-0.3253 -0.1763 -0.1203 0.9984
-0.3212 -0.1992 -0.1229 0.9984
-0.3203 -0.2052 -0.1237 0.9984
-0.3194 -0.2113 -0.1246 0.9984
-0.3185 -0.2174 -0.1254 0.9984
-0.3175 -0.2236 -0.1263 0.9984
-0.3142 -0.2427 -0.1291 0.9983
-0.3130 -0.2491 -0.1301 0.9983
-0.3105 -0.2623 -0.1322 0.9983
-0.3091 -0.2689 -0.1333 0.9983
-0.3077 -0.2757 -0.1344 0.9983
-0.3062 -0.2826 -0.1355 0.9982
-0.3047 -0.2895 -0.1367 0.9982
-0.3031 -0.2965 -0.1379 0.9982
-0.3014 -0.3036 -0.1391 0.9982
-0.2979 -0.3181 -0.1417 0.9982
-0.2936 -0.3325 -0.1442 0.9981
-0.2911 -0.3396 -0.1455 0.9981
-0.2886 -0.3468 -0.1467 0.9981
-0.2861 -0.3541 -0.1480 0.9981
-0.2807 -0.3689 -0.1508 0.9981
-0.2778 -0.3766 -0.1522 0.9980
-0.2719 -0.3921 -0.1552 0.9980
-0.2521 -0.4416 -0.1654 0.9979
-0.2446 -0.4591 -0.1692 0.9978
-0.2407 -0.4681 -0.1712 0.9978
-0.2324 -0.4864 -0.1753 0.9977
-0.2198 -0.5172 -0.1828 0.9976
-0.2108 -0.5392 -0.1883 0.9976
-0.2010 -0.5623 -0.1942 0.9975
-0.2019 -0.6213 -0.2125 0.9973
-0.8472 -2.8925 -0.9802 0.9874
-0.8049 -2.9046 -0.9802 0.9874
-0.7624 -2.9161 -0.9803 0.9874
-0.6339 -2.9469 -0.9803 0.9874
-0.5908 -2.9559 -0.9803 0.9874
-0.3735 -2.9914 -0.9804 0.9874
-0.2859 -3.0012 -0.9805 0.9874
-0.1542 -3.0110 -0.9805 0.9874
0.0220 -3.0151 -0.9806 0.9874
0.0661 -3.0146 -0.9806 0.9874
0.1101 -3.0133 -0.9807 0.9874
0.1981 -3.0090 -0.9807 0.9874
0.2860 -3.0020 -0.9807 0.9874
0.3298 -2.9976 -0.9808 0.9874
0.3736 -2.9925 -0.9808 0.9874
0.4609 -2.9804 -0.9808 0.9874
0.5044 -2.9734 -0.9809 0.9874
0.5911 -2.9575 -0.9809 0.9874
0.6342 -2.9487 -0.9809 0.9874
0.6773 -2.9391 -0.9809 0.9874
0.8055 -2.9068 -0.9810 0.9874
0.8479 -2.8948 -0.9810 0.9874
0.8901 -2.8821 -0.9810 0.9874
1.2203 -2.7591 -0.9812 0.9874
1.2606 -2.7410 -0.9812 0.9874
1.3796 -2.6832 -0.9813 0.9874
1.4186 -2.6629 -0.9813 0.9874
1.4574 -2.6420 -0.9813 0.9874
1.5442 -2.6154 -0.9878 0.9873
1.5905 -2.6061 -0.9930 0.9872
1.6344 -2.5921 -0.9966 0.9872
1.6721 -2.5680 -0.9966 0.9872
1.7465 -2.5182 -0.9967 0.9872
1.8553 -2.4393 -0.9967 0.9872
1.9258 -2.3842 -0.9968 0.9872
1.9947 -2.3269 -0.9968 0.9872
2.0285 -2.2976 -0.9968 0.9872
2.0619 -2.2677 -0.9968 0.9872
2.0949 -2.2374 -0.9968 0.9872
2.1594 -2.1753 -0.9969 0.9872
2.1910 -2.1435 -0.9969 0.9872
2.2221 -2.1113 -0.9969 0.9872
2.2829 -2.0455 -0.9969 0.9872
2.3126 -2.0120 -0.9969 0.9872
2.3418 -1.9780 -0.9969 0.9872
2.3705 -1.9436 -0.9970 0.9872
2.3987 -1.9088 -0.9970 0.9872
2.6285 -1.5779 -0.9971 0.9872
2.6736 -1.5005 -0.9971 0.9872
2.6952 -1.4613 -0.9971 0.9872
2.7163 -1.4218 -0.9971 0.9872
2.7368 -1.3819 -0.9971 0.9872
2.7761 -1.3014 -0.9971 0.9872
2.7948 -1.2607 -0.9972 0.9872
2.8130 -1.2197 -0.9972 0.9872
2.8475 -1.1370 -0.9972 0.9872
2.8638 -1.0953 -0.9972 0.9872
2.8796 -1.0534 -0.9972 0.9872
2.8947 -1.0112 -0.9972 0.9872
2.9230 -0.9262 -0.9972 0.9872
2.9362 -0.8834 -0.9972 0.9872
2.9608 -0.7972 -0.9972 0.9872
2.9722 -0.7539 -0.9972 0.9872
2.9930 -0.6667 -0.9972 0.9872
3.0112 -0.5790 -0.9973 0.9872
3.0193 -0.5350 -0.9973 0.9872
3.0268 -0.4907 -0.9973 0.9872
3.0337 -0.4465 -0.9973 0.9872
3.0399 -0.4021 -0.9973 0.9872
3.0546 -0.2685 -0.9973 0.9872
3.0612 -0.1791 -0.9973 0.9872
3.0661 -0.0448 -0.9973 0.9872
3.0664 0.0000 -0.9973 0.9872
3.0651 0.0896 -0.9973 0.9872
3.0635 0.1344 -0.9973 0.9872
3.0612 0.1791 -0.9973 0.9872
3.0546 0.2685 -0.9973 0.9872
3.0504 0.3130 -0.9973 0.9872
3.0455 0.3577 -0.9973 0.9872
3.0269 0.4907 -0.9973 0.9872
3.0193 0.5350 -0.9973 0.9872
3.0024 0.6229 -0.9973 0.9872
2.9929 0.6667 -0.9973 0.9872
2.9362 0.8834 -0.9972 0.9872
2.9230 0.9262 -0.9972 0.9872
2.8638 1.0953 -0.9972 0.9872
2.8475 1.1370 -0.9972 0.9872
2.8306 1.1786 -0.9972 0.9872
2.8130 1.2197 -0.9972 0.9872
2.7369 1.3820 -0.9971 0.9872
2.7163 1.4218 -0.9971 0.9872
2.6514 1.5394 -0.9971 0.9872
2.6285 1.5780 -0.9971 0.9872
2.5568 1.6916 -0.9970 0.9872
2.5062 1.7655 -0.9970 0.9872
2.4264 1.8736 -0.9970 0.9872
2.3418 1.9780 -0.9969 0.9872
2.2830 2.0455 -0.9969 0.9872
2.2528 2.0787 -0.9969 0.9872
2.1910 2.1436 -0.9969 0.9872
2.1594 2.1753 -0.9969 0.9872
2.1274 2.2066 -0.9969 0.9872
2.0949 2.2374 -0.9968 0.9872
1.9947 2.3270 -0.9968 0.9872
1.9258 2.3841 -0.9968 0.9872
1.8908 2.4120 -0.9967 0.9872
1.8553 2.4393 -0.9967 0.9872
1.6344 2.5921 -0.9966 0.9872
1.5963 2.6157 -0.9966 0.9872
1.5579 2.6387 -0.9966 0.9872
1.5192 2.6611 -0.9966 0.9872
1.4407 2.7043 -0.9965 0.9872
1.3207 2.7647 -0.9965 0.9872
1.2802 2.7836 -0.9965 0.9872
1.2393 2.8020 -0.9964 0.9872
1.1983 2.8197 -0.9964 0.9872
1.1569 2.8368 -0.9964 0.9872
1.1153 2.8534 -0.9964 0.9872
0.9891 2.8994 -0.9963 0.9872
0.9466 2.9135 -0.9963 0.9872
0.9039 2.9270 -0.9963 0.9872
0.8611 2.9398 -0.9963 0.9872
0.8180 2.9520 -0.9962 0.9872
0.7314 2.9745 -0.9962 0.9872
0.6878 2.9848 -0.9962 0.9872
0.5122 3.0197 -0.9961 0.9872
0.3794 3.0390 -0.9960 0.9872
0.3349 3.0442 -0.9960 0.9872
0.2904 3.0487 -0.9960 0.9872
0.2458 3.0525 -0.9960 0.9872
0.0671 3.0614 -0.9959 0.9872
0.0224 3.0620 -0.9959 0.9872
-0.0224 3.0620 -0.9959 0.9872
-0.1118 3.0599 -0.9958 0.9872
-0.2012 3.0552 -0.9958 0.9872
-0.2458 3.0518 -0.9957 0.9872
-0.3349 3.0432 -0.9957 0.9872
-0.4679 3.0254 -0.9956 0.9872
-0.5560 3.0103 -0.9956 0.9872
-0.6437 2.9927 -0.9956 0.9872
-0.6874 2.9829 -0.9955 0.9872
-0.7309 2.9725 -0.9955 0.9872
-0.7742 2.9614 -0.9955 0.9872
-0.8174 2.9497 -0.9955 0.9872
-0.8604 2.9374 -0.9955 0.9872
-0.2055 0.6654 -0.2265 0.9971
-0.1985 0.5819 -0.2000 0.9974
-0.2281 0.4961 -0.1776 0.9977
-0.2324 0.4864 -0.1753 0.9977
-0.2446 0.4591 -0.1692 0.9978
-0.2484 0.4503 -0.1673 0.9978
-0.2557 0.4331 -0.1636 0.9979
-0.2592 0.4246 -0.1618 0.9979
-0.2625 0.4163 -0.1601 0.9979
-0.2689 0.4000 -0.1568 0.9980
-0.2719 0.3921 -0.1552 0.9980
-0.2778 0.3765 -0.1522 0.9980
-0.2911 0.3396 -0.1455 0.9981
-0.2936 0.3325 -0.1442 0.9981
-0.2979 0.3180 -0.1417 0.9982
-0.2997 0.3108 -0.1404 0.9982
-0.3031 0.2965 -0.1379 0.9982
-0.3047 0.2895 -0.1367 0.9982
-0.3091 0.2689 -0.1333 0.9983
-0.3105 0.2623 -0.1322 0.9983
-0.3118 0.2557 -0.1311 0.9983
-0.3185 0.2175 -0.1254 0.9984
-0.3194 0.2113 -0.1246 0.9984
-0.3203 0.2053 -0.1237 0.9984
-0.3242 0.1820 -0.1209 0.9984
-0.3281 0.1597 -0.1187 0.9985
-0.3290 0.1543 -0.1182 0.9985
-0.3316 0.1324 -0.1161 0.9985
-0.3321 0.1270 -0.1157 0.9985
-0.3327 0.1217 -0.1152 0.9985
-0.3331 0.1164 -0.1148 0.9985
-0.3336 0.1111 -0.1143 0.9985
-0.3340 0.1058 -0.1139 0.9985
-0.3347 0.0954 -0.1132 0.9985
-0.3350 0.0902 -0.1128 0.9985
-0.3353 0.0850 -0.1125 0.9985
-0.3355 0.0799 -0.1122 0.9986
-0.3357 0.0748 -0.1119 0.9986
-0.3360 0.0646 -0.1113 0.9986
-0.3361 0.0595 -0.1110 0.9986
-0.3363 0.0445 -0.1103 0.9986
-0.3362 0.0395 -0.1101 0.9986
-0.3361 0.0296 -0.1097 0.9986
-0.3360 0.0246 -0.1096 0.9986
-0.3355 0.0098 -0.1091 0.9986
-0.3296 0.0000 -0.1113 0.9986
-0.3301 -0.0096 -0.1115 0.9986
-0.3303 -0.0145 -0.1116 0.9986
-0.3304 -0.0193 -0.1117 0.9986
-0.3306 -0.0242 -0.1119 0.9986
-0.3307 -0.0291 -0.1120 0.9986
-0.3308 -0.0389 -0.1124 0.9986
-0.3308 -0.0437 -0.1126 0.9986
-0.3305 -0.0635 -0.1136 0.9986
-0.3295 -0.0887 -0.1152 0.9986
-0.3292 -0.0938 -0.1155 0.9986
-0.3288 -0.0989 -0.1159 0.9986
-0.3271 -0.1196 -0.1175 0.9985
-0.3260 -0.1301 -0.1185 0.9985
-0.3215 -0.1623 -0.1216 0.9985
-0.3195 -0.1732 -0.1227 0.9985
-0.3185 -0.1787 -0.1233 0.9985
-0.3134 -0.2073 -0.1268 0.9984
-0.3124 -0.2133 -0.1277 0.9984
-0.3114 -0.2193 -0.1286 0.9984
-0.3103 -0.2255 -0.1295 0.9984
-0.3080 -0.2379 -0.1314 0.9984
-0.3056 -0.2505 -0.1334 0.9983
-0.3014 -0.2701 -0.1366 0.9983
-0.2983 -0.2835 -0.1389 0.9983
-0.2967 -0.2902 -0.1401 0.9982
-0.2950 -0.2972 -0.1413 0.9982
-0.2933 -0.3042 -0.1426 0.9982
-0.2915 -0.3113 -0.1439 0.9982
-0.2896 -0.3184 -0.1453 0.9982
-0.2824 -0.3393 -0.1490 0.9981
-0.2798 -0.3464 -0.1503 0.9981
-0.2772 -0.3536 -0.1516 0.9981
-0.2687 -0.3755 -0.1558 0.9981
-0.2656 -0.3830 -0.1573 0.9980
-0.2595 -0.3984 -0.1605 0.9980
-0.2562 -0.4064 -0.1622 0.9980
-0.2459 -0.4307 -0.1674 0.9979
-0.2384 -0.4476 -0.1712 0.9979
-0.2346 -0.4562 -0.1731 0.9978
-0.2305 -0.4649 -0.1751 0.9978
-0.2263 -0.4738 -0.1772 0.9978
-0.2220 -0.4828 -0.1794 0.9978
-0.2130 -0.5012 -0.1838 0.9977
-0.1992 -0.5325 -0.1919 0.9976
-0.1892 -0.5547 -0.1978 0.9975
-0.1840 -0.5661 -0.2009 0.9975
-0.1831 -0.5927 -0.2094 0.9974
-0.7756 -2.7988 -0.9803 0.9878
-0.6935 -2.8204 -0.9803 0.9878
-0.6522 -2.8302 -0.9803 0.9878
-0.5276 -2.8563 -0.9804 0.9878
-0.3177 -2.8875 -0.9805 0.9878
-0.2332 -2.8956 -0.9805 0.9878
-0.1485 -2.9013 -0.9805 0.9878
0.1061 -2.9035 -0.9807 0.9878
0.3600 -2.8834 -0.9808 0.9878
0.4021 -2.8779 -0.9808 0.9878
0.4441 -2.8718 -0.9808 0.9878
0.5278 -2.8577 -0.9809 0.9878
0.6111 -2.8412 -0.9809 0.9878
0.6939 -2.8222 -0.9809 0.9878
0.7761 -2.8009 -0.9810 0.9878
0.8170 -2.7893 -0.9810 0.9878
0.8576 -2.7771 -0.9810 0.9878
0.8981 -2.7643 -0.9810 0.9878
0.9786 -2.7370 -0.9811 0.9878
1.0185 -2.7224 -0.9811 0.9878
1.0582 -2.7073 -0.9811 0.9878
1.0976 -2.6916 -0.9811 0.9878
1.1369 -2.6754 -0.9811 0.9878
1.1758 -2.6585 -0.9812 0.9878
1.2984 -2.6188 -0.9866 0.9877
1.5011 -2.5424 -0.9966 0.9876
1.8218 -2.3241 -0.9967 0.9876
1.8556 -2.2972 -0.9967 0.9876
1.8890 -2.2698 -0.9967 0.9876
1.9220 -2.2421 -0.9968 0.9876
1.9546 -2.2137 -0.9968 0.9876
1.9867 -2.1850 -0.9968 0.9876
2.0498 -2.1261 -0.9968 0.9876
2.1411 -2.0343 -0.9969 0.9876
2.1997 -1.9709 -0.9969 0.9876
2.2283 -1.9386 -0.9969 0.9876
2.2840 -1.8727 -0.9969 0.9876
2.3640 -1.7709 -0.9970 0.9876
2.4148 -1.7011 -0.9970 0.9876
2.4871 -1.5937 -0.9970 0.9876
2.5326 -1.5204 -0.9970 0.9876
2.5546 -1.4832 -0.9970 0.9876
2.5761 -1.4457 -0.9971 0.9876
2.6172 -1.3699 -0.9971 0.9876
2.7104 -1.1752 -0.9971 0.9876
2.7593 -1.0553 -0.9971 0.9876
2.7890 -0.9743 -0.9972 0.9876
2.8413 -0.8097 -0.9972 0.9876
2.8528 -0.7681 -0.9972 0.9876
2.8637 -0.7264 -0.9972 0.9876
2.8740 -0.6845 -0.9972 0.9876
2.9013 -0.5579 -0.9972 0.9876
2.9092 -0.5154 -0.9972 0.9876
2.9230 -0.4302 -0.9972 0.9876
2.9290 -0.3874 -0.9972 0.9876
2.9343 -0.3445 -0.9972 0.9876
2.9391 -0.3017 -0.9972 0.9876
2.9432 -0.2587 -0.9972 0.9876
2.9466 -0.2157 -0.9972 0.9876
2.9533 -0.0863 -0.9972 0.9876
2.9542 -0.0431 -0.9972 0.9876
2.9542 0.0432 -0.9972 0.9876
2.9533 0.0863 -0.9972 0.9876
2.9466 0.2156 -0.9972 0.9876
2.9391 0.3017 -0.9972 0.9876
2.9344 0.3445 -0.9972 0.9876
2.9290 0.3874 -0.9972 0.9876
2.9230 0.4302 -0.9972 0.9876
2.9013 0.5578 -0.9972 0.9876
2.8740 0.6845 -0.9972 0.9876
2.8413 0.8097 -0.9972 0.9876
2.8291 0.8511 -0.9972 0.9876
2.8163 0.8924 -0.9972 0.9876
2.8030 0.9334 -0.9972 0.9876
2.7890 0.9743 -0.9972 0.9876
2.7593 1.0554 -0.9971 0.9876
2.7104 1.1752 -0.9971 0.9876
2.6929 1.2147 -0.9971 0.9876
2.6748 1.2539 -0.9971 0.9876
2.6562 1.2929 -0.9971 0.9876
2.6370 1.3315 -0.9971 0.9876
2.5760 1.4457 -0.9971 0.9876
2.4871 1.5937 -0.9970 0.9876
2.4635 1.6298 -0.9970 0.9876
2.4394 1.6657 -0.9970 0.9876
2.3896 1.7362 -0.9970 0.9876
2.3640 1.7709 -0.9970 0.9876
2.3112 1.8392 -0.9969 0.9876
2.2564 1.9059 -0.9969 0.9876
2.1997 1.9709 -0.9969 0.9876
2.0498 2.1261 -0.9968 0.9876
2.0185 2.1558 -0.9968 0.9876
1.9545 2.2137 -0.9968 0.9876
1.8556 2.2972 -0.9967 0.9876
1.8218 2.3241 -0.9967 0.9876
1.7876 2.3504 -0.9967 0.9876
1.7182 2.4015 -0.9967 0.9876
1.6112 2.4744 -0.9966 0.9876
1.5381 2.5204 -0.9966 0.9876
1.4261 2.5852 -0.9965 0.9876
1.3499 2.6257 -0.9965 0.9876
1.2335 2.6821 -0.9964 0.9876
1.1546 2.7170 -0.9964 0.9876
1.0746 2.7494 -0.9964 0.9876
0.9938 2.7796 -0.9963 0.9876
0.9531 2.7937 -0.9963 0.9876
0.9121 2.8073 -0.9963 0.9876
0.8710 2.8202 -0.9963 0.9876
0.7882 2.8444 -0.9962 0.9876
0.6206 2.8853 -0.9962 0.9876
0.4083 2.9227 -0.9961 0.9876
0.1939 2.9444 -0.9960 0.9876
0.1508 2.9468 -0.9959 0.9876
0.1077 2.9487 -0.9959 0.9876
0.0215 2.9505 -0.9959 0.9876
-0.0216 2.9504 -0.9959 0.9876
-0.1939 2.9439 -0.9958 0.9876
-0.3226 2.9324 -0.9957 0.9876
-0.4082 2.9216 -0.9957 0.9876
-0.4934 2.9083 -0.9956 0.9876
-0.6624 2.8742 -0.9956 0.9876
-0.7460 2.8536 -0.9955 0.9876
-0.7876 2.8423 -0.9955 0.9876
-0.1852 0.6321 -0.2223 0.9972
-0.1893 0.5547 -0.1978 0.9975
-0.2085 0.5112 -0.1864 0.9977
-0.2130 0.5012 -0.1838 0.9977
-0.2176 0.4920 -0.1816 0.9977
-0.2345 0.4561 -0.1731 0.9978
-0.2495 0.4225 -0.1656 0.9979
-0.2529 0.4144 -0.1639 0.9980
-0.2626 0.3907 -0.1589 0.9980
-0.2657 0.3830 -0.1573 0.9980
-0.2772 0.3536 -0.1516 0.9981
-0.2798 0.3464 -0.1503 0.9981
-0.2824 0.3393 -0.1490 0.9981
-0.2849 0.3323 -0.1477 0.9982
-0.2873 0.3254 -0.1465 0.9982
-0.2933 0.3041 -0.1426 0.9982
-0.2950 0.2972 -0.1413 0.9982
-0.2967 0.2903 -0.1401 0.9982
-0.2984 0.2835 -0.1389 0.9983
-0.3014 0.2701 -0.1366 0.9983
-0.3028 0.2635 -0.1355 0.9983
-0.3042 0.2570 -0.1344 0.9983
-0.3068 0.2441 -0.1324 0.9983
-0.3081 0.2379 -0.1314 0.9984
-0.3092 0.2316 -0.1304 0.9984
-0.3114 0.2194 -0.1286 0.9984
-0.3124 0.2133 -0.1277 0.9984
-0.3162 0.1898 -0.1245 0.9984
-0.3185 0.1787 -0.1233 0.9985
-0.3195 0.1732 -0.1227 0.9985
-0.3205 0.1678 -0.1221 0.9985
-0.3241 0.1462 -0.1200 0.9985
-0.3254 0.1355 -0.1190 0.9985
-0.3260 0.1302 -0.1185 0.9985
-0.3265 0.1249 -0.1180 0.9985
-0.3270 0.1196 -0.1175 0.9985
-0.3275 0.1144 -0.1171 0.9985
-0.3280 0.1092 -0.1167 0.9985
-0.3288 0.0989 -0.1159 0.9986
-0.3292 0.0938 -0.1155 0.9986
-0.3297 0.0836 -0.1148 0.9986
-0.3300 0.0786 -0.1145 0.9986
-0.3302 0.0736 -0.1142 0.9986
-0.3305 0.0636 -0.1136 0.9986
-0.3307 0.0291 -0.1120 0.9986
-0.3306 0.0242 -0.1119 0.9986
-0.3303 0.0145 -0.1116 0.9986
-0.3299 0.0048 -0.1114 0.9986
-0.3247 -0.0047 -0.1136 0.9986
-0.3249 -0.0095 -0.1137 0.9986
-0.3252 -0.0190 -0.1140 0.9986
-0.3253 -0.0238 -0.1141 0.9986
-0.3255 -0.0286 -0.1143 0.9986
-0.3255 -0.0382 -0.1147 0.9986
-0.3255 -0.0430 -0.1149 0.9986
-0.3254 -0.0527 -0.1154 0.9986
-0.3252 -0.0625 -0.1159 0.9986
-0.3251 -0.0674 -0.1162 0.9986
-0.3234 -0.0973 -0.1182 0.9986
-0.3226 -0.1074 -0.1190 0.9986
-0.3216 -0.1177 -0.1198 0.9985
-0.3211 -0.1228 -0.1203 0.9985
-0.3205 -0.1280 -0.1208 0.9985
-0.3199 -0.1332 -0.1212 0.9985
-0.3192 -0.1384 -0.1217 0.9985
-0.3169 -0.1542 -0.1233 0.9985
-0.3118 -0.1810 -0.1262 0.9985
-0.3107 -0.1865 -0.1268 0.9985
-0.3095 -0.1920 -0.1274 0.9985
-0.3055 -0.2152 -0.1307 0.9984
-0.3044 -0.2212 -0.1317 0.9984
-0.3032 -0.2272 -0.1326 0.9984
-0.3008 -0.2394 -0.1345 0.9984
-0.2982 -0.2519 -0.1366 0.9983
-0.2968 -0.2582 -0.1377 0.9983
-0.2922 -0.2777 -0.1410 0.9983
-0.2906 -0.2843 -0.1422 0.9983
-0.2889 -0.2910 -0.1435 0.9983
-0.2853 -0.3046 -0.1460 0.9982
-0.2813 -0.3186 -0.1487 0.9982
-0.2789 -0.3253 -0.1499 0.9982
-0.2764 -0.3321 -0.1512 0.9982
-0.2738 -0.3389 -0.1525 0.9982
-0.2711 -0.3459 -0.1538 0.9981
-0.2684 -0.3529 -0.1551 0.9981
-0.2627 -0.3672 -0.1580 0.9981
-0.2597 -0.3744 -0.1594 0.9981
-0.2535 -0.3892 -0.1625 0.9980
-0.2400 -0.4204 -0.1694 0.9980
-0.2363 -0.4284 -0.1712 0.9979
-0.2325 -0.4365 -0.1731 0.9979
-0.2247 -0.4531 -0.1770 0.9979
-0.2206 -0.4616 -0.1790 0.9978
-0.2163 -0.4703 -0.1811 0.9978
-0.2119 -0.4790 -0.1833 0.9978
-0.1830 -0.5364 -0.1983 0.9976
-0.1778 -0.5472 -0.2013 0.9976
-0.1668 -0.5694 -0.2076 0.9975
-0.5892 -2.7391 -0.9803 0.9882
-0.5491 -2.7474 -0.9804 0.9882
-0.5090 -2.7552 -0.9804 0.9882
-0.4282 -2.7689 -0.9804 0.9882
-0.3471 -2.7804 -0.9805 0.9882
-0.3065 -2.7852 -0.9805 0.9882
-0.2657 -2.7895 -0.9805 0.9882
-0.2250 -2.7931 -0.9805 0.9882
-0.1841 -2.7962 -0.9805 0.9882
-0.1024 -2.8004 -0.9806 0.9882
-0.0615 -2.8017 -0.9806 0.9882
0.0204 -2.8024 -0.9806 0.9882
0.3065 -2.7860 -0.9808 0.9882
0.3472 -2.7813 -0.9808 0.9882
0.3878 -2.7760 -0.9808 0.9882
0.4284 -2.7701 -0.9808 0.9882
0.5091 -2.7565 -0.9809 0.9882
0.6295 -2.7317 -0.9809 0.9882
0.6693 -2.7223 -0.9809 0.9882
0.8273 -2.6787 -0.9810 0.9882
0.8663 -2.6664 -0.9810 0.9882
0.9439 -2.6400 -0.9811 0.9882
1.0250 -2.6225 -0.9853 0.9881
1.0669 -2.6163 -0.9887 0.9881
1.1090 -2.6099 -0.9923 0.9881
1.1514 -2.6031 -0.9960 0.9880
1.2275 -2.5695 -0.9964 0.9880
1.2650 -2.5513 -0.9964 0.9880
1.3390 -2.5134 -0.9965 0.9880
1.4479 -2.4524 -0.9965 0.9880
1.4836 -2.4310 -0.9965 0.9880
1.5190 -2.4091 -0.9966 0.9880
1.5888 -2.3638 -0.9966 0.9880
1.6232 -2.3404 -0.9966 0.9880
1.6909 -2.2920 -0.9966 0.9880
1.7243 -2.2671 -0.9967 0.9880
1.7572 -2.2416 -0.9967 0.9880
1.8220 -2.1895 -0.9967 0.9880
1.8853 -2.1353 -0.9967 0.9880
1.9469 -2.0794 -0.9968 0.9880
2.0363 -1.9921 -0.9968 0.9880
2.0652 -1.9622 -0.9968 0.9880
2.0937 -1.9318 -0.9968 0.9880
2.1217 -1.9011 -0.9968 0.9880
2.1764 -1.8383 -0.9969 0.9880
2.2031 -1.8063 -0.9969 0.9880
2.2292 -1.7740 -0.9969 0.9880
2.2802 -1.7081 -0.9969 0.9880
2.3049 -1.6746 -0.9969 0.9880
2.3529 -1.6066 -0.9970 0.9880
2.3762 -1.5721 -0.9970 0.9880
2.3989 -1.5371 -0.9970 0.9880
2.4211 -1.5020 -0.9970 0.9880
2.4428 -1.4665 -0.9970 0.9880
2.4847 -1.3945 -0.9970 0.9880
2.5049 -1.3580 -0.9970 0.9880
2.5244 -1.3213 -0.9970 0.9880
2.5435 -1.2843 -0.9970 0.9880
2.6143 -1.1336 -0.9971 0.9880
2.6463 -1.0567 -0.9971 0.9880
2.6901 -0.9398 -0.9971 0.9880
2.7036 -0.9003 -0.9971 0.9880
2.7165 -0.8607 -0.9971 0.9880
2.7288 -0.8210 -0.9971 0.9880
2.7517 -0.7409 -0.9971 0.9880
2.7721 -0.6602 -0.9971 0.9880
2.7984 -0.5380 -0.9972 0.9880
2.8194 -0.4149 -0.9972 0.9880
2.8251 -0.3737 -0.9972 0.9880
2.8303 -0.3323 -0.9972 0.9880
2.8449 -0.1665 -0.9972 0.9880
2.8498 0.0000 -0.9972 0.9880
2.8470 0.1249 -0.9972 0.9880
2.8422 0.2080 -0.9972 0.9880
2.8303 0.3324 -0.9972 0.9880
2.8251 0.3737 -0.9972 0.9880
2.8060 0.4971 -0.9972 0.9880
2.7984 0.5381 -0.9972 0.9880
2.7903 0.5789 -0.9972 0.9880
2.7815 0.6196 -0.9972 0.9880
2.7622 0.7006 -0.9971 0.9880
2.7405 0.7810 -0.9971 0.9880
2.7165 0.8607 -0.9971 0.9880
2.6761 0.9790 -0.9971 0.9880
2.6464 1.0567 -0.9971 0.9880
2.5974 1.1716 -0.9971 0.9880
2.5800 1.2095 -0.9971 0.9880
2.5620 1.2470 -0.9971 0.9880
2.5245 1.3214 -0.9970 0.9880
2.5049 1.3581 -0.9970 0.9880
2.3989 1.5372 -0.9970 0.9880
2.3762 1.5721 -0.9970 0.9880
2.3292 1.6408 -0.9969 0.9880
2.2802 1.7081 -0.9969 0.9880
2.2550 1.7412 -0.9969 0.9880
2.2293 1.7739 -0.9969 0.9880
2.2031 1.8064 -0.9969 0.9880
2.1764 1.8383 -0.9969 0.9880
2.1493 1.8698 -0.9969 0.9880
2.1217 1.9011 -0.9968 0.9880
2.0363 1.9921 -0.9968 0.9880
1.8853 2.1353 -0.9967 0.9880
1.8539 2.1626 -0.9967 0.9880
1.8221 2.1894 -0.9967 0.9880
1.7898 2.2158 -0.9967 0.9880
1.7572 2.2417 -0.9967 0.9880
1.6909 2.2920 -0.9966 0.9880
1.5888 2.3638 -0.9966 0.9880
1.5541 2.3867 -0.9966 0.9880
1.5190 2.4091 -0.9966 0.9880
1.4479 2.4524 -0.9965 0.9880
1.4119 2.4733 -0.9965 0.9880
1.3756 2.4936 -0.9965 0.9880
1.3390 2.5133 -0.9965 0.9880
1.1898 2.5871 -0.9964 0.9880
1.0752 2.6366 -0.9964 0.9880
0.9977 2.6668 -0.9963 0.9880
0.9586 2.6811 -0.9963 0.9880
0.9193 2.6948 -0.9963 0.9880
0.8798 2.7079 -0.9963 0.9880
0.7603 2.7436 -0.9962 0.9880
0.6798 2.7646 -0.9962 0.9880
0.5987 2.7831 -0.9961 0.9880
0.5170 2.7993 -0.9961 0.9880
0.4761 2.8066 -0.9961 0.9880
0.4350 2.8132 -0.9961 0.9880
0.3939 2.8191 -0.9960 0.9880
0.1455 2.8425 -0.9959 0.9880
0.1040 2.8442 -0.9959 0.9880
0.0208 2.8460 -0.9959 0.9880
-0.1039 2.8439 -0.9958 0.9880
-0.1455 2.8421 -0.9958 0.9880
-0.3937 2.8182 -0.9957 0.9880
-0.4349 2.8120 -0.9957 0.9880
-0.6389 2.7725 -0.9956 0.9880
-0.1667 0.6015 -0.2184 0.9974
-0.1668 0.5694 -0.2076 0.9975
-0.1724 0.5582 -0.2044 0.9975
-0.1880 0.5259 -0.1954 0.9976
-0.1979 0.5062 -0.1902 0.9977
-0.2027 0.4970 -0.1878 0.9977
-0.2163 0.4702 -0.1811 0.9978
-0.2325 0.4365 -0.1731 0.9979
-0.2363 0.4283 -0.1712 0.9979
-0.2469 0.4046 -0.1658 0.9980
-0.2535 0.3892 -0.1625 0.9980
-0.2566 0.3817 -0.1609 0.9981
-0.2627 0.3671 -0.1580 0.9981
-0.2656 0.3600 -0.1565 0.9981
-0.2764 0.3321 -0.1512 0.9982
-0.2833 0.3116 -0.1474 0.9982
-0.2852 0.3046 -0.1460 0.9982
-0.2871 0.2978 -0.1447 0.9982
-0.2906 0.2843 -0.1422 0.9983
-0.2922 0.2776 -0.1410 0.9983
-0.2953 0.2646 -0.1388 0.9983
-0.2968 0.2582 -0.1377 0.9983
-0.2982 0.2519 -0.1366 0.9983
-0.2995 0.2455 -0.1355 0.9984
-0.3008 0.2394 -0.1345 0.9984
-0.3021 0.2333 -0.1335 0.9984
-0.3032 0.2272 -0.1326 0.9984
-0.3055 0.2152 -0.1307 0.9984
-0.3065 0.2093 -0.1299 0.9984
-0.3095 0.1920 -0.1274 0.9985
-0.3107 0.1865 -0.1268 0.9985
-0.3129 0.1756 -0.1256 0.9985
-0.3159 0.1595 -0.1238 0.9985
-0.3169 0.1542 -0.1233 0.9985
-0.3185 0.1437 -0.1223 0.9985
-0.3192 0.1384 -0.1217 0.9985
-0.3205 0.1280 -0.1208 0.9985
-0.3216 0.1177 -0.1198 0.9985
-0.3226 0.1074 -0.1190 0.9986
-0.3230 0.1023 -0.1186 0.9986
-0.3234 0.0973 -0.1182 0.9986
-0.3238 0.0922 -0.1178 0.9986
-0.3241 0.0873 -0.1174 0.9986
-0.3248 0.0724 -0.1165 0.9986
-0.3250 0.0674 -0.1162 0.9986
-0.3252 0.0625 -0.1159 0.9986
-0.3253 0.0577 -0.1156 0.9986
-0.3255 0.0430 -0.1149 0.9986
-0.3255 0.0382 -0.1147 0.9986
-0.3255 0.0334 -0.1145 0.9986
-0.3254 0.0286 -0.1143 0.9986
-0.3247 0.0048 -0.1136 0.9986
-0.3193 0.0000 -0.1157 0.9986
-0.3198 -0.0094 -0.1159 0.9986
-0.3200 -0.0140 -0.1161 0.9986
-0.3202 -0.0234 -0.1164 0.9986
-0.3203 -0.0282 -0.1165 0.9986
-0.3204 -0.0376 -0.1169 0.9986
-0.3204 -0.0424 -0.1171 0.9986
-0.3203 -0.0471 -0.1173 0.9986
-0.3202 -0.0519 -0.1176 0.9986
-0.3200 -0.0615 -0.1181 0.9986
-0.3196 -0.0712 -0.1187 0.9986
-0.3191 -0.0809 -0.1193 0.9986
-0.3188 -0.0858 -0.1197 0.9986
-0.3177 -0.1007 -0.1208 0.9986
-0.3173 -0.1056 -0.1212 0.9986
-0.3157 -0.1208 -0.1225 0.9986
-0.3151 -0.1258 -0.1230 0.9986
-0.3145 -0.1309 -0.1235 0.9986
-0.3124 -0.1464 -0.1250 0.9985
-0.3096 -0.1620 -0.1266 0.9985
-0.3085 -0.1673 -0.1272 0.9985
-0.3075 -0.1726 -0.1278 0.9985
-0.3064 -0.1779 -0.1284 0.9985
-0.3052 -0.1832 -0.1290 0.9985
-0.3028 -0.1940 -0.1303 0.9985
-0.2997 -0.2111 -0.1329 0.9984
-0.2987 -0.2170 -0.1338 0.9984
-0.2975 -0.2229 -0.1347 0.9984
-0.2963 -0.2288 -0.1357 0.9984
-0.2950 -0.2348 -0.1366 0.9984
-0.2937 -0.2408 -0.1376 0.9984
-0.2910 -0.2531 -0.1397 0.9984
-0.2812 -0.2916 -0.1468 0.9983
-0.2793 -0.2983 -0.1481 0.9983
-0.2774 -0.3050 -0.1494 0.9982
-0.2754 -0.3119 -0.1508 0.9982
-0.2654 -0.3385 -0.1559 0.9982
-0.2569 -0.3591 -0.1600 0.9981
-0.2477 -0.3804 -0.1645 0.9981
-0.2378 -0.4027 -0.1695 0.9980
-0.2269 -0.4259 -0.1749 0.9979
-0.2230 -0.4338 -0.1768 0.9979
-0.2150 -0.4501 -0.1807 0.9979
-0.1973 -0.4839 -0.1894 0.9978
-0.1926 -0.4927 -0.1917 0.9978
-0.1877 -0.5016 -0.1941 0.9977
-0.1774 -0.5198 -0.1991 0.9977
-0.1720 -0.5293 -0.2017 0.9976
-0.1667 -0.5396 -0.2047 0.9976
-0.1498 -0.5730 -0.2146 0.9975
-0.6077 -2.6381 -0.9811 0.9885
-0.4914 -2.6602 -0.9804 0.9886
-0.4525 -2.6672 -0.9804 0.9886
-0.3744 -2.6794 -0.9804 0.9886
-0.2959 -2.6893 -0.9805 0.9886
-0.1778 -2.6998 -0.9805 0.9886
-0.0989 -2.7039 -0.9806 0.9886
-0.0593 -2.7052 -0.9806 0.9886
-0.0198 -2.7058 -0.9806 0.9886
0.0198 -2.7058 -0.9806 0.9886
0.0988 -2.7041 -0.9807 0.9886
0.1383 -2.7025 -0.9807 0.9886
0.1778 -2.7002 -0.9807 0.9886
0.2172 -2.6974 -0.9807 0.9886
0.2566 -2.6940 -0.9807 0.9886
0.3353 -2.6855 -0.9808 0.9886
0.4136 -2.6746 -0.9808 0.9886
0.5692 -2.6461 -0.9809 0.9886
0.6468 -2.6307 -0.9817 0.9885
0.9255 -2.5886 -0.9963 0.9884
0.9633 -2.5749 -0.9963 0.9884
1.0008 -2.5605 -0.9963 0.9884
1.0382 -2.5457 -0.9963 0.9884
1.1121 -2.5144 -0.9964 0.9884
1.1488 -2.4979 -0.9964 0.9884
1.1852 -2.4809 -0.9964 0.9884
1.2572 -2.4453 -0.9964 0.9884
1.3632 -2.3880 -0.9965 0.9884
1.4325 -2.3471 -0.9965 0.9884
1.4666 -2.3261 -0.9965 0.9884
1.5340 -2.2823 -0.9966 0.9884
1.5672 -2.2596 -0.9966 0.9884
1.6001 -2.2365 -0.9966 0.9884
1.6967 -2.1644 -0.9966 0.9884
1.7281 -2.1394 -0.9967 0.9884
1.7592 -2.1139 -0.9967 0.9884
1.7899 -2.0880 -0.9967 0.9884
1.8203 -2.0617 -0.9967 0.9884
1.8502 -2.0349 -0.9967 0.9884
1.8798 -2.0077 -0.9967 0.9884
1.9377 -1.9519 -0.9968 0.9884
1.9660 -1.9234 -0.9968 0.9884
1.9940 -1.8945 -0.9968 0.9884
2.0215 -1.8652 -0.9968 0.9884
2.0752 -1.8054 -0.9968 0.9884
2.1013 -1.7749 -0.9968 0.9884
2.1523 -1.7128 -0.9969 0.9884
2.2015 -1.6492 -0.9969 0.9884
2.2254 -1.6169 -0.9969 0.9884
2.2488 -1.5842 -0.9969 0.9884
2.2942 -1.5179 -0.9969 0.9884
2.3162 -1.4842 -0.9969 0.9884
2.3376 -1.4502 -0.9969 0.9884
2.3990 -1.3464 -0.9970 0.9884
2.4184 -1.3112 -0.9970 0.9884
2.4373 -1.2757 -0.9970 0.9884
2.4558 -1.2400 -0.9970 0.9884
2.4736 -1.2040 -0.9970 0.9884
2.5398 -1.0575 -0.9970 0.9884
2.5550 -1.0202 -0.9970 0.9884
2.5838 -0.9452 -0.9971 0.9884
2.6347 -0.7927 -0.9971 0.9884
2.6460 -0.7541 -0.9971 0.9884
2.6855 -0.5982 -0.9971 0.9884
2.7092 -0.4800 -0.9971 0.9884
2.7159 -0.4404 -0.9971 0.9884
2.7370 -0.2809 -0.9971 0.9884
2.7441 -0.2009 -0.9971 0.9884
2.7503 -0.0804 -0.9971 0.9884
2.7503 0.0804 -0.9971 0.9884
2.7468 0.1607 -0.9971 0.9884
2.7277 0.3608 -0.9971 0.9884
2.7092 0.4800 -0.9971 0.9884
2.6940 0.5589 -0.9971 0.9884
2.6856 0.5983 -0.9971 0.9884
2.6567 0.7154 -0.9971 0.9884
2.6347 0.7927 -0.9971 0.9884
2.6228 0.8310 -0.9971 0.9884
2.6103 0.8693 -0.9971 0.9884
2.5838 0.9452 -0.9971 0.9884
2.5697 0.9828 -0.9971 0.9884
2.5241 1.0945 -0.9970 0.9884
2.4558 1.2400 -0.9970 0.9884
2.4184 1.3112 -0.9970 0.9884
2.3990 1.3464 -0.9970 0.9884
2.3791 1.3813 -0.9970 0.9884
2.2942 1.5179 -0.9969 0.9884
2.2718 1.5512 -0.9969 0.9884
2.2488 1.5842 -0.9969 0.9884
2.2254 1.6169 -0.9969 0.9884
2.1271 1.7441 -0.9968 0.9884
2.1014 1.7749 -0.9968 0.9884
2.0485 1.8355 -0.9968 0.9884
2.0215 1.8652 -0.9968 0.9884
1.9940 1.8945 -0.9968 0.9884
1.9661 1.9234 -0.9968 0.9884
1.9090 1.9800 -0.9967 0.9884
1.8502 2.0349 -0.9967 0.9884
1.8203 2.0617 -0.9967 0.9884
1.7592 2.1139 -0.9967 0.9884
1.7281 2.1394 -0.9967 0.9884
1.6966 2.1644 -0.9966 0.9884
1.5340 2.2823 -0.9966 0.9884
1.5005 2.3044 -0.9966 0.9884
1.4666 2.3260 -0.9965 0.9884
1.4325 2.3472 -0.9965 0.9884
1.3980 2.3679 -0.9965 0.9884
1.3632 2.3880 -0.9965 0.9884
1.2213 2.4634 -0.9964 0.9884
1.1852 2.4809 -0.9964 0.9884
1.1488 2.4980 -0.9964 0.9884
1.1121 2.5144 -0.9964 0.9884
1.0753 2.5303 -0.9964 0.9884
0.9633 2.5749 -0.9963 0.9884
0.9255 2.5886 -0.9963 0.9884
0.8876 2.6018 -0.9963 0.9884
0.8495 2.6145 -0.9963 0.9884
0.7727 2.6381 -0.9962 0.9884
0.7341 2.6491 -0.9962 0.9884
0.6953 2.6595 -0.9962 0.9884
0.4597 2.7098 -0.9961 0.9884
0.3405 2.7272 -0.9960 0.9884
0.1805 2.7422 -0.9959 0.9884
0.1405 2.7445 -0.9959 0.9884
0.0602 2.7473 -0.9959 0.9884
0.0200 2.7479 -0.9959 0.9884
-0.1004 2.7460 -0.9958 0.9884
-0.1405 2.7442 -0.9958 0.9884
-0.2206 2.7388 -0.9958 0.9884
-0.2606 2.7352 -0.9957 0.9884
-0.3005 2.7311 -0.9957 0.9884
-0.3404 2.7264 -0.9957 0.9884
