ply
format ascii 1.0
element vertex 1597
property float32 x
property float32 y
property float32 z
property float32 I
end_header
6.6245 -3.4673 -0.6959 0.9704
6.4671 -3.0316 -0.6648 0.9717
6.7133 -2.7951 -0.6768 0.9712
6.8767 -2.7460 -0.6892 0.9707
6.1896 -2.3673 -0.6168 0.9737
6.3628 -2.1189 -0.6242 0.9734
6.4207 -2.0345 -0.6269 0.9733
6.4788 -1.9492 -0.6297 0.9732
6.2946 -1.7939 -0.6092 0.9740
6.3815 -1.7182 -0.6151 0.9738
6.4697 -1.6410 -0.6212 0.9735
6.6225 -1.5771 -0.6336 0.9730
8.3104 -1.4723 -0.7855 0.9667
10.5785 -1.5568 -0.9952 0.9580
10.6001 -1.4021 -0.9952 0.9580
10.6513 -0.9362 -0.9952 0.9580
10.6639 -0.7805 -0.9952 0.9580
10.6742 -0.6246 -0.9952 0.9580
10.6879 -0.3124 -0.9952 0.9580
10.6925 0.0000 -0.9952 0.9580
10.6913 0.1562 -0.9952 0.9580
10.6879 0.3125 -0.9952 0.9580
10.6822 0.4686 -0.9952 0.9580
10.6639 0.7805 -0.9952 0.9580
10.6514 0.9363 -0.9952 0.9580
10.6194 1.2470 -0.9952 0.9580
10.6001 1.4021 -0.9952 0.9580
10.5785 1.5568 -0.9952 0.9580
10.5546 1.7112 -0.9952 0.9580
10.5285 1.8653 -0.9952 0.9580
10.5001 2.0189 -0.9952 0.9580
10.4694 2.1721 -0.9952 0.9580
10.4366 2.3249 -0.9952 0.9580
10.4015 2.4771 -0.9952 0.9580
10.3642 2.6289 -0.9952 0.9580
10.2829 2.9305 -0.9952 0.9580
10.2390 3.0805 -0.9952 0.9580
10.1929 3.2298 -0.9952 0.9580
10.1446 3.3783 -0.9952 0.9580
10.0941 3.5262 -0.9952 0.9580
10.0416 3.6733 -0.9952 0.9580
9.9299 3.9651 -0.9952 0.9580
9.8098 4.2536 -0.9952 0.9580
9.7466 4.3964 -0.9952 0.9580
9.6813 4.5384 -0.9952 0.9580
8.5047 4.1395 -0.8804 0.9627
8.3783 4.3853 -0.8802 0.9627
9.3241 5.2329 -0.9952 0.9580
9.2466 5.3686 -0.9952 0.9580
6.9094 4.2864 -0.7568 0.9679
6.8272 4.6616 -0.7694 0.9673
8.5573 6.4104 -0.9952 0.9580
8.4627 6.5347 -0.9952 0.9580
8.3663 6.6576 -0.9952 0.9580
8.1682 6.8992 -0.9951 0.9580
7.9630 7.1349 -0.9951 0.9580
7.2925 6.7288 -0.9235 0.9609
7.1868 7.0310 -0.9358 0.9604
3.3147 3.5401 -0.4514 0.9807
3.2199 3.5412 -0.4455 0.9810
2.9688 3.5673 -0.4320 0.9815
2.8913 3.5794 -0.4283 0.9817
2.5944 3.6263 -0.4150 0.9822
2.2622 3.7067 -0.4042 0.9827
2.1986 3.7238 -0.4025 0.9828
2.0268 4.0879 -0.4247 0.9818
2.0616 4.3155 -0.4451 0.9810
2.1059 4.5791 -0.4691 0.9800
2.1446 4.8486 -0.4935 0.9789
2.2396 5.4919 -0.5520 0.9765
2.2956 5.8730 -0.5869 0.9750
2.3730 6.3431 -0.6303 0.9732
2.4559 6.8688 -0.6789 0.9711
3.2440 9.9836 -0.9770 0.9587
3.0977 10.0299 -0.9770 0.9587
2.9509 10.0740 -0.9770 0.9587
2.8033 10.1160 -0.9770 0.9587
2.6552 10.1559 -0.9770 0.9587
2.3639 10.2582 -0.9798 0.9586
1.7606 10.3786 -0.9798 0.9586
1.3041 10.4457 -0.9798 0.9586
0.5381 10.5129 -0.9798 0.9586
0.2366 6.4735 -0.6029 0.9743
0.1376 6.2751 -0.5842 0.9751
0.0454 6.2108 -0.5781 0.9754
-0.1257 5.7322 -0.5337 0.9772
-0.1947 5.3270 -0.4961 0.9788
-0.3537 4.3923 -0.4101 0.9825
-0.3952 4.1486 -0.3879 0.9834
-0.5028 3.5989 -0.3382 0.9855
-0.5782 3.4086 -0.3218 0.9862
-0.6275 3.3973 -0.3216 0.9862
-0.6792 3.3980 -0.3225 0.9862
-0.7311 3.3987 -0.3236 0.9861
-0.7833 3.3994 -0.3247 0.9861
-0.8360 3.4000 -0.3259 0.9860
-0.8890 3.4006 -0.3271 0.9860
-0.9426 3.4015 -0.3285 0.9859
-0.9981 3.4076 -0.3305 0.9858
-1.0543 3.4137 -0.3325 0.9857
-1.1112 3.4200 -0.3347 0.9857
-1.1688 3.4262 -0.3369 0.9856
-1.2865 3.4389 -0.3417 0.9854
-1.4751 3.4712 -0.3510 0.9850
-1.5406 3.4830 -0.3545 0.9848
-1.6073 3.4950 -0.3580 0.9847
-1.8205 3.5409 -0.3706 0.9841
-1.8973 3.5614 -0.3756 0.9839
-1.9763 3.5824 -0.3808 0.9837
-2.8861 4.5775 -0.5037 0.9785
-2.9068 4.4643 -0.4958 0.9788
-2.9832 4.0437 -0.4677 0.9800
-2.8754 3.5597 -0.4259 0.9818
-2.9465 3.4372 -0.4214 0.9820
-3.0568 3.3618 -0.4229 0.9819
-3.1295 3.3424 -0.4262 0.9818
-3.1840 3.3026 -0.4270 0.9817
-0.5702 0.5578 -0.0742 0.9968
-0.5713 0.5119 -0.0714 0.9969
-0.5718 0.4829 -0.0697 0.9970
-0.5719 0.4689 -0.0688 0.9970
-0.5712 0.4546 -0.0679 0.9971
-0.5704 0.4405 -0.0671 0.9971
-0.5679 0.4001 -0.0647 0.9972
-0.5652 0.3622 -0.0625 0.9973
-0.5643 0.3501 -0.0618 0.9973
-0.5634 0.3382 -0.0612 0.9974
-0.5615 0.3151 -0.0599 0.9974
-0.5579 0.2716 -0.0578 0.9975
-0.5573 0.2613 -0.0573 0.9975
-0.5567 0.2511 -0.0568 0.9975
-0.5560 0.2411 -0.0564 0.9976
-0.5553 0.2312 -0.0560 0.9976
-0.5538 0.2119 -0.0552 0.9976
-0.5523 0.1929 -0.0544 0.9977
-0.5517 0.1837 -0.0541 0.9977
-0.5512 0.1746 -0.0538 0.9977
-0.5506 0.1657 -0.0535 0.9977
-0.5500 0.1568 -0.0532 0.9977
-0.5494 0.1479 -0.0530 0.9977
-0.5487 0.1392 -0.0527 0.9977
-0.5473 0.1219 -0.0522 0.9977
-0.5443 0.0882 -0.0513 0.9978
-0.5430 0.0718 -0.0510 0.9978
-0.5416 0.0556 -0.0507 0.9978
-0.5409 0.0476 -0.0505 0.9978
-0.5401 0.0396 -0.0504 0.9978
-0.5384 0.0236 -0.0502 0.9978
-0.5179 0.0000 -0.0540 0.9979
-0.5196 -0.0152 -0.0542 0.9979
-0.5219 -0.0382 -0.0546 0.9979
-0.5226 -0.0459 -0.0547 0.9979
-0.5257 -0.0852 -0.0555 0.9979
-0.5262 -0.0932 -0.0557 0.9979
-0.5272 -0.1094 -0.0561 0.9978
-0.5278 -0.1176 -0.0564 0.9978
-0.5284 -0.1258 -0.0566 0.9978
-0.5290 -0.1342 -0.0569 0.9978
-0.5296 -0.1426 -0.0572 0.9978
-0.5301 -0.1511 -0.0575 0.9978
-0.5305 -0.1596 -0.0578 0.9978
-0.5310 -0.1683 -0.0581 0.9978
-0.5314 -0.1770 -0.0584 0.9977
-0.5365 -0.2808 -0.0631 0.9976
-0.5368 -0.2911 -0.0637 0.9975
-0.5379 -0.3123 -0.0648 0.9975
-0.5385 -0.3232 -0.0655 0.9975
-0.5392 -0.3345 -0.0662 0.9975
-0.5403 -0.3575 -0.0676 0.9974
-0.5414 -0.3814 -0.0690 0.9973
-0.5424 -0.4063 -0.0707 0.9973
-0.5428 -0.4192 -0.0715 0.9972
-0.5432 -0.4323 -0.0724 0.9972
-0.5436 -0.4457 -0.0733 0.9972
-0.5442 -0.4734 -0.0752 0.9971
-0.5432 -0.5161 -0.0781 0.9970
-0.5424 -0.5306 -0.0791 0.9970
-0.6319 -0.6749 -0.0964 0.9963
-2.9649 -3.3581 -0.4671 0.9821
-3.1670 -3.6943 -0.5073 0.9806
-6.1037 -7.3344 -0.9949 0.9624
-5.9959 -7.4228 -0.9949 0.9624
-5.6649 -7.6785 -0.9949 0.9624
-1.7835 -2.5715 -0.3263 0.9875
-1.6942 -2.6019 -0.3237 0.9876
-1.6621 -2.6361 -0.3249 0.9875
-1.5972 -2.7052 -0.3276 0.9874
-1.5574 -2.7280 -0.3275 0.9874
-1.4739 -2.7667 -0.3268 0.9875
-1.4366 -2.7941 -0.3276 0.9874
-1.3782 -2.8848 -0.3334 0.9872
-1.1427 -2.6889 -0.3046 0.9883
-0.9855 -2.5213 -0.2822 0.9892
-0.9443 -2.5241 -0.2810 0.9892
-2.9488 -9.0755 -0.9949 0.9623
-2.6824 -9.1579 -0.9949 0.9623
-2.0068 -9.3293 -0.9950 0.9623
-1.7333 -9.3840 -0.9950 0.9623
-1.5960 -9.4084 -0.9950 0.9623
-1.4584 -9.4307 -0.9950 0.9623
-1.3204 -9.4510 -0.9950 0.9623
-0.7661 -9.5121 -0.9950 0.9623
-0.5163 -7.8403 -0.8192 0.9689
-0.1717 -7.8328 -0.8169 0.9690
0.2091 -9.5408 -0.9950 0.9623
0.3485 -9.5368 -0.9950 0.9623
0.1215 -2.3733 -0.2478 0.9905
0.1574 -2.3909 -0.2498 0.9904
0.1940 -2.4088 -0.2520 0.9903
0.2312 -2.4270 -0.2542 0.9902
0.2691 -2.4455 -0.2565 0.9902
0.3077 -2.4644 -0.2589 0.9901
0.4699 -2.5437 -0.2697 0.9897
0.5126 -2.5646 -0.2727 0.9895
0.5562 -2.5860 -0.2758 0.9894
0.6467 -2.6303 -0.2824 0.9892
0.7562 -2.5816 -0.2805 0.9892
1.0567 -2.5911 -0.2918 0.9888
1.2257 -2.7711 -0.3159 0.9879
1.1839 -2.5743 -0.2954 0.9887
1.5026 -2.9225 -0.3426 0.9869
1.5500 -2.9093 -0.3437 0.9868
1.6288 -2.9525 -0.3516 0.9865
1.6580 -2.9043 -0.3487 0.9866
1.6867 -2.8568 -0.3459 0.9867
1.7426 -2.7637 -0.3407 0.9869
1.7698 -2.7180 -0.3382 0.9870
5.6661 -7.6801 -0.9951 0.9623
5.8881 -7.5113 -0.9951 0.9623
6.2117 -7.2461 -0.9951 0.9623
6.3169 -7.1546 -0.9951 0.9623
3.0288 -3.2348 -0.4620 0.9823
3.0542 -2.9880 -0.4455 0.9830
3.1005 -2.9459 -0.4459 0.9829
3.1529 -2.9091 -0.4473 0.9829
3.2523 -2.9141 -0.4553 0.9826
2.9971 -2.6075 -0.4142 0.9842
3.0807 -2.5259 -0.4154 0.9841
3.0406 -2.3479 -0.4005 0.9847
3.1292 -2.3441 -0.4077 0.9844
3.2212 -2.3404 -0.4151 0.9841
3.2965 -2.1809 -0.4121 0.9842
3.8152 -2.2151 -0.4600 0.9824
4.3327 -2.2678 -0.5099 0.9805
6.3883 -3.1094 -0.7408 0.9718
6.4475 -2.9084 -0.7375 0.9720
6.7716 -2.5899 -0.7559 0.9713
6.7916 -2.4844 -0.7540 0.9713
6.8475 -2.3920 -0.7563 0.9713
6.7481 -2.2472 -0.7416 0.9718
6.7691 -2.1449 -0.7404 0.9718
6.3254 -1.8027 -0.6858 0.9739
6.6087 -1.5738 -0.7083 0.9730
8.0791 -1.6761 -0.8603 0.9674
8.2531 -1.5868 -0.8763 0.9668
9.4217 -1.5275 -0.9952 0.9623
9.4623 -1.2516 -0.9952 0.9623
9.4796 -1.1132 -0.9952 0.9623
9.5081 -0.8357 -0.9952 0.9623
9.5193 -0.6968 -0.9952 0.9623
9.5284 -0.5575 -0.9952 0.9623
9.5356 -0.4182 -0.9952 0.9623
9.5407 -0.2789 -0.9952 0.9623
9.5447 0.0000 -0.9952 0.9623
9.5437 0.1395 -0.9952 0.9623
9.5356 0.4183 -0.9952 0.9623
9.5193 0.6968 -0.9952 0.9623
9.5081 0.8357 -0.9952 0.9623
9.4623 1.2516 -0.9952 0.9623
9.4430 1.3897 -0.9952 0.9623
9.3984 1.6650 -0.9952 0.9623
9.3730 1.8022 -0.9952 0.9623
9.3457 1.9390 -0.9952 0.9623
9.2850 2.2112 -0.9952 0.9623
9.2164 2.4816 -0.9952 0.9623
9.1792 2.6160 -0.9952 0.9623
9.1400 2.7498 -0.9952 0.9623
9.0557 3.0157 -0.9952 0.9623
8.9637 3.2790 -0.9952 0.9623
8.9148 3.4096 -0.9952 0.9623
8.8641 3.5395 -0.9952 0.9623
8.8114 3.6686 -0.9952 0.9623
8.7568 3.7970 -0.9952 0.9623
8.7004 3.9246 -0.9952 0.9623
8.6421 4.0513 -0.9952 0.9623
8.5820 4.1771 -0.9952 0.9623
8.5200 4.3020 -0.9952 0.9623
8.4563 4.4261 -0.9952 0.9623
8.1832 4.9125 -0.9951 0.9623
6.9984 4.3416 -0.8587 0.9674
6.7977 4.4973 -0.8498 0.9678
7.7216 5.6101 -0.9951 0.9623
7.6388 5.7223 -0.9951 0.9623
7.4683 5.9430 -0.9951 0.9623
7.3807 6.0515 -0.9951 0.9623
7.2007 6.2646 -0.9951 0.9623
7.1084 6.3691 -0.9951 0.9623
3.4069 3.5336 -0.5118 0.9805
3.3088 3.5339 -0.5048 0.9807
3.0448 3.5518 -0.4878 0.9814
2.9661 3.5642 -0.4835 0.9815
2.8888 3.5762 -0.4793 0.9817
2.8128 3.5882 -0.4754 0.9818
2.6645 3.6116 -0.4680 0.9821
2.5208 3.6345 -0.4612 0.9824
2.2587 3.7010 -0.4521 0.9827
2.1967 3.7206 -0.4505 0.9828
2.0287 4.0918 -0.4762 0.9818
2.0634 4.3193 -0.4991 0.9809
2.1024 4.5714 -0.5246 0.9800
2.1821 5.1351 -0.5817 0.9778
2.3539 6.2920 -0.7004 0.9733
2.4551 6.8665 -0.7603 0.9711
3.0257 8.8688 -0.9770 0.9630
2.8958 8.9121 -0.9770 0.9630
2.7653 8.9534 -0.9770 0.9630
2.6342 8.9929 -0.9770 0.9630
2.5025 9.0304 -0.9770 0.9630
2.1043 9.1313 -0.9770 0.9630
1.9707 9.1610 -0.9770 0.9630
1.8366 9.1888 -0.9770 0.9630
1.7021 9.2146 -0.9770 0.9630
1.5673 9.2384 -0.9770 0.9630
1.1609 9.2982 -0.9770 0.9630
1.0249 9.3141 -0.9770 0.9630
0.8887 9.3281 -0.9770 0.9630
0.7523 9.3401 -0.9770 0.9630
0.2341 6.4064 -0.6684 0.9745
0.1371 6.2536 -0.6522 0.9752
0.0453 6.1927 -0.6457 0.9754
-0.1927 5.2723 -0.5501 0.9790
-0.3045 4.6237 -0.4831 0.9815
-0.3110 3.8616 -0.4039 0.9845
-0.4085 3.7125 -0.3894 0.9851
-0.4607 3.6903 -0.3878 0.9852
-0.4983 3.5664 -0.3755 0.9856
-0.6763 3.3836 -0.3598 0.9862
-0.7280 3.3843 -0.3609 0.9862
-0.8854 3.3864 -0.3649 0.9860
-0.9401 3.3924 -0.3670 0.9859
-1.0514 3.4045 -0.3715 0.9858
-1.2830 3.4293 -0.3818 0.9854
-1.3439 3.4383 -0.3849 0.9853
-1.4707 3.4609 -0.3921 0.9850
-1.5359 3.4725 -0.3959 0.9848
-1.6024 3.4843 -0.3999 0.9847
-1.6703 3.4963 -0.4040 0.9845
-1.8103 3.5211 -0.4128 0.9842
-1.8865 3.5411 -0.4183 0.9840
-2.8841 4.5742 -0.5638 0.9785
-2.9237 4.3500 -0.5465 0.9791
-2.9616 4.1396 -0.5307 0.9797
-2.8312 3.6117 -0.4785 0.9817
-2.8830 3.4643 -0.4699 0.9820
-2.9744 3.3688 -0.4686 0.9821
-3.0329 3.3356 -0.4701 0.9820
-0.6320 0.6750 -0.0964 0.9963
-0.5419 0.5621 -0.0814 0.9969
-0.5424 0.5307 -0.0791 0.9970
-0.5432 0.5161 -0.0781 0.9970
-0.5444 0.4878 -0.0762 0.9971
-0.5442 0.4734 -0.0752 0.9971
-0.5439 0.4595 -0.0742 0.9971
-0.5436 0.4457 -0.0733 0.9972
-0.5432 0.4323 -0.0724 0.9972
-0.5424 0.4063 -0.0707 0.9973
-0.5419 0.3937 -0.0698 0.9973
-0.5414 0.3814 -0.0690 0.9973
-0.5403 0.3575 -0.0676 0.9974
-0.5385 0.3233 -0.0655 0.9975
-0.5379 0.3123 -0.0648 0.9975
-0.5372 0.3015 -0.0642 0.9975
-0.5368 0.2911 -0.0637 0.9975
-0.5365 0.2809 -0.0631 0.9976
-0.5362 0.2707 -0.0626 0.9976
-0.5358 0.2608 -0.0621 0.9976
-0.5354 0.2510 -0.0617 0.9976
-0.5350 0.2413 -0.0612 0.9976
-0.5334 0.2130 -0.0599 0.9977
-0.5318 0.1858 -0.0587 0.9977
-0.5306 0.1596 -0.0578 0.9978
-0.5290 0.1342 -0.0569 0.9978
-0.5278 0.1176 -0.0564 0.9978
-0.5262 0.0932 -0.0557 0.9979
-0.5226 0.0460 -0.0547 0.9979
-0.5212 0.0305 -0.0544 0.9979
-0.5204 0.0229 -0.0543 0.9979
-0.5196 0.0152 -0.0542 0.9979
-0.5011 0.0000 -0.0579 0.9980
-0.5020 -0.0073 -0.0580 0.9980
-0.5035 -0.0221 -0.0582 0.9980
-0.5049 -0.0370 -0.0585 0.9980
-0.5067 -0.0595 -0.0589 0.9979
-0.5072 -0.0671 -0.0591 0.9979
-0.5082 -0.0824 -0.0595 0.9979
-0.5087 -0.0901 -0.0597 0.9979
-0.5091 -0.0979 -0.0599 0.9979
-0.5098 -0.1136 -0.0603 0.9979
-0.5102 -0.1215 -0.0606 0.9979
-0.5107 -0.1295 -0.0608 0.9979
-0.5111 -0.1376 -0.0611 0.9979
-0.5127 -0.1791 -0.0627 0.9978
-0.5130 -0.1876 -0.0631 0.9978
-0.5141 -0.2141 -0.0643 0.9978
-0.5148 -0.2322 -0.0652 0.9977
-0.5151 -0.2414 -0.0657 0.9977
-0.5154 -0.2508 -0.0662 0.9977
-0.5156 -0.2603 -0.0667 0.9977
-0.5157 -0.2699 -0.0672 0.9977
-0.5158 -0.2796 -0.0678 0.9976
-0.5159 -0.2895 -0.0683 0.9976
-0.5159 -0.2995 -0.0689 0.9976
-0.5168 -0.3419 -0.0716 0.9975
-0.5170 -0.3530 -0.0723 0.9975
-0.5172 -0.3644 -0.0731 0.9975
-0.5174 -0.3759 -0.0739 0.9974
-0.5176 -0.3877 -0.0747 0.9974
-0.5178 -0.4121 -0.0764 0.9973
-0.5178 -0.4374 -0.0783 0.9973
-0.5176 -0.4638 -0.0803 0.9972
-0.5172 -0.4914 -0.0824 0.9971
-0.5169 -0.5057 -0.0835 0.9971
-0.5148 -0.5340 -0.0857 0.9970
-0.6076 -0.6882 -0.1060 0.9963
-3.1779 -3.7072 -0.5639 0.9805
-5.4137 -6.7020 -0.9949 0.9659
-5.2156 -6.8573 -0.9949 0.9659
-5.1148 -6.9328 -0.9949 0.9659
-1.7810 -2.5679 -0.3609 0.9875
-1.7343 -2.5803 -0.3590 0.9876
-1.5929 -2.6979 -0.3618 0.9875
-1.5168 -2.7496 -0.3626 0.9874
-1.4071 -2.8380 -0.3658 0.9873
-1.3776 -2.8837 -0.3691 0.9872
-1.2860 -3.0261 -0.3797 0.9868
-0.9833 -2.5157 -0.3119 0.9892
-0.9451 -2.5263 -0.3115 0.9892
-0.9002 -2.5176 -0.3088 0.9893
-0.8561 -2.5094 -0.3062 0.9894
-2.4219 -8.2685 -0.9950 0.9659
-2.3008 -8.3030 -0.9950 0.9659
-2.1792 -8.3357 -0.9950 0.9659
-1.4410 -8.4946 -0.9950 0.9659
-1.1922 -8.5332 -0.9950 0.9659
-1.0674 -8.5497 -0.9950 0.9659
-0.6917 -8.5883 -0.9950 0.9659
-0.5163 -7.8403 -0.9073 0.9689
-0.4012 -7.8378 -0.9063 0.9689
-0.2864 -7.8353 -0.9054 0.9689
-0.1717 -7.8328 -0.9047 0.9689
-0.0629 -8.6160 -0.9950 0.9659
0.0630 -8.6161 -0.9950 0.9659
0.1574 -2.3909 -0.2767 0.9904
0.2312 -2.4270 -0.2815 0.9902
0.2691 -2.4455 -0.2841 0.9901
0.3871 -2.5032 -0.2925 0.9899
0.4699 -2.5437 -0.2987 0.9896
0.5563 -2.5860 -0.3055 0.9894
0.6468 -2.6302 -0.3128 0.9892
0.7321 -2.6421 -0.3166 0.9890
0.7447 -2.5425 -0.3059 0.9894
0.7587 -2.2239 -0.2713 0.9906
1.0079 -2.6939 -0.3322 0.9885
1.0329 -2.6425 -0.3276 0.9886
1.1777 -2.7714 -0.3477 0.9879
1.1859 -2.5786 -0.3278 0.9886
1.4694 -2.8581 -0.3711 0.9871
1.6042 -2.9080 -0.3835 0.9867
1.6332 -2.8608 -0.3804 0.9868
1.6617 -2.8143 -0.3774 0.9869
1.6896 -2.7685 -0.3745 0.9870
5.0139 -7.0081 -0.9951 0.9659
5.3162 -6.7817 -0.9951 0.9659
5.5121 -6.6235 -0.9951 0.9659
5.6083 -6.5423 -0.9951 0.9659
3.0647 -3.3705 -0.5261 0.9818
2.9684 -3.0789 -0.4939 0.9829
3.0733 -2.9200 -0.4896 0.9831
3.1779 -2.9323 -0.4993 0.9827
3.1484 -2.8210 -0.4882 0.9831
3.1208 -2.7151 -0.4777 0.9835
2.9574 -2.4247 -0.4416 0.9847
3.0437 -2.4221 -0.4492 0.9845
3.1332 -2.4194 -0.4571 0.9842
3.1890 -2.3888 -0.4601 0.9841
2.9806 -2.0997 -0.4210 0.9854
3.0152 -2.0587 -0.4216 0.9854
3.0827 -1.9754 -0.4228 0.9854
3.1156 -1.9328 -0.4234 0.9853
3.9338 -2.1327 -0.5167 0.9821
6.2717 -3.0527 -0.8055 0.9723
6.3417 -2.9729 -0.8088 0.9722
6.6480 -2.8826 -0.8368 0.9712
6.8096 -2.8352 -0.8518 0.9707
6.7458 -2.4677 -0.8295 0.9715
6.5653 -2.0803 -0.7953 0.9727
6.6781 -2.0091 -0.8053 0.9723
6.5414 -1.7613 -0.7823 0.9731
6.6272 -1.6809 -0.7895 0.9728
6.5950 -1.5706 -0.7829 0.9731
8.0227 -1.7871 -0.9492 0.9674
8.1213 -1.6849 -0.9578 0.9672
8.1836 -1.5735 -0.9623 0.9670
8.4854 -1.5033 -0.9952 0.9659
8.5065 -1.3792 -0.9952 0.9659
8.5588 -1.0050 -0.9952 0.9659
8.5726 -0.8799 -0.9952 0.9659
8.5946 -0.6290 -0.9952 0.9659
8.6093 -0.3777 -0.9952 0.9659
8.6167 -0.1259 -0.9952 0.9659
8.6176 0.0000 -0.9952 0.9659
8.5946 0.6291 -0.9952 0.9659
8.5845 0.7546 -0.9952 0.9659
8.5588 1.0051 -0.9952 0.9659
8.5432 1.1300 -0.9952 0.9659
8.5065 1.3792 -0.9952 0.9659
8.4626 1.6272 -0.9952 0.9659
8.4114 1.8737 -0.9952 0.9659
8.3831 1.9964 -0.9952 0.9659
8.3531 2.1187 -0.9952 0.9659
8.2150 2.6030 -0.9951 0.9659
8.1761 2.7227 -0.9951 0.9659
8.0930 2.9605 -0.9951 0.9659
8.0030 3.1957 -0.9951 0.9659
7.8553 3.5434 -0.9951 0.9659
7.7484 3.7714 -0.9951 0.9659
7.6924 3.8841 -0.9951 0.9659
7.5757 4.1073 -0.9951 0.9659
7.5148 4.2175 -0.9951 0.9659
7.3883 4.4353 -0.9951 0.9659
7.3228 4.5428 -0.9951 0.9659
7.2556 4.6493 -0.9951 0.9659
6.7950 4.4955 -0.9409 0.9677
6.8207 4.6573 -0.9538 0.9673
7.0449 4.9628 -0.9951 0.9659
6.9716 5.0652 -0.9951 0.9659
6.8968 5.1665 -0.9951 0.9659
6.7429 5.3657 -0.9951 0.9659
6.4179 5.7505 -0.9951 0.9659
6.3332 5.8436 -0.9951 0.9659
6.2471 5.9355 -0.9951 0.9659
6.1597 6.0261 -0.9951 0.9659
3.4097 3.5366 -0.5673 0.9804
3.3116 3.5368 -0.5595 0.9807
3.2179 3.5390 -0.5524 0.9809
2.8139 3.5896 -0.5267 0.9818
2.7385 3.6006 -0.5224 0.9819
2.4496 3.6445 -0.5071 0.9825
2.2552 3.6954 -0.4999 0.9827
2.0713 3.7547 -0.4952 0.9829
2.0305 4.0955 -0.5279 0.9818
2.0988 4.5636 -0.5801 0.9800
2.1309 4.8176 -0.6083 0.9790
2.2259 5.4581 -0.6807 0.9765
2.3489 6.2786 -0.7741 0.9734
2.7319 8.0074 -0.9770 0.9665
2.4967 8.0837 -0.9770 0.9665
2.2594 8.1532 -0.9770 0.9665
2.1400 8.1854 -0.9770 0.9665
1.8999 8.2443 -0.9770 0.9665
1.6582 8.2964 -0.9770 0.9665
1.5368 8.3196 -0.9770 0.9665
1.4151 8.3412 -0.9770 0.9665
1.2931 8.3610 -0.9770 0.9665
0.8024 8.4221 -0.9770 0.9665
0.6793 8.4329 -0.9770 0.9665
0.4326 8.4492 -0.9770 0.9665
0.2345 6.4159 -0.7414 0.9745
0.0452 6.1897 -0.7148 0.9754
-0.1248 5.6912 -0.6574 0.9773
-0.1921 5.2558 -0.6073 0.9790
-0.2499 4.8819 -0.5645 0.9805
-0.3016 3.7445 -0.4338 0.9850
-0.4024 3.6571 -0.4249 0.9853
-0.4938 3.5344 -0.4121 0.9857
-0.5284 3.4171 -0.3993 0.9862
-0.6222 3.3686 -0.3956 0.9863
-0.8830 3.3774 -0.4031 0.9860
-0.9375 3.3833 -0.4054 0.9860
-1.1052 3.4012 -0.4130 0.9857
-1.1625 3.4073 -0.4157 0.9856
-1.2205 3.4135 -0.4186 0.9855
-1.2794 3.4197 -0.4216 0.9854
-1.4664 3.4506 -0.4330 0.9850
-1.5976 3.4737 -0.4415 0.9847
-1.6652 3.4856 -0.4461 0.9846
-1.7341 3.4977 -0.4508 0.9844
-1.9535 3.5411 -0.4670 0.9838
-2.8633 4.6919 -0.6347 0.9781
-2.9238 4.3500 -0.6053 0.9791
-2.9427 4.2429 -0.5963 0.9794
-2.9611 4.1390 -0.5877 0.9797
-2.8112 3.5861 -0.5262 0.9818
-2.8669 3.4450 -0.5176 0.9821
-2.9087 3.3931 -0.5161 0.9822
-0.6077 0.6883 -0.1060 0.9963
-0.5206 0.5725 -0.0894 0.9969
-0.5160 0.5199 -0.0846 0.9971
-0.5169 0.5057 -0.0835 0.9971
-0.5172 0.4914 -0.0824 0.9971
-0.5175 0.4775 -0.0813 0.9972
-0.5179 0.4246 -0.0773 0.9973
-0.5178 0.4121 -0.0764 0.9973
-0.5172 0.3644 -0.0731 0.9975
-0.5159 0.2996 -0.0689 0.9976
-0.5158 0.2796 -0.0678 0.9976
-0.5157 0.2700 -0.0672 0.9977
-0.5154 0.2509 -0.0662 0.9977
-0.5151 0.2414 -0.0657 0.9977
-0.5145 0.2231 -0.0648 0.9977
-0.5138 0.2052 -0.0639 0.9978
-0.5133 0.1964 -0.0635 0.9978
-0.5128 0.1791 -0.0627 0.9978
-0.5122 0.1623 -0.0620 0.9978
-0.5119 0.1540 -0.0617 0.9978
-0.5115 0.1458 -0.0614 0.9979
-0.5111 0.1376 -0.0611 0.9979
-0.5107 0.1295 -0.0608 0.9979
-0.5102 0.1215 -0.0606 0.9979
-0.5098 0.1136 -0.0603 0.9979
-0.5095 0.1057 -0.0601 0.9979
-0.5078 0.0747 -0.0593 0.9979
-0.5072 0.0671 -0.0591 0.9979
-0.5055 0.0445 -0.0586 0.9980
-0.5049 0.0370 -0.0585 0.9980
-0.5042 0.0295 -0.0583 0.9980
-0.5035 0.0221 -0.0582 0.9980
-0.5027 0.0147 -0.0581 0.9980
-0.5019 0.0073 -0.0580 0.9980
-0.4854 0.0000 -0.0615 0.9980
-0.4869 -0.0142 -0.0617 0.9980
-0.4876 -0.0214 -0.0619 0.9980
-0.4882 -0.0286 -0.0620 0.9980
-0.4895 -0.0430 -0.0623 0.9980
-0.4900 -0.0503 -0.0624 0.9980
-0.4915 -0.0723 -0.0630 0.9980
-0.4923 -0.0872 -0.0634 0.9980
-0.4926 -0.0947 -0.0636 0.9980
-0.4929 -0.1023 -0.0638 0.9980
-0.4934 -0.1175 -0.0643 0.9980
-0.4936 -0.1252 -0.0645 0.9979
-0.4938 -0.1329 -0.0648 0.9979
-0.4946 -0.1568 -0.0658 0.9979
-0.4950 -0.1729 -0.0664 0.9979
-0.4951 -0.1811 -0.0668 0.9979
-0.4952 -0.1894 -0.0672 0.9979
-0.4954 -0.1978 -0.0676 0.9979
-0.4962 -0.2326 -0.0695 0.9978
-0.4963 -0.2416 -0.0700 0.9978
-0.4964 -0.2598 -0.0710 0.9977
-0.4963 -0.2785 -0.0721 0.9977
-0.4962 -0.2880 -0.0727 0.9977
-0.4951 -0.3488 -0.0768 0.9976
-0.4951 -0.3597 -0.0775 0.9975
-0.4949 -0.3707 -0.0784 0.9975
-0.4946 -0.3936 -0.0801 0.9975
-0.4944 -0.4054 -0.0810 0.9974
-0.4938 -0.4296 -0.0829 0.9974
-0.4933 -0.4420 -0.0839 0.9973
-0.4929 -0.4548 -0.0850 0.9973
-0.4923 -0.4678 -0.0861 0.9973
-0.4917 -0.4811 -0.0872 0.9972
-0.4910 -0.4946 -0.0883 0.9972
-0.4902 -0.5085 -0.0895 0.9972
-0.4893 -0.5227 -0.0907 0.9971
-0.4882 -0.5370 -0.0920 0.9971
-0.4865 -0.5511 -0.0932 0.9970
-0.5820 -0.6993 -0.1153 0.9963
-4.9334 -6.1074 -0.9949 0.9688
-4.8436 -6.1789 -0.9949 0.9688
-4.7528 -6.2489 -0.9949 0.9688
-4.6610 -6.3178 -0.9949 0.9688
-4.5682 -6.3852 -0.9949 0.9688
-1.7785 -2.5643 -0.3955 0.9875
-1.7319 -2.5767 -0.3934 0.9876
-1.6857 -2.5889 -0.3915 0.9876
-1.5613 -2.7350 -0.3991 0.9874
-1.5192 -2.7538 -0.3986 0.9874
-1.4065 -2.8369 -0.4013 0.9873
-0.9464 -2.5296 -0.3423 0.9892
-0.9017 -2.5218 -0.3394 0.9893
-0.9663 -2.8326 -0.3793 0.9880
-2.3168 -7.5018 -0.9950 0.9688
-1.9859 -7.5961 -0.9950 0.9688
-1.8747 -7.6243 -0.9950 0.9688
-1.7631 -7.6509 -0.9950 0.9688
-0.6130 -3.0673 -0.3964 0.9875
-1.4261 -7.7209 -0.9950 0.9688
-1.3132 -7.7409 -0.9950 0.9688
-1.1999 -7.7593 -0.9950 0.9688
-0.7446 -7.8162 -0.9950 0.9688
-0.6303 -7.8263 -0.9950 0.9688
-0.4013 -7.8414 -0.9950 0.9688
-0.2867 -7.8464 -0.9950 0.9688
-0.1721 -7.8498 -0.9950 0.9688
-0.0574 -7.8515 -0.9950 0.9688
0.0574 -7.8515 -0.9950 0.9688
0.1574 -2.3909 -0.3036 0.9904
0.1940 -2.4088 -0.3062 0.9903
0.2312 -2.4270 -0.3090 0.9902
0.3077 -2.4644 -0.3147 0.9900
0.3470 -2.4836 -0.3178 0.9899
0.3871 -2.5032 -0.3210 0.9898
0.4280 -2.5233 -0.3243 0.9897
0.5562 -2.5860 -0.3352 0.9894
0.6010 -2.6079 -0.3391 0.9893
0.6467 -2.6302 -0.3432 0.9891
0.6936 -2.6532 -0.3475 0.9890
0.7486 -2.1943 -0.2938 0.9907
0.9734 -2.7224 -0.3664 0.9884
1.0334 -2.6438 -0.3597 0.9886
1.1853 -2.7892 -0.3840 0.9879
1.2416 -2.8071 -0.3890 0.9877
1.1879 -2.5829 -0.3603 0.9886
1.3927 -2.8089 -0.3973 0.9874
1.5803 -2.8646 -0.4146 0.9869
1.6090 -2.8185 -0.4113 0.9870
1.6650 -2.7282 -0.4050 0.9872
1.7191 -2.6401 -0.3992 0.9874
1.7455 -2.5968 -0.3965 0.9875
4.7536 -6.2500 -0.9951 0.9688
4.8445 -6.1799 -0.9951 0.9688
5.0230 -6.0357 -0.9951 0.9688
5.1107 -5.9618 -0.9951 0.9688
5.1972 -5.8864 -0.9951 0.9688
3.0023 -3.3019 -0.5655 0.9822
3.0415 -3.0637 -0.5471 0.9827
3.0977 -2.8582 -0.5341 0.9831
3.0737 -2.4459 -0.4978 0.9843
3.2226 -2.4884 -0.5160 0.9837
3.3194 -2.4866 -0.5256 0.9834
3.3329 -2.3478 -0.5166 0.9837
3.5198 -2.4034 -0.5401 0.9830
3.6467 -2.3367 -0.5489 0.9827
3.7845 -2.3478 -0.5644 0.9822
3.9211 -2.1259 -0.5652 0.9822
3.9237 -2.0537 -0.5612 0.9823
3.9263 -1.9825 -0.5574 0.9824
6.6954 -2.9032 -0.9248 0.9710
6.6985 -2.5620 -0.9088 0.9715
6.6210 -2.4221 -0.8934 0.9720
6.7300 -2.1325 -0.8946 0.9719
6.5902 -1.8781 -0.8684 0.9727
6.5232 -1.7564 -0.8561 0.9731
6.6133 -1.6775 -0.8646 0.9729
7.6259 -1.8161 -0.9934 0.9689
7.6650 -1.7074 -0.9951 0.9688
7.6891 -1.5952 -0.9951 0.9688
7.7116 -1.4827 -0.9951 0.9688
7.7516 -1.2568 -0.9951 0.9688
7.7692 -1.1434 -0.9951 0.9688
7.8118 -0.8018 -0.9951 0.9688
7.8227 -0.6876 -0.9951 0.9688
7.8319 -0.5732 -0.9951 0.9688
7.8453 -0.3441 -0.9951 0.9688
7.8520 0.1148 -0.9951 0.9688
7.8495 0.2295 -0.9951 0.9688
7.8454 0.3441 -0.9951 0.9688
7.8319 0.5732 -0.9951 0.9688
7.8118 0.8018 -0.9951 0.9688
7.7851 1.0298 -0.9951 0.9688
7.7516 1.2568 -0.9951 0.9688
7.7324 1.3699 -0.9951 0.9688
7.6891 1.5953 -0.9951 0.9688
7.6392 1.8193 -0.9951 0.9688
7.5521 2.1523 -0.9951 0.9688
7.5198 2.2624 -0.9951 0.9688
7.4860 2.3720 -0.9951 0.9688
7.4135 2.5897 -0.9951 0.9688
7.3749 2.6978 -0.9951 0.9688
7.2929 2.9121 -0.9951 0.9688
7.2495 3.0184 -0.9951 0.9688
7.2046 3.1240 -0.9951 0.9688
7.1582 3.2289 -0.9951 0.9688
7.0608 3.4367 -0.9951 0.9688
7.0098 3.5395 -0.9951 0.9688
6.9574 3.6415 -0.9951 0.9688
6.9034 3.7428 -0.9951 0.9688
6.8479 3.8432 -0.9951 0.9688
6.7910 3.9429 -0.9951 0.9688
6.7327 4.0417 -0.9951 0.9688
6.6117 4.2367 -0.9951 0.9688
6.3529 4.6157 -0.9951 0.9688
6.2848 4.7080 -0.9951 0.9688
6.0724 4.9789 -0.9951 0.9688
5.9990 5.0671 -0.9951 0.9688
5.9243 5.1542 -0.9951 0.9688
5.8484 5.2402 -0.9951 0.9688
5.6927 5.4088 -0.9951 0.9688
5.6131 5.4914 -0.9951 0.9688
3.2255 3.5474 -0.6076 0.9809
3.0561 3.5650 -0.5950 0.9812
2.9759 3.5760 -0.5896 0.9814
2.8192 3.5963 -0.5791 0.9817
2.6701 3.6192 -0.5699 0.9820
2.3854 3.6636 -0.5540 0.9825
2.2567 3.6977 -0.5490 0.9827
2.1327 3.7358 -0.5451 0.9828
2.0717 3.7554 -0.5435 0.9829
1.9957 3.8817 -0.5531 0.9826
2.0323 4.0992 -0.5798 0.9817
2.0656 4.3239 -0.6073 0.9809
2.0953 4.5559 -0.6355 0.9800
2.1257 4.8059 -0.6659 0.9790
2.4976 6.3900 -0.8694 0.9727
2.6436 7.3937 -0.9950 0.9688
2.5353 7.4316 -0.9950 0.9688
2.4264 7.4678 -0.9950 0.9688
2.3171 7.5024 -0.9950 0.9688
2.2072 7.5355 -0.9950 0.9688
1.9861 7.5967 -0.9950 0.9688
1.8748 7.6249 -0.9950 0.9688
1.7632 7.6515 -0.9950 0.9688
1.6512 7.6764 -0.9950 0.9688
1.5389 7.6997 -0.9950 0.9688
1.4262 7.7213 -0.9950 0.9688
1.3132 7.7413 -0.9950 0.9688
1.2000 7.7597 -0.9950 0.9688
1.0865 7.7764 -0.9950 0.9688
0.9727 7.7914 -0.9950 0.9688
0.8588 7.8047 -0.9950 0.9688
0.6190 7.6847 -0.9770 0.9694
0.5067 7.6929 -0.9770 0.9694
0.3942 7.6995 -0.9770 0.9694
0.2817 7.7043 -0.9770 0.9694
0.0453 6.2027 -0.7860 0.9753
-0.0451 6.1730 -0.7823 0.9754
-0.1921 5.2546 -0.6663 0.9790
-0.2499 4.8809 -0.6193 0.9805
-0.2479 3.7652 -0.4782 0.9849
-0.3473 3.6459 -0.4641 0.9853
-0.3981 3.6178 -0.4612 0.9854
-0.4894 3.5029 -0.4482 0.9858
-0.5266 3.4052 -0.4367 0.9862
-0.5723 3.3733 -0.4336 0.9863
-0.6196 3.3545 -0.4323 0.9863
-0.7736 3.3569 -0.4365 0.9862
-0.9350 3.3742 -0.4437 0.9860
-1.0458 3.3860 -0.4491 0.9858
-1.2171 3.4041 -0.4581 0.9855
-1.3361 3.4182 -0.4651 0.9853
-1.3984 3.4292 -0.4693 0.9852
-1.6600 3.4748 -0.4880 0.9846
-1.8707 3.5114 -0.5042 0.9841
-1.9441 3.5241 -0.5100 0.9839
-2.8841 4.5743 -0.6853 0.9784
-2.9238 4.3500 -0.6642 0.9791
-2.9790 4.0380 -0.6359 0.9800
-2.7928 3.6719 -0.5846 0.9816
-2.7984 3.5698 -0.5748 0.9819
-0.5820 0.6994 -0.1153 0.9963
-0.4977 0.5806 -0.0969 0.9969
-0.4865 0.5511 -0.0932 0.9970
-0.4882 0.5370 -0.0920 0.9971
-0.4902 0.5085 -0.0895 0.9972
-0.4917 0.4811 -0.0872 0.9972
-0.4928 0.4548 -0.0850 0.9973
-0.4933 0.4421 -0.0839 0.9973
-0.4938 0.4296 -0.0829 0.9974
-0.4941 0.4174 -0.0820 0.9974
-0.4946 0.3936 -0.0801 0.9975
-0.4948 0.3821 -0.0792 0.9975
-0.4954 0.3175 -0.0746 0.9976
-0.4957 0.3075 -0.0739 0.9977
-0.4960 0.2977 -0.0733 0.9977
-0.4963 0.2786 -0.0721 0.9977
-0.4964 0.2691 -0.0716 0.9977
-0.4964 0.2598 -0.0710 0.9977
-0.4963 0.2416 -0.0700 0.9978
-0.4957 0.2064 -0.0680 0.9978
-0.4954 0.1979 -0.0676 0.9979
-0.4951 0.1811 -0.0668 0.9979
-0.4948 0.1648 -0.0661 0.9979
-0.4944 0.1487 -0.0654 0.9979
-0.4942 0.1409 -0.0651 0.9979
-0.4939 0.1330 -0.0648 0.9979
-0.4936 0.1252 -0.0645 0.9979
-0.4934 0.1175 -0.0643 0.9980
-0.4929 0.1023 -0.0638 0.9980
-0.4926 0.0947 -0.0636 0.9980
-0.4922 0.0872 -0.0634 0.9980
-0.4910 0.0650 -0.0628 0.9980
-0.4905 0.0576 -0.0626 0.9980
-0.4889 0.0358 -0.0621 0.9980
-0.4876 0.0214 -0.0619 0.9980
-0.4706 0.0000 -0.0649 0.9981
-0.4727 -0.0207 -0.0653 0.9981
-0.4733 -0.0277 -0.0654 0.9981
-0.4744 -0.0417 -0.0657 0.9981
-0.4757 -0.0629 -0.0662 0.9981
-0.4765 -0.0773 -0.0666 0.9981
-0.4771 -0.0917 -0.0670 0.9980
-0.4776 -0.1064 -0.0675 0.9980
-0.4777 -0.1138 -0.0678 0.9980
-0.4779 -0.1287 -0.0683 0.9980
-0.4781 -0.1438 -0.0689 0.9980
-0.4783 -0.1593 -0.0696 0.9980
-0.4784 -0.1830 -0.0707 0.9979
-0.4783 -0.1910 -0.0711 0.9979
-0.4787 -0.2159 -0.0725 0.9979
-0.4786 -0.2329 -0.0735 0.9979
-0.4784 -0.2504 -0.0745 0.9978
-0.4780 -0.2683 -0.0756 0.9978
-0.4756 -0.3248 -0.0795 0.9977
-0.4751 -0.3346 -0.0802 0.9977
-0.4742 -0.3552 -0.0818 0.9976
-0.4738 -0.3659 -0.0826 0.9976
-0.4734 -0.3767 -0.0835 0.9976
-0.4718 -0.4105 -0.0863 0.9975
-0.4678 -0.4712 -0.0916 0.9973
-0.4668 -0.4842 -0.0928 0.9973
-0.4657 -0.4973 -0.0940 0.9973
-0.4645 -0.5108 -0.0953 0.9972
-0.4603 -0.5531 -0.0993 0.9971
-0.4733 -0.5860 -0.1040 0.9970
-0.5516 -0.7037 -0.1234 0.9964
-4.3645 -5.7384 -0.9949 0.9713
-4.2802 -5.8016 -0.9949 0.9713
-4.1950 -5.8635 -0.9949 0.9713
-1.7295 -2.5730 -0.4278 0.9876
-1.6834 -2.5853 -0.4257 0.9876
-1.6487 -2.6148 -0.4266 0.9876
-1.5842 -2.6832 -0.4300 0.9875
-1.5638 -2.7392 -0.4353 0.9873
-1.5215 -2.7580 -0.4347 0.9874
-1.4794 -2.7768 -0.4342 0.9874
-1.4374 -2.7957 -0.4338 0.9874
-1.4060 -2.8358 -0.4368 0.9873
-1.3466 -2.9280 -0.4447 0.9871
-1.1264 -2.7620 -0.4116 0.9880
-0.9865 -2.5239 -0.3740 0.9891
-0.9482 -2.5346 -0.3734 0.9891
-0.9034 -2.5267 -0.3703 0.9892
-0.9691 -2.8406 -0.4142 0.9880
-0.7436 -2.2885 -0.3321 0.9903
-2.1275 -6.8888 -0.9950 0.9713
-1.6191 -7.0258 -0.9950 0.9713
-1.5162 -7.0487 -0.9950 0.9713
-1.4131 -7.0701 -0.9950 0.9713
-1.2059 -7.1084 -0.9950 0.9713
-0.9976 -7.1407 -0.9950 0.9713
-0.8932 -7.1545 -0.9950 0.9713
-0.6837 -7.1776 -0.9950 0.9713
-0.5788 -7.1868 -0.9950 0.9713
0.0527 -7.2100 -0.9950 0.9713
0.1580 -7.2085 -0.9950 0.9713
0.1215 -2.3733 -0.3279 0.9905
0.1574 -2.3909 -0.3307 0.9904
0.2312 -2.4270 -0.3364 0.9902
0.3871 -2.5032 -0.3496 0.9898
0.4281 -2.5233 -0.3532 0.9897
0.5126 -2.5646 -0.3609 0.9895
0.6010 -2.6078 -0.3693 0.9893
0.7164 -2.5851 -0.3702 0.9892
0.7227 -2.4673 -0.3548 0.9897
0.7285 -2.3587 -0.3407 0.9901
0.7387 -2.1654 -0.3157 0.9908
1.0089 -2.6967 -0.3973 0.9884
1.0339 -2.6451 -0.3919 0.9886
1.1890 -2.7980 -0.4195 0.9878
1.2324 -2.7861 -0.4204 0.9878
1.1274 -2.3598 -0.3609 0.9895
1.3631 -2.7494 -0.4235 0.9877
1.4071 -2.7368 -0.4247 0.9877
1.5570 -2.8224 -0.4448 0.9871
1.5855 -2.7773 -0.4413 0.9872
1.6680 -2.6455 -0.4316 0.9875
1.7208 -2.5602 -0.4257 0.9876
1.7466 -2.5183 -0.4229 0.9877
1.7720 -2.4768 -0.4203 0.9878
1.7970 -2.4357 -0.4177 0.9879
4.4486 -5.6750 -0.9951 0.9713
4.5311 -5.6093 -0.9951 0.9713
3.0912 -3.3014 -0.6241 0.9819
3.0338 -3.0561 -0.5943 0.9828
3.0215 -2.8708 -0.5752 0.9833
3.0742 -2.8366 -0.5772 0.9833
3.1694 -2.7574 -0.5797 0.9832
3.1614 -2.5157 -0.5575 0.9838
3.3420 -2.5806 -0.5827 0.9831
3.3487 -2.5085 -0.5774 0.9832
3.4387 -2.4223 -0.5805 0.9832
3.6593 -2.4210 -0.6055 0.9824
3.7936 -2.2773 -0.6106 0.9823
3.8853 -2.1805 -0.6148 0.9822
3.8809 -2.1041 -0.6092 0.9823
3.9137 -1.9762 -0.6050 0.9825
4.0934 -1.9924 -0.6283 0.9818
6.4726 -2.9196 -0.9799 0.9717
6.5943 -2.6332 -0.9799 0.9717
6.5338 -2.4989 -0.9653 0.9721
6.5384 -2.3918 -0.9608 0.9723
6.4592 -2.2564 -0.9442 0.9728
6.6400 -1.9977 -0.9569 0.9724
7.0149 -1.6706 -0.9951 0.9713
7.0608 -1.4649 -0.9951 0.9713
7.0814 -1.3615 -0.9951 0.9713
7.1005 -1.2580 -0.9951 0.9713
7.1489 -0.9456 -0.9951 0.9713
7.1735 -0.7362 -0.9951 0.9713
7.1834 -0.6314 -0.9951 0.9713
7.1919 -0.5263 -0.9951 0.9713
7.1988 -0.4212 -0.9951 0.9713
7.2042 -0.3160 -0.9951 0.9713
7.2081 -0.2107 -0.9951 0.9713
7.2081 0.2108 -0.9951 0.9713
7.1919 0.5264 -0.9951 0.9713
7.1734 0.7363 -0.9951 0.9713
7.1619 0.8410 -0.9951 0.9713
7.1489 0.9456 -0.9951 0.9713
7.0814 1.3616 -0.9951 0.9713
7.0608 1.4649 -0.9951 0.9713
7.0386 1.5679 -0.9951 0.9713
6.9898 1.7729 -0.9951 0.9713
6.9631 1.8749 -0.9951 0.9713
6.9054 2.0775 -0.9951 0.9713
6.7722 2.4773 -0.9951 0.9713
6.6969 2.6741 -0.9951 0.9713
6.6571 2.7717 -0.9951 0.9713
6.5732 2.9650 -0.9951 0.9713
6.5292 3.0608 -0.9951 0.9713
6.4838 3.1559 -0.9951 0.9713
5.8951 4.1528 -0.9951 0.9713
5.8338 4.2385 -0.9951 0.9713
5.7712 4.3233 -0.9951 0.9713
5.7074 4.4071 -0.9951 0.9713
5.5762 4.5720 -0.9951 0.9713
5.5088 4.6530 -0.9951 0.9713
5.4402 4.7330 -0.9951 0.9713
5.3704 4.8120 -0.9951 0.9713
5.2996 4.8899 -0.9951 0.9713
5.2276 4.9668 -0.9951 0.9713
5.1544 5.0427 -0.9951 0.9713
3.4185 3.5457 -0.6797 0.9803
3.3247 3.5508 -0.6713 0.9805
3.2332 3.5558 -0.6632 0.9808
2.8245 3.6031 -0.6318 0.9817
2.7486 3.6138 -0.6266 0.9818
2.6024 3.6375 -0.6172 0.9821
2.4597 3.6594 -0.6085 0.9824
2.2590 3.7015 -0.5984 0.9826
2.1959 3.7191 -0.5960 0.9827
2.1340 3.7382 -0.5940 0.9828
2.0154 3.7830 -0.5915 0.9828
2.0335 4.1015 -0.6317 0.9817
2.6250 6.7157 -0.9950 0.9713
2.4276 6.7896 -0.9950 0.9713
2.2282 6.8576 -0.9950 0.9713
2.1277 6.8894 -0.9950 0.9713
1.9255 6.9486 -0.9950 0.9713
1.8237 6.9760 -0.9950 0.9713
1.7216 7.0019 -0.9950 0.9713
1.5163 7.0492 -0.9950 0.9713
1.3097 7.0904 -0.9950 0.9713
1.1019 7.1256 -0.9950 0.9713
0.9977 7.1410 -0.9950 0.9713
0.8933 7.1548 -0.9950 0.9713
0.7886 7.1671 -0.9950 0.9713
0.3686 7.2008 -0.9950 0.9713
0.2633 7.2054 -0.9950 0.9713
0.1386 6.3245 -0.8730 0.9748
0.0456 6.2362 -0.8606 0.9751
-0.0453 6.2016 -0.8558 0.9753
-0.1359 6.1983 -0.8556 0.9753
-0.2942 3.6526 -0.5057 0.9853
-0.3443 3.6138 -0.5010 0.9854
-0.4460 3.5723 -0.4968 0.9856
-0.4851 3.4719 -0.4838 0.9859
-0.6170 3.3404 -0.4688 0.9864
-0.7716 3.3480 -0.4741 0.9862
-0.8783 3.3594 -0.4792 0.9861
-1.0429 3.3768 -0.4877 0.9858
-1.1561 3.3886 -0.4941 0.9856
-1.2138 3.3946 -0.4975 0.9855
-1.3322 3.4082 -0.5050 0.9853
-1.3943 3.4190 -0.5095 0.9852
-1.4576 3.4300 -0.5143 0.9851
-1.5221 3.4412 -0.5193 0.9849
-1.5879 3.4526 -0.5244 0.9848
-1.6549 3.4642 -0.5298 0.9846
-1.7957 3.4927 -0.5420 0.9843
-1.9450 3.5256 -0.5557 0.9839
-2.8455 4.8197 -0.7724 0.9777
-2.8853 4.5761 -0.7465 0.9784
-2.9428 4.2430 -0.7126 0.9794
-2.9612 4.1391 -0.7023 0.9797
-2.9790 4.0380 -0.6925 0.9799
-0.5517 0.7038 -0.1234 0.9964
-0.4734 0.5861 -0.1040 0.9970
-0.4602 0.5530 -0.0993 0.9971
-0.4618 0.5387 -0.0979 0.9971
-0.4668 0.4842 -0.0928 0.9973
-0.4697 0.4462 -0.0894 0.9974
-0.4704 0.4341 -0.0883 0.9974
-0.4729 0.3878 -0.0844 0.9975
-0.4734 0.3767 -0.0835 0.9976
-0.4750 0.3346 -0.0802 0.9977
-0.4767 0.3054 -0.0781 0.9977
-0.4771 0.2960 -0.0775 0.9977
-0.4775 0.2866 -0.0769 0.9978
-0.4783 0.2593 -0.0751 0.9978
-0.4784 0.2504 -0.0745 0.9978
-0.4786 0.2330 -0.0735 0.9979
-0.4786 0.2244 -0.0730 0.9979
-0.4786 0.2075 -0.0720 0.9979
-0.4784 0.1750 -0.0703 0.9979
-0.4784 0.1671 -0.0699 0.9980
-0.4783 0.1593 -0.0696 0.9980
-0.4782 0.1516 -0.0692 0.9980
-0.4780 0.1362 -0.0686 0.9980
-0.4779 0.1287 -0.0683 0.9980
-0.4773 0.0990 -0.0673 0.9980
-0.4758 0.0630 -0.0662 0.9981
-0.4749 0.0487 -0.0659 0.9981
-0.4744 0.0417 -0.0657 0.9981
-0.4733 0.0277 -0.0654 0.9981
-0.4727 0.0207 -0.0653 0.9981
-0.4720 0.0138 -0.0652 0.9981
-0.4713 0.0069 -0.0651 0.9981
-0.4567 0.0000 -0.0682 0.9982
-0.4580 -0.0134 -0.0684 0.9981
-0.4585 -0.0201 -0.0685 0.9981
-0.4591 -0.0268 -0.0687 0.9981
-0.4601 -0.0404 -0.0690 0.9981
-0.4610 -0.0541 -0.0693 0.9981
-0.4614 -0.0610 -0.0695 0.9981
-0.4617 -0.0679 -0.0697 0.9981
-0.4620 -0.0749 -0.0699 0.9981
-0.4623 -0.0819 -0.0701 0.9981
-0.4625 -0.0889 -0.0703 0.9981
-0.4627 -0.0960 -0.0706 0.9981
-0.4628 -0.1031 -0.0708 0.9981
-0.4630 -0.1393 -0.0722 0.9980
-0.4629 -0.1467 -0.0725 0.9980
-0.4628 -0.1541 -0.0728 0.9980
-0.4627 -0.1770 -0.0740 0.9980
-0.4625 -0.1846 -0.0744 0.9980
-0.4624 -0.2005 -0.0752 0.9980
-0.4623 -0.2086 -0.0757 0.9980
-0.4622 -0.2167 -0.0762 0.9979
-0.4619 -0.2332 -0.0773 0.9979
-0.4617 -0.2416 -0.0778 0.9979
-0.4614 -0.2501 -0.0784 0.9979
-0.4597 -0.2852 -0.0808 0.9978
-0.4592 -0.2942 -0.0814 0.9978
-0.4579 -0.3127 -0.0828 0.9978
-0.4572 -0.3221 -0.0835 0.9977
-0.4564 -0.3316 -0.0842 0.9977
-0.4556 -0.3413 -0.0850 0.9977
-0.4546 -0.3511 -0.0858 0.9977
-0.4539 -0.3612 -0.0866 0.9977
-0.4517 -0.3930 -0.0894 0.9976
-0.4489 -0.4265 -0.0925 0.9975
-0.4467 -0.4500 -0.0947 0.9974
-0.4412 -0.4996 -0.0995 0.9973
-0.4395 -0.5127 -0.1008 0.9973
-0.4390 -0.5275 -0.1025 0.9972
-0.4385 -0.5429 -0.1042 0.9972
-0.4379 -0.5586 -0.1060 0.9971
-0.5186 -0.7029 -0.1304 0.9965
-3.8772 -5.4194 -0.9949 0.9734
-1.6443 -2.6078 -0.4603 0.9876
-1.5799 -2.6759 -0.4640 0.9875
-1.5662 -2.7434 -0.4717 0.9873
-1.5239 -2.7623 -0.4710 0.9873
-1.4817 -2.7811 -0.4705 0.9873
-1.3760 -2.8803 -0.4766 0.9872
-1.2844 -3.0224 -0.4903 0.9868
-1.1337 -2.7800 -0.4483 0.9879
-0.9501 -2.5395 -0.4048 0.9891
-0.9718 -2.8486 -0.4494 0.9879
-0.7489 -2.3050 -0.3619 0.9902
-1.6855 -6.4471 -0.9950 0.9734
-1.5911 -6.4711 -0.9950 0.9734
-1.4964 -6.4936 -0.9950 0.9734
-0.6606 -3.0710 -0.4690 0.9874
-1.3060 -6.5346 -0.9950 0.9734
-1.2104 -6.5530 -0.9950 0.9734
-0.9221 -6.5998 -0.9950 0.9734
-0.8255 -6.6126 -0.9950 0.9734
-0.7288 -6.6239 -0.9950 0.9734
-0.5350 -6.6424 -0.9950 0.9734
0.1461 -6.6624 -0.9950 0.9734
0.2434 -6.6596 -0.9950 0.9734
0.1574 -2.3909 -0.3578 0.9904
0.2312 -2.4270 -0.3640 0.9902
0.2691 -2.4455 -0.3673 0.9901
0.3470 -2.4836 -0.3744 0.9899
0.3871 -2.5032 -0.3782 0.9898
0.4699 -2.5438 -0.3862 0.9896
0.6468 -2.6302 -0.4044 0.9891
0.6936 -2.6532 -0.4095 0.9890
0.7183 -2.3256 -0.3634 0.9902
0.7239 -2.2279 -0.3498 0.9906
0.7291 -2.1371 -0.3371 0.9909
0.9836 -2.7511 -0.4362 0.9883
1.0344 -2.6464 -0.4242 0.9886
1.2069 -2.7286 -0.4455 0.9880
1.1291 -2.3635 -0.3911 0.9895
1.3348 -2.6922 -0.4487 0.9879
1.3777 -2.6796 -0.4499 0.9879
1.5343 -2.7813 -0.4743 0.9872
1.6176 -2.6506 -0.4636 0.9875
1.6708 -2.5661 -0.4572 0.9877
1.6969 -2.5245 -0.4542 0.9878
1.7969 -2.3625 -0.4432 0.9881
4.1878 -5.1844 -0.9951 0.9734
4.2631 -5.1227 -0.9951 0.9734
4.4110 -4.9959 -0.9951 0.9734
3.0402 -3.3436 -0.6747 0.9819
3.0023 -3.1140 -0.6459 0.9827
2.9490 -2.9706 -0.6250 0.9832
3.0241 -2.8733 -0.6228 0.9833
3.0994 -2.8598 -0.6297 0.9831
3.2025 -2.8695 -0.6420 0.9828
3.2371 -2.8163 -0.6406 0.9828
3.0805 -2.6019 -0.6021 0.9838
3.1322 -2.4925 -0.5977 0.9839
3.2774 -2.5307 -0.6183 0.9834
3.4020 -2.5485 -0.6347 0.9830
3.4006 -2.4707 -0.6276 0.9831
3.2957 -2.3216 -0.6019 0.9838
3.6179 -2.4703 -0.6541 0.9824
3.7010 -2.3715 -0.6563 0.9824
3.8187 -2.2924 -0.6650 0.9821
3.8169 -2.2161 -0.6590 0.9823
3.9012 -1.9698 -0.6525 0.9825
5.9822 -2.6985 -0.9799 0.9738
6.0210 -2.6107 -0.9799 0.9738
6.0586 -2.5225 -0.9799 0.9738
6.0947 -2.4337 -0.9799 0.9738
6.1297 -2.3444 -0.9799 0.9738
6.1633 -2.2546 -0.9799 0.9738
6.4096 -1.8266 -0.9951 0.9734
6.4356 -1.7328 -0.9951 0.9734
6.4602 -1.6386 -0.9951 0.9734
6.5054 -1.4491 -0.9951 0.9734
6.5258 -1.3539 -0.9951 0.9734
6.5626 -1.1627 -0.9951 0.9734
6.5789 -1.0666 -0.9951 0.9734
6.5938 -0.9704 -0.9951 0.9734
6.6073 -0.8739 -0.9951 0.9734
6.6193 -0.7773 -0.9951 0.9734
6.6300 -0.6805 -0.9951 0.9734
6.6392 -0.5836 -0.9951 0.9734
6.6471 -0.4865 -0.9951 0.9734
6.6534 -0.3893 -0.9951 0.9734
6.6641 -0.0974 -0.9951 0.9734
6.6641 0.0974 -0.9951 0.9734
6.6535 0.3893 -0.9951 0.9734
6.6470 0.4865 -0.9951 0.9734
6.6392 0.5836 -0.9951 0.9734
6.6300 0.6805 -0.9951 0.9734
6.6193 0.7774 -0.9951 0.9734
6.6073 0.8740 -0.9951 0.9734
6.5789 1.0666 -0.9951 0.9734
6.5258 1.3539 -0.9951 0.9734
6.4096 1.8267 -0.9951 0.9734
6.3822 1.9201 -0.9951 0.9734
6.3535 2.0132 -0.9951 0.9734
6.2919 2.1979 -0.9951 0.9734
6.2591 2.2896 -0.9951 0.9734
6.2250 2.3809 -0.9951 0.9734
6.1896 2.4716 -0.9951 0.9734
6.1528 2.5618 -0.9951 0.9734
6.1147 2.6514 -0.9951 0.9734
6.0346 2.8289 -0.9951 0.9734
5.8590 3.1766 -0.9951 0.9734
5.8120 3.2618 -0.9951 0.9734
5.7637 3.3464 -0.9951 0.9734
5.6634 3.5134 -0.9951 0.9734
5.6115 3.5958 -0.9951 0.9734
5.5583 3.6774 -0.9951 0.9734
5.5040 3.7582 -0.9951 0.9734
5.4485 3.8382 -0.9951 0.9734
5.2751 4.0733 -0.9951 0.9734
5.2150 4.1499 -0.9951 0.9734
5.0915 4.3005 -0.9951 0.9734
4.9636 4.4475 -0.9951 0.9734
4.7639 4.6607 -0.9951 0.9734
3.6078 3.6343 -0.7646 0.9795
3.5160 3.6469 -0.7564 0.9797
3.3875 3.7255 -0.7518 0.9798
3.1580 3.6839 -0.7245 0.9806
2.9080 3.6000 -0.6910 0.9815
2.8298 3.6099 -0.6849 0.9816
2.4648 3.6671 -0.6597 0.9823
2.3949 3.6781 -0.6553 0.9824
2.3288 3.6935 -0.6519 0.9825
2.2634 3.7088 -0.6487 0.9826
2.1354 3.7405 -0.6431 0.9827
2.0206 3.7927 -0.6416 0.9828
1.9924 3.8752 -0.6506 0.9825
2.0926 4.5501 -0.7478 0.9799
1.8733 6.3955 -0.9950 0.9734
1.7796 6.4222 -0.9950 0.9734
1.4965 6.4940 -0.9950 0.9734
1.3061 6.5350 -0.9950 0.9734
1.1146 6.5703 -0.9950 0.9734
1.0185 6.5858 -0.9950 0.9734
0.9221 6.6000 -0.9950 0.9734
0.5350 6.6425 -0.9950 0.9734
0.4379 6.6496 -0.9950 0.9734
0.3407 6.6554 -0.9950 0.9734
0.2434 6.6596 -0.9950 0.9734
0.1461 6.6624 -0.9950 0.9734
0.0461 6.3076 -0.9418 0.9748
-0.0457 6.2583 -0.9345 0.9750
-0.1933 3.7762 -0.5646 0.9848
-0.2423 3.6796 -0.5506 0.9852
-0.2921 3.6257 -0.5431 0.9854
-0.3923 3.5655 -0.5356 0.9856
-0.4808 3.4413 -0.5188 0.9860
-0.5683 3.3501 -0.5073 0.9864
-0.6144 3.3263 -0.5050 0.9864
-0.6652 3.3280 -0.5067 0.9864
-0.7695 3.3392 -0.5116 0.9862
-0.8224 3.3448 -0.5143 0.9862
-0.9847 3.3618 -0.5230 0.9859
-1.0401 3.3676 -0.5262 0.9858
-1.1530 3.3796 -0.5332 0.9857
-1.2709 3.3969 -0.5415 0.9854
-1.3952 3.4211 -0.5516 0.9852
-1.4598 3.4352 -0.5573 0.9850
-1.5259 3.4497 -0.5632 0.9849
-1.6624 3.4799 -0.5758 0.9845
-1.8797 3.5283 -0.5969 0.9840
-3.3878 5.7381 -0.9949 0.9734
-3.4713 5.6880 -0.9949 0.9734
-2.9432 4.2437 -0.7711 0.9793
-2.9612 4.1391 -0.7599 0.9796
-0.5187 0.7030 -0.1304 0.9965
-0.4613 0.6065 -0.1138 0.9969
-0.4379 0.5586 -0.1060 0.9971
-0.4385 0.5429 -0.1042 0.9972
-0.4395 0.5127 -0.1008 0.9973
-0.4489 0.4265 -0.0925 0.9975
-0.4517 0.3930 -0.0894 0.9976
-0.4547 0.3511 -0.0858 0.9977
-0.4592 0.2943 -0.0814 0.9978
-0.4597 0.2852 -0.0808 0.9978
-0.4602 0.2763 -0.0801 0.9978
-0.4607 0.2675 -0.0795 0.9978
-0.4611 0.2588 -0.0789 0.9979
-0.4614 0.2502 -0.0784 0.9979
-0.4619 0.2332 -0.0773 0.9979
-0.4622 0.2167 -0.0762 0.9979
-0.4624 0.2005 -0.0752 0.9980
-0.4624 0.1925 -0.0748 0.9980
-0.4628 0.1693 -0.0736 0.9980
-0.4629 0.1467 -0.0725 0.9980
-0.4630 0.1246 -0.0716 0.9981
-0.4630 0.1175 -0.0713 0.9981
-0.4627 0.0960 -0.0706 0.9981
-0.4623 0.0819 -0.0701 0.9981
-0.4620 0.0749 -0.0699 0.9981
-0.4601 0.0405 -0.0690 0.9981
-0.4596 0.0337 -0.0688 0.9981
-0.4591 0.0269 -0.0687 0.9981
-0.4586 0.0201 -0.0685 0.9981
-0.4447 -0.0130 -0.0715 0.9982
-0.4467 -0.0393 -0.0720 0.9982
-0.4474 -0.0525 -0.0724 0.9982
-0.4483 -0.0727 -0.0730 0.9982
-0.4487 -0.0862 -0.0734 0.9982
-0.4489 -0.0931 -0.0736 0.9981
-0.4489 -0.1000 -0.0739 0.9981
-0.4490 -0.1069 -0.0742 0.9981
-0.4490 -0.1139 -0.0744 0.9981
-0.4489 -0.1279 -0.0750 0.9981
-0.4488 -0.1350 -0.0753 0.9981
-0.4487 -0.1422 -0.0756 0.9981
-0.4482 -0.1566 -0.0763 0.9981
-0.4480 -0.1639 -0.0766 0.9981
-0.4479 -0.1713 -0.0770 0.9981
-0.4472 -0.1939 -0.0783 0.9980
-0.4470 -0.2016 -0.0788 0.9980
-0.4463 -0.2254 -0.0803 0.9980
-0.4456 -0.2416 -0.0814 0.9979
-0.4452 -0.2498 -0.0820 0.9979
-0.4447 -0.2582 -0.0826 0.9979
-0.4441 -0.2666 -0.0832 0.9979
-0.4436 -0.2752 -0.0839 0.9979
-0.4429 -0.2838 -0.0845 0.9979
-0.4422 -0.2926 -0.0852 0.9979
-0.4414 -0.3014 -0.0859 0.9978
-0.4406 -0.3104 -0.0866 0.9978
-0.4397 -0.3195 -0.0873 0.9978
-0.4387 -0.3287 -0.0881 0.9978
-0.4377 -0.3380 -0.0888 0.9978
-0.4366 -0.3475 -0.0896 0.9977
-0.4354 -0.3570 -0.0905 0.9977
-0.4331 -0.3768 -0.0922 0.9977
-0.4286 -0.4193 -0.0963 0.9976
-0.4259 -0.4549 -0.1001 0.9975
-0.4249 -0.4812 -0.1031 0.9974
-0.4242 -0.4949 -0.1047 0.9974
-0.4235 -0.5089 -0.1064 0.9973
-0.4228 -0.5234 -0.1081 0.9973
-0.4220 -0.5382 -0.1099 0.9972
-0.4647 -0.6496 -0.1283 0.9968
-1.6815 -2.5823 -0.4951 0.9876
-1.6399 -2.6007 -0.4940 0.9876
-1.6079 -2.6346 -0.4959 0.9876
-1.5686 -2.7477 -0.5083 0.9873
-1.4418 -2.8044 -0.5066 0.9873
-1.3755 -2.8792 -0.5126 0.9872
-0.9520 -2.5445 -0.4365 0.9891
-0.9746 -2.8568 -0.4849 0.9878
-0.7544 -2.3218 -0.3922 0.9902
-1.8275 -5.9173 -0.9950 0.9752
-1.7409 -5.9434 -0.9950 0.9752
-0.8884 -3.2059 -0.5345 0.9866
-0.7047 -3.0580 -0.5042 0.9874
-1.3024 -6.0546 -0.9950 0.9752
-1.2138 -6.0730 -0.9950 0.9752
-1.1249 -6.0902 -0.9950 0.9752
-0.8569 -6.1336 -0.9950 0.9752
-0.7672 -6.1455 -0.9950 0.9752
-0.5873 -6.1653 -0.9950 0.9752
-0.4972 -6.1732 -0.9950 0.9752
-0.3166 -6.1851 -0.9950 0.9752
-0.2262 -6.1891 -0.9950 0.9752
-0.1357 -6.1918 -0.9950 0.9752
0.0452 -6.1931 -0.9950 0.9752
0.1940 -2.4088 -0.3882 0.9903
0.2312 -2.4270 -0.3917 0.9902
0.2691 -2.4455 -0.3953 0.9901
0.3470 -2.4836 -0.4029 0.9899
0.3871 -2.5032 -0.4069 0.9898
0.4280 -2.5232 -0.4112 0.9897
0.4698 -2.5437 -0.4156 0.9896
0.5126 -2.5646 -0.4202 0.9895
0.5562 -2.5860 -0.4250 0.9893
0.6467 -2.6302 -0.4352 0.9891
0.7018 -2.3960 -0.4011 0.9899
0.7082 -2.2933 -0.3856 0.9903
0.9757 -2.7290 -0.4656 0.9883
1.0099 -2.6994 -0.4630 0.9884
1.1409 -2.6847 -0.4687 0.9883
1.1824 -2.6732 -0.4696 0.9882
1.1939 -2.5961 -0.4591 0.9885
1.1309 -2.3672 -0.4215 0.9894
1.3075 -2.6372 -0.4729 0.9881
1.4546 -2.8293 -0.5111 0.9872
1.5122 -2.7412 -0.5030 0.9874
1.5402 -2.6980 -0.4991 0.9875
1.5948 -2.6132 -0.4919 0.9877
1.6734 -2.4896 -0.4819 0.9879
1.7238 -2.4094 -0.4760 0.9881
1.7966 -2.2918 -0.4678 0.9883
3.8920 -4.8182 -0.9951 0.9752
3.9620 -4.7608 -0.9951 0.9752
2.8336 -3.1164 -0.6767 0.9831
2.9664 -3.1681 -0.6973 0.9826
3.0409 -2.9750 -0.6834 0.9829
3.1373 -2.8948 -0.6858 0.9829
3.2041 -2.7876 -0.6823 0.9829
3.2752 -2.6063 -0.6725 0.9832
3.3120 -2.5574 -0.6723 0.9832
3.3718 -2.4498 -0.6696 0.9833
3.5104 -2.4729 -0.6899 0.9828
3.4917 -2.3842 -0.6793 0.9830
3.6046 -2.3848 -0.6944 0.9826
3.6542 -2.3415 -0.6973 0.9826
3.6970 -2.2935 -0.6989 0.9825
3.7215 -2.2340 -0.6973 0.9826
3.7457 -2.1747 -0.6958 0.9826
3.7694 -2.1154 -0.6944 0.9826
3.8155 -1.9970 -0.6919 0.9827
3.8380 -1.9379 -0.6907 0.9827
5.5224 -2.5888 -0.9799 0.9756
5.6642 -2.2618 -0.9799 0.9756
5.6966 -2.1788 -0.9799 0.9756
5.7316 -2.0967 -0.9805 0.9756
5.8475 -2.0427 -0.9951 0.9752
5.8767 -1.9570 -0.9951 0.9752
5.9568 -1.6976 -0.9951 0.9752
5.9810 -1.6104 -0.9951 0.9752
6.0458 -1.3468 -0.9951 0.9752
6.0648 -1.2583 -0.9951 0.9752
6.0826 -1.1695 -0.9951 0.9752
6.1142 -0.9913 -0.9951 0.9752
6.1280 -0.9018 -0.9951 0.9752
6.1616 -0.6325 -0.9951 0.9752
6.1775 -0.4521 -0.9951 0.9752
6.1834 -0.3618 -0.9951 0.9752
6.1881 -0.2714 -0.9951 0.9752
6.1913 -0.1810 -0.9951 0.9752
6.1933 -0.0905 -0.9951 0.9752
6.1940 0.0000 -0.9951 0.9752
6.1881 0.2714 -0.9951 0.9752
6.1834 0.3618 -0.9951 0.9752
6.1775 0.4521 -0.9951 0.9752
6.1702 0.5424 -0.9951 0.9752
6.1616 0.6325 -0.9951 0.9752
6.1517 0.7224 -0.9951 0.9752
6.1405 0.8122 -0.9951 0.9752
6.1280 0.9019 -0.9951 0.9752
6.1142 0.9913 -0.9951 0.9752
6.0990 1.0805 -0.9951 0.9752
6.0826 1.1695 -0.9951 0.9752
6.0458 1.3468 -0.9951 0.9752
6.0255 1.4349 -0.9951 0.9752
5.9568 1.6977 -0.9951 0.9752
5.9313 1.7845 -0.9951 0.9752
5.7853 2.2127 -0.9951 0.9752
5.7523 2.2970 -0.9951 0.9752
5.6461 2.5468 -0.9951 0.9752
5.6083 2.6291 -0.9951 0.9752
5.5693 2.7107 -0.9951 0.9752
5.5291 2.7918 -0.9951 0.9752
5.4877 2.8723 -0.9951 0.9752
5.4451 2.9522 -0.9951 0.9752
5.4014 3.0314 -0.9951 0.9752
5.3565 3.1100 -0.9951 0.9752
5.2151 3.3418 -0.9951 0.9752
5.1657 3.4176 -0.9951 0.9752
5.0636 3.5671 -0.9951 0.9752
5.0110 3.6407 -0.9951 0.9752
4.9572 3.7135 -0.9951 0.9752
4.9024 3.7855 -0.9951 0.9752
4.7897 3.9271 -0.9951 0.9752
4.6729 4.0654 -0.9951 0.9752
4.6130 4.1332 -0.9951 0.9752
4.5521 4.2002 -0.9951 0.9752
4.4902 4.2663 -0.9951 0.9752
4.3637 4.3957 -0.9951 0.9752
3.4493 3.6839 -0.8108 0.9798
3.3864 3.7244 -0.8087 0.9798
3.4519 4.1479 -0.8670 0.9784
3.8920 4.8182 -0.9951 0.9752
3.6771 4.9841 -0.9951 0.9752
2.5409 3.7803 -0.7318 0.9817
2.4682 3.7907 -0.7267 0.9818
2.4001 3.8064 -0.7229 0.9819
2.4244 3.9725 -0.7477 0.9813
2.2049 3.7345 -0.6967 0.9826
2.0713 3.7547 -0.6889 0.9828
2.0182 3.7883 -0.6896 0.9828
2.0322 4.0989 -0.7350 0.9816
2.5054 5.6643 -0.9950 0.9752
2.2547 5.7686 -0.9950 0.9752
2.1702 5.8009 -0.9950 0.9752
1.9998 5.8618 -0.9950 0.9752
1.8276 5.9177 -0.9950 0.9752
1.5665 5.9921 -0.9950 0.9752
1.3908 6.0354 -0.9950 0.9752
1.2138 6.0734 -0.9950 0.9752
1.1250 6.0904 -0.9950 0.9752
0.9465 6.1207 -0.9950 0.9752
0.8570 6.1339 -0.9950 0.9752
0.5874 6.1654 -0.9950 0.9752
0.4972 6.1734 -0.9950 0.9752
0.4070 6.1800 -0.9950 0.9752
0.3166 6.1852 -0.9950 0.9752
0.0452 6.1931 -0.9950 0.9752
-0.2262 6.1892 -0.9950 0.9752
-0.3904 3.5486 -0.5735 0.9856
-0.4412 3.5339 -0.5722 0.9857
-0.5219 3.3747 -0.5486 0.9863
-0.6128 3.3173 -0.5420 0.9864
-0.6645 3.3246 -0.5447 0.9864
-0.7167 3.3319 -0.5475 0.9863
-0.7696 3.3394 -0.5506 0.9862
-0.8771 3.3548 -0.5571 0.9861
-0.9318 3.3627 -0.5606 0.9860
-1.0436 3.3789 -0.5681 0.9858
-1.1585 3.3959 -0.5764 0.9856
-1.2183 3.4074 -0.5814 0.9854
-1.2792 3.4192 -0.5865 0.9853
-1.3412 3.4313 -0.5919 0.9852
-1.4044 3.4437 -0.5975 0.9850
-1.4688 3.4564 -0.6034 0.9849
-1.6713 3.4986 -0.6229 0.9844
-1.8154 3.5309 -0.6379 0.9840
-1.8901 3.5479 -0.6458 0.9838
-2.1751 3.8102 -0.7049 0.9824
-3.1486 5.3328 -0.9949 0.9752
-3.2261 5.2863 -0.9949 0.9752
-3.4547 5.1398 -0.9949 0.9752
-3.5294 5.0888 -0.9949 0.9752
-0.4648 0.6497 -0.1283 0.9968
-0.4210 0.5536 -0.1117 0.9972
-0.4219 0.5383 -0.1099 0.9972
-0.4228 0.5234 -0.1081 0.9973
-0.4242 0.4949 -0.1047 0.9974
-0.4249 0.4812 -0.1031 0.9974
-0.4254 0.4679 -0.1016 0.9974
-0.4259 0.4549 -0.1001 0.9975
-0.4264 0.4423 -0.0987 0.9975
-0.4273 0.4305 -0.0974 0.9975
-0.4299 0.4085 -0.0953 0.9976
-0.4311 0.3977 -0.0942 0.9976
-0.4332 0.3769 -0.0922 0.9977
-0.4342 0.3668 -0.0913 0.9977
-0.4354 0.3570 -0.0905 0.9977
