ply
format ascii 1.0
element vertex 1592
property float32 x
property float32 y
property float32 z
property float32 I
end_header
-12.2941 9.2096 2.6866 0.9395
-12.6314 9.1773 2.7308 0.9386
-12.2107 8.6018 2.6123 0.9412
-17.7219 9.9460 3.5543 0.9208
-17.2763 9.3667 3.4371 0.9233
-18.2745 9.5650 3.6075 0.9197
-18.3803 9.2809 3.6013 0.9198
-18.4851 8.9973 3.5957 0.9199
-22.2393 9.6431 4.2396 0.9063
-1.5838 0.4265 0.2869 0.9934
-1.5599 0.3957 0.2815 0.9935
-1.5521 0.3696 0.2791 0.9935
-1.5374 0.3190 0.2746 0.9936
-1.5254 0.2703 0.2710 0.9937
-1.5087 0.1326 0.2649 0.9939
-1.5024 0.0659 0.2630 0.9939
-1.5000 0.0219 0.2624 0.9939
-1.4485 -0.0423 0.2369 0.9941
-1.4516 -0.0849 0.2377 0.9941
-1.4565 -0.1280 0.2391 0.9941
-1.4592 -0.1498 0.2398 0.9941
-1.4621 -0.1717 0.2407 0.9941
-1.4652 -0.1938 0.2416 0.9940
-1.4722 -0.2609 0.2444 0.9940
-1.4746 -0.2835 0.2455 0.9939
-1.4773 -0.3065 0.2467 0.9939
-1.4838 -0.3305 0.2485 0.9939
-1.4974 -0.3798 0.2526 0.9938
-1.5099 -0.4066 0.2557 0.9937
-1.5333 -0.4370 0.2607 0.9936
-1.5578 -0.4687 0.2660 0.9934
-1.5809 -0.5009 0.2711 0.9933
-23.5625 -11.8975 4.3157 0.8985
-23.5671 -12.3352 4.3491 0.8978
-22.3819 -12.5613 4.1964 0.9012
-18.1360 -11.2509 3.4895 0.9171
-16.4388 -11.2245 3.2545 0.9225
-16.2396 -11.4400 3.2478 0.9226
-16.0405 -11.6541 3.2418 0.9228
-16.0571 -12.0284 3.2803 0.9219
-38.2899 -31.3944 8.0957 0.8182
-37.1393 -31.3696 7.9485 0.8212
-12.5888 -10.9523 2.7282 0.9346
-13.2207 -12.1987 2.9412 0.9297
-12.6120 -11.9830 2.8444 0.9319
-12.0533 -12.1416 2.7972 0.9330
-12.0593 -12.5081 2.8408 0.9320
-11.7055 -12.5016 2.8001 0.9329
-11.9071 -13.4861 2.9414 0.9297
-11.5071 -13.4234 2.8908 0.9308
-11.1192 -13.3612 2.8421 0.9320
-11.4805 -14.2126 2.9872 0.9286
-8.4200 -11.7689 2.3660 0.9430
-8.1982 -11.8203 2.3520 0.9434
-6.9599 -10.6887 2.0854 0.9496
-7.0431 -11.5405 2.2105 0.9467
-6.8126 -11.5387 2.1909 0.9471
-6.6549 -11.6573 2.1947 0.9470
-6.5217 -12.2415 2.2678 0.9453
-6.2110 -12.5273 2.2861 0.9449
-13.6247 -29.6252 5.3314 0.8762
-13.0986 -29.6139 5.2944 0.8770
-12.0678 -29.5917 5.2251 0.8785
-9.1195 -29.5282 5.0529 0.8823
-8.7320 -29.8116 5.0790 0.8817
-7.8573 -30.0545 5.0791 0.8817
-7.4174 -30.1663 5.0791 0.8817
-6.9759 -30.2718 5.0792 0.8817
-6.5328 -30.3707 5.0792 0.8817
-6.0885 -30.4631 5.0792 0.8817
-2.0148 -11.8767 1.9696 0.9523
-2.4664 -30.6226 5.0230 0.8829
-2.0158 -30.6129 5.0161 0.8831
-0.6705 -30.5839 5.0017 0.8834
-0.2234 -30.5743 4.9990 0.8834
0.6698 -30.5551 4.9970 0.8835
1.1163 -30.5454 4.9975 0.8835
1.5630 -30.5358 4.9991 0.8834
2.0101 -30.5261 5.0018 0.8834
2.9062 -30.5069 5.0105 0.8832
3.8062 -30.4875 5.0234 0.8829
4.2581 -30.4777 5.0315 0.8827
4.7116 -30.4679 5.0407 0.8825
5.1668 -30.4582 5.0511 0.8823
6.0835 -30.4384 5.0751 0.8818
2.8824 -13.4000 2.2410 0.9460
2.9719 -12.0868 2.0351 0.9508
3.3751 -12.1800 2.0665 0.9501
3.8273 -12.3923 2.1206 0.9488
3.9900 -12.2799 2.1111 0.9490
4.1512 -12.1681 2.1021 0.9492
10.4073 -29.1074 5.0541 0.8822
10.8857 -29.0971 5.0794 0.8817
1.5867 -3.5873 0.6413 0.9842
1.6333 -3.5515 0.6391 0.9843
1.6796 -3.5159 0.6371 0.9843
1.7256 -3.4806 0.6352 0.9844
1.7714 -3.4454 0.6334 0.9844
1.8169 -3.4104 0.6318 0.9845
1.7892 -3.1342 0.5901 0.9855
1.7457 -2.9568 0.5614 0.9862
1.9611 -3.1104 0.6012 0.9852
2.0019 -3.0745 0.5998 0.9852
1.9719 -2.8431 0.5657 0.9861
2.1240 -2.8790 0.5850 0.9856
2.1883 -2.7916 0.5799 0.9857
2.2051 -2.7298 0.5738 0.9859
2.2375 -2.6102 0.5621 0.9862
2.2634 -2.4173 0.5414 0.9867
2.5602 -2.5790 0.5942 0.9854
2.6451 -2.5878 0.6050 0.9851
2.6706 -2.5374 0.6023 0.9852
2.8666 -2.4939 0.6212 0.9847
3.1946 -2.6193 0.6755 0.9834
3.3816 -2.6910 0.7066 0.9826
3.4301 -2.6486 0.7086 0.9826
3.4789 -2.6061 0.7107 0.9825
39.2089 -28.4869 7.9240 0.8217
42.9366 -28.4066 8.4175 0.8117
19.2755 -12.3514 3.7431 0.9114
19.3554 -12.0074 3.7241 0.9118
19.4345 -11.6666 3.7061 0.9122
50.8032 -28.5122 9.5251 0.7897
7.2015 -3.9045 1.3394 0.9673
6.9568 -3.6412 1.2838 0.9687
6.9451 -3.2557 1.2541 0.9694
6.8280 -3.0800 1.2247 0.9701
6.8134 -2.8368 1.2067 0.9705
7.0207 -2.8035 1.2360 0.9698
6.9981 -2.6766 1.2250 0.9701
7.4861 -2.4930 1.2901 0.9685
7.7892 -2.4681 1.3359 0.9674
15.3845 8.3409 2.8613 0.9315
15.4595 8.9758 2.9228 0.9301
14.7390 9.7512 2.8895 0.9309
12.2863 8.9266 2.4830 0.9403
11.5498 8.6521 2.3595 0.9432
10.8394 8.6257 2.2649 0.9454
10.8670 8.9100 2.2976 0.9446
10.5711 8.9289 2.2624 0.9455
10.3284 8.9858 2.2383 0.9460
9.7748 9.0191 2.1746 0.9475
9.6968 9.4866 2.2180 0.9465
2.4720 9.4556 1.5979 0.9612
2.1860 9.4861 1.5916 0.9613
-2.4676 9.4387 1.5951 0.9612
-2.6233 9.4670 1.6062 0.9610
-2.7837 9.5038 1.6192 0.9607
-3.6289 9.6998 1.6933 0.9589
-6.9467 9.7096 1.9520 0.9528
-7.0793 9.5956 1.9496 0.9528
-7.2500 9.2486 1.9214 0.9535
-7.4753 9.2542 1.9450 0.9529
-7.5596 9.0837 1.9322 0.9532
-7.7440 9.0337 1.9454 0.9529
-8.0190 8.8192 1.9489 0.9528
-8.2948 8.6035 1.9540 0.9527
-8.4331 8.4949 1.9571 0.9526
-10.8097 9.6855 2.3731 0.9429
-11.2701 9.5192 2.4120 0.9420
-11.5058 9.4338 2.4327 0.9415
-12.4664 9.3387 2.5467 0.9388
-12.7069 9.2321 2.5680 0.9383
-12.3174 8.6770 2.4634 0.9408
-12.3989 8.4661 2.4547 0.9410
-12.5604 8.0485 2.4391 0.9413
-16.9351 10.5059 3.2584 0.9224
-17.6182 10.2292 3.3309 0.9207
-17.2103 9.3309 3.2008 0.9237
-18.4206 9.3012 3.3739 0.9198
-18.5255 9.0170 3.3687 0.9199
-18.6300 8.7334 3.3641 0.9200
-18.9278 8.5380 3.3950 0.9193
-22.0944 9.5803 3.9374 0.9070
-22.3882 9.3215 3.9651 0.9064
-22.5122 8.6102 3.9408 0.9069
-1.5930 0.5565 0.2759 0.9932
-1.5868 0.5284 0.2735 0.9932
-1.5809 0.5009 0.2711 0.9933
-1.5333 0.4370 0.2607 0.9936
-1.5099 0.4066 0.2557 0.9937
-1.4773 0.3066 0.2467 0.9939
-1.4745 0.2836 0.2455 0.9939
-1.4679 0.2160 0.2426 0.9940
-1.4652 0.1938 0.2416 0.9940
-1.4621 0.1717 0.2407 0.9941
-1.4516 0.0850 0.2377 0.9941
-1.4485 0.0423 0.2369 0.9941
-1.3988 -0.0204 0.2128 0.9944
-1.4035 -0.0821 0.2139 0.9943
-1.4057 -0.1029 0.2144 0.9943
-1.4080 -0.1237 0.2150 0.9943
-1.4188 -0.2088 0.2182 0.9942
-1.4207 -0.2303 0.2190 0.9942
-1.4248 -0.2739 0.2207 0.9941
-1.4270 -0.2961 0.2217 0.9941
-1.4294 -0.3184 0.2228 0.9941
-1.4337 -0.3414 0.2242 0.9941
-1.4400 -0.3652 0.2260 0.9940
-1.4859 -0.4470 0.2361 0.9937
-1.5028 -0.4762 0.2398 0.9936
-22.7630 -11.0794 3.8517 0.9026
-22.3966 -11.3088 3.8172 0.9035
-21.7105 -11.7708 3.7573 0.9049
-21.6171 -12.5509 3.8030 0.9038
-17.0287 -10.9117 3.0770 0.9214
-16.6157 -11.3453 3.0610 0.9218
-16.2125 -11.7790 3.0489 0.9221
-15.9642 -12.3272 3.0687 0.9216
-38.2899 -31.3944 7.5333 0.8185
-12.5832 -11.6105 2.6049 0.9331
-12.4887 -12.2179 2.6581 0.9318
-11.6804 -12.1151 2.5604 0.9342
-11.9273 -12.7386 2.6550 0.9318
-11.5731 -12.7281 2.6173 0.9328
-11.2282 -12.7171 2.5810 0.9337
-11.6561 -14.0062 2.7723 0.9289
-21.9894 -29.8054 5.6352 0.8608
-6.9316 -10.6454 1.9327 0.9499
-7.0128 -11.4909 2.0481 0.9470
-6.4029 -11.6065 2.0167 0.9478
-6.1157 -11.4795 1.9789 0.9487
-13.9472 -30.3266 5.0785 0.8737
-12.5770 -30.8404 5.0673 0.8739
-12.0500 -30.8291 5.0360 0.8747
-11.5295 -30.8179 5.0061 0.8754
-10.5061 -30.7958 4.9505 0.8766
-10.0027 -30.7850 4.9247 0.8772
-9.5043 -30.7742 4.9003 0.8778
-8.0372 -30.7426 4.8345 0.8794
-7.5565 -30.7323 4.8150 0.8798
-7.0796 -30.7220 4.7966 0.8802
-6.1361 -30.7017 4.7634 0.8810
-5.6690 -30.6916 4.7485 0.8814
-2.0467 -12.0649 1.8618 0.9517
-1.8930 -12.2411 1.8845 0.9511
-1.4440 -13.1232 2.0087 0.9480
-1.2792 -13.4277 2.0522 0.9469
-1.1071 -13.7461 2.0981 0.9457
-2.0158 -30.6129 4.6676 0.8833
-1.5665 -30.6032 4.6621 0.8834
-1.1181 -30.5936 4.6577 0.8835
0.6698 -30.5550 4.6498 0.8837
1.1163 -30.5454 4.6504 0.8837
1.5630 -30.5358 4.6519 0.8836
2.4578 -30.5165 4.6579 0.8835
2.9062 -30.5069 4.6624 0.8834
3.8062 -30.4875 4.6745 0.8831
4.2581 -30.4777 4.6820 0.8829
4.7116 -30.4680 4.6906 0.8827
5.6241 -30.4483 4.7108 0.8823
6.0835 -30.4384 4.7226 0.8820
6.5453 -30.4284 4.7354 0.8817
3.3754 -12.1809 1.9231 0.9501
4.6653 -13.6751 2.1983 0.9432
11.3451 -30.3250 4.9260 0.8772
11.8488 -30.3142 4.9519 0.8766
1.6373 -3.5601 0.5962 0.9843
1.7298 -3.4889 0.5925 0.9844
1.8212 -3.4185 0.5893 0.9845
1.8666 -3.3835 0.5879 0.9845
1.7962 -3.1464 0.5512 0.9854
1.8400 -3.0149 0.5374 0.9858
2.0527 -2.8691 0.5367 0.9858
2.2004 -2.8069 0.5426 0.9857
2.2171 -2.7447 0.5368 0.9858
2.2495 -2.6241 0.5258 0.9861
2.2651 -2.5655 0.5207 0.9862
2.2830 -2.5108 0.5163 0.9864
2.5646 -2.6600 0.5622 0.9852
2.6267 -2.6459 0.5672 0.9850
2.6524 -2.5949 0.5646 0.9851
2.6927 -2.4845 0.5574 0.9853
3.2048 -2.6277 0.6305 0.9834
15.4590 -11.5805 2.9387 0.9248
40.4020 -28.4612 7.5189 0.8188
41.6434 -28.4345 7.6718 0.8154
19.2092 -12.7086 3.5042 0.9110
19.3016 -12.3682 3.4878 0.9114
19.4856 -11.6974 3.4578 0.9121
6.9760 -3.6513 1.1979 0.9686
7.0195 -3.5444 1.1964 0.9687
6.9159 -3.3662 1.1702 0.9694
6.7861 -3.1812 1.1403 0.9701
6.8332 -2.9630 1.1332 0.9703
6.7563 -2.8130 1.1135 0.9708
7.0271 -2.6877 1.1446 0.9700
7.3059 -2.6726 1.1836 0.9690
7.3836 -2.5793 1.1899 0.9689
7.4317 -2.4749 1.1917 0.9688
7.4560 -2.2432 1.1846 0.9690
42.0382 -10.6627 6.5983 0.8391
41.9152 -9.9820 6.5554 0.8400
41.9386 -9.3422 6.5370 0.8404
20.2859 8.4462 3.3432 0.9149
20.0214 8.6814 3.3201 0.9155
19.7555 8.9113 3.2973 0.9160
15.4496 7.8010 2.6332 0.9324
15.5171 8.1218 2.6646 0.9316
15.3480 8.3212 2.6562 0.9318
15.3845 8.6342 2.6841 0.9311
15.4220 8.9541 2.7132 0.9304
15.3278 9.2014 2.7199 0.9302
14.8277 9.8099 2.7050 0.9306
14.9646 10.5418 2.7850 0.9286
12.2640 8.9103 2.3063 0.9405
11.7246 8.7830 2.2288 0.9425
11.5510 9.1919 2.2459 0.9420
11.0136 9.0302 2.1669 0.9440
10.3832 8.7702 2.0678 0.9465
10.5445 9.1737 2.1264 0.9450
9.9506 8.9157 2.0327 0.9474
9.7742 9.5623 2.0804 0.9462
6.5716 9.4750 1.7543 0.9544
2.8738 9.8113 1.5554 0.9595
2.6739 9.6493 1.5234 0.9603
2.4862 9.5099 1.4955 0.9610
2.3066 9.3808 1.4697 0.9617
-2.2558 9.7893 1.5284 0.9602
-2.2997 9.3529 1.4654 0.9618
-2.4522 9.3800 1.4751 0.9615
-2.6071 9.4083 1.4853 0.9613
-3.0928 9.5186 1.5227 0.9603
-3.2603 9.5569 1.5363 0.9600
-7.3549 10.6044 1.9635 0.9491
-7.3700 9.4018 1.8175 0.9528
-7.5022 9.2876 1.8164 0.9528
-6.8969 8.2875 1.6404 0.9573
-7.7745 9.0692 1.8174 0.9528
-7.9124 8.9617 1.8188 0.9528
-8.0505 8.8539 1.8207 0.9527
-8.1889 8.7459 1.8228 0.9527
-11.5514 9.4712 2.2727 0.9414
-12.7058 8.9506 2.3646 0.9391
-12.4589 8.2427 2.2728 0.9413
-16.5329 10.2564 2.9601 0.9243
-16.8011 9.7547 2.9558 0.9244
-16.7751 9.4146 2.9267 0.9251
-17.1234 8.9625 2.9405 0.9248
-17.6150 8.8945 3.0023 0.9233
-18.7778 8.8027 3.1552 0.9195
-18.9340 8.5408 3.1602 0.9194
-21.2560 8.8500 3.5031 0.9110
-22.0113 8.7894 3.6060 0.9086
-1.5131 0.5286 0.2438 0.9935
-1.5078 0.5021 0.2418 0.9936
-1.5028 0.4762 0.2398 0.9936
-1.4859 0.4470 0.2361 0.9937
-1.4638 0.4172 0.2316 0.9939
-1.4465 0.3895 0.2279 0.9940
-1.4294 0.3184 0.2228 0.9941
-1.4248 0.2739 0.2207 0.9941
-1.4188 0.2088 0.2182 0.9942
-1.4036 0.0821 0.2139 0.9943
-1.3997 0.0409 0.2130 0.9944
-1.3988 0.0205 0.2128 0.9944
-1.3568 -0.0595 0.1913 0.9945
-1.3587 -0.0795 0.1917 0.9945
-1.3607 -0.0996 0.1921 0.9945
-1.3628 -0.1198 0.1927 0.9945
-1.3700 -0.1812 0.1946 0.9944
-1.3748 -0.2229 0.1961 0.9944
-1.3765 -0.2438 0.1969 0.9944
-1.3784 -0.2650 0.1977 0.9943
-1.3847 -0.3298 0.2005 0.9943
-1.3929 -0.3750 0.2031 0.9942
-1.4205 -0.4273 0.2089 0.9940
-1.4323 -0.4538 0.2116 0.9939
-1.4365 -0.4784 0.2132 0.9939
-1.4456 -0.5288 0.2168 0.9938
-23.2699 -11.3261 3.6445 0.9007
-21.7565 -11.3875 3.4581 0.9056
-21.8454 -12.2602 3.5277 0.9038
-21.0837 -12.2413 3.4332 0.9062
-17.1027 -10.2669 2.8091 0.9226
-16.9870 -10.8850 2.8411 0.9217
-16.8621 -11.5136 2.8753 0.9208
-16.4643 -11.9621 2.8659 0.9211
-16.2660 -12.1850 2.8621 0.9212
-37.1393 -31.3696 6.8461 0.8217
-12.3680 -11.4120 2.3699 0.9343
-12.4716 -11.8496 2.4226 0.9329
-12.4714 -12.2009 2.4570 0.9319
-12.2702 -12.3601 2.4526 0.9321
-11.8580 -12.2992 2.4059 0.9333
-12.1570 -12.9839 2.5048 0.9307
-11.7928 -12.9696 2.4686 0.9316
-11.5780 -13.5061 2.5052 0.9307
-11.6614 -14.0127 2.5673 0.9290
-24.1129 -29.8512 5.4039 0.8564
-23.3882 -29.8355 5.3386 0.8580
-21.9894 -29.8055 5.2160 0.8610
-21.3136 -29.7909 5.1584 0.8625
-20.6523 -29.7767 5.1031 0.8638
-7.8104 -11.9950 2.0157 0.9438
-6.9221 -11.7241 1.9173 0.9465
-6.7478 -11.8201 1.9167 0.9465
-14.1996 -30.8754 4.7858 0.8717
-13.1107 -30.8519 4.7207 0.8734
-12.5770 -30.8404 4.6903 0.8741
-12.0501 -30.8291 4.6613 0.8748
-10.5061 -30.7958 4.5822 0.8768
-9.5043 -30.7743 4.5357 0.8780
-8.5218 -30.7531 4.4939 0.8791
-6.6062 -30.7118 4.4239 0.8808
-6.1361 -30.7017 4.4090 0.8812
-2.1104 -12.4409 1.7770 0.9503
-1.8858 -12.1946 1.7377 0.9514
-1.7379 -12.4387 1.7687 0.9505
-1.5869 -12.7104 1.8038 0.9496
-1.4300 -12.9966 1.8413 0.9486
-1.1181 -30.5936 4.3112 0.8837
-0.6704 -30.5839 4.3080 0.8838
-0.2234 -30.5743 4.3057 0.8838
0.2233 -30.5646 4.3043 0.8838
1.1163 -30.5454 4.3044 0.8838
2.0101 -30.5262 4.3081 0.8838
2.4578 -30.5165 4.3114 0.8837
2.9062 -30.5068 4.3155 0.8836
3.3556 -30.4972 4.3206 0.8834
3.8062 -30.4875 4.3267 0.8833
5.1669 -30.4581 4.3505 0.8827
5.6241 -30.4483 4.3604 0.8824
6.0835 -30.4384 4.3712 0.8822
7.0096 -30.4185 4.3959 0.8815
3.6661 -12.5163 1.8366 0.9487
3.8971 -12.6184 1.8598 0.9481
4.2371 -13.0405 1.9309 0.9461
4.5455 -13.3238 1.9825 0.9447
11.3451 -30.3251 4.5595 0.8774
12.3579 -30.3032 4.6086 0.8762
1.6412 -3.5687 0.5532 0.9843
1.7340 -3.4973 0.5497 0.9844
1.8032 -3.1587 0.5122 0.9854
1.8604 -3.1511 0.5153 0.9853
1.8218 -2.9852 0.4925 0.9860
2.0360 -3.1269 0.5255 0.9850
1.9102 -2.8419 0.4822 0.9863
2.0586 -2.8775 0.4982 0.9858
2.1366 -2.8961 0.5068 0.9856
2.2125 -2.8224 0.5050 0.9856
2.2292 -2.7597 0.4996 0.9858
2.2455 -2.6983 0.4944 0.9859
2.2166 -2.5858 0.4796 0.9863
2.2926 -2.5214 0.4799 0.9863
2.2821 -2.4374 0.4702 0.9866
2.5463 -2.6411 0.5166 0.9853
2.6598 -2.6022 0.5240 0.9851
2.8410 -2.5455 0.5372 0.9847
3.3146 -2.7177 0.6036 0.9828
3.3624 -2.6757 0.6051 0.9828
3.4106 -2.6336 0.6068 0.9827
14.4714 -10.8407 2.5463 0.9296
39.2089 -28.4869 6.8250 0.8222
18.5302 -12.6526 3.1598 0.9133
19.0323 -12.5916 3.2137 0.9119
19.4996 -12.0968 3.2315 0.9115
19.5369 -11.7281 3.2089 0.9121
19.6150 -11.3885 3.1941 0.9125
52.0330 -28.2106 8.3351 0.7873
7.2275 -3.7829 1.1488 0.9676
7.0389 -3.5542 1.1104 0.9686
6.9535 -3.3845 1.0890 0.9692
6.8149 -3.1948 1.0599 0.9701
6.8869 -3.1065 1.0639 0.9699
6.8025 -2.8323 1.0377 0.9707
7.2020 -2.6346 1.0799 0.9695
7.5235 -2.5055 1.1167 0.9685
7.4282 -2.2348 1.0924 0.9692
20.2545 8.7825 3.1089 0.9147
15.4919 8.1086 2.4624 0.9318
15.5606 8.4364 2.4926 0.9310
15.6312 8.7726 2.5242 0.9302
15.3848 8.9324 2.5052 0.9307
15.3674 9.2252 2.5241 0.9302
14.9173 9.8692 2.5188 0.9303
14.7500 10.0714 2.5152 0.9304
15.0331 10.5901 2.5896 0.9284
11.8349 8.5986 2.0601 0.9426
11.8879 8.9053 2.0917 0.9418
11.5306 9.1756 2.0752 0.9422
11.3017 9.2664 2.0581 0.9427
10.8742 9.7434 2.0561 0.9427
9.9480 9.4518 1.9324 0.9461
9.8681 9.6542 1.9441 0.9458
6.5712 9.4744 1.6237 0.9545
2.5005 9.5646 1.3922 0.9609
-2.4371 9.3222 1.3569 0.9618
-3.0733 9.4586 1.4005 0.9606
-7.1305 9.6651 1.6914 0.9526
-7.2637 9.5503 1.6897 0.9527
-7.3966 9.4357 1.6884 0.9527
-7.5293 9.3211 1.6874 0.9528
-7.9436 8.9970 1.6901 0.9527
-8.2212 8.7804 1.6939 0.9526
-8.3604 8.6716 1.6963 0.9525
-11.1243 9.6781 2.0764 0.9422
-12.9378 9.1140 2.2286 0.9381
-16.4508 10.5414 2.7515 0.9241
-17.2039 9.6553 2.7782 0.9234
-17.1752 9.3118 2.7513 0.9241
-18.0130 8.4441 2.8015 0.9228
-19.0999 8.2818 2.9317 0.9193
-21.6247 8.6350 3.2791 0.9102
-1.4506 0.5548 0.2187 0.9937
-1.4457 0.5289 0.2168 0.9938
-1.4365 0.4784 0.2132 0.9939
-1.4205 0.4273 0.2089 0.9940
-1.3928 0.3750 0.2031 0.9942
-1.3871 0.3518 0.2015 0.9942
-1.3847 0.3298 0.2005 0.9943
-1.3825 0.3080 0.1995 0.9943
-1.3766 0.2439 0.1969 0.9944
-1.3748 0.2229 0.1961 0.9944
-1.3726 0.2020 0.1954 0.9944
-1.3700 0.1812 0.1946 0.9944
-1.3675 0.1606 0.1939 0.9945
-1.3651 0.1401 0.1932 0.9945
-1.3628 0.1198 0.1927 0.9945
-1.3607 0.0996 0.1921 0.9945
-1.3568 0.0595 0.1913 0.9945
-1.3535 0.0198 0.1906 0.9945
-1.3108 -0.0191 0.1698 0.9947
-1.3125 -0.0384 0.1701 0.9947
-1.3182 -0.0964 0.1712 0.9947
-1.3204 -0.1161 0.1717 0.9947
-1.3248 -0.1555 0.1728 0.9946
-1.3271 -0.1755 0.1734 0.9946
-1.3295 -0.1956 0.1741 0.9946
-1.3320 -0.2159 0.1748 0.9946
-1.3334 -0.2362 0.1754 0.9946
-1.3351 -0.2567 0.1761 0.9945
-1.3368 -0.2773 0.1769 0.9945
-1.3387 -0.2982 0.1777 0.9945
-1.3406 -0.3192 0.1785 0.9945
-1.3449 -0.3621 0.1804 0.9944
-1.3486 -0.3844 0.1817 0.9944
-1.3684 -0.4336 0.1859 0.9942
-1.3719 -0.4568 0.1873 0.9942
-1.3756 -0.4805 0.1888 0.9941
-1.3795 -0.5046 0.1903 0.9941
-1.3837 -0.5292 0.1919 0.9940
-1.3882 -0.5543 0.1936 0.9940
-22.6186 -11.4209 3.2823 0.9028
-21.8445 -11.4336 3.1939 0.9053
-21.5204 -11.6676 3.1711 0.9060
-21.3436 -11.9786 3.1705 0.9060
-21.2059 -12.3122 3.1764 0.9058
-17.0723 -10.2487 2.5794 0.9228
-17.1240 -10.6231 2.6104 0.9219
-16.9607 -11.2211 2.6344 0.9212
-16.9725 -11.5890 2.6622 0.9204
-16.7720 -11.8150 2.6576 0.9206
-16.3720 -12.2644 2.6499 0.9208
-16.6487 -13.6505 2.7889 0.9168
-37.1393 -31.3696 6.2975 0.8219
-34.9582 -31.3226 6.0803 0.8275
-12.3609 -12.4516 2.2728 0.9317
-12.0404 -12.4885 2.2472 0.9324
-12.0621 -13.2657 2.3226 0.9302
-11.9138 -13.4937 2.3318 0.9300
-11.7384 -13.6931 2.3363 0.9298
-24.1824 -30.8487 5.0776 0.8538
-23.6378 -31.0787 5.0581 0.8543
-22.9174 -31.0632 5.0005 0.8558
-21.5238 -31.0332 4.8923 0.8587
-20.8492 -31.0187 4.8414 0.8601
-7.8347 -12.0323 1.8600 0.9437
-6.9533 -11.3933 1.7290 0.9476
-6.9081 -11.7005 1.7601 0.9467
-6.7709 -11.8605 1.7691 0.9464
-13.1107 -30.8520 4.3424 0.8735
-12.5770 -30.8404 4.3145 0.8743
-12.0501 -30.8291 4.2878 0.8750
-8.0372 -30.7426 4.1162 0.8797
-5.6690 -30.6916 4.0430 0.8817
-2.1034 -12.3992 1.6291 0.9505
-1.4164 -12.8728 1.6776 0.9491
-1.2542 -13.1660 1.7132 0.9481
-1.5665 -30.6032 3.9695 0.8837
-0.2234 -30.5743 3.9607 0.8840
0.6698 -30.5550 3.9590 0.8840
2.0101 -30.5262 3.9629 0.8839
2.9062 -30.5068 3.9697 0.8837
3.3556 -30.4971 3.9744 0.8836
3.8062 -30.4874 3.9800 0.8834
4.7116 -30.4680 3.9937 0.8831
5.6241 -30.4483 4.0110 0.8826
6.0835 -30.4384 4.0209 0.8823
6.5453 -30.4284 4.0318 0.8820
7.0096 -30.4185 4.0437 0.8817
3.2585 -12.4638 1.6688 0.9494
3.3783 -12.1913 1.6388 0.9503
3.9085 -12.6554 1.7158 0.9480
4.1975 -12.9186 1.7596 0.9467
10.8465 -30.3358 4.1733 0.8781
12.3579 -30.3032 4.2393 0.8763
1.5510 -3.6498 0.5137 0.9841
1.6452 -3.5773 0.5101 0.9842
1.7381 -3.5057 0.5069 0.9843
1.7841 -3.4702 0.5055 0.9844
1.8299 -3.4349 0.5042 0.9844
1.8755 -3.3997 0.5030 0.9845
1.9208 -3.3646 0.5019 0.9845
1.8677 -3.1634 0.4759 0.9853
1.8041 -2.9561 0.4486 0.9861
1.9156 -2.8499 0.4448 0.9862
1.9888 -2.8676 0.4521 0.9860
2.0646 -2.8858 0.4596 0.9858
2.2577 -2.7129 0.4572 0.9859
2.2661 -2.6434 0.4510 0.9861
2.2892 -2.5927 0.4480 0.9861
2.5140 -2.6076 0.4692 0.9855
2.6398 -2.6591 0.4854 0.9850
2.6410 -2.5838 0.4786 0.9852
2.6423 -2.5105 0.4721 0.9854
2.8294 -2.5352 0.4921 0.9848
3.3053 -2.7101 0.5537 0.9829
3.3530 -2.6682 0.5551 0.9829
38.0607 -28.5116 6.1603 0.8255
39.2089 -28.4869 6.2781 0.8224
18.3296 -12.9123 2.9044 0.9135
18.8974 -12.9033 2.9642 0.9118
18.8220 -12.4525 2.9235 0.9130
19.5882 -11.7590 2.9595 0.9120
19.6663 -11.4183 2.9458 0.9124
52.0330 -28.2106 7.6672 0.7876
6.8282 -3.2010 0.9769 0.9700
6.7756 -2.8210 0.9507 0.9708
7.4474 -2.3598 1.0120 0.9690
53.7727 -3.1465 6.9776 0.8047
54.0226 -2.3696 7.0048 0.8040
20.7909 7.9518 2.8835 0.9141
20.6649 8.6039 2.8997 0.9137
20.4923 8.8856 2.8934 0.9138
20.2158 9.1189 2.8728 0.9144
19.6622 9.5702 2.8327 0.9156
15.4001 7.7760 2.2348 0.9328
15.4668 8.0954 2.2614 0.9320
15.5351 8.4226 2.2891 0.9312
15.0000 9.9239 2.3299 0.9300
15.1503 10.3448 2.3764 0.9287
11.9790 8.9736 1.9389 0.9414
11.7426 9.0673 1.9218 0.9419
11.2315 9.2089 1.8814 0.9431
10.5387 8.9015 1.7870 0.9459
10.9827 9.5550 1.8858 0.9430
10.1233 9.3408 1.7843 0.9460
10.0446 9.5436 1.7948 0.9456
6.5708 9.4738 1.4935 0.9546
2.7054 9.7630 1.3123 0.9600
2.5149 9.6198 1.2880 0.9607
-2.7323 9.3281 1.2591 0.9616
-7.2900 9.5848 1.5599 0.9526
-7.4233 9.4697 1.5587 0.9526
-7.8358 9.1406 1.5596 0.9526
-7.9749 9.0324 1.5608 0.9526
-11.6433 9.5465 1.9504 0.9411
-11.8872 9.4595 1.9679 0.9406
-12.0274 9.2873 1.9684 0.9405
-12.1535 9.1043 1.9671 0.9406
-12.3934 8.7305 1.9638 0.9407
-12.5129 8.5439 1.9627 0.9407
-16.6454 10.3262 2.5374 0.9240
-17.0995 10.2650 2.5835 0.9227
-17.5074 9.8257 2.6007 0.9222
-17.5159 8.5255 2.5235 0.9244
-18.7923 8.8095 2.6886 0.9197
-18.9500 8.5480 2.6930 0.9196
-21.5537 8.9740 3.0244 0.9101
-1.3881 0.5543 0.1936 0.9940
-1.3796 0.5047 0.1903 0.9941
-1.3756 0.4805 0.1888 0.9941
-1.3719 0.4569 0.1873 0.9942
-1.3486 0.3843 0.1817 0.9944
-1.3406 0.3193 0.1785 0.9945
-1.3351 0.2567 0.1761 0.9945
-1.3334 0.2362 0.1754 0.9946
-1.3320 0.2159 0.1748 0.9946
-1.3295 0.1957 0.1741 0.9946
-1.3271 0.1755 0.1734 0.9946
-1.3226 0.1357 0.1722 0.9947
-1.3204 0.1161 0.1717 0.9947
-1.2647 -0.0185 0.1496 0.9949
-1.2713 -0.0557 0.1505 0.9949
-1.2833 -0.1697 0.1531 0.9948
-1.2857 -0.1892 0.1537 0.9948
-1.2882 -0.2088 0.1544 0.9948
-1.2917 -0.2484 0.1556 0.9947
-1.3072 -0.3933 0.1615 0.9945
-1.3161 -0.4597 0.1649 0.9944
-1.3229 -0.5060 0.1675 0.9943
-1.3305 -0.5539 0.1705 0.9942
-27.6157 -12.4568 3.5835 0.8851
-22.7499 -11.0730 2.9929 0.9031
-23.0820 -11.6548 3.0586 0.9011
-22.1727 -11.6054 2.9603 0.9041
-21.4673 -12.0480 2.9119 0.9056
-17.0421 -10.2305 2.3512 0.9231
-17.0934 -10.6041 2.3794 0.9222
-17.1460 -10.9869 2.4088 0.9212
-17.2000 -11.3794 2.4395 0.9203
-16.6033 -11.3369 2.3781 0.9222
-16.8039 -11.8375 2.4314 0.9205
-16.4894 -12.7327 2.4643 0.9195
-37.1393 -31.3696 5.7505 0.8222
-12.6197 -11.6442 2.0311 0.9332
-12.5289 -11.9041 2.0443 0.9328
-12.4370 -12.1673 2.0581 0.9323
-12.2281 -12.6831 2.0840 0.9315
-11.8115 -12.6148 2.0442 0.9328
-11.9838 -13.1796 2.1071 0.9308
-11.8362 -13.4058 2.1154 0.9305
-11.6721 -14.0255 2.1584 0.9291
-25.1301 -31.1104 4.7306 0.8512
-24.3752 -31.0946 4.6735 0.8529
-21.5238 -31.0332 4.4673 0.8589
-20.8492 -31.0187 4.4209 0.8602
-6.9652 -11.7971 1.6205 0.9463
-6.5355 -11.8470 1.6005 0.9470
-6.4788 -12.1611 1.6299 0.9460
-6.7530 -13.1347 1.7470 0.9422
-15.3199 -30.8995 4.0796 0.8703
-14.7556 -30.8874 4.0491 0.8712
-14.1996 -30.8754 4.0199 0.8721
-13.6514 -30.8636 3.9920 0.8729
-13.1107 -30.8519 3.9652 0.8737
-12.0501 -30.8291 3.9154 0.8752
-11.5295 -30.8179 3.8921 0.8759
-11.0149 -30.8068 3.8700 0.8765
-10.5061 -30.7958 3.8489 0.8772
-9.5043 -30.7743 3.8099 0.8783
-8.0372 -30.7427 3.7587 0.8799
-7.5565 -30.7323 3.7435 0.8803
-6.6062 -30.7118 3.7159 0.8811
-6.1361 -30.7016 3.7035 0.8815
-5.6690 -30.6916 3.6918 0.8819
-2.0964 -12.3580 1.4827 0.9508
-1.5575 -12.4757 1.4872 0.9506
-2.9182 -30.6323 3.6398 0.8834
-2.4663 -30.6226 3.6340 0.8836
-2.0158 -30.6129 3.6290 0.8838
-1.5665 -30.6032 3.6247 0.8839
-1.1181 -30.5936 3.6213 0.8840
0.6698 -30.5550 3.6151 0.8842
2.0101 -30.5262 3.6187 0.8841
2.4578 -30.5165 3.6214 0.8840
2.9062 -30.5068 3.6249 0.8839
3.3556 -30.4972 3.6292 0.8838
3.8062 -30.4875 3.6343 0.8836
4.2581 -30.4777 3.6401 0.8834
5.1668 -30.4581 3.6543 0.8830
5.6241 -30.4483 3.6626 0.8827
6.0835 -30.4384 3.6717 0.8825
7.4769 -30.4084 3.7041 0.8815
3.2514 -12.4369 1.5206 0.9495
4.1588 -12.7994 1.5919 0.9472
4.4593 -13.0711 1.6337 0.9459
10.8465 -30.3358 3.8108 0.8783
1.5547 -3.6586 0.4702 0.9841
1.6021 -3.6222 0.4685 0.9842
1.8343 -3.4430 0.4615 0.9844
1.8799 -3.4078 0.4604 0.9844
1.8751 -3.1759 0.4363 0.9853
2.0706 -2.8941 0.4209 0.9858
2.1493 -2.9132 0.4282 0.9855
2.2200 -2.9189 0.4338 0.9853
2.2537 -2.7900 0.4242 0.9857
2.2699 -2.7276 0.4198 0.9858
2.2858 -2.6664 0.4154 0.9860
2.3013 -2.6066 0.4113 0.9861
2.3011 -2.4577 0.3982 0.9865
2.6135 -2.7108 0.4454 0.9849
2.6151 -2.6342 0.4391 0.9852
2.6166 -2.5599 0.4330 0.9854
2.7002 -2.5655 0.4406 0.9851
3.2960 -2.7025 0.5042 0.9830
38.0607 -28.5116 5.6252 0.8257
18.2678 -12.8688 2.6432 0.9139
19.2575 -12.7406 2.7313 0.9112
19.7177 -11.4482 2.6970 0.9123
6.8405 -3.7087 0.9204 0.9691
6.8772 -3.5996 0.9182 0.9692
6.9138 -3.4910 0.9162 0.9693
6.8465 -3.0883 0.8884 0.9702
6.8259 -2.8420 0.8746 0.9707
7.2136 -2.6388 0.9086 0.9695
7.3110 -2.5539 0.9161 0.9693
7.4197 -2.3510 0.9207 0.9691
62.1878 -16.7444 7.6180 0.7715
54.0779 -2.3721 6.4029 0.8041
31.6231 10.0202 3.9239 0.8749
26.6433 9.7464 3.3558 0.8920
20.6400 8.2418 2.6289 0.9144
20.6397 8.5934 2.6446 0.9139
20.6394 8.9494 2.6610 0.9134
20.5011 9.2476 2.6603 0.9134
15.5098 8.4089 2.0869 0.9314
15.5794 8.7436 2.1132 0.9306
15.1794 9.4167 2.1130 0.9306
15.0260 9.6284 2.1110 0.9306
15.4038 10.5179 2.2063 0.9276
15.1681 10.6852 2.1947 0.9280
12.1671 8.8400 1.7790 0.9412
11.9577 8.9576 1.7673 0.9416
10.0669 9.2887 1.6202 0.9463
6.5704 9.4732 1.3637 0.9546
-2.2356 9.7014 1.1776 0.9607
-7.3163 9.6194 1.4296 0.9525
-7.5876 9.3932 1.4283 0.9525
-7.7271 9.2850 1.4289 0.9525
-7.8666 9.1766 1.4297 0.9525
-11.4485 9.6700 1.7726 0.9414
-11.6896 9.5845 1.7881 0.9409
-12.0621 9.3141 1.8027 0.9405
-12.2125 9.1485 1.8050 0.9404
-12.4534 8.7729 1.8019 0.9405
-12.5735 8.5853 1.8009 0.9405
-16.8424 10.1106 2.3237 0.9239
-17.3021 10.0456 2.3666 0.9226
-17.6085 9.8824 2.3885 0.9219
-17.5486 9.5143 2.3612 0.9227
-18.0631 9.1207 2.3936 0.9217
-18.4571 8.6523 2.4112 0.9212
-1.3346 0.5787 0.1721 0.9942
-1.3130 0.4372 0.1637 0.9944
-1.2998 0.3297 0.1586 0.9946
-1.2955 0.2886 0.1570 0.9947
-1.2936 0.2684 0.1563 0.9947
-1.2917 0.2484 0.1556 0.9947
-1.2882 0.2089 0.1544 0.9948
-1.2810 0.1504 0.1526 0.9948
-1.2789 0.1313 0.1521 0.9948
-1.2768 0.1122 0.1516 0.9949
-1.2748 0.0933 0.1512 0.9949
-1.2648 0.0185 0.1496 0.9949
-1.2177 0.0000 0.1304 0.9951
-1.2211 -0.0179 0.1307 0.9951
-1.2245 -0.0358 0.1312 0.9951
-1.2344 -0.0903 0.1325 0.9950
-1.2362 -0.1086 0.1329 0.9950
-1.2380 -0.1271 0.1332 0.9950
-1.2400 -0.1456 0.1337 0.9950
-1.2465 -0.2021 0.1352 0.9949
-1.2513 -0.2596 0.1368 0.9949
-1.2530 -0.2791 0.1374 0.9948
-1.2548 -0.2988 0.1381 0.9948
-1.2692 -0.4227 0.1432 0.9946
-1.2714 -0.4441 0.1442 0.9946
-1.2811 -0.5334 0.1486 0.9944
-1.2939 -0.5837 0.1520 0.9943
-23.2314 -11.3073 2.7663 0.9013
-21.0655 -12.6458 2.6306 0.9059
-17.0629 -10.5852 2.1498 0.9224
-16.8561 -13.0159 2.2801 0.9179
-16.5787 -13.1928 2.2684 0.9183
-36.0296 -31.3457 5.1131 0.8252
-12.6027 -11.6284 1.8359 0.9333
-12.3267 -12.4171 1.8733 0.9320
-11.9944 -12.8102 1.8789 0.9318
-11.9067 -13.0949 1.8949 0.9313
-11.7598 -13.3192 1.9023 0.9310
-22.9173 -31.0632 4.1330 0.8562
-22.2130 -31.0480 4.0873 0.8576
-21.5238 -31.0332 4.0435 0.8590
-20.8491 -31.0187 4.0015 0.8604
-19.5403 -30.9904 3.9225 0.8630
-6.8910 -12.0710 1.4882 0.9456
-6.8778 -13.3775 1.6105 0.9413
-14.7556 -30.8874 3.6649 0.8714
-14.1996 -30.8754 3.6385 0.8722
-13.6514 -30.8636 3.6132 0.8730
-13.1107 -30.8520 3.5891 0.8738
-12.5770 -30.8404 3.5660 0.8746
-11.5295 -30.8179 3.5229 0.8760
-11.0149 -30.8068 3.5028 0.8767
-10.5061 -30.7958 3.4838 0.8773
-10.0026 -30.7850 3.4656 0.8779
-9.0108 -30.7636 3.4321 0.8790
-8.5219 -30.7531 3.4167 0.8795
-8.0372 -30.7426 3.4021 0.8800
-7.0796 -30.7220 3.3755 0.8809
-6.6062 -30.7118 3.3634 0.8813
-6.1361 -30.7017 3.3521 0.8817
-4.7431 -30.6716 3.3229 0.8826
-4.2839 -30.6618 3.3147 0.8829
-1.5433 -12.3620 1.3338 0.9511
-1.1181 -30.5936 3.2777 0.8841
-0.2234 -30.5743 3.2735 0.8843
0.2233 -30.5646 3.2725 0.8843
1.1163 -30.5454 3.2725 0.8843
2.0101 -30.5262 3.2754 0.8842
3.3557 -30.4971 3.2849 0.8839
3.8062 -30.4874 3.2895 0.8837
4.7116 -30.4679 3.3008 0.8834
5.1669 -30.4581 3.3076 0.8831
5.6241 -30.4483 3.3151 0.8829
6.5453 -30.4285 3.3323 0.8823
7.0097 -30.4185 3.3421 0.8820
7.4769 -30.4084 3.3527 0.8816
3.2444 -12.4101 1.3734 0.9497
8.4207 -30.3881 3.3761 0.8809
3.8388 -12.4298 1.3928 0.9490
10.3528 -30.3464 3.4329 0.8790
12.3579 -30.3032 3.5038 0.8766
12.8727 -30.2921 3.5239 0.8760
1.7465 -3.5225 0.4210 0.9843
1.8387 -3.4513 0.4187 0.9844
1.9299 -3.3806 0.4168 0.9845
1.8825 -3.1884 0.3964 0.9852
1.9263 -2.8659 0.3697 0.9862
2.0002 -2.8839 0.3758 0.9860
2.0766 -2.9026 0.3821 0.9857
2.1556 -2.9218 0.3887 0.9855
2.2325 -2.9352 0.3948 0.9853
2.2495 -2.8696 0.3904 0.9854
2.2981 -2.6808 0.3781 0.9859
2.3218 -2.5536 0.3695 0.9862
2.3107 -2.4679 0.3620 0.9865
2.6298 -2.7277 0.4057 0.9849
2.6560 -2.6755 0.4036 0.9849
2.7330 -2.5218 0.3981 0.9852
2.8067 -2.5148 0.4035 0.9850
3.2397 -2.7364 0.4540 0.9831
3.3343 -2.6533 0.4562 0.9830
15.4866 -11.9584 2.0949 0.9243
17.9868 -13.0682 2.3804 0.9144
18.3898 -12.9547 2.4084 0.9135
18.7263 -12.3892 2.4040 0.9136
19.1088 -12.2446 2.4299 0.9127
19.6553 -11.7992 2.4545 0.9119
19.9344 -11.1877 2.4474 0.9121
6.9025 -3.2358 0.8162 0.9698
6.9005 -3.1127 0.8105 0.9700
6.6567 -2.8864 0.7768 0.9712
6.8769 -2.8632 0.7976 0.9705
7.0277 -2.8062 0.8102 0.9700
7.0081 -2.6804 0.8033 0.9703
7.2563 -2.6545 0.8273 0.9694
7.2293 -2.5254 0.8199 0.9697
7.3923 -2.3423 0.8302 0.9693
53.2986 -3.1187 5.7162 0.8067
36.7049 9.3100 4.0543 0.8587
31.3523 8.9351 3.4904 0.8771
31.3473 9.4310 3.5048 0.8766
30.7934 9.7573 3.4584 0.8781
31.0161 10.3289 3.5000 0.8768
20.8359 8.6751 2.4164 0.9132
20.6141 8.9384 2.4056 0.9136
20.3772 9.5525 2.4095 0.9134
15.4171 8.0694 1.8631 0.9324
15.5538 8.7293 1.9096 0.9308
15.6249 9.0718 1.9344 0.9299
15.1431 9.0906 1.8910 0.9314
15.0086 9.6173 1.9085 0.9308
15.4706 10.5634 2.0057 0.9274
6.5700 9.4727 1.2343 0.9547
-0.7799 4.2228 0.4598 0.9829
-0.8446 4.2263 0.4614 0.9828
-0.9099 4.2304 0.4633 0.9827
-1.1906 4.2969 0.4774 0.9822
-1.2803 4.3712 0.4877 0.9818
-11.7361 9.6226 1.6249 0.9408
-12.0969 9.3409 1.6363 0.9404
-12.2719 9.1930 1.6417 0.9402
-12.3339 8.9612 1.6323 0.9405
-12.5139 8.8154 1.6389 0.9403
-12.6345 8.6270 1.6380 0.9403
-16.5935 9.9612 2.0721 0.9251
-18.3361 9.2585 2.1992 0.9207
-18.7413 8.7856 2.2161 0.9201
-1.2811 0.5334 0.1486 0.9944
-1.2785 0.5105 0.1474 0.9945
-1.2760 0.4880 0.1463 0.9945
-1.2692 0.4227 0.1432 0.9946
-1.2659 0.4011 0.1422 0.9947
-1.2631 0.3800 0.1412 0.9947
-1.2587 0.3389 0.1396 0.9948
-1.2567 0.3187 0.1388 0.9948
-1.2548 0.2988 0.1381 0.9948
-1.2482 0.2211 0.1357 0.9949
-1.2465 0.2021 0.1352 0.9949
-1.2380 0.1271 0.1332 0.9950
-1.2362 0.1087 0.1329 0.9950
-1.2317 0.0721 0.1321 0.9950
-1.2245 0.0358 0.1312 0.9951
-1.1772 0.0000 0.1129 0.9953
-1.1804 -0.0172 0.1132 0.9953
-1.1836 -0.0346 0.1135 0.9953
-1.1903 -0.0696 0.1143 0.9952
-1.1938 -0.0874 0.1148 0.9952
-1.1974 -0.1052 0.1152 0.9952
-1.2016 -0.1411 0.1160 0.9952
-1.2054 -0.1774 0.1168 0.9951
-1.2075 -0.1958 0.1173 0.9951
-1.2133 -0.2702 0.1192 0.9950
-1.2148 -0.2893 0.1197 0.9950
-1.2182 -0.3280 0.1209 0.9949
-1.2200 -0.3477 0.1216 0.9949
-1.2219 -0.3676 0.1223 0.9949
-1.2270 -0.4086 0.1240 0.9948
-1.2300 -0.4296 0.1249 0.9948
-1.2331 -0.4511 0.1259 0.9947
-1.2395 -0.5160 0.1287 0.9946
-1.2418 -0.5384 0.1298 0.9946
-1.2442 -0.5612 0.1309 0.9945
-27.0168 -12.6649 2.8606 0.8870
-23.6325 -11.5026 2.5198 0.8998
-23.4331 -11.8321 2.5167 0.8999
-22.1852 -12.0281 2.4194 0.9036
-21.4140 -12.0181 2.3542 0.9060
-21.5675 -12.9471 2.4116 0.9039
-16.9553 -11.5772 1.9683 0.9208
-39.4819 -31.4184 4.8373 0.8165
-36.0253 -31.3420 4.5779 0.8254
-34.9534 -31.3183 4.4993 0.8281
-33.9173 -31.2954 4.4244 0.8307
-32.9150 -31.2733 4.3528 0.8332
-12.4202 -12.1509 1.6658 0.9326
-11.9762 -12.7907 1.6799 0.9320
-25.9032 -31.1259 3.8822 0.8498
-25.1300 -31.1104 3.8340 0.8515
-22.9173 -31.0632 3.7008 0.8563
-22.2130 -31.0481 3.6599 0.8578
-19.5403 -30.9904 3.5123 0.8631
-7.2663 -12.3073 1.3702 0.9442
-15.3199 -30.8995 3.3064 0.8706
-14.7556 -30.8874 3.2817 0.8715
-14.1996 -30.8754 3.2580 0.8724
-13.6514 -30.8636 3.2354 0.8732
-12.5770 -30.8404 3.1931 0.8747
-11.5295 -30.8179 3.1545 0.8761
-10.5061 -30.7958 3.1195 0.8774
-9.5043 -30.7743 3.0878 0.8786
-9.0108 -30.7636 3.0732 0.8791
-8.5219 -30.7530 3.0594 0.8796
-8.0372 -30.7426 3.0463 0.8801
-5.6691 -30.6916 2.9922 0.8821
-4.7431 -30.6717 2.9754 0.8827
-4.2838 -30.6618 2.9681 0.8830
-3.8268 -30.6519 2.9614 0.8833
-2.9182 -30.6323 2.9500 0.8837
-1.5771 -30.8097 2.9576 0.8834
-1.1257 -30.8000 2.9548 0.8835
1.1238 -30.7516 2.9501 0.8837
2.0237 -30.7322 2.9527 0.8836
3.3556 -30.4972 2.9414 0.8840
3.8062 -30.4874 2.9455 0.8839
4.7116 -30.4680 2.9557 0.8835
7.0096 -30.4184 2.9926 0.8821
7.4769 -30.4084 3.0021 0.8818
3.2354 -12.3755 1.2263 0.9499
3.8051 -12.3205 1.2362 0.9495
9.8636 -30.3570 3.0601 0.8796
10.8465 -30.3358 3.0886 0.8786
11.8488 -30.3142 3.1203 0.8774
12.3579 -30.3032 3.1374 0.8768
1.6099 -3.6398 0.3816 0.9841
1.6571 -3.6033 0.3802 0.9842
1.7040 -3.5670 0.3790 0.9842
1.7506 -3.5310 0.3778 0.9843
1.7970 -3.4952 0.3768 0.9843
1.8430 -3.4595 0.3758 0.9844
1.8889 -3.4240 0.3749 0.9844
1.9345 -3.3887 0.3741 0.9844
1.8899 -3.2010 0.3564 0.9852
1.9488 -3.1933 0.3587 0.9851
1.9838 -3.0467 0.3485 0.9855
2.1619 -2.9304 0.3491 0.9855
2.2229 -2.6711 0.3332 0.9861
2.3105 -2.6953 0.3403 0.9858
2.3260 -2.6344 0.3369 0.9860
2.6634 -2.6829 0.3624 0.9849
2.7955 -2.5048 0.3598 0.9850
3.2778 -2.6875 0.4064 0.9831
3.3250 -2.6459 0.4074 0.9831
39.6669 -29.7148 4.7515 0.8194
40.8635 -29.6890 4.8424 0.8163
19.2671 -11.9526 2.1737 0.9129
18.7726 -11.2693 2.0991 0.9158
23.1426 -12.5472 2.5238 0.8996
6.8342 -3.4508 0.7340 0.9697
6.8857 -3.3515 0.7342 0.9697
6.9300 -3.2487 0.7338 0.9697
6.9286 -2.8848 0.7195 0.9703
7.0584 -2.8185 0.7286 0.9699
7.4114 -2.4681 0.7489 0.9691
7.8057 -2.4733 0.7850 0.9676
53.1897 -3.1124 5.1080 0.8073
53.6144 -2.3518 5.1449 0.8060
37.5506 8.3647 3.6882 0.8568
37.7586 8.9921 3.7211 0.8556
31.6437 8.0262 3.1297 0.8771
31.8543 8.5770 3.1626 0.8759
31.5004 8.9773 3.1402 0.8767
30.7645 9.7481 3.0939 0.8784
26.8054 8.9266 2.7086 0.8927
26.7197 9.3340 2.7134 0.8925
20.7606 7.9402 2.1309 0.9146
20.7929 8.3029 2.1465 0.9140
20.8589 9.0445 2.1796 0.9127
20.3610 9.5448 2.1558 0.9136
20.3863 11.0528 2.2232 0.9110
15.5448 9.6434 1.7538 0.9291
-0.5531 4.4308 0.4281 0.9822
-0.6676 3.9354 0.3827 0.9841
-0.7873 3.9395 0.3851 0.9840
-1.0442 3.9944 0.3958 0.9835
-1.2567 4.0693 0.4083 0.9830
-1.3328 4.1020 0.4135 0.9828
-1.6084 4.2994 0.4401 0.9817
-7.5069 9.5764 1.1665 0.9523
-11.8694 10.0254 1.4895 0.9395
-11.9826 9.8247 1.4855 0.9396
-12.4535 9.0479 1.4758 0.9400
-12.5748 8.8584 1.4746 0.9401
-17.3197 10.0559 1.9200 0.9227
-17.5611 9.8557 1.9306 0.9223
-17.8052 9.6534 1.9417 0.9218
-18.2207 9.2002 1.9569 0.9213
-18.5792 8.7096 1.9672 0.9209
-1.2442 0.5612 0.1309 0.9945
-1.2418 0.5384 0.1298 0.9946
-1.2394 0.5161 0.1287 0.9946
-1.2351 0.4724 0.1268 0.9947
-1.2241 0.3879 0.1231 0.9949
-1.2164 0.3085 0.1203 0.9950
-1.2118 0.2514 0.1186 0.9950
-1.2104 0.2327 0.1182 0.9951
-1.2016 0.1411 0.1160 0.9952
-1.1998 0.1232 0.1156 0.9952
-1.1938 0.0874 0.1148 0.9952
-1.1869 0.0521 0.1139 0.9952
-1.1803 0.0173 0.1132 0.9953
-1.1394 0.0000 0.0965 0.9954
-1.1454 -0.0335 0.0971 0.9954
-1.1516 -0.0673 0.0977 0.9954
-1.1582 -0.1018 0.0985 0.9953
-1.1651 -0.1368 0.0994 0.9953
-1.1748 -0.2437 0.1016 0.9952
-1.1787 -0.2990 0.1030 0.9951
-1.1818 -0.3368 0.1041 0.9951
-1.1834 -0.3560 0.1047 0.9951
-1.1852 -0.3755 0.1053 0.9950
-1.1876 -0.3955 0.1060 0.9950
-1.1929 -0.4364 0.1076 0.9949
-1.1957 -0.4573 0.1084 0.9949
-1.2024 -0.5214 0.1110 0.9948
-1.2044 -0.5433 0.1119 0.9947
-1.2298 -0.5765 0.1150 0.9946
-23.3840 -11.8073 2.2187 0.9002
-22.6694 -11.8653 2.1672 0.9024
-22.4687 -12.1818 2.1647 0.9025
-16.8814 -12.6460 1.7865 0.9188
-40.7233 -31.4455 4.3578 0.8134
-39.4800 -31.4169 4.2734 0.8167
-38.2837 -31.3893 4.1931 0.8198
-37.1699 -34.2966 4.2836 0.8163
-36.6652 -34.8364 4.2837 0.8163
-12.3410 -12.0735 1.4623 0.9330
-12.1904 -12.2798 1.4655 0.9329
-11.7560 -12.9292 1.4801 0.9323
-27.5101 -31.1582 3.5204 0.8463
-25.9032 -31.1259 3.4298 0.8500
-25.1301 -31.1104 3.3872 0.8517
-24.3752 -31.0946 3.3464 0.8533
-23.6378 -31.0787 3.3072 0.8549
-22.9173 -31.0632 3.2695 0.8564
-21.5238 -31.0332 3.1988 0.8593
-20.1882 -31.0044 3.1336 0.8620
-19.5403 -30.9904 3.1030 0.8632
-18.9049 -30.9768 3.0737 0.8644
-7.3210 -12.3998 1.2196 0.9438
-17.6686 -30.9501 3.0185 0.8667
-15.4570 -31.1760 2.9473 0.8696
-14.9216 -31.2348 2.9319 0.8703
-14.3593 -31.2227 2.9108 0.8711
-13.6514 -30.8636 2.8584 0.8733
-13.1107 -30.8520 2.8392 0.8741
-12.0501 -30.8291 2.8035 0.8756
-10.0026 -30.7850 2.7416 0.8781
-9.5043 -30.7742 2.7280 0.8787
-7.5565 -30.7322 2.6805 0.8807
-2.0781 -12.2505 1.0524 0.9513
-4.2838 -30.6618 2.6222 0.8831
-3.8267 -30.6519 2.6163 0.8834
-2.9182 -30.6323 2.6062 0.8838
-2.0295 -30.8195 2.6160 0.8834
-1.1307 -30.9377 2.6221 0.8831
-0.2259 -30.9182 2.6188 0.8833
0.2258 -30.9084 2.6179 0.8833
1.5806 -30.8792 2.6188 0.8833
6.0835 -30.4384 2.6290 0.8828
6.5453 -30.4285 2.6362 0.8825
8.4207 -30.3881 2.6708 0.8811
8.8978 -30.3777 2.6810 0.8807
9.8636 -30.3570 2.7035 0.8797
11.3451 -30.3251 2.7423 0.8781
12.8727 -30.2921 2.7877 0.8762
1.6138 -3.6486 0.3379 0.9841
1.6611 -3.6120 0.3367 0.9842
1.7081 -3.5756 0.3356 0.9842
1.8013 -3.5035 0.3337 0.9843
1.8974 -3.2137 0.3161 0.9851
1.8461 -2.9278 0.2932 0.9862
2.0887 -2.9195 0.3040 0.9857
2.2508 -2.9594 0.3149 0.9852
2.2747 -2.9018 0.3123 0.9853
2.2912 -2.8364 0.3088 0.9855
2.3417 -2.5754 0.2948 0.9861
2.6030 -2.6999 0.3176 0.9851
2.6968 -2.6384 0.3195 0.9850
2.7844 -2.4948 0.3167 0.9851
3.2688 -2.6801 0.3580 0.9832
14.9464 -11.8939 1.6178 0.9262
15.2542 -11.7789 1.6323 0.9256
39.6669 -29.7148 4.1978 0.8196
18.8348 -12.4610 1.9128 0.9133
18.5120 -11.8622 1.8622 0.9155
19.3542 -12.0066 1.9291 0.9126
19.5766 -11.7520 1.9339 0.9124
23.2379 -12.5989 2.2389 0.8993
6.9636 -3.6448 0.6657 0.9689
6.9852 -3.1509 0.6490 0.9697
6.7547 -2.9289 0.6236 0.9709
7.0892 -2.8309 0.6465 0.9698
61.7865 -18.5888 5.4649 0.7718
44.8578 -12.7840 3.9506 0.8292
50.3205 -12.7635 4.3970 0.8119
49.3956 -11.7635 4.3007 0.8156
76.5363 5.6017 6.4998 0.7349
36.9311 8.2267 3.2046 0.8591
36.2499 8.6328 3.1561 0.8611
36.3475 9.2193 3.1760 0.8603
31.5152 8.4856 2.7643 0.8772
30.8922 8.8040 2.7207 0.8790
26.7226 8.4673 2.3743 0.8936
26.7668 8.9137 2.3895 0.8929
27.3254 9.5455 2.4515 0.8903
26.5316 9.7055 2.3928 0.8928
20.7506 7.9364 1.8817 0.9147
20.7827 8.2988 1.8954 0.9141
20.8154 8.6666 1.9097 0.9135
20.7821 9.0112 1.9185 0.9131
20.5626 9.2753 1.9106 0.9134
20.3423 9.5361 1.9029 0.9138
20.3526 10.6527 1.9457 0.9119
15.7039 9.4272 1.5513 0.9291
6.5692 9.4715 0.9763 0.9548
2.2111 9.5952 0.8340 0.9612
-0.4282 5.3168 0.4518 0.9788
-0.5064 4.6027 0.3922 0.9816
-0.9822 3.7571 0.3289 0.9845
-1.1106 3.7918 0.3347 0.9843
-1.2460 3.8350 0.3415 0.9839
-12.0388 9.8708 1.3186 0.9394
-12.2695 9.4742 1.3129 0.9397
-17.2966 10.0424 1.6940 0.9228
-17.5375 9.8425 1.7033 0.9224
-17.7591 9.6284 1.7110 0.9221
-18.1070 9.1429 1.7180 0.9218
-1.2044 0.5433 0.1119 0.9947
-1.2024 0.5214 0.1110 0.9948
-1.1929 0.4364 0.1076 0.9949
-1.1902 0.4158 0.1068 0.9950
-1.1852 0.3755 0.1053 0.9950
-1.1818 0.3368 0.1041 0.9951
-1.1761 0.2620 0.1020 0.9952
-1.1725 0.2077 0.1009 0.9952
-1.1709 0.1898 0.1005 0.9952
-1.1672 0.1544 0.0997 0.9953
-1.1616 0.1193 0.0989 0.9953
-1.1582 0.1018 0.0985 0.9953
-1.1516 0.0674 0.0977 0.9954
-1.1484 0.0504 0.0974 0.9954
-1.1454 0.0335 0.0971 0.9954
-1.1424 0.0167 0.0968 0.9954
-1.1125 -0.0488 0.0819 0.9955
-1.1154 -0.0652 0.0822 0.9955
-1.1185 -0.0819 0.0825 0.9955
-1.1215 -0.0986 0.0828 0.9955
-1.1312 -0.1496 0.0839 0.9954
-1.1365 -0.1842 0.0847 0.9954
-1.1381 -0.2016 0.0850 0.9954
-1.1390 -0.2190 0.0853 0.9954
-1.1447 -0.3082 0.0872 0.9953
-1.1460 -0.3266 0.0876 0.9952
-1.1473 -0.3452 0.0881 0.9952
-1.1508 -0.3832 0.0892 0.9951
-1.1578 -0.4428 0.0912 0.9950
-1.1629 -0.4842 0.0926 0.9950
-1.1655 -0.5054 0.0934 0.9949
-1.1672 -0.5265 0.0942 0.9949
-1.1690 -0.5480 0.0950 0.9948
-1.4718 -0.7703 0.1222 0.9934
-21.8856 -12.2827 1.8458 0.9042
-40.7233 -31.4455 3.7841 0.8135
-38.2837 -31.3893 3.6411 0.8199
-37.6768 -32.7788 3.6729 0.8185
-37.6131 -35.7370 3.8159 0.8121
-12.5924 -12.3193 1.2956 0.9318
-11.9696 -12.4150 1.2683 0.9332
-33.4246 -35.6979 3.5967 0.8219
-28.3469 -31.1757 3.0990 0.8445
-27.5101 -31.1582 3.0570 0.8464
-26.6962 -31.1418 3.0168 0.8483
-25.9032 -31.1259 2.9782 0.8501
-25.1301 -31.1104 2.9413 0.8518
-23.6378 -31.0787 2.8717 0.8550
-22.9174 -31.0632 2.8391 0.8566
-21.5238 -31.0332 2.7776 0.8594
-20.8492 -31.0187 2.7488 0.8608
-20.1882 -31.0044 2.7211 0.8621
-19.5403 -30.9904 2.6945 0.8633
-18.9384 -31.0317 2.6737 0.8643
-7.3760 -12.4930 1.0670 0.9435
-15.4922 -31.2471 2.5651 0.8695
-14.9216 -31.2348 2.5459 0.8704
-13.1107 -30.8519 2.4654 0.8742
-12.5770 -30.8404 2.4496 0.8750
-11.5295 -30.8179 2.4200 0.8764
-11.0149 -30.8068 2.4062 0.8770
-10.0026 -30.7850 2.3807 0.8782
-9.5043 -30.7742 2.3688 0.8788
-9.0108 -30.7636 2.3576 0.8794
-8.5219 -30.7531 2.3470 0.8799
-6.6062 -30.7118 2.3104 0.8816
-6.1361 -30.7017 2.3027 0.8820
-5.6690 -30.6916 2.2955 0.8823
-4.7431 -30.6716 2.2826 0.8830
-4.2838 -30.6618 2.2770 0.8832
-3.3716 -30.6421 2.2672 0.8837
-2.0295 -30.8195 2.2716 0.8835
-1.1307 -30.9377 2.2769 0.8832
0.2258 -30.9084 2.2733 0.8834
0.6774 -30.8987 2.2730 0.8834
2.0327 -30.8695 2.2753 0.8833
2.4855 -30.8598 2.2770 0.8832
4.2581 -30.4777 2.2633 0.8839
4.7116 -30.4679 2.2675 0.8837
5.1668 -30.4582 2.2721 0.8835
5.6241 -30.4483 2.2773 0.8832
6.0835 -30.4384 2.2829 0.8829
3.2189 -12.3125 0.9360 0.9502
8.4207 -30.3880 2.3192 0.8812
8.8978 -30.3778 2.3281 0.8808
9.3787 -30.3674 2.3375 0.8803
9.8636 -30.3570 2.3476 0.8798
10.3528 -30.3464 2.3582 0.8793
11.3451 -30.3250 2.3813 0.8782
11.8488 -30.3142 2.3938 0.8776
12.3579 -30.3032 2.4069 0.8770
13.3936 -30.2809 2.4352 0.8756
1.6652 -3.6207 0.2931 0.9841
1.8056 -3.5119 0.2904 0.9843
1.8519 -3.4760 0.2897 0.9843
1.9437 -3.4048 0.2883 0.9844
1.9049 -3.2264 0.2756 0.9851
1.9644 -3.2188 0.2773 0.9850
2.0174 -2.9087 0.2603 0.9859
2.2576 -2.9683 0.2743 0.9852
2.3039 -2.8522 0.2697 0.9854
2.3517 -2.5864 0.2571 0.9861
2.6150 -2.7123 0.2771 0.9850
2.7043 -2.6457 0.2782 0.9849
2.7703 -2.5561 0.2772 0.9850
3.1667 -2.7550 0.3087 0.9833
3.2131 -2.7139 0.3093 0.9833
3.2598 -2.6727 0.3100 0.9832
37.4024 -29.7636 3.5155 0.8255
38.5142 -29.7397 3.5788 0.8227
40.8635 -29.6890 3.7148 0.8166
18.6460 -12.7316 1.6605 0.9134
18.8588 -12.0844 1.6473 0.9141
19.3019 -11.9742 1.6706 0.9129
19.4719 -11.6891 1.6703 0.9129
23.3339 -12.6509 1.9521 0.8990
6.9927 -3.6601 0.5805 0.9688
6.9453 -3.3805 0.5681 0.9695
7.0227 -3.2921 0.5704 0.9694
7.0105 -3.1623 0.5656 0.9696
6.8046 -2.9505 0.5455 0.9707
6.9764 -2.9046 0.5558 0.9701
6.9976 -2.7942 0.5542 0.9702
7.0999 -2.7155 0.5591 0.9700
7.3571 -2.4500 0.5703 0.9694
49.8118 -12.6345 3.7795 0.8137
49.3067 -10.9836 3.7152 0.8166
91.1374 -2.6642 6.7057 0.6937
46.0454 8.8533 3.4485 0.8286
36.9875 8.8085 2.7964 0.8586
31.8857 8.5854 2.4286 0.8760
31.1150 8.8674 2.3795 0.8783
26.5406 8.8385 2.0574 0.8939
26.5838 9.2865 2.0710 0.8932
26.5208 9.7016 2.0769 0.8929
26.2428 10.4791 2.0783 0.8929
20.3228 9.5270 1.6508 0.9139
20.7756 10.4903 1.7117 0.9109
6.5688 9.4709 0.8477 0.9548
-0.3689 5.6023 0.4129 0.9777
-0.4570 4.7970 0.3544 0.9809
-0.4944 4.4936 0.3325 0.9820
-0.6649 3.6000 0.2692 0.9854
-0.7204 3.6047 0.2704 0.9854
-0.8916 3.6264 0.2747 0.9851
-1.0090 3.6414 0.2779 0.9850
-1.1293 3.6568 0.2815 0.9848
-1.1907 3.6647 0.2834 0.9847
-1.2538 3.6754 0.2856 0.9845
-1.3852 3.7028 0.2908 0.9843
-1.4528 3.7170 0.2935 0.9841
-1.5216 3.7313 0.2964 0.9840
-1.5977 3.7599 0.3005 0.9837
-1.6764 3.7901 0.3048 0.9835
-12.0954 9.9172 1.1504 0.9392
-12.2087 9.7153 1.1475 0.9393
-12.3297 9.5207 1.1457 0.9394
-1.4753 0.7998 0.1234 0.9933
-1.2434 0.6052 0.1017 0.9945
-1.1690 0.5480 0.0950 0.9948
-1.1672 0.5265 0.0942 0.9949
-1.1655 0.5054 0.0934 0.9949
-1.1530 0.4028 0.0898 0.9951
-1.1488 0.3640 0.0886 0.9952
-1.1473 0.3452 0.0881 0.9952
-1.1460 0.3266 0.0876 0.9952
-1.1411 0.2542 0.0860 0.9953
-1.1401 0.2366 0.0856 0.9953
-1.1215 0.0986 0.0828 0.9955
-1.1154 0.0652 0.0822 0.9955
-1.1068 0.0162 0.0814 0.9956
-1.0375 -0.0152 0.0648 0.9959
-1.0479 -0.0459 0.0655 0.9958
-1.0598 -0.0775 0.0663 0.9958
-1.0661 -0.0937 0.0668 0.9957
-1.0725 -0.1101 0.0673 0.9957
-1.0930 -0.1609 0.0690 0.9956
-1.1065 -0.2127 0.0703 0.9955
-1.1074 -0.2298 0.0706 0.9955
-1.1083 -0.2468 0.0709 0.9955
-1.1124 -0.3170 0.0722 0.9954
-1.1290 -0.4895 0.0768 0.9951
-1.1314 -0.5104 0.0775 0.9950
-1.4422 -0.7548 0.1016 0.9935
-1.4517 -0.8428 0.1048 0.9933
-38.2843 -31.3898 3.0900 0.8200
-37.6130 -35.7369 3.2382 0.8123
-12.5525 -12.2803 1.0960 0.9320
-33.4261 -35.6996 3.0524 0.8220
-25.9032 -31.1259 2.5274 0.8502
-25.1301 -31.1104 2.4961 0.8519
-22.9174 -31.0632 2.4093 0.8567
-20.8492 -31.0187 2.3327 0.8609
-20.1882 -31.0045 2.3092 0.8622
-19.5403 -30.9905 2.2866 0.8634
-18.9383 -31.0316 2.2690 0.8644
-17.8674 -31.2983 2.2494 0.8655
-15.4922 -31.2471 2.1768 0.8696
-14.9216 -31.2348 2.1605 0.8705
-12.5770 -30.8404 2.0788 0.8750
-11.0149 -30.8068 2.0420 0.8771
-10.5061 -30.7958 2.0309 0.8777
-10.0026 -30.7850 2.0203 0.8783
-9.0108 -30.7636 2.0008 0.8794
-6.6062 -30.7118 1.9607 0.8817
-6.1361 -30.7017 1.9541 0.8821
-5.6690 -30.6916 1.9480 0.8824
-2.0713 -12.2104 0.7730 0.9516
-3.8267 -30.6519 1.9280 0.8836
-3.3716 -30.6421 1.9240 0.8838
-2.9182 -30.6323 1.9205 0.8840
-2.0295 -30.8195 1.9277 0.8836
-0.6780 -30.9279 1.9308 0.8834
0.2258 -30.9084 1.9292 0.8835
1.5806 -30.8792 1.9298 0.8835
2.0327 -30.8695 1.9309 0.8834
2.9062 -30.5068 1.9127 0.8844
3.8062 -30.4875 1.9176 0.8841
4.7116 -30.4680 1.9242 0.8838
5.1669 -30.4581 1.9282 0.8835
5.6241 -30.4483 1.9325 0.8833
7.4768 -30.4084 1.9544 0.8821
8.4207 -30.3880 1.9681 0.8813
8.8978 -30.3778 1.9757 0.8809
9.8636 -30.3570 1.9922 0.8799
11.3451 -30.3251 2.0208 0.8783
11.8488 -30.3142 2.0314 0.8777
12.8727 -30.2921 2.0543 0.8764
1.6692 -3.6295 0.2493 0.9841
1.7164 -3.5929 0.2485 0.9842
1.7633 -3.5564 0.2478 0.9842
1.8563 -3.4843 0.2464 0.9843
1.9024 -3.4486 0.2458 0.9843
1.9483 -3.4129 0.2453 0.9844
1.9125 -3.2393 0.2348 0.9850
1.9723 -3.2317 0.2363 0.9849
2.0328 -3.2241 0.2379 0.9848
1.9255 -2.9571 0.2202 0.9860
2.0490 -3.0485 0.2293 0.9854
2.0232 -2.9171 0.2216 0.9859
2.1009 -2.9365 0.2254 0.9856
2.1812 -2.9565 0.2293 0.9854
2.2644 -2.9773 0.2335 0.9851
2.1795 -2.6981 0.2165 0.9862
2.2869 -2.7480 0.2231 0.9858
2.3484 -2.7395 0.2252 0.9856
2.3145 -2.6214 0.2183 0.9861
2.7593 -2.5460 0.2343 0.9851
3.1580 -2.7475 0.2613 0.9834
37.4024 -29.7636 2.9834 0.8257
39.6669 -29.7148 3.0934 0.8198
19.1993 -11.9105 1.4102 0.9134
19.3684 -11.6270 1.4099 0.9134
19.5375 -11.3435 1.4100 0.9134
6.7954 -3.3075 0.4717 0.9702
6.8930 -3.2313 0.4751 0.9700
7.0069 -2.9174 0.4737 0.9700
7.1121 -2.6017 0.4727 0.9701
7.3761 -2.5767 0.4877 0.9692
7.7154 -2.5694 0.5075 0.9679
38.6904 -12.2595 2.5331 0.8499
44.1333 -11.8831 2.8526 0.8326
58.9978 -12.2403 3.7607 0.7855
66.6668 -11.8110 4.2257 0.7624
53.8199 -3.9391 3.3681 0.8055
53.4961 -2.3466 3.3421 0.8069
54.2085 -1.5847 3.3848 0.8046
55.9338 8.2317 3.5287 0.7973
45.0160 8.6555 2.8611 0.8322
44.6473 9.2630 2.8460 0.8330
36.5347 8.7006 2.3441 0.8603
33.1156 8.9166 2.1405 0.8716
26.3186 8.7645 1.7313 0.8948
26.6725 9.3175 1.7634 0.8929
25.8777 9.4663 1.7198 0.8954
26.3477 10.0772 1.7606 0.8931
26.1032 10.4233 1.7543 0.8935
2.2187 9.6281 0.6167 0.9612
-0.4454 4.6764 0.2932 0.9813
-0.5564 3.9829 0.2510 0.9840
-0.5899 3.8150 0.2409 0.9846
-0.6235 3.6759 0.2327 0.9852
-0.7176 3.5908 0.2285 0.9854
-0.7733 3.5954 0.2295 0.9854
-1.0040 3.6234 0.2347 0.9850
-1.0635 3.6309 0.2361 0.9850
-1.1237 3.6385 0.2377 0.9849
-1.6542 3.7402 0.2553 0.9837
-1.7276 3.7565 0.2581 0.9836
-5.0357 4.7847 0.4335 0.9725
-5.0508 4.6605 0.4289 0.9728
-5.1952 4.5199 0.4298 0.9728
-5.3275 4.5000 0.4353 0.9724
-5.4673 4.4828 0.4413 0.9721
-5.6151 4.4684 0.4479 0.9716
-1.4516 0.8428 0.1048 0.9933
-1.4418 0.7817 0.1024 0.9934
-1.2577 0.6351 0.0879 0.9944
-1.1290 0.4896 0.0768 0.9951
-1.1244 0.4490 0.0756 0.9952
-1.1181 0.3906 0.0739 0.9953
-1.1162 0.3717 0.0734 0.9953
-1.1147 0.3532 0.0730 0.9953
-1.1124 0.3170 0.0722 0.9954
-1.1113 0.2992 0.0718 0.9954
-1.1102 0.2816 0.0715 0.9954
-1.1092 0.2641 0.0712 0.9954
-1.1083 0.2469 0.0709 0.9955
-1.1073 0.2297 0.0706 0.9955
-1.1056 0.1959 0.0701 0.9955
-1.1002 0.1784 0.0696 0.9955
-1.0930 0.1609 0.0690 0.9956
-1.0859 0.1437 0.0684 0.9956
-1.0661 0.0937 0.0668 0.9957
-1.0538 0.0616 0.0659 0.9958
-1.0479 0.0459 0.0655 0.9958
-1.0421 0.0304 0.0651 0.9958
-1.0375 0.0152 0.0648 0.9959
-0.9685 0.0000 0.0497 0.9961
-0.9723 -0.0142 0.0499 0.9961
-0.9762 -0.0286 0.0501 0.9961
-0.9803 -0.0430 0.0503 0.9961
-0.9897 -0.0725 0.0509 0.9960
-1.0006 -0.1027 0.0516 0.9960
-1.0121 -0.1339 0.0524 0.9959
-1.0242 -0.1660 0.0532 0.9959
-1.0305 -0.1826 0.0537 0.9958
-1.0361 -0.1992 0.0541 0.9958
-1.0383 -0.2155 0.0544 0.9958
-1.0407 -0.2318 0.0547 0.9957
-1.0456 -0.2652 0.0553 0.9957
