ply
format ascii 1.0
element vertex 1595
property float32 x
property float32 y
property float32 z
property float32 I
end_header
3.0951 -0.7371 -0.9959 0.9868
3.1153 -0.6464 -0.9959 0.9868
3.1244 -0.6008 -0.9959 0.9868
3.1329 -0.5550 -0.9959 0.9868
3.1407 -0.5092 -0.9959 0.9868
3.1478 -0.4632 -0.9959 0.9868
3.1542 -0.4172 -0.9959 0.9868
3.1732 -0.2322 -0.9959 0.9868
3.1762 -0.1859 -0.9959 0.9868
3.1786 -0.1394 -0.9959 0.9868
3.1814 -0.0465 -0.9959 0.9868
3.1817 0.0000 -0.9959 0.9868
3.1803 0.0929 -0.9959 0.9868
3.1762 0.1859 -0.9959 0.9868
3.1732 0.2323 -0.9959 0.9868
3.1542 0.4172 -0.9959 0.9868
3.1407 0.5092 -0.9959 0.9868
3.1329 0.5550 -0.9959 0.9868
3.1244 0.6007 -0.9959 0.9868
3.1153 0.6463 -0.9959 0.9868
3.1055 0.6918 -0.9959 0.9868
3.0951 0.7371 -0.9959 0.9868
3.0722 0.8272 -0.9959 0.9868
3.0598 0.8720 -0.9959 0.9868
3.0186 1.0053 -0.9959 0.9868
3.0036 1.0492 -0.9959 0.9868
2.9547 1.1799 -0.9959 0.9868
2.9371 1.2229 -0.9959 0.9868
2.9189 1.2657 -0.9959 0.9868
2.9001 1.3082 -0.9959 0.9868
2.8607 1.3924 -0.9959 0.9868
2.8400 1.4340 -0.9959 0.9868
2.8187 1.4754 -0.9959 0.9868
2.7744 1.5571 -0.9958 0.9868
2.7277 1.6375 -0.9958 0.9868
2.6273 1.7939 -0.9958 0.9868
2.6008 1.8321 -0.9958 0.9868
2.5461 1.9073 -0.9958 0.9868
2.5180 1.9443 -0.9958 0.9868
2.4893 1.9809 -0.9958 0.9868
2.4001 2.0880 -0.9958 0.9868
2.3380 2.1573 -0.9958 0.9868
2.2079 2.2901 -0.9957 0.9868
2.1400 2.3536 -0.9957 0.9868
2.1054 2.3846 -0.9957 0.9868
1.9257 2.5319 -0.9957 0.9868
1.8885 2.5597 -0.9957 0.9868
1.8508 2.5870 -0.9957 0.9868
1.7744 2.6400 -0.9957 0.9868
1.7356 2.6655 -0.9957 0.9868
1.5769 2.7623 -0.9956 0.9868
1.5364 2.7850 -0.9956 0.9868
1.4543 2.8287 -0.9956 0.9868
1.4129 2.8496 -0.9956 0.9868
1.1578 2.9623 -0.9955 0.9868
1.0708 2.9948 -0.9955 0.9868
1.0269 3.0101 -0.9955 0.9868
0.9828 3.0247 -0.9955 0.9868
0.8940 3.0521 -0.9955 0.9868
0.7593 3.0882 -0.9955 0.9868
0.6688 3.1091 -0.9955 0.9868
0.6233 3.1185 -0.9954 0.9868
0.5776 3.1272 -0.9954 0.9868
0.4860 3.1428 -0.9954 0.9868
0.3940 3.1555 -0.9954 0.9868
0.3016 3.1656 -0.9954 0.9868
0.2089 3.1730 -0.9954 0.9868
0.1161 3.1778 -0.9953 0.9868
0.0697 3.1791 -0.9953 0.9868
-0.0697 3.1790 -0.9953 0.9868
-0.1162 3.1776 -0.9953 0.9868
-0.1625 3.1755 -0.9953 0.9868
-0.2089 3.1728 -0.9953 0.9868
-0.2553 3.1694 -0.9953 0.9868
-0.3016 3.1653 -0.9953 0.9868
-0.4400 3.1489 -0.9952 0.9868
-0.4859 3.1421 -0.9952 0.9868
-0.5775 3.1265 -0.9952 0.9868
-0.6686 3.1083 -0.9952 0.9868
-0.7140 3.0982 -0.9952 0.9868
-0.8042 3.0759 -0.9952 0.9868
-0.8490 3.0638 -0.9952 0.9868
-0.9382 3.0377 -0.9952 0.9868
-0.2225 0.6521 -0.2157 0.9971
-0.2180 0.5578 -0.1875 0.9975
-0.2271 0.5345 -0.1818 0.9976
-0.2314 0.5231 -0.1791 0.9976
-0.2395 0.5013 -0.1739 0.9977
-0.2433 0.4907 -0.1714 0.9977
-0.2471 0.4805 -0.1691 0.9977
-0.2511 0.4712 -0.1671 0.9978
-0.2723 0.4182 -0.1562 0.9979
-0.2951 0.3546 -0.1444 0.9981
-0.2976 0.3471 -0.1431 0.9981
-0.3063 0.3177 -0.1381 0.9982
-0.3080 0.3103 -0.1368 0.9982
-0.3097 0.3029 -0.1356 0.9982
-0.3112 0.2957 -0.1344 0.9982
-0.3127 0.2886 -0.1332 0.9982
-0.3142 0.2815 -0.1321 0.9982
-0.3182 0.2609 -0.1288 0.9983
-0.3194 0.2542 -0.1278 0.9983
-0.3206 0.2475 -0.1268 0.9983
-0.3217 0.2410 -0.1258 0.9983
-0.3228 0.2345 -0.1249 0.9983
-0.3238 0.2281 -0.1240 0.9983
-0.3248 0.2217 -0.1231 0.9984
-0.3312 0.1795 -0.1179 0.9984
-0.3340 0.1625 -0.1163 0.9984
-0.3355 0.1514 -0.1152 0.9985
-0.3362 0.1458 -0.1147 0.9985
-0.3374 0.1347 -0.1137 0.9985
-0.3379 0.1292 -0.1132 0.9985
-0.3389 0.1184 -0.1124 0.9985
-0.3393 0.1130 -0.1119 0.9985
-0.3401 0.1023 -0.1112 0.9985
-0.3404 0.0970 -0.1108 0.9985
-0.3407 0.0917 -0.1104 0.9985
-0.3412 0.0812 -0.1098 0.9985
-0.3418 0.0554 -0.1084 0.9985
-0.3418 0.0401 -0.1077 0.9986
-0.3417 0.0351 -0.1075 0.9986
-0.3412 0.0150 -0.1069 0.9986
-0.3407 0.0050 -0.1067 0.9986
-0.3350 0.0000 -0.1089 0.9986
-0.3355 -0.0098 -0.1091 0.9986
-0.3357 -0.0147 -0.1093 0.9986
-0.3358 -0.0196 -0.1094 0.9986
-0.3361 -0.0295 -0.1097 0.9986
-0.3363 -0.0445 -0.1103 0.9986
-0.3362 -0.0495 -0.1105 0.9986
-0.3357 -0.0748 -0.1119 0.9986
-0.3355 -0.0799 -0.1122 0.9986
-0.3350 -0.0902 -0.1128 0.9985
-0.3347 -0.0954 -0.1132 0.9985
-0.3340 -0.1058 -0.1139 0.9985
-0.3322 -0.1270 -0.1157 0.9985
-0.3310 -0.1378 -0.1166 0.9985
-0.3272 -0.1652 -0.1192 0.9985
-0.3242 -0.1820 -0.1209 0.9984
-0.3203 -0.2052 -0.1237 0.9984
-0.3194 -0.2113 -0.1246 0.9984
-0.3175 -0.2237 -0.1263 0.9984
-0.3165 -0.2299 -0.1272 0.9984
-0.3118 -0.2557 -0.1311 0.9983
-0.3105 -0.2623 -0.1322 0.9983
-0.3062 -0.2825 -0.1355 0.9982
-0.3047 -0.2895 -0.1367 0.9982
-0.3031 -0.2965 -0.1379 0.9982
-0.2997 -0.3108 -0.1404 0.9982
-0.2979 -0.3181 -0.1417 0.9982
-0.2936 -0.3325 -0.1442 0.9981
-0.2911 -0.3396 -0.1455 0.9981
-0.2887 -0.3468 -0.1467 0.9981
-0.2834 -0.3615 -0.1494 0.9981
-0.2806 -0.3690 -0.1508 0.9981
-0.2749 -0.3842 -0.1536 0.9980
-0.2658 -0.4081 -0.1584 0.9980
-0.2557 -0.4330 -0.1636 0.9979
-0.2446 -0.4591 -0.1692 0.9978
-0.2407 -0.4681 -0.1712 0.9978
-0.2324 -0.4864 -0.1753 0.9977
-0.2241 -0.5065 -0.1801 0.9977
-0.2198 -0.5172 -0.1828 0.9976
-0.2108 -0.5393 -0.1883 0.9976
-0.1985 -0.5820 -0.2000 0.9974
-0.2019 -0.6213 -0.2125 0.9973
-0.2055 -0.6654 -0.2265 0.9971
-0.8470 -2.8916 -0.9799 0.9874
-0.6767 -2.9362 -0.9800 0.9874
-0.6337 -2.9458 -0.9800 0.9874
-0.5906 -2.9548 -0.9800 0.9874
-0.5473 -2.9631 -0.9800 0.9874
-0.5040 -2.9708 -0.9800 0.9874
-0.4170 -2.9843 -0.9800 0.9874
-0.2419 -3.0037 -0.9800 0.9874
-0.1980 -3.0069 -0.9800 0.9874
-0.1101 -3.0115 -0.9801 0.9874
0.0660 -3.0129 -0.9801 0.9874
0.0870 -2.3798 -0.7745 0.9900
0.2419 -3.0040 -0.9801 0.9874
0.3733 -2.9906 -0.9802 0.9874
0.4605 -2.9784 -0.9802 0.9874
0.4518 -2.1002 -0.6987 0.9910
0.4959 -2.1520 -0.7182 0.9908
0.5426 -2.2068 -0.7391 0.9905
0.5921 -2.2650 -0.7614 0.9902
0.7009 -2.3932 -0.8110 0.9896
0.7510 -2.3114 -0.7904 0.9898
0.8898 -2.4887 -0.8596 0.9889
0.9689 -2.5899 -0.8993 0.9884
1.1789 -2.7741 -0.9803 0.9874
1.2193 -2.7566 -0.9803 0.9874
1.4560 -2.6394 -0.9804 0.9874
0.9418 -1.6497 -0.6178 0.9920
1.0524 -1.6691 -0.6417 0.9917
1.0908 -1.6753 -0.6502 0.9916
1.1301 -1.6814 -0.6589 0.9915
1.2112 -1.6930 -0.6770 0.9913
1.2960 -1.7040 -0.6962 0.9910
1.3398 -1.7092 -0.7063 0.9909
1.3847 -1.7142 -0.7167 0.9908
1.4306 -1.7190 -0.7274 0.9906
2.0281 -2.2305 -0.9805 0.9874
2.0934 -2.1713 -0.9809 0.9874
2.1402 -2.1559 -0.9880 0.9873
2.2196 -2.1089 -0.9957 0.9872
2.2502 -2.0762 -0.9957 0.9872
2.3390 -1.9757 -0.9958 0.9872
2.3958 -1.9065 -0.9958 0.9872
2.4234 -1.8713 -0.9958 0.9872
2.6019 -1.6141 -0.9958 0.9872
2.8268 -1.1770 -0.9959 0.9872
2.8437 -1.1355 -0.9959 0.9872
2.8600 -1.0939 -0.9959 0.9872
2.8908 -1.0098 -0.9959 0.9872
2.9190 -0.9249 -0.9959 0.9872
2.9323 -0.8821 -0.9959 0.9872
2.9889 -0.6658 -0.9959 0.9872
3.0071 -0.5782 -0.9959 0.9872
3.0152 -0.5342 -0.9959 0.9872
3.0295 -0.4459 -0.9959 0.9872
3.0592 -0.1342 -0.9959 0.9872
3.0619 -0.0447 -0.9959 0.9872
3.0622 0.0000 -0.9959 0.9872
3.0618 0.0447 -0.9959 0.9872
3.0609 0.0895 -0.9959 0.9872
3.0592 0.1342 -0.9959 0.9872
3.0569 0.1789 -0.9959 0.9872
3.0540 0.2236 -0.9959 0.9872
3.0462 0.3127 -0.9959 0.9872
3.0295 0.4458 -0.9959 0.9872
3.0152 0.5342 -0.9959 0.9872
2.9983 0.6221 -0.9959 0.9872
2.9788 0.7094 -0.9959 0.9872
2.9568 0.7962 -0.9959 0.9872
2.9448 0.8393 -0.9959 0.9872
2.9322 0.8822 -0.9959 0.9872
2.9191 0.9250 -0.9959 0.9872
2.9052 0.9675 -0.9959 0.9872
2.8908 1.0098 -0.9959 0.9872
2.8757 1.0520 -0.9959 0.9872
2.7912 1.2591 -0.9959 0.9872
2.7725 1.2997 -0.9958 0.9872
2.7532 1.3400 -0.9958 0.9872
2.7333 1.3802 -0.9958 0.9872
2.6702 1.4986 -0.9958 0.9872
2.5780 1.6520 -0.9958 0.9872
2.5536 1.6895 -0.9958 0.9872
2.5286 1.7266 -0.9958 0.9872
2.4234 1.8713 -0.9958 0.9872
2.3099 2.0096 -0.9958 0.9872
2.2803 2.0432 -0.9958 0.9872
2.1570 2.1728 -0.9957 0.9872
2.1250 2.2041 -0.9957 0.9872
2.0263 2.2951 -0.9957 0.9872
1.9584 2.3532 -0.9957 0.9872
1.8887 2.4094 -0.9957 0.9872
1.7078 2.5408 -0.9956 0.9872
1.6704 2.5655 -0.9956 0.9872
1.5948 2.6131 -0.9956 0.9872
1.5564 2.6361 -0.9956 0.9872
1.4787 2.6805 -0.9956 0.9872
1.4394 2.7018 -0.9956 0.9872
1.3997 2.7225 -0.9956 0.9872
1.3598 2.7427 -0.9956 0.9872
1.2382 2.7995 -0.9956 0.9872
1.1972 2.8173 -0.9956 0.9872
1.1144 2.8510 -0.9955 0.9872
1.0726 2.8669 -0.9955 0.9872
0.9883 2.8970 -0.9955 0.9872
0.9032 2.9246 -0.9955 0.9872
0.8604 2.9375 -0.9955 0.9872
0.8174 2.9497 -0.9955 0.9872
0.7742 2.9613 -0.9955 0.9872
0.7308 2.9723 -0.9955 0.9872
0.6873 2.9827 -0.9955 0.9872
0.6437 2.9923 -0.9954 0.9872
0.5999 3.0014 -0.9954 0.9872
0.5119 3.0176 -0.9954 0.9872
0.3792 3.0371 -0.9954 0.9872
0.2011 3.0539 -0.9954 0.9872
0.1564 3.0565 -0.9954 0.9872
0.0223 3.0604 -0.9953 0.9872
-0.0224 3.0603 -0.9953 0.9872
-0.0671 3.0596 -0.9953 0.9872
-0.1118 3.0583 -0.9953 0.9872
-0.1564 3.0563 -0.9953 0.9872
-0.2457 3.0504 -0.9953 0.9872
-0.2902 3.0464 -0.9953 0.9872
-0.3791 3.0366 -0.9953 0.9872
-0.4677 3.0242 -0.9952 0.9872
-0.5118 3.0170 -0.9952 0.9872
-0.5558 3.0092 -0.9952 0.9872
-0.7306 2.9715 -0.9952 0.9872
-0.8172 2.9488 -0.9952 0.9872
-0.2055 0.6654 -0.2265 0.9971
-0.1985 0.5819 -0.2000 0.9974
-0.2154 0.5281 -0.1855 0.9976
-0.2198 0.5172 -0.1828 0.9976
-0.2240 0.5065 -0.1801 0.9977
-0.2281 0.4960 -0.1776 0.9977
-0.2324 0.4864 -0.1753 0.9977
-0.2366 0.4772 -0.1732 0.9978
-0.2407 0.4681 -0.1712 0.9978
-0.2484 0.4503 -0.1673 0.9978
-0.2592 0.4246 -0.1618 0.9979
-0.2657 0.4081 -0.1584 0.9980
-0.2719 0.3921 -0.1552 0.9980
-0.2806 0.3690 -0.1508 0.9981
-0.2912 0.3396 -0.1455 0.9981
-0.2959 0.3254 -0.1430 0.9982
-0.2979 0.3181 -0.1417 0.9982
-0.2997 0.3108 -0.1404 0.9982
-0.3014 0.3036 -0.1391 0.9982
-0.3031 0.2965 -0.1379 0.9982
-0.3062 0.2825 -0.1355 0.9982
-0.3077 0.2757 -0.1344 0.9983
-0.3091 0.2689 -0.1333 0.9983
-0.3105 0.2622 -0.1322 0.9983
-0.3118 0.2556 -0.1311 0.9983
-0.3154 0.2362 -0.1281 0.9983
-0.3175 0.2236 -0.1263 0.9984
-0.3194 0.2113 -0.1246 0.9984
-0.3203 0.2052 -0.1237 0.9984
-0.3212 0.1992 -0.1229 0.9984
-0.3231 0.1876 -0.1215 0.9984
-0.3242 0.1820 -0.1209 0.9984
-0.3252 0.1763 -0.1203 0.9984
-0.3262 0.1708 -0.1198 0.9985
-0.3297 0.1487 -0.1176 0.9985
-0.3316 0.1324 -0.1161 0.9985
-0.3321 0.1270 -0.1157 0.9985
-0.3326 0.1217 -0.1152 0.9985
-0.3336 0.1111 -0.1143 0.9985
-0.3357 0.0748 -0.1119 0.9986
-0.3361 0.0595 -0.1110 0.9986
-0.3362 0.0395 -0.1101 0.9986
-0.3362 0.0345 -0.1099 0.9986
-0.3361 0.0295 -0.1097 0.9986
-0.3360 0.0246 -0.1096 0.9986
-0.3357 0.0147 -0.1093 0.9986
-0.3296 -0.0000 -0.1113 0.9986
-0.3299 -0.0048 -0.1114 0.9986
-0.3301 -0.0096 -0.1115 0.9986
-0.3305 -0.0193 -0.1117 0.9986
-0.3308 -0.0340 -0.1122 0.9986
-0.3308 -0.0389 -0.1124 0.9986
-0.3308 -0.0437 -0.1126 0.9986
-0.3308 -0.0536 -0.1131 0.9986
-0.3307 -0.0586 -0.1133 0.9986
-0.3304 -0.0686 -0.1139 0.9986
-0.3302 -0.0736 -0.1142 0.9986
-0.3295 -0.0887 -0.1152 0.9986
-0.3292 -0.0938 -0.1155 0.9986
-0.3288 -0.0989 -0.1159 0.9986
-0.3280 -0.1092 -0.1167 0.9985
-0.3275 -0.1144 -0.1171 0.9985
-0.3265 -0.1249 -0.1180 0.9985
-0.3260 -0.1302 -0.1185 0.9985
-0.3233 -0.1516 -0.1205 0.9985
-0.3224 -0.1569 -0.1210 0.9985
-0.3215 -0.1624 -0.1216 0.9985
-0.3205 -0.1678 -0.1221 0.9985
-0.3195 -0.1732 -0.1227 0.9985
-0.3185 -0.1787 -0.1233 0.9985
-0.3174 -0.1843 -0.1239 0.9985
-0.3152 -0.1955 -0.1252 0.9984
-0.3143 -0.2014 -0.1260 0.9984
-0.3114 -0.2194 -0.1286 0.9984
-0.3103 -0.2255 -0.1295 0.9984
-0.3092 -0.2317 -0.1304 0.9984
-0.3080 -0.2379 -0.1314 0.9984
-0.3068 -0.2442 -0.1324 0.9983
-0.3042 -0.2570 -0.1344 0.9983
-0.3029 -0.2635 -0.1355 0.9983
-0.2984 -0.2835 -0.1389 0.9983
-0.2967 -0.2903 -0.1401 0.9982
-0.2933 -0.3042 -0.1426 0.9982
-0.2914 -0.3113 -0.1439 0.9982
-0.2896 -0.3184 -0.1453 0.9982
-0.2849 -0.3323 -0.1477 0.9982
-0.2798 -0.3464 -0.1503 0.9981
-0.2716 -0.3681 -0.1544 0.9981
-0.2687 -0.3755 -0.1558 0.9981
-0.2656 -0.3830 -0.1573 0.9980
-0.2626 -0.3907 -0.1589 0.9980
-0.2595 -0.3985 -0.1605 0.9980
-0.2459 -0.4307 -0.1674 0.9979
-0.2422 -0.4391 -0.1693 0.9979
-0.2345 -0.4562 -0.1731 0.9978
-0.2305 -0.4649 -0.1751 0.9978
-0.2176 -0.4919 -0.1816 0.9977
-0.2085 -0.5113 -0.1864 0.9977
-0.2040 -0.5218 -0.1891 0.9976
-0.1993 -0.5325 -0.1919 0.9976
-0.1840 -0.5661 -0.2009 0.9975
-0.1830 -0.5927 -0.2094 0.9974
-0.7344 -2.8089 -0.9799 0.9878
-0.6932 -2.8194 -0.9800 0.9878
-0.5690 -2.8471 -0.9800 0.9878
-0.5274 -2.8552 -0.9800 0.9878
-0.4856 -2.8625 -0.9800 0.9878
-0.4437 -2.8694 -0.9800 0.9878
-0.4018 -2.8756 -0.9800 0.9878
-0.1061 -2.9018 -0.9801 0.9878
-0.0637 -2.9030 -0.9801 0.9878
-0.0212 -2.9036 -0.9801 0.9878
0.0212 -2.9037 -0.9801 0.9878
0.1060 -2.9018 -0.9801 0.9878
0.4018 -2.8761 -0.9802 0.9878
0.4134 -2.0687 -0.7121 0.9911
0.5978 -2.2865 -0.7977 0.9901
0.6512 -2.3498 -0.8230 0.9898
0.7689 -2.4898 -0.8795 0.9891
0.7599 -2.3388 -0.8300 0.9897
0.9820 -2.6249 -0.9459 0.9882
1.0967 -2.6893 -0.9803 0.9878
1.1748 -2.6562 -0.9803 0.9878
1.2135 -2.6387 -0.9803 0.9878
1.2520 -2.6207 -0.9803 0.9878
1.2901 -2.6022 -0.9803 0.9878
1.3280 -2.5831 -0.9803 0.9878
1.3656 -2.5634 -0.9803 0.9878
1.4030 -2.5432 -0.9803 0.9878
0.9486 -1.6067 -0.6298 0.9922
0.9840 -1.6123 -0.6375 0.9921
1.0569 -1.6232 -0.6538 0.9919
1.1329 -1.6333 -0.6709 0.9916
1.2946 -1.6516 -0.7083 0.9912
1.3373 -1.6556 -0.7183 0.9911
1.3809 -1.6594 -0.7287 0.9909
1.4256 -1.6630 -0.7393 0.9908
2.0110 -2.1478 -0.9931 0.9877
2.0475 -2.1237 -0.9957 0.9876
2.0784 -2.0936 -0.9957 0.9876
2.1087 -2.0630 -0.9957 0.9876
2.1681 -2.0005 -0.9957 0.9876
2.1971 -1.9687 -0.9957 0.9876
2.2257 -1.9364 -0.9957 0.9876
2.2538 -1.9037 -0.9957 0.9876
2.2813 -1.8705 -0.9958 0.9876
2.3084 -1.8370 -0.9958 0.9876
2.3351 -1.8031 -0.9958 0.9876
2.3868 -1.7341 -0.9958 0.9876
2.4118 -1.6990 -0.9958 0.9876
2.5071 -1.5553 -0.9958 0.9876
2.5514 -1.4814 -0.9958 0.9876
2.5728 -1.4440 -0.9958 0.9876
2.5937 -1.4062 -0.9958 0.9876
2.6337 -1.3298 -0.9958 0.9876
2.6528 -1.2912 -0.9958 0.9876
2.6714 -1.2523 -0.9958 0.9876
2.7237 -1.1340 -0.9958 0.9876
2.7400 -1.0941 -0.9958 0.9876
2.7709 -1.0136 -0.9958 0.9876
2.7993 -0.9322 -0.9959 0.9876
2.8127 -0.8912 -0.9959 0.9876
2.8375 -0.8086 -0.9959 0.9876
2.8490 -0.7671 -0.9959 0.9876
2.8599 -0.7254 -0.9959 0.9876
2.8974 -0.5571 -0.9959 0.9876
2.9125 -0.4722 -0.9959 0.9876
2.9250 -0.3869 -0.9959 0.9876
2.9304 -0.3441 -0.9959 0.9876
2.9351 -0.3013 -0.9959 0.9876
2.9392 -0.2584 -0.9959 0.9876
2.9426 -0.2154 -0.9959 0.9876
2.9455 -0.1724 -0.9959 0.9876
2.9493 -0.0862 -0.9959 0.9876
2.9505 0.0000 -0.9959 0.9876
2.9502 0.0431 -0.9959 0.9876
2.9477 0.1293 -0.9959 0.9876
2.9427 0.2154 -0.9959 0.9876
2.9392 0.2583 -0.9959 0.9876
2.9250 0.3869 -0.9959 0.9876
2.9125 0.4722 -0.9959 0.9876
2.8974 0.5571 -0.9959 0.9876
2.8890 0.5994 -0.9959 0.9876
2.8702 0.6836 -0.9959 0.9876
2.8375 0.8087 -0.9959 0.9876
2.8126 0.8912 -0.9959 0.9876
2.7709 1.0136 -0.9958 0.9876
2.7069 1.1737 -0.9958 0.9876
2.6894 1.2132 -0.9958 0.9876
2.6528 1.2912 -0.9958 0.9876
2.5937 1.4062 -0.9958 0.9876
2.5728 1.4439 -0.9958 0.9876
2.5515 1.4814 -0.9958 0.9876
2.4605 1.6279 -0.9958 0.9876
2.4119 1.6990 -0.9958 0.9876
2.3868 1.7341 -0.9958 0.9876
2.3612 1.7688 -0.9958 0.9876
2.2813 1.8705 -0.9958 0.9876
2.2538 1.9037 -0.9958 0.9876
2.2257 1.9363 -0.9957 0.9876
2.1971 1.9687 -0.9957 0.9876
2.1387 2.0320 -0.9957 0.9876
2.0784 2.0936 -0.9957 0.9876
2.0475 2.1237 -0.9957 0.9876
2.0163 2.1534 -0.9957 0.9876
1.9525 2.2114 -0.9957 0.9876
1.9200 2.2397 -0.9957 0.9876
1.7513 2.3738 -0.9957 0.9876
1.7164 2.3991 -0.9956 0.9876
1.6455 2.4482 -0.9956 0.9876
1.5733 2.4952 -0.9956 0.9876
1.5366 2.5179 -0.9956 0.9876
1.4996 2.5400 -0.9956 0.9876
1.4248 2.5828 -0.9956 0.9876
1.3102 2.6427 -0.9956 0.9876
1.2714 2.6615 -0.9956 0.9876
1.2324 2.6798 -0.9956 0.9876
1.1536 2.7146 -0.9955 0.9876
0.9523 2.7915 -0.9955 0.9876
0.8703 2.8180 -0.9955 0.9876
0.7876 2.8422 -0.9955 0.9876
0.6623 2.8739 -0.9955 0.9876
0.4932 2.9076 -0.9954 0.9876
0.4081 2.9207 -0.9954 0.9876
0.3653 2.9264 -0.9954 0.9876
0.3225 2.9314 -0.9954 0.9876
0.2797 2.9357 -0.9954 0.9876
0.2368 2.9395 -0.9954 0.9876
0.0646 2.9482 -0.9953 0.9876
0.0215 2.9488 -0.9953 0.9876
-0.1077 2.9469 -0.9953 0.9876
-0.1507 2.9450 -0.9953 0.9876
-0.2367 2.9392 -0.9953 0.9876
-0.2796 2.9355 -0.9953 0.9876
-0.3225 2.9310 -0.9953 0.9876
-0.3653 2.9260 -0.9953 0.9876
-0.4506 2.9140 -0.9952 0.9876
-0.6621 2.8732 -0.9952 0.9876
-0.7040 2.8632 -0.9952 0.9876
-0.7874 2.8414 -0.9952 0.9876
-0.1892 0.5546 -0.1978 0.9975
-0.1943 0.5435 -0.1948 0.9976
-0.1992 0.5325 -0.1919 0.9976
-0.2040 0.5218 -0.1891 0.9976
-0.2085 0.5112 -0.1864 0.9977
-0.2176 0.4919 -0.1816 0.9977
-0.2263 0.4738 -0.1772 0.9978
-0.2345 0.4561 -0.1731 0.9978
-0.2459 0.4307 -0.1674 0.9979
-0.2495 0.4225 -0.1656 0.9979
-0.2529 0.4144 -0.1639 0.9980
-0.2563 0.4064 -0.1622 0.9980
-0.2595 0.3985 -0.1605 0.9980
-0.2626 0.3907 -0.1589 0.9980
-0.2687 0.3755 -0.1558 0.9981
-0.2716 0.3681 -0.1544 0.9981
-0.2744 0.3608 -0.1530 0.9981
-0.2772 0.3536 -0.1516 0.9981
-0.2824 0.3393 -0.1490 0.9981
-0.2914 0.3113 -0.1439 0.9982
-0.2933 0.3042 -0.1426 0.9982
-0.2950 0.2972 -0.1413 0.9982
-0.2967 0.2903 -0.1401 0.9982
-0.2983 0.2834 -0.1389 0.9983
-0.2999 0.2768 -0.1377 0.9983
-0.3014 0.2700 -0.1366 0.9983
-0.3042 0.2570 -0.1344 0.9983
-0.3056 0.2505 -0.1334 0.9983
-0.3068 0.2442 -0.1324 0.9983
-0.3081 0.2379 -0.1314 0.9984
-0.3092 0.2316 -0.1304 0.9984
-0.3114 0.2194 -0.1286 0.9984
-0.3124 0.2133 -0.1277 0.9984
-0.3152 0.1955 -0.1252 0.9984
-0.3174 0.1843 -0.1239 0.9985
-0.3224 0.1569 -0.1210 0.9985
-0.3233 0.1516 -0.1205 0.9985
-0.3241 0.1462 -0.1200 0.9985
-0.3247 0.1408 -0.1195 0.9985
-0.3275 0.1144 -0.1171 0.9985
-0.3280 0.1092 -0.1167 0.9985
-0.3288 0.0989 -0.1159 0.9986
-0.3295 0.0887 -0.1152 0.9986
-0.3297 0.0836 -0.1148 0.9986
-0.3302 0.0736 -0.1142 0.9986
-0.3304 0.0686 -0.1139 0.9986
-0.3305 0.0636 -0.1136 0.9986
-0.3308 0.0389 -0.1124 0.9986
-0.3308 0.0339 -0.1122 0.9986
-0.3305 0.0193 -0.1117 0.9986
-0.3303 0.0145 -0.1116 0.9986
-0.3299 0.0048 -0.1114 0.9986
-0.3249 -0.0095 -0.1137 0.9986
-0.3251 -0.0143 -0.1139 0.9986
-0.3252 -0.0190 -0.1140 0.9986
-0.3254 -0.0238 -0.1141 0.9986
-0.3254 -0.0286 -0.1143 0.9986
-0.3255 -0.0334 -0.1145 0.9986
-0.3255 -0.0382 -0.1147 0.9986
-0.3255 -0.0479 -0.1151 0.9986
-0.3254 -0.0528 -0.1154 0.9986
-0.3253 -0.0576 -0.1156 0.9986
-0.3252 -0.0625 -0.1159 0.9986
-0.3250 -0.0674 -0.1162 0.9986
-0.3248 -0.0723 -0.1165 0.9986
-0.3246 -0.0773 -0.1168 0.9986
-0.3241 -0.0872 -0.1174 0.9986
-0.3211 -0.1228 -0.1203 0.9985
-0.3205 -0.1280 -0.1208 0.9985
-0.3185 -0.1437 -0.1223 0.9985
-0.3178 -0.1490 -0.1228 0.9985
-0.3169 -0.1543 -0.1233 0.9985
-0.3150 -0.1649 -0.1244 0.9985
-0.3095 -0.1920 -0.1274 0.9985
-0.3084 -0.1976 -0.1282 0.9984
-0.3075 -0.2034 -0.1290 0.9984
-0.3055 -0.2152 -0.1307 0.9984
-0.3033 -0.2271 -0.1326 0.9984
-0.3021 -0.2332 -0.1335 0.9984
-0.2982 -0.2519 -0.1366 0.9983
-0.2968 -0.2582 -0.1377 0.9983
-0.2953 -0.2646 -0.1388 0.9983
-0.2938 -0.2711 -0.1399 0.9983
-0.2906 -0.2843 -0.1422 0.9983
-0.2889 -0.2910 -0.1435 0.9983
-0.2853 -0.3046 -0.1460 0.9982
-0.2833 -0.3116 -0.1474 0.9982
-0.2813 -0.3186 -0.1487 0.9982
-0.2789 -0.3253 -0.1499 0.9982
-0.2764 -0.3321 -0.1512 0.9982
-0.2738 -0.3389 -0.1525 0.9982
-0.2684 -0.3529 -0.1551 0.9981
-0.2627 -0.3671 -0.1580 0.9981
-0.2535 -0.3892 -0.1625 0.9980
-0.2502 -0.3968 -0.1642 0.9980
-0.2469 -0.4046 -0.1658 0.9980
-0.2363 -0.4283 -0.1712 0.9979
-0.2326 -0.4365 -0.1731 0.9979
-0.2287 -0.4448 -0.1750 0.9979
-0.2247 -0.4531 -0.1770 0.9979
-0.2163 -0.4703 -0.1811 0.9978
-0.2119 -0.4790 -0.1833 0.9978
-0.2027 -0.4970 -0.1878 0.9977
-0.1929 -0.5155 -0.1926 0.9977
-0.1830 -0.5364 -0.1983 0.9976
-0.1778 -0.5472 -0.2013 0.9976
-0.1724 -0.5582 -0.2044 0.9975
-0.1667 -0.6015 -0.2184 0.9974
-0.7084 -2.7095 -0.9800 0.9882
-0.6687 -2.7196 -0.9800 0.9882
-0.6289 -2.7291 -0.9800 0.9882
-0.5489 -2.7463 -0.9800 0.9882
-0.3875 -2.7737 -0.9800 0.9882
-0.3470 -2.7792 -0.9800 0.9882
-0.2656 -2.7881 -0.9800 0.9882
-0.2249 -2.7918 -0.9800 0.9882
-0.1841 -2.7947 -0.9800 0.9882
-0.1023 -2.7990 -0.9801 0.9882
0.0614 -2.8003 -0.9801 0.9882
0.1432 -2.7973 -0.9801 0.9882
0.2249 -2.7920 -0.9801 0.9882
0.3876 -2.7742 -0.9802 0.9882
0.4685 -2.7617 -0.9802 0.9882
0.5049 -2.1910 -0.7868 0.9905
0.6035 -2.3086 -0.8350 0.9899
0.6576 -2.3732 -0.8617 0.9896
0.7771 -2.5163 -0.9215 0.9889
0.7691 -2.3671 -0.8709 0.9895
0.9816 -2.6239 -0.9803 0.9882
1.0199 -2.6093 -0.9803 0.9882
1.0956 -2.5784 -0.9803 0.9882
1.1706 -2.5453 -0.9803 0.9882
1.2444 -2.5100 -0.9803 0.9882
1.3890 -2.4331 -0.9803 0.9882
1.0248 -1.5738 -0.6572 0.9921
1.0608 -1.5782 -0.6654 0.9920
1.1350 -1.5864 -0.6826 0.9918
1.1732 -1.5903 -0.6915 0.9917
1.2521 -1.5973 -0.7102 0.9914
1.2928 -1.6005 -0.7199 0.9913
1.3343 -1.6034 -0.7299 0.9912
1.4645 -1.6107 -0.7617 0.9908
1.9448 -2.0771 -0.9957 0.9880
1.9750 -2.0485 -0.9957 0.9880
2.0047 -2.0194 -0.9957 0.9880
2.0629 -1.9600 -0.9957 0.9880
2.1469 -1.8678 -0.9957 0.9880
2.1739 -1.8363 -0.9957 0.9880
2.2005 -1.8043 -0.9957 0.9880
2.2267 -1.7719 -0.9957 0.9880
2.2523 -1.7392 -0.9957 0.9880
2.2775 -1.7061 -0.9958 0.9880
2.4399 -1.4647 -0.9958 0.9880
2.4610 -1.4289 -0.9958 0.9880
2.5588 -1.2454 -0.9958 0.9880
2.6110 -1.1321 -0.9958 0.9880
2.6272 -1.0939 -0.9958 0.9880
2.6429 -1.0554 -0.9958 0.9880
2.6727 -0.9777 -0.9958 0.9880
2.7130 -0.8596 -0.9958 0.9880
2.7253 -0.8199 -0.9958 0.9880
2.7370 -0.7800 -0.9958 0.9880
2.7586 -0.6997 -0.9958 0.9880
2.7778 -0.6188 -0.9958 0.9880
2.7948 -0.5374 -0.9959 0.9880
2.8093 -0.4555 -0.9959 0.9880
2.8214 -0.3732 -0.9959 0.9880
2.8266 -0.3320 -0.9959 0.9880
2.8311 -0.2906 -0.9959 0.9880
2.8351 -0.2492 -0.9959 0.9880
2.8411 -0.1662 -0.9959 0.9880
2.8433 -0.1247 -0.9959 0.9880
2.8460 -0.0000 -0.9959 0.9880
2.8457 0.0416 -0.9959 0.9880
2.8412 0.1663 -0.9959 0.9880
2.8311 0.2906 -0.9959 0.9880
2.8214 0.3732 -0.9959 0.9880
2.8157 0.4144 -0.9959 0.9880
2.7866 0.5782 -0.9959 0.9880
2.7586 0.6997 -0.9958 0.9880
2.7130 0.8596 -0.9958 0.9880
2.7001 0.8992 -0.9958 0.9880
2.6581 1.0166 -0.9958 0.9880
2.6429 1.0554 -0.9958 0.9880
2.6272 1.0939 -0.9958 0.9880
2.5768 1.2080 -0.9958 0.9880
2.5589 1.2455 -0.9958 0.9880
2.5404 1.2827 -0.9958 0.9880
2.4399 1.4647 -0.9958 0.9880
2.3264 1.6389 -0.9958 0.9880
2.2775 1.7061 -0.9958 0.9880
2.2267 1.7719 -0.9957 0.9880
2.1193 1.8989 -0.9957 0.9880
2.0913 1.9297 -0.9957 0.9880
2.0629 1.9600 -0.9957 0.9880
2.0047 2.0195 -0.9957 0.9880
1.9750 2.0486 -0.9957 0.9880
1.9448 2.0771 -0.9957 0.9880
1.8833 2.1330 -0.9957 0.9880
1.7880 2.2135 -0.9957 0.9880
1.7554 2.2394 -0.9957 0.9880
1.6215 2.3380 -0.9956 0.9880
1.5176 2.4068 -0.9956 0.9880
1.4822 2.4287 -0.9956 0.9880
1.4466 2.4501 -0.9956 0.9880
1.4106 2.4709 -0.9956 0.9880
1.3378 2.5111 -0.9956 0.9880
1.2638 2.5491 -0.9956 0.9880
1.1888 2.5848 -0.9956 0.9880
1.1508 2.6020 -0.9955 0.9880
1.0357 2.6498 -0.9955 0.9880
0.9969 2.6646 -0.9955 0.9880
0.9578 2.6789 -0.9955 0.9880
0.9186 2.6926 -0.9955 0.9880
0.8791 2.7057 -0.9955 0.9880
0.8395 2.7182 -0.9955 0.9880
0.7996 2.7302 -0.9955 0.9880
0.7597 2.7416 -0.9955 0.9880
0.6388 2.7721 -0.9954 0.9880
0.5167 2.7975 -0.9954 0.9880
0.4758 2.8046 -0.9954 0.9880
0.3936 2.8173 -0.9954 0.9880
0.3524 2.8227 -0.9954 0.9880
0.0208 2.8444 -0.9953 0.9880
-0.0208 2.8444 -0.9953 0.9880
-0.0623 2.8438 -0.9953 0.9880
-0.1454 2.8407 -0.9953 0.9880
-0.2284 2.8352 -0.9953 0.9880
-0.4347 2.8109 -0.9952 0.9880
-0.4757 2.8041 -0.9952 0.9880
-0.5981 2.7806 -0.9952 0.9880
-0.6387 2.7715 -0.9952 0.9880
-0.1667 0.6015 -0.2184 0.9974
-0.1668 0.5694 -0.2076 0.9975
-0.1724 0.5582 -0.2044 0.9975
-0.1778 0.5472 -0.2013 0.9976
-0.1929 0.5155 -0.1926 0.9977
-0.2074 0.4879 -0.1855 0.9978
-0.2119 0.4790 -0.1833 0.9978
-0.2287 0.4448 -0.1750 0.9979
-0.2326 0.4364 -0.1731 0.9979
-0.2435 0.4124 -0.1676 0.9980
-0.2469 0.4046 -0.1658 0.9980
-0.2502 0.3969 -0.1642 0.9980
-0.2535 0.3893 -0.1625 0.9980
-0.2566 0.3818 -0.1609 0.9981
-0.2597 0.3744 -0.1594 0.9981
-0.2627 0.3671 -0.1580 0.9981
-0.2656 0.3600 -0.1565 0.9981
-0.2684 0.3529 -0.1551 0.9981
-0.2738 0.3389 -0.1525 0.9982
-0.2764 0.3321 -0.1512 0.9982
-0.2789 0.3253 -0.1499 0.9982
-0.2813 0.3186 -0.1487 0.9982
-0.2889 0.2910 -0.1435 0.9983
-0.2938 0.2711 -0.1399 0.9983
-0.2982 0.2518 -0.1366 0.9983
-0.2995 0.2456 -0.1355 0.9984
-0.3033 0.2271 -0.1326 0.9984
-0.3055 0.2152 -0.1307 0.9984
-0.3065 0.2093 -0.1299 0.9984
-0.3095 0.1920 -0.1274 0.9985
-0.3107 0.1865 -0.1268 0.9985
-0.3118 0.1811 -0.1262 0.9985
-0.3139 0.1702 -0.1250 0.9985
-0.3150 0.1649 -0.1244 0.9985
-0.3159 0.1595 -0.1238 0.9985
-0.3169 0.1543 -0.1233 0.9985
-0.3178 0.1489 -0.1228 0.9985
-0.3192 0.1384 -0.1217 0.9985
-0.3205 0.1280 -0.1208 0.9985
-0.3211 0.1228 -0.1203 0.9985
-0.3226 0.1074 -0.1190 0.9986
-0.3230 0.1023 -0.1186 0.9986
-0.3234 0.0973 -0.1182 0.9986
-0.3248 0.0724 -0.1165 0.9986
-0.3254 0.0527 -0.1154 0.9986
-0.3255 0.0431 -0.1149 0.9986
-0.3253 0.0238 -0.1141 0.9986
-0.3252 0.0190 -0.1140 0.9986
-0.3249 0.0095 -0.1137 0.9986
-0.3194 0.0000 -0.1157 0.9986
-0.3196 -0.0047 -0.1158 0.9986
-0.3198 -0.0094 -0.1159 0.9986
-0.3203 -0.0282 -0.1165 0.9986
-0.3204 -0.0424 -0.1171 0.9986
-0.3203 -0.0471 -0.1173 0.9986
-0.3200 -0.0615 -0.1181 0.9986
-0.3198 -0.0664 -0.1184 0.9986
-0.3188 -0.0859 -0.1197 0.9986
-0.3185 -0.0908 -0.1200 0.9986
-0.3173 -0.1057 -0.1212 0.9986
-0.3168 -0.1107 -0.1216 0.9986
-0.3163 -0.1157 -0.1220 0.9986
-0.3157 -0.1207 -0.1225 0.9986
-0.3152 -0.1259 -0.1230 0.9986
-0.3131 -0.1413 -0.1245 0.9985
-0.3085 -0.1673 -0.1272 0.9985
-0.3064 -0.1779 -0.1284 0.9985
-0.3018 -0.1996 -0.1311 0.9985
-0.2909 -0.2531 -0.1397 0.9984
-0.2895 -0.2593 -0.1408 0.9983
-0.2879 -0.2657 -0.1420 0.9983
-0.2863 -0.2720 -0.1431 0.9983
-0.2830 -0.2850 -0.1455 0.9983
-0.2774 -0.3050 -0.1494 0.9982
-0.2730 -0.3185 -0.1520 0.9982
-0.2680 -0.3318 -0.1546 0.9982
-0.2598 -0.3521 -0.1586 0.9981
-0.2569 -0.3591 -0.1600 0.9981
-0.2539 -0.3661 -0.1615 0.9981
-0.2508 -0.3732 -0.1630 0.9981
-0.2477 -0.3804 -0.1645 0.9981
-0.2445 -0.3877 -0.1661 0.9981
-0.2269 -0.4259 -0.1749 0.9979
-0.2231 -0.4338 -0.1768 0.9979
-0.2191 -0.4419 -0.1787 0.9979
-0.2150 -0.4500 -0.1808 0.9979
-0.2065 -0.4668 -0.1849 0.9978
-0.1926 -0.4927 -0.1917 0.9978
-0.1826 -0.5107 -0.1965 0.9977
-0.1774 -0.5198 -0.1991 0.9977
-0.1720 -0.5293 -0.2017 0.9976
-0.1612 -0.5502 -0.2078 0.9976
-0.1496 -0.6083 -0.2270 0.9973
-0.5687 -2.6436 -0.9800 0.9886
-0.4523 -2.6661 -0.9800 0.9886
-0.4133 -2.6724 -0.9800 0.9886
-0.3742 -2.6782 -0.9800 0.9886
-0.3350 -2.6834 -0.9800 0.9886
-0.2958 -2.6880 -0.9800 0.9886
-0.2565 -2.6921 -0.9800 0.9886
-0.1382 -2.7008 -0.9801 0.9886
-0.0593 -2.7037 -0.9801 0.9886
0.0592 -2.7038 -0.9801 0.9886
0.0987 -2.7026 -0.9801 0.9886
0.1382 -2.7009 -0.9801 0.9886
0.1777 -2.6986 -0.9801 0.9886
0.2958 -2.6884 -0.9801 0.9886
0.3742 -2.6786 -0.9802 0.9886
0.4627 -2.3152 -0.8556 0.9900
0.5087 -2.3650 -0.8767 0.9898
0.5096 -2.2113 -0.8224 0.9904
0.5580 -2.2695 -0.8469 0.9901
0.6095 -2.3313 -0.8733 0.9898
0.7856 -2.5437 -0.9648 0.9887
0.7786 -2.3964 -0.9131 0.9893
0.8488 -2.4882 -0.9527 0.9889
0.9107 -2.5470 -0.9803 0.9886
0.9478 -2.5334 -0.9803 0.9886
1.0579 -2.4895 -0.9803 0.9886
1.1302 -2.4575 -0.9803 0.9886
1.2369 -2.4057 -0.9803 0.9886
1.3066 -2.3686 -0.9803 0.9886
1.5091 -2.2452 -0.9804 0.9886
1.5740 -2.2001 -0.9804 0.9886
1.6060 -2.1769 -0.9804 0.9886
1.6877 -2.1529 -0.9914 0.9884
1.7264 -2.1372 -0.9956 0.9884
1.7881 -2.0859 -0.9957 0.9884
1.9069 -1.9779 -0.9957 0.9884
2.0463 -1.8335 -0.9957 0.9884
2.0990 -1.7729 -0.9957 0.9884
2.1247 -1.7421 -0.9957 0.9884
2.2229 -1.6150 -0.9957 0.9884
2.2691 -1.5494 -0.9958 0.9884
2.3349 -1.4485 -0.9958 0.9884
2.4155 -1.3096 -0.9958 0.9884
2.4879 -1.1663 -0.9958 0.9884
2.5210 -1.0931 -0.9958 0.9884
2.5518 -1.0190 -0.9958 0.9884
2.5665 -0.9816 -0.9958 0.9884
2.5805 -0.9440 -0.9958 0.9884
2.5941 -0.9062 -0.9958 0.9884
2.6195 -0.8300 -0.9958 0.9884
2.6426 -0.7531 -0.9958 0.9884
2.6635 -0.6756 -0.9958 0.9884
2.6731 -0.6366 -0.9958 0.9884
2.6905 -0.5582 -0.9958 0.9884
2.6984 -0.5189 -0.9958 0.9884
2.7057 -0.4794 -0.9958 0.9884
2.7186 -0.4001 -0.9958 0.9884
2.7241 -0.3604 -0.9958 0.9884
2.7291 -0.3205 -0.9958 0.9884
2.7432 -0.1605 -0.9958 0.9884
2.7467 -0.0803 -0.9958 0.9884
2.7476 -0.0402 -0.9958 0.9884
2.7453 0.1204 -0.9958 0.9884
2.7291 0.3205 -0.9958 0.9884
2.7057 0.4793 -0.9958 0.9884
2.6984 0.5188 -0.9958 0.9884
2.6731 0.6366 -0.9958 0.9884
2.6533 0.7145 -0.9958 0.9884
2.6426 0.7531 -0.9958 0.9884
2.6313 0.7916 -0.9958 0.9884
2.6195 0.8300 -0.9958 0.9884
2.6071 0.8682 -0.9958 0.9884
2.5806 0.9440 -0.9958 0.9884
2.5519 1.0190 -0.9958 0.9884
2.5367 1.0562 -0.9958 0.9884
2.5047 1.1298 -0.9958 0.9884
2.4879 1.1663 -0.9958 0.9884
2.4344 1.2742 -0.9958 0.9884
2.3349 1.4484 -0.9958 0.9884
2.3135 1.4824 -0.9958 0.9884
2.2915 1.5161 -0.9958 0.9884
2.2691 1.5493 -0.9958 0.9884
2.2462 1.5823 -0.9957 0.9884
2.2228 1.6150 -0.9957 0.9884
2.1990 1.6473 -0.9957 0.9884
2.1747 1.6793 -0.9957 0.9884
2.0990 1.7729 -0.9957 0.9884
2.0729 1.8034 -0.9957 0.9884
2.0193 1.8632 -0.9957 0.9884
1.9918 1.8925 -0.9957 0.9884
1.9639 1.9214 -0.9957 0.9884
1.9356 1.9498 -0.9957 0.9884
1.9069 1.9779 -0.9957 0.9884
1.8483 2.0327 -0.9957 0.9884
1.8184 2.0595 -0.9957 0.9884
1.7264 2.1372 -0.9957 0.9884
1.6949 2.1622 -0.9956 0.9884
1.6631 2.1868 -0.9956 0.9884
1.6310 2.2108 -0.9956 0.9884
1.5985 2.2343 -0.9956 0.9884
1.5325 2.2800 -0.9956 0.9884
1.4653 2.3238 -0.9956 0.9884
1.4311 2.3450 -0.9956 0.9884
1.3967 2.3657 -0.9956 0.9884
1.3270 2.4054 -0.9956 0.9884
1.2203 2.4612 -0.9956 0.9884
1.1841 2.4787 -0.9955 0.9884
1.1112 2.5123 -0.9955 0.9884
1.0373 2.5436 -0.9955 0.9884
1.0000 2.5585 -0.9955 0.9884
0.9625 2.5728 -0.9955 0.9884
0.9248 2.5866 -0.9955 0.9884
0.7721 2.6361 -0.9955 0.9884
0.7335 2.6471 -0.9955 0.9884
0.6948 2.6575 -0.9955 0.9884
0.5776 2.6854 -0.9954 0.9884
0.5383 2.6935 -0.9954 0.9884
0.4989 2.7011 -0.9954 0.9884
0.4198 2.7145 -0.9954 0.9884
0.3800 2.7202 -0.9954 0.9884
0.3004 2.7302 -0.9954 0.9884
0.2604 2.7342 -0.9954 0.9884
0.2205 2.7377 -0.9954 0.9884
0.1805 2.7407 -0.9954 0.9884
0.0200 2.7464 -0.9953 0.9884
-0.0201 2.7464 -0.9953 0.9884
-0.1404 2.7428 -0.9953 0.9884
-0.1805 2.7404 -0.9953 0.9884
-0.2605 2.7339 -0.9953 0.9884
-0.3004 2.7298 -0.9953 0.9884
-0.4593 2.7075 -0.9952 0.9884
-0.4988 2.7005 -0.9952 0.9884
-0.6167 2.6760 -0.9952 0.9884
-0.1496 0.6083 -0.2270 0.9973
-0.1498 0.5730 -0.2146 0.9975
-0.1555 0.5610 -0.2110 0.9975
-0.1667 0.5397 -0.2047 0.9976
-0.2020 0.4752 -0.1871 0.9978
-0.2064 0.4668 -0.1849 0.9978
-0.2108 0.4583 -0.1828 0.9979
-0.2150 0.4500 -0.1808 0.9979
-0.2191 0.4419 -0.1787 0.9979
-0.2378 0.4027 -0.1695 0.9980
-0.2445 0.3877 -0.1661 0.9981
-0.2477 0.3804 -0.1645 0.9981
-0.2508 0.3732 -0.1630 0.9981
-0.2598 0.3521 -0.1586 0.9981
-0.2626 0.3453 -0.1572 0.9982
-0.2680 0.3318 -0.1546 0.9982
-0.2731 0.3185 -0.1520 0.9982
-0.2774 0.3050 -0.1494 0.9982
-0.2793 0.2982 -0.1481 0.9983
-0.2812 0.2916 -0.1468 0.9983
-0.2847 0.2785 -0.1443 0.9983
-0.2879 0.2657 -0.1420 0.9983
-0.2895 0.2593 -0.1408 0.9983
-0.2924 0.2469 -0.1387 0.9984
-0.2937 0.2408 -0.1376 0.9984
-0.2950 0.2348 -0.1366 0.9984
-0.2963 0.2287 -0.1357 0.9984
-0.2986 0.2170 -0.1338 0.9984
-0.3008 0.2054 -0.1320 0.9985
-0.3018 0.1996 -0.1311 0.9985
-0.3041 0.1886 -0.1297 0.9985
-0.3052 0.1832 -0.1290 0.9985
-0.3064 0.1779 -0.1284 0.9985
-0.3075 0.1725 -0.1278 0.9985
-0.3085 0.1672 -0.1272 0.9985
-0.3096 0.1620 -0.1266 0.9985
-0.3105 0.1568 -0.1261 0.9985
-0.3132 0.1413 -0.1245 0.9985
-0.3139 0.1361 -0.1240 0.9985
-0.3145 0.1310 -0.1235 0.9986
-0.3157 0.1207 -0.1225 0.9986
-0.3163 0.1157 -0.1220 0.9986
-0.3173 0.1057 -0.1212 0.9986
-0.3177 0.1007 -0.1208 0.9986
-0.3181 0.0957 -0.1204 0.9986
-0.3185 0.0908 -0.1200 0.9986
-0.3188 0.0858 -0.1197 0.9986
-0.3198 0.0664 -0.1184 0.9986
-0.3200 0.0615 -0.1181 0.9986
-0.3203 0.0471 -0.1173 0.9986
-0.3204 0.0329 -0.1167 0.9986
-0.3203 0.0281 -0.1165 0.9986
-0.3202 0.0234 -0.1164 0.9986
-0.3200 0.0140 -0.1161 0.9986
-0.3196 0.0047 -0.1158 0.9986
-0.3144 0.0000 -0.1179 0.9987
-0.3146 -0.0046 -0.1180 0.9987
-0.3148 -0.0092 -0.1181 0.9987
-0.3153 -0.0370 -0.1191 0.9986
-0.3153 -0.0417 -0.1193 0.9986
-0.3152 -0.0511 -0.1197 0.9986
-0.3149 -0.0605 -0.1203 0.9986
-0.3147 -0.0653 -0.1205 0.9986
-0.3145 -0.0701 -0.1208 0.9986
-0.3140 -0.0796 -0.1215 0.9986
-0.3137 -0.0845 -0.1218 0.9986
-0.3130 -0.0942 -0.1226 0.9986
-0.3121 -0.1039 -0.1234 0.9986
-0.3111 -0.1138 -0.1242 0.9986
-0.3105 -0.1188 -0.1247 0.9986
-0.3100 -0.1238 -0.1251 0.9986
-0.3086 -0.1338 -0.1261 0.9986
-0.3022 -0.1696 -0.1299 0.9985
-0.3011 -0.1748 -0.1306 0.9985
-0.2999 -0.1801 -0.1312 0.9985
-0.2962 -0.1960 -0.1332 0.9985
-0.2952 -0.2016 -0.1341 0.9985
-0.2942 -0.2072 -0.1349 0.9985
-0.2894 -0.2303 -0.1387 0.9984
-0.2853 -0.2482 -0.1418 0.9984
-0.2838 -0.2543 -0.1429 0.9984
-0.2822 -0.2604 -0.1440 0.9984
-0.2789 -0.2729 -0.1463 0.9983
-0.2772 -0.2792 -0.1475 0.9983
-0.2754 -0.2856 -0.1488 0.9983
-0.2735 -0.2921 -0.1501 0.9983
-0.2716 -0.2987 -0.1514 0.9983
-0.2696 -0.3053 -0.1527 0.9983
-0.2674 -0.3120 -0.1541 0.9982
-0.2650 -0.3184 -0.1553 0.9982
-0.2624 -0.3248 -0.1566 0.9982
-0.2598 -0.3313 -0.1579 0.9982
-0.2484 -0.3581 -0.1634 0.9981
-0.2389 -0.3789 -0.1680 0.9981
-0.2356 -0.3861 -0.1696 0.9981
-0.2322 -0.3933 -0.1713 0.9981
-0.2288 -0.4007 -0.1730 0.9980
-0.2252 -0.4082 -0.1748 0.9980
-0.2215 -0.4157 -0.1766 0.9980
-0.2097 -0.4389 -0.1824 0.9979
-0.1875 -0.4798 -0.1932 0.9978
-0.1827 -0.4883 -0.1955 0.9978
-0.1777 -0.4970 -0.1979 0.9977
-0.1672 -0.5146 -0.2029 0.9977
-0.1561 -0.5329 -0.2082 0.9976
-0.1333 -0.5781 -0.2225 0.9975
-0.5122 -2.5627 -0.9800 0.9889
-0.4747 -2.5700 -0.9800 0.9889
-0.3994 -2.5827 -0.9800 0.9889
-0.2859 -2.5978 -0.9800 0.9889
-0.2098 -2.6051 -0.9800 0.9889
-0.1717 -2.6079 -0.9801 0.9889
-0.1336 -2.6101 -0.9801 0.9889
-0.0573 -2.6130 -0.9801 0.9889
-0.0191 -2.6136 -0.9801 0.9889
0.0191 -2.6136 -0.9801 0.9889
0.0573 -2.6130 -0.9801 0.9889
0.2098 -2.6053 -0.9801 0.9889
0.2859 -2.5981 -0.9801 0.9889
0.3994 -2.5831 -0.9802 0.9889
0.4748 -2.5704 -0.9802 0.9889
0.4636 -2.3194 -0.8870 0.9899
0.5497 -2.5555 -0.9802 0.9889
0.5144 -2.2321 -0.8590 0.9903
0.5634 -2.2915 -0.8849 0.9900
0.6156 -2.3547 -0.9126 0.9897
0.7306 -2.4943 -0.9746 0.9890
0.8440 -2.4741 -0.9802 0.9889
0.8801 -2.4614 -0.9802 0.9889
1.0224 -2.4059 -0.9803 0.9889
1.0574 -2.3907 -0.9803 0.9889
1.0922 -2.3750 -0.9803 0.9889
1.1953 -2.3250 -0.9803 0.9889
1.2628 -2.2890 -0.9803 0.9889
1.2961 -2.2704 -0.9803 0.9889
1.3291 -2.2512 -0.9803 0.9889
1.3619 -2.2316 -0.9803 0.9889
1.4265 -2.1908 -0.9804 0.9889
1.5762 -2.1365 -0.9956 0.9887
1.6684 -2.0655 -0.9956 0.9887
1.6984 -2.0409 -0.9956 0.9887
1.7281 -2.0158 -0.9956 0.9887
1.8980 -1.8568 -0.9957 0.9887
1.9514 -1.8006 -0.9957 0.9887
1.9776 -1.7719 -0.9957 0.9887
2.0285 -1.7134 -0.9957 0.9887
2.0533 -1.6836 -0.9957 0.9887
2.1252 -1.5920 -0.9957 0.9887
2.1482 -1.5608 -0.9957 0.9887
2.1708 -1.5293 -0.9957 0.9887
2.1929 -1.4974 -0.9957 0.9887
2.2146 -1.4651 -0.9957 0.9887
2.2564 -1.3998 -0.9957 0.9887
2.3157 -1.2996 -0.9958 0.9887
2.3344 -1.2657 -0.9958 0.9887
2.3527 -1.2314 -0.9958 0.9887
2.5315 -0.8021 -0.9958 0.9887
2.5429 -0.7650 -0.9958 0.9887
2.5538 -0.7279 -0.9958 0.9887
2.5740 -0.6529 -0.9958 0.9887
2.5833 -0.6152 -0.9958 0.9887
2.5920 -0.5774 -0.9958 0.9887
2.6148 -0.4632 -0.9958 0.9887
2.6374 -0.3097 -0.9958 0.9887
2.6417 -0.2712 -0.9958 0.9887
2.6511 -0.1551 -0.9958 0.9887
2.6530 -0.1164 -0.9958 0.9887
2.6545 -0.0776 -0.9958 0.9887
2.6556 0.0000 -0.9958 0.9887
2.6485 0.1938 -0.9958 0.9887
2.6327 0.3482 -0.9958 0.9887
2.6273 0.3867 -0.9958 0.9887
2.6213 0.4250 -0.9958 0.9887
2.6149 0.4632 -0.9958 0.9887
2.5920 0.5774 -0.9958 0.9887
2.5642 0.6904 -0.9958 0.9887
2.5195 0.8391 -0.9958 0.9887
2.5070 0.8757 -0.9958 0.9887
2.4939 0.9123 -0.9958 0.9887
2.4515 1.0207 -0.9958 0.9887
2.4044 1.1271 -0.9958 0.9887
2.3344 1.2657 -0.9958 0.9887
2.2767 1.3667 -0.9958 0.9887
2.2358 1.4327 -0.9957 0.9887
2.2146 1.4651 -0.9957 0.9887
2.1929 1.4973 -0.9957 0.9887
2.1482 1.5608 -0.9957 0.9887
2.1252 1.5920 -0.9957 0.9887
2.1016 1.6229 -0.9957 0.9887
2.0777 1.6534 -0.9957 0.9887
2.0533 1.6836 -0.9957 0.9887
2.0033 1.7428 -0.9957 0.9887
1.9776 1.7719 -0.9957 0.9887
1.9249 1.8289 -0.9957 0.9887
1.8980 1.8568 -0.9957 0.9887
1.8706 1.8844 -0.9957 0.9887
1.8429 1.9115 -0.9957 0.9887
1.7863 1.9646 -0.9957 0.9887
1.6380 2.0896 -0.9956 0.9887
1.6073 2.1133 -0.9956 0.9887
1.4487 2.2249 -0.9956 0.9887
1.4160 2.2458 -0.9956 0.9887
1.3498 2.2862 -0.9956 0.9887
1.3162 2.3057 -0.9956 0.9887
1.2483 2.3431 -0.9956 0.9887
1.1793 2.3786 -0.9955 0.9887
1.1444 2.3955 -0.9955 0.9887
1.0739 2.4279 -0.9955 0.9887
1.0383 2.4433 -0.9955 0.9887
1.0025 2.4582 -0.9955 0.9887
0.9302 2.4864 -0.9955 0.9887
0.8937 2.4997 -0.9955 0.9887
0.8203 2.5247 -0.9955 0.9887
0.7834 2.5364 -0.9955 0.9887
0.6338 2.5778 -0.9954 0.9887
0.5961 2.5868 -0.9954 0.9887
0.5582 2.5952 -0.9954 0.9887
0.4821 2.6104 -0.9954 0.9887
0.4440 2.6171 -0.9954 0.9887
0.3673 2.6289 -0.9954 0.9887
0.3288 2.6340 -0.9954 0.9887
0.2903 2.6385 -0.9954 0.9887
0.1357 2.6509 -0.9954 0.9887
0.0969 2.6525 -0.9953 0.9887
0.0194 2.6542 -0.9953 0.9887
-0.0582 2.6536 -0.9953 0.9887
-0.2131 2.6456 -0.9953 0.9887
-0.2517 2.6421 -0.9953 0.9887
-0.2903 2.6382 -0.9953 0.9887
-0.3672 2.6286 -0.9953 0.9887
-0.4439 2.6166 -0.9952 0.9887
-0.5581 2.5946 -0.9952 0.9887
-0.1332 0.5781 -0.2225 0.9975
-0.1445 0.5527 -0.2142 0.9976
-0.1503 0.5423 -0.2110 0.9976
-0.1561 0.5329 -0.2082 0.9976
-0.1672 0.5146 -0.2029 0.9977
-0.1725 0.5057 -0.2004 0.9977
-0.1777 0.4970 -0.1979 0.9977
-0.1923 0.4714 -0.1909 0.9978
-0.2012 0.4549 -0.1865 0.9979
-0.2055 0.4469 -0.1844 0.9979
-0.2215 0.4157 -0.1766 0.9980
-0.2322 0.3933 -0.1713 0.9981
-0.2389 0.3789 -0.1680 0.9981
-0.2453 0.3650 -0.1649 0.9981
-0.2484 0.3581 -0.1634 0.9981
-0.2514 0.3513 -0.1620 0.9982
-0.2570 0.3379 -0.1592 0.9982
-0.2597 0.3314 -0.1579 0.9982
-0.2650 0.3184 -0.1553 0.9982
-0.2674 0.3120 -0.1541 0.9982
-0.2735 0.2921 -0.1501 0.9983
-0.2754 0.2857 -0.1488 0.9983
-0.2789 0.2729 -0.1463 0.9983
-0.2806 0.2666 -0.1451 0.9983
-0.2822 0.2604 -0.1440 0.9984
-0.2853 0.2482 -0.1418 0.9984
-0.2867 0.2421 -0.1407 0.9984
-0.2894 0.2303 -0.1387 0.9984
-0.2930 0.2129 -0.1358 0.9985
-0.2962 0.1960 -0.1332 0.9985
-0.2975 0.1906 -0.1325 0.9985
-0.2987 0.1854 -0.1318 0.9985
-0.2999 0.1800 -0.1312 0.9985
-0.3022 0.1696 -0.1299 0.9985
-0.3033 0.1644 -0.1294 0.9985
-0.3053 0.1541 -0.1282 0.9985
-0.3093 0.1288 -0.1256 0.9986
-0.3099 0.1237 -0.1251 0.9986
-0.3105 0.1188 -0.1247 0.9986
-0.3111 0.1138 -0.1242 0.9986
-0.3121 0.1039 -0.1234 0.9986
-0.3134 0.0893 -0.1222 0.9986
-0.3137 0.0845 -0.1218 0.9986
-0.3140 0.0796 -0.1215 0.9986
-0.3143 0.0748 -0.1211 0.9986
-0.3149 0.0606 -0.1203 0.9986
-0.3151 0.0558 -0.1200 0.9986
-0.3152 0.0511 -0.1197 0.9986
-0.3153 0.0464 -0.1195 0.9986
-0.3153 0.0324 -0.1189 0.9986
-0.3151 0.0184 -0.1184 0.9987
-0.3150 0.0138 -0.1182 0.9987
-0.3099 -0.0091 -0.1202 0.9987
-0.3102 -0.0182 -0.1205 0.9987
-0.3103 -0.0227 -0.1206 0.9987
-0.3104 -0.0273 -0.1208 0.9987
-0.3104 -0.0364 -0.1212 0.9987
-0.3104 -0.0411 -0.1214 0.9987
-0.3103 -0.0457 -0.1216 0.9987
-0.3101 -0.0550 -0.1221 0.9986
-0.3096 -0.0689 -0.1229 0.9986
-0.3090 -0.0784 -0.1236 0.9986
-0.3079 -0.0927 -0.1247 0.9986
-0.3071 -0.1023 -0.1255 0.9986
-0.3066 -0.1071 -0.1259 0.9986
-0.3060 -0.1120 -0.1263 0.9986
-0.3055 -0.1168 -0.1268 0.9986
-0.3042 -0.1267 -0.1278 0.9986
-0.3035 -0.1316 -0.1283 0.9986
-0.3002 -0.1516 -0.1303 0.9986
-0.2992 -0.1566 -0.1309 0.9986
-0.2971 -0.1667 -0.1321 0.9985
-0.2923 -0.1873 -0.1346 0.9985
-0.2910 -0.1925 -0.1353 0.9985
-0.2898 -0.1979 -0.1361 0.9985
-0.2887 -0.2034 -0.1369 0.9985
-0.2864 -0.2146 -0.1387 0.9985
-0.2839 -0.2259 -0.1407 0.9984
-0.2812 -0.2375 -0.1427 0.9984
-0.2798 -0.2434 -0.1437 0.9984
-0.2767 -0.2553 -0.1459 0.9984
-0.2751 -0.2613 -0.1471 0.9984
-0.2716 -0.2736 -0.1495 0.9983
-0.2679 -0.2861 -0.1520 0.9983
-0.2640 -0.2989 -0.1546 0.9983
-0.2619 -0.3055 -0.1560 0.9983
-0.2595 -0.3118 -0.1573 0.9983
-0.2460 -0.3438 -0.1639 0.9982
-0.2400 -0.3570 -0.1668 0.9982
-0.2369 -0.3637 -0.1683 0.9981
-0.2336 -0.3705 -0.1698 0.9981
-0.2303 -0.3774 -0.1714 0.9981
-0.2269 -0.3843 -0.1730 0.9981
-0.2235 -0.3914 -0.1747 0.9981
-0.2125 -0.4132 -0.1801 0.9980
-0.2086 -0.4207 -0.1820 0.9980
-0.2046 -0.4282 -0.1840 0.9980
-0.2005 -0.4359 -0.1860 0.9979
-0.1962 -0.4436 -0.1881 0.9979
-0.1873 -0.4594 -0.1923 0.9979
-0.1827 -0.4674 -0.1946 0.9978
-0.1779 -0.4756 -0.1969 0.9978
-0.1627 -0.5008 -0.2041 0.9977
-0.1573 -0.5094 -0.2067 0.9977
-0.1402 -0.5361 -0.2148 0.9976
-0.1341 -0.5452 -0.2177 0.9976
-0.1278 -0.5545 -0.2206 0.9976
-0.1215 -0.5647 -0.2239 0.9975
-0.4228 -2.4923 -0.9800 0.9892
-0.3863 -2.4982 -0.9800 0.9892
-0.2030 -2.5198 -0.9800 0.9892
-0.1661 -2.5225 -0.9801 0.9892
-0.1292 -2.5247 -0.9801 0.9892
-0.0185 -2.5280 -0.9801 0.9892
0.0554 -2.5275 -0.9801 0.9892
0.1661 -2.5227 -0.9801 0.9892
0.2030 -2.5200 -0.9801 0.9892
0.2397 -2.5168 -0.9801 0.9892
0.2765 -2.5130 -0.9801 0.9892
0.3498 -2.5039 -0.9801 0.9892
0.3863 -2.4986 -0.9802 0.9892
0.4228 -2.4927 -0.9802 0.9892
0.4592 -2.4862 -0.9802 0.9892
0.5690 -2.3141 -0.9239 0.9898
0.6218 -2.3787 -0.9532 0.9895
0.7107 -2.4264 -0.9802 0.9892
0.7813 -2.4047 -0.9802 0.9892
0.8164 -2.3930 -0.9802 0.9892
1.0900 -2.2816 -0.9803 0.9892
1.1562 -2.2488 -0.9803 0.9892
1.2536 -2.1961 -0.9803 0.9892
1.2860 -2.1782 -0.9806 0.9892
1.3228 -2.1674 -0.9844 0.9892
1.3610 -2.1586 -0.9893 0.9891
1.3996 -2.1494 -0.9944 0.9891
1.4326 -2.1314 -0.9956 0.9890
1.5547 -2.0441 -0.9956 0.9890
1.5844 -2.0212 -0.9956 0.9890
1.6428 -1.9740 -0.9956 0.9890
1.6998 -1.9252 -0.9956 0.9890
1.7277 -1.9002 -0.9956 0.9890
1.8875 -1.7416 -0.9957 0.9890
1.9376 -1.6857 -0.9957 0.9890
1.9621 -1.6573 -0.9957 0.9890
1.9861 -1.6284 -0.9957 0.9890
2.0097 -1.5993 -0.9957 0.9890
2.0328 -1.5697 -0.9957 0.9890
2.0555 -1.5398 -0.9957 0.9890
2.0779 -1.5096 -0.9957 0.9890
2.0997 -1.4791 -0.9957 0.9890
2.1211 -1.4483 -0.9957 0.9890
2.1420 -1.4171 -0.9957 0.9890
2.1825 -1.3540 -0.9957 0.9890
2.2021 -1.3220 -0.9957 0.9890
2.2579 -1.2242 -0.9957 0.9890
2.2756 -1.1911 -0.9958 0.9890
2.3256 -1.0902 -0.9958 0.9890
2.3413 -1.0561 -0.9958 0.9890
2.3565 -1.0218 -0.9958 0.9890
2.3854 -0.9525 -0.9958 0.9890
2.3990 -0.9176 -0.9958 0.9890
2.4248 -0.8471 -0.9958 0.9890
2.4702 -0.7039 -0.9958 0.9890
2.4802 -0.6678 -0.9958 0.9890
2.4987 -0.5950 -0.9958 0.9890
2.5071 -0.5585 -0.9958 0.9890
2.5224 -0.4850 -0.9958 0.9890
2.5292 -0.4481 -0.9958 0.9890
2.5464 -0.3368 -0.9958 0.9890
2.5675 -0.0750 -0.9958 0.9890
2.5686 0.0000 -0.9958 0.9890
2.5675 0.0750 -0.9958 0.9890
2.5617 0.1875 -0.9958 0.9890
2.5511 0.2996 -0.9958 0.9890
2.5464 0.3368 -0.9958 0.9890
2.5355 0.4111 -0.9958 0.9890
2.5224 0.4850 -0.9958 0.9890
2.5150 0.5218 -0.9958 0.9890
2.5071 0.5585 -0.9958 0.9890
2.4987 0.5950 -0.9958 0.9890
2.4897 0.6315 -0.9958 0.9890
2.4802 0.6678 -0.9958 0.9890
2.4702 0.7040 -0.9958 0.9890
2.4596 0.7400 -0.9958 0.9890
2.4486 0.7759 -0.9958 0.9890
2.4248 0.8471 -0.9958 0.9890
2.4122 0.8824 -0.9958 0.9890
2.3990 0.9175 -0.9958 0.9890
2.3712 0.9872 -0.9958 0.9890
2.3413 1.0561 -0.9958 0.9890
2.3256 1.0902 -0.9958 0.9890
2.2928 1.1577 -0.9958 0.9890
2.2756 1.1911 -0.9958 0.9890
2.2398 1.2570 -0.9957 0.9890
2.2212 1.2896 -0.9957 0.9890
2.2021 1.3219 -0.9957 0.9890
2.1825 1.3539 -0.9957 0.9890
2.1211 1.4483 -0.9957 0.9890
2.0779 1.5096 -0.9957 0.9890
2.0097 1.5993 -0.9957 0.9890
1.8094 1.8227 -0.9957 0.9890
1.7825 1.8489 -0.9957 0.9890
1.6428 1.9740 -0.9956 0.9890
1.5844 2.0211 -0.9956 0.9890
1.4636 2.1102 -0.9956 0.9890
1.4326 2.1313 -0.9956 0.9890
1.3697 2.1722 -0.9956 0.9890
1.3378 2.1920 -0.9956 0.9890
1.2404 2.2485 -0.9956 0.9890
1.2074 2.2664 -0.9956 0.9890
1.1742 2.2838 -0.9955 0.9890
1.1069 2.3171 -0.9955 0.9890
1.0729 2.3330 -0.9955 0.9890
1.0387 2.3484 -0.9955 0.9890
1.0043 2.3633 -0.9955 0.9890
0.9348 2.3917 -0.9955 0.9890
0.8645 2.4179 -0.9955 0.9890
0.8291 2.4302 -0.9955 0.9890
0.7934 2.4421 -0.9955 0.9890
0.7577 2.4534 -0.9955 0.9890
0.7218 2.4642 -0.9955 0.9890
0.6130 2.4934 -0.9954 0.9890
0.5766 2.5021 -0.9954 0.9890
0.5032 2.5178 -0.9954 0.9890
0.4664 2.5249 -0.9954 0.9890
0.4294 2.5314 -0.9954 0.9890
0.3552 2.5428 -0.9954 0.9890
0.2808 2.5521 -0.9954 0.9890
0.1687 2.5619 -0.9954 0.9890
0.1312 2.5641 -0.9954 0.9890
0.0187 2.5673 -0.9953 0.9890
-0.0563 2.5668 -0.9953 0.9890
-0.0938 2.5656 -0.9953 0.9890
-0.2808 2.5518 -0.9953 0.9890
-0.3552 2.5425 -0.9953 0.9890
-0.1161 0.5811 -0.2297 0.9975
-0.1215 0.5647 -0.2239 0.9975
-0.1341 0.5452 -0.2177 0.9976
-0.1401 0.5361 -0.2148 0.9976
-0.1460 0.5270 -0.2120 0.9977
-0.1679 0.4922 -0.2016 0.9978
-0.1827 0.4675 -0.1946 0.9978
-0.1918 0.4514 -0.1902 0.9979
-0.1962 0.4436 -0.1881 0.9979
-0.2005 0.4359 -0.1860 0.9979
-0.2046 0.4282 -0.1840 0.9980
-0.2086 0.4207 -0.1820 0.9980
-0.2125 0.4132 -0.1801 0.9980
-0.2163 0.4059 -0.1783 0.9980
-0.2199 0.3986 -0.1765 0.9980
-0.2269 0.3843 -0.1730 0.9981
-0.2303 0.3774 -0.1714 0.9981
-0.2369 0.3637 -0.1683 0.9981
-0.2430 0.3504 -0.1653 0.9982
-0.2460 0.3438 -0.1639 0.9982
-0.2488 0.3373 -0.1625 0.9982
-0.2516 0.3308 -0.1611 0.9982
-0.2619 0.3054 -0.1560 0.9983
-0.2679 0.2861 -0.1520 0.9983
-0.2734 0.2674 -0.1483 0.9984
-0.2782 0.2493 -0.1448 0.9984
-0.2852 0.2202 -0.1397 0.9985
-0.2864 0.2146 -0.1387 0.9985
-0.2876 0.2089 -0.1378 0.9985
-0.2898 0.1979 -0.1361 0.9985
-0.2910 0.1925 -0.1353 0.9985
-0.2936 0.1821 -0.1339 0.9985
-0.2948 0.1770 -0.1333 0.9985
-0.2971 0.1667 -0.1321 0.9985
-0.2981 0.1616 -0.1315 0.9985
-0.3011 0.1465 -0.1298 0.9986
-0.3028 0.1366 -0.1288 0.9986
-0.3036 0.1316 -0.1283 0.9986
-0.3042 0.1267 -0.1278 0.9986
-0.3061 0.1119 -0.1263 0.9986
-0.3066 0.1071 -0.1259 0.9986
-0.3071 0.1023 -0.1255 0.9986
-0.3079 0.0927 -0.1247 0.9986
-0.3083 0.0879 -0.1243 0.9986
-0.3090 0.0784 -0.1236 0.9986
-0.3093 0.0736 -0.1233 0.9986
-0.3098 0.0643 -0.1227 0.9986
-0.3100 0.0596 -0.1224 0.9986
-0.3103 0.0457 -0.1216 0.9987
-0.3104 0.0411 -0.1214 0.9987
-0.3104 0.0364 -0.1212 0.9987
-0.3102 0.0182 -0.1205 0.9987
-0.3099 0.0091 -0.1202 0.9987
-0.3048 0.0000 -0.1221 0.9987
-0.3054 -0.0179 -0.1225 0.9987
-0.3055 -0.0223 -0.1227 0.9987
-0.3056 -0.0359 -0.1232 0.9987
-0.3053 -0.0541 -0.1242 0.9987
-0.3051 -0.0587 -0.1244 0.9987
-0.3047 -0.0679 -0.1250 0.9987
-0.3026 -0.0959 -0.1271 0.9986
-0.3021 -0.1007 -0.1275 0.9986
-0.3016 -0.1054 -0.1280 0.9986
-0.3011 -0.1102 -0.1284 0.9986
-0.3005 -0.1150 -0.1289 0.9986
-0.2999 -0.1198 -0.1293 0.9986
-0.2993 -0.1246 -0.1298 0.9986
-0.2979 -0.1343 -0.1309 0.9986
-0.2970 -0.1392 -0.1314 0.9986
-0.2961 -0.1441 -0.1319 0.9986
-0.2951 -0.1490 -0.1324 0.9986
-0.2942 -0.1539 -0.1330 0.9986
-0.2931 -0.1589 -0.1335 0.9986
-0.2921 -0.1639 -0.1341 0.9986
-0.2909 -0.1689 -0.1347 0.9986
-0.2885 -0.1790 -0.1360 0.9985
-0.2860 -0.1893 -0.1373 0.9985
-0.2847 -0.1944 -0.1380 0.9985
-0.2824 -0.2051 -0.1398 0.9985
-0.2812 -0.2106 -0.1407 0.9985
-0.2799 -0.2161 -0.1416 0.9985
-0.2644 -0.2743 -0.1526 0.9984
-0.2625 -0.2804 -0.1538 0.9983
-0.2606 -0.2865 -0.1551 0.9983
-0.2585 -0.2928 -0.1564 0.9983
-0.2565 -0.2991 -0.1578 0.9983
-0.2543 -0.3055 -0.1592 0.9983
-0.2491 -0.3178 -0.1617 0.9983
-0.2464 -0.3239 -0.1630 0.9982
-0.2437 -0.3302 -0.1643 0.9982
-0.2408 -0.3366 -0.1657 0.9982
-0.2378 -0.3429 -0.1671 0.9982
-0.2317 -0.3559 -0.1701 0.9982
-0.2253 -0.3691 -0.1732 0.9981
-0.2219 -0.3758 -0.1748 0.9981
-0.2149 -0.3895 -0.1781 0.9981
-0.2112 -0.3964 -0.1799 0.9981
-0.2075 -0.4036 -0.1817 0.9980
-0.2037 -0.4107 -0.1836 0.9980
-0.1997 -0.4180 -0.1855 0.9980
-0.1956 -0.4254 -0.1875 0.9980
-0.1914 -0.4328 -0.1895 0.9980
-0.1871 -0.4403 -0.1916 0.9979
-0.1636 -0.4794 -0.2028 0.9978
-0.1584 -0.4875 -0.2053 0.9978
-0.1477 -0.5041 -0.2104 0.9977
-0.1420 -0.5126 -0.2130 0.9977
-0.1363 -0.5211 -0.2157 0.9977
-0.1303 -0.5299 -0.2185 0.9977
-0.1241 -0.5387 -0.2214 0.9976
-0.1178 -0.5477 -0.2243 0.9976
-0.1113 -0.5568 -0.2274 0.9976
-0.1046 -0.5660 -0.2305 0.9975
-0.3740 -2.4183 -0.9800 0.9895
-0.3386 -2.4236 -0.9800 0.9895
-0.3031 -2.4282 -0.9800 0.9895
-0.1965 -2.4393 -0.9800 0.9895
-0.1251 -2.4440 -0.9801 0.9895
-0.0894 -2.4456 -0.9801 0.9895
-0.0536 -2.4466 -0.9801 0.9895
-0.0179 -2.4472 -0.9801 0.9895
0.0179 -2.4472 -0.9801 0.9895
0.0894 -2.4457 -0.9801 0.9895
0.1608 -2.4421 -0.9801 0.9895
0.1964 -2.4394 -0.9801 0.9895
0.3740 -2.4187 -0.9802 0.9895
0.4093 -2.4129 -0.9802 0.9895
0.5147 -2.3927 -0.9802 0.9895
0.5747 -2.3374 -0.9640 0.9897
0.6191 -2.3679 -0.9802 0.9895
0.6536 -2.3587 -0.9802 0.9895
0.6880 -2.3489 -0.9802 0.9895
0.7563 -2.3278 -0.9802 0.9895
0.8240 -2.3048 -0.9802 0.9895
