ply
format ascii 1.0
element vertex 1590
property float32 x
property float32 y
property float32 z
property float32 I
end_header
-1.5229 0.2469 0.2698 0.9938
-1.5086 0.1326 0.2649 0.9939
-1.5038 0.0879 0.2635 0.9939
-1.5024 0.0659 0.2630 0.9939
-1.4467 -0.0000 0.2365 0.9942
-1.4475 -0.0212 0.2367 0.9941
-1.4485 -0.0423 0.2369 0.9941
-1.4592 -0.1498 0.2398 0.9941
-1.4679 -0.2161 0.2426 0.9940
-1.4722 -0.2609 0.2444 0.9940
-1.4745 -0.2836 0.2455 0.9939
-1.4905 -0.3550 0.2505 0.9938
-1.4975 -0.3798 0.2526 0.9938
-1.5333 -0.4370 0.2607 0.9936
-1.5930 -0.5565 0.2759 0.9932
-72.5200 -31.4451 12.9237 0.7259
-69.5703 -31.3816 12.4784 0.7339
-64.2389 -31.2669 11.6811 0.7486
-61.8198 -31.2149 11.3230 0.7553
-23.9794 -12.5511 4.4252 0.8961
-23.3821 -12.6770 4.3487 0.8978
-23.0041 -12.9105 4.3130 0.8986
-22.2000 -13.3269 4.2335 0.9004
-46.2591 -29.6422 8.9829 0.8004
-17.1495 -11.3461 3.3621 0.9200
-17.7798 -12.5250 3.5559 0.9156
-17.3837 -12.6300 3.5132 0.9166
-17.3819 -13.0210 3.5509 0.9157
-38.1622 -29.4679 7.8832 0.8225
-35.8803 -29.4188 7.5862 0.8286
-12.9578 -10.9448 2.7732 0.9336
-12.8446 -11.1748 2.7836 0.9333
-12.7133 -12.4378 2.9080 0.9304
-12.6235 -12.7161 2.9296 0.9300
-11.6631 -12.0972 2.7474 0.9342
-11.4341 -12.5752 2.7789 0.9334
-2.1727 -2.6107 0.5553 0.9863
-2.0572 -2.7049 0.5556 0.9863
-2.0294 -2.7509 0.5589 0.9862
-2.0014 -2.7975 0.5624 0.9862
-1.8851 -2.9898 0.5779 0.9858
-1.8244 -3.0900 0.5867 0.9856
-1.6039 -2.8096 0.5289 0.9870
-1.5379 -2.7879 0.5206 0.9872
-1.4740 -2.7668 0.5126 0.9874
-1.6134 -3.2543 0.5939 0.9854
-1.5543 -3.2537 0.5896 0.9855
-1.4961 -3.2532 0.5854 0.9856
-12.7925 -28.9220 5.1707 0.8797
-12.2858 -28.9111 5.1361 0.8805
-11.7858 -28.9002 5.1030 0.8812
-11.2919 -28.8896 5.0715 0.8819
-10.8891 -29.1064 5.0810 0.8817
-4.3306 -12.1122 2.1031 0.9492
-4.0334 -11.8231 2.0425 0.9506
-3.9618 -12.1932 2.0962 0.9494
-3.4124 -12.3145 2.0893 0.9495
-3.1627 -12.0977 2.0445 0.9506
-2.9386 -11.9514 2.0123 0.9513
-2.7183 -11.7963 1.9792 0.9521
-2.7654 -12.8564 2.1501 0.9481
-2.4442 -12.2293 2.0390 0.9507
-2.0876 -12.3061 2.0408 0.9507
-1.6720 -11.9674 1.9757 0.9522
-2.4110 -29.9363 4.9104 0.8854
-1.0930 -29.9079 4.8932 0.8858
-0.6554 -29.8985 4.8896 0.8858
-0.2184 -29.8891 4.8870 0.8859
0.6548 -29.8703 4.8850 0.8859
1.9651 -29.8421 4.8898 0.8858
3.2805 -29.8138 4.9040 0.8855
1.6368 -13.1105 2.1602 0.9479
2.1283 -12.5457 2.0805 0.9497
2.3062 -12.4856 2.0759 0.9498
2.5695 -11.9453 1.9977 0.9517
3.0040 -12.2170 2.0570 0.9503
3.1661 -12.1102 2.0466 0.9505
3.3266 -12.0046 2.0367 0.9508
3.4857 -11.9003 2.0274 0.9510
3.7999 -11.6948 2.0105 0.9514
3.9552 -11.5935 2.0028 0.9516
11.3055 -28.9243 5.0775 0.8817
11.7268 -28.7556 5.0775 0.8817
13.5459 -28.3551 5.1379 0.8804
6.6008 -13.3134 2.4296 0.9415
6.8486 -13.3205 2.4489 0.9411
6.7596 -12.6881 2.3505 0.9434
7.0544 -12.3571 2.3264 0.9440
7.3183 -11.9915 2.2969 0.9447
7.6156 -11.6959 2.2819 0.9450
8.1335 -11.7268 2.3334 0.9438
8.6025 -12.0241 2.4173 0.9418
20.8041 -28.1989 5.7295 0.8676
21.4371 -28.1853 5.7897 0.8663
22.7445 -28.1571 5.9180 0.8635
11.9636 -12.7774 2.8619 0.9315
11.8927 -12.3353 2.8015 0.9329
12.2659 -12.0000 2.8056 0.9328
12.4527 -11.8316 2.8085 0.9327
12.5303 -11.5617 2.7876 0.9332
12.5140 -11.2126 2.7472 0.9342
13.7161 -11.9330 2.9725 0.9290
13.9171 -11.7550 2.9785 0.9288
17.9314 -13.4326 3.6632 0.9132
17.0130 -11.9848 3.4025 0.9191
17.9122 -12.2306 3.5462 0.9158
17.9888 -11.9012 3.5266 0.9163
17.7380 -11.3663 3.4445 0.9182
17.4708 -10.8382 3.3615 0.9200
19.3507 -11.6163 3.6901 0.9126
31.1586 -16.3087 5.7501 0.8672
11.3376 -3.0527 1.9197 0.9535
11.4074 -2.8935 1.9242 0.9534
11.5472 -2.5723 1.9342 0.9532
21.4044 -3.4704 3.5453 0.9159
21.3305 -3.1393 3.5251 0.9163
21.5815 -2.5344 3.5528 0.9157
21.5948 -2.2166 3.5493 0.9158
22.5540 -1.9825 3.7018 0.9123
19.5236 8.8066 3.5018 0.9169
17.9327 9.0548 3.2846 0.9218
17.7013 9.5970 3.2922 0.9216
13.8078 8.0168 2.6105 0.9373
13.6528 8.1959 2.6036 0.9375
13.6354 8.4588 2.6235 0.9370
13.3858 8.8559 2.6242 0.9370
13.2871 9.0725 2.6306 0.9369
13.1036 9.2309 2.6207 0.9371
12.5594 9.6980 2.5944 0.9377
12.9640 10.6294 2.7410 0.9343
9.7510 9.5395 2.2304 0.9462
6.1735 8.1168 1.6673 0.9595
5.9953 8.3799 1.6847 0.9591
5.9049 8.5136 1.6940 0.9589
5.8134 8.6489 1.7038 0.9586
5.7208 8.7857 1.7142 0.9584
5.6271 8.9243 1.7250 0.9581
5.5321 9.0646 1.7363 0.9579
5.2934 8.9656 1.7023 0.9587
4.8232 9.0532 1.6772 0.9593
4.9124 9.5547 1.7566 0.9574
4.4348 10.0263 1.7925 0.9565
-0.0682 9.3413 1.5274 0.9628
-0.2052 9.3623 1.5311 0.9628
-0.4721 9.2231 1.5100 0.9633
-5.0865 11.0601 1.9904 0.9519
-4.8533 10.1592 1.8408 0.9554
-5.0063 10.0975 1.8427 0.9553
-4.9135 9.5568 1.7570 0.9574
-4.8668 8.8222 1.6474 0.9600
-5.6211 9.8465 1.8538 0.9551
-5.7757 9.7825 1.8574 0.9550
-5.6742 9.2976 1.7809 0.9568
-6.4161 10.1758 1.9669 0.9524
-10.1897 9.6815 2.2981 0.9446
-10.1422 9.3582 2.2563 0.9456
-10.5078 9.4150 2.3068 0.9444
-10.5417 8.6434 2.2289 0.9462
-14.5484 8.7336 2.7744 0.9335
-16.0012 8.6754 2.9760 0.9289
-15.7235 7.9393 2.8799 0.9311
-20.8498 9.0406 3.7156 0.9120
-1.5930 0.5564 0.2759 0.9932
-1.5868 0.5284 0.2735 0.9932
-1.5809 0.5009 0.2711 0.9933
-1.5578 0.4686 0.2660 0.9934
-1.5333 0.4370 0.2607 0.9936
-1.5099 0.4065 0.2557 0.9937
-1.4975 0.3798 0.2526 0.9938
-1.4837 0.3305 0.2485 0.9939
-1.4773 0.3065 0.2467 0.9939
-1.4651 0.1937 0.2416 0.9940
-1.4621 0.1717 0.2407 0.9941
-1.4565 0.1280 0.2391 0.9941
-1.4540 0.1064 0.2384 0.9941
-1.4516 0.0849 0.2377 0.9941
-1.4475 0.0211 0.2367 0.9941
-1.3988 -0.0205 0.2128 0.9944
-1.4035 -0.0821 0.2139 0.9943
-1.4057 -0.1029 0.2144 0.9943
-1.4105 -0.1448 0.2157 0.9943
-1.4131 -0.1660 0.2165 0.9943
-1.4207 -0.2304 0.2190 0.9942
-1.4226 -0.2521 0.2198 0.9942
-1.4247 -0.2739 0.2207 0.9941
-1.4337 -0.3414 0.2242 0.9941
-1.4400 -0.3653 0.2260 0.9940
-1.4465 -0.3895 0.2279 0.9940
-1.4638 -0.4172 0.2316 0.9939
-1.4859 -0.4471 0.2361 0.9937
-1.5028 -0.4762 0.2399 0.9936
-1.5078 -0.5021 0.2418 0.9936
-64.2388 -31.2670 10.8697 0.7490
-23.7069 -11.9704 4.0406 0.8981
-23.5663 -12.3348 4.0469 0.8980
-22.6740 -13.1646 3.9890 0.8994
-47.8367 -29.6762 8.5647 0.7963
-46.2591 -29.6422 8.3589 0.8007
-17.5390 -12.3553 3.2640 0.9169
-17.1646 -13.2541 3.2994 0.9160
-16.9853 -13.5164 3.3026 0.9159
-12.7758 -11.4472 2.6099 0.9329
-12.6603 -11.6817 2.6208 0.9327
-12.5436 -11.9180 2.6325 0.9324
-12.9034 -12.6237 2.7464 0.9296
-11.8456 -12.2865 2.5966 0.9333
-11.6686 -12.4622 2.5974 0.9333
-2.4450 -2.7692 0.5620 0.9852
-2.3100 -2.6947 0.5400 0.9857
-2.1850 -2.6257 0.5197 0.9863
-2.0617 -2.7108 0.5182 0.9863
-2.0058 -2.8037 0.5245 0.9861
-1.6514 -2.7060 0.4823 0.9873
-1.6102 -2.8207 0.4941 0.9869
-1.4796 -2.7774 0.4788 0.9873
-1.4173 -2.7567 0.4716 0.9875
-1.4946 -3.2499 0.5442 0.9856
-12.8167 -30.1602 4.9858 0.8758
-12.2950 -30.1490 4.9537 0.8766
-11.7799 -30.1379 4.9231 0.8773
-11.2710 -30.1270 4.8939 0.8780
-4.3232 -12.0913 1.9537 0.9494
-3.9550 -12.1723 1.9472 0.9495
-3.7717 -12.2127 1.9447 0.9496
-3.5889 -12.2531 1.9425 0.9497
-3.3878 -12.2256 1.9301 0.9500
-3.1568 -12.0750 1.8989 0.9508
-2.7142 -11.7783 1.8390 0.9523
-2.4348 -12.1823 1.8901 0.9510
-2.0772 -12.2448 1.8896 0.9510
-1.9062 -12.3268 1.8977 0.9508
-1.7300 -12.3823 1.9022 0.9507
-3.7409 -29.9649 4.5943 0.8850
-3.2960 -29.9553 4.5850 0.8852
-1.5314 -29.9174 4.5577 0.8859
-1.0930 -29.9079 4.5533 0.8860
1.9651 -29.8421 4.5501 0.8860
2.4028 -29.8327 4.5535 0.8859
1.7696 -12.6659 1.9457 0.9496
1.9493 -12.6052 1.9406 0.9497
2.3060 -12.4846 1.9316 0.9499
2.3520 -11.7679 1.8258 0.9526
2.5884 -12.0334 1.8727 0.9514
2.8253 -12.2603 1.9142 0.9504
2.9882 -12.1531 1.9041 0.9506
3.1496 -12.0471 1.8945 0.9509
3.3093 -11.9425 1.8854 0.9511
3.4677 -11.8388 1.8769 0.9513
3.6247 -11.7364 1.8688 0.9515
11.6939 -31.2574 5.0775 0.8737
13.0518 -30.7136 5.0773 0.8737
13.4990 -30.5192 5.0772 0.8737
14.3847 -30.1109 5.0771 0.8737
6.9417 -13.5016 2.3098 0.9404
7.0954 -12.8620 2.2349 0.9423
7.1928 -12.5996 2.2073 0.9430
7.4603 -12.6358 2.2325 0.9424
7.3604 -11.6733 2.0996 0.9457
7.7091 -11.8393 2.1495 0.9444
20.8041 -28.1989 5.3315 0.8678
21.4371 -28.1853 5.3876 0.8665
22.0836 -28.1713 5.4460 0.8652
24.1123 -28.1277 5.6366 0.8608
11.9957 -13.5865 2.7575 0.9293
12.0996 -12.9226 2.6934 0.9309
12.1834 -12.6368 2.6706 0.9314
12.3293 -12.0620 2.6242 0.9326
12.5171 -11.8928 2.6269 0.9325
13.6622 -11.8861 2.7551 0.9294
16.4114 -11.9236 3.0863 0.9212
17.1116 -12.0542 3.1845 0.9188
17.8575 -12.1932 3.2898 0.9162
17.7949 -11.4027 3.2155 0.9180
23.3497 -12.6594 4.0410 0.8981
11.2945 -3.3980 1.7945 0.9534
11.2814 -2.8615 1.7707 0.9540
11.4050 -2.7161 1.7837 0.9537
11.6480 -2.5947 1.8156 0.9529
11.9365 -2.4765 1.8547 0.9519
21.2868 -3.4513 3.2809 0.9164
21.1506 -3.1127 3.2526 0.9171
22.9699 -2.0190 3.5082 0.9109
23.9002 9.9509 3.9388 0.9006
19.5915 8.8373 3.2699 0.9167
19.0907 9.2919 3.2303 0.9177
17.7625 9.6302 3.0741 0.9215
17.7720 9.9741 3.1006 0.9209
13.7998 8.0121 2.4278 0.9375
13.3829 9.1379 2.4655 0.9365
13.1978 9.2972 2.4562 0.9368
13.0138 9.4550 2.4474 0.9370
12.8308 9.6116 2.4391 0.9372
12.6488 9.7670 2.4314 0.9374
9.7504 9.5390 2.0753 0.9463
4.9015 9.5334 1.6309 0.9576
4.7496 9.5796 1.6268 0.9577
4.6407 9.7142 1.6379 0.9574
4.5167 10.2114 1.6988 0.9558
-5.3078 11.1106 1.8734 0.9514
-5.0477 10.1810 1.7289 0.9551
-4.9377 9.2684 1.5977 0.9584
-5.5123 9.9922 1.7362 0.9549
-10.2910 10.6739 2.2558 0.9418
-10.5648 10.6422 2.2815 0.9411
-10.0372 9.8195 2.1363 0.9448
-10.1945 9.4064 2.1104 0.9454
-10.7332 9.3379 2.1645 0.9441
-10.6294 8.9781 2.1169 0.9453
-10.3797 8.5104 2.0422 0.9471
-11.5716 8.9354 2.2243 0.9426
-15.8637 10.8318 2.9225 0.9252
-15.5501 10.2878 2.8367 0.9273
-14.8831 9.5368 2.6894 0.9310
-15.9300 8.9403 2.7792 0.9288
-16.0231 8.6872 2.7730 0.9289
-15.7498 7.9526 2.6844 0.9311
-17.3494 8.4444 2.9356 0.9249
-20.3493 8.4725 3.3536 0.9147
-20.5137 8.1914 3.3606 0.9145
-1.5131 0.5285 0.2438 0.9935
-1.5078 0.5021 0.2418 0.9936
-1.5028 0.4762 0.2399 0.9936
-1.4858 0.4470 0.2361 0.9937
-1.4638 0.4171 0.2316 0.9939
-1.4270 0.2961 0.2217 0.9941
-1.4247 0.2739 0.2207 0.9941
-1.4188 0.2088 0.2182 0.9942
-1.4159 0.1873 0.2173 0.9942
-1.4131 0.1659 0.2165 0.9943
-1.4080 0.1237 0.2150 0.9943
-1.3988 0.0204 0.2128 0.9944
-1.3587 -0.0796 0.1917 0.9945
-1.3607 -0.0996 0.1921 0.9945
-1.3699 -0.1812 0.1946 0.9944
-1.3726 -0.2020 0.1954 0.9944
-1.3765 -0.2439 0.1969 0.9944
-1.3825 -0.3080 0.1995 0.9943
-1.3928 -0.3750 0.2031 0.9942
-1.4005 -0.3992 0.2051 0.9941
-1.4323 -0.4539 0.2116 0.9939
-1.4365 -0.4784 0.2132 0.9939
-1.4409 -0.5034 0.2149 0.9939
-1.4456 -0.5289 0.2168 0.9938
-1.4506 -0.5548 0.2187 0.9937
-72.5200 -31.4452 11.1312 0.7267
-28.0026 -12.6314 4.3260 0.8833
-23.4991 -11.8655 3.7072 0.8991
-23.2245 -12.1559 3.6915 0.8995
-22.7499 -13.2086 3.7046 0.8992
-17.2276 -11.0392 2.8814 0.9207
-17.3878 -11.8726 2.9650 0.9185
-16.3433 -11.8741 2.8448 0.9216
-17.3043 -12.9628 3.0448 0.9164
-13.1625 -10.7922 2.3970 0.9336
-12.9361 -11.2545 2.4146 0.9331
-12.7057 -11.7236 2.4346 0.9325
-12.5888 -11.9610 2.4454 0.9323
-2.3729 -2.3904 0.4743 0.9865
-2.2834 -2.5113 0.4780 0.9864
-2.2696 -2.5707 0.4829 0.9862
-2.2557 -2.6313 0.4881 0.9861
-2.0938 -2.6710 0.4779 0.9864
-2.0663 -2.7168 0.4807 0.9863
-2.0103 -2.8100 0.4865 0.9861
-1.8938 -3.0036 0.5000 0.9858
-1.6677 -2.7328 0.4508 0.9872
-1.6547 -2.8027 0.4583 0.9869
-1.4853 -2.7880 0.4449 0.9873
-1.4226 -2.7671 0.4382 0.9875
-1.3618 -2.7467 0.4317 0.9877
-1.5512 -3.2471 0.5068 0.9856
-1.4931 -3.2466 0.5032 0.9857
-1.4358 -3.2461 0.4998 0.9858
-1.3792 -3.2457 0.4966 0.9859
-12.2950 -30.1490 4.5852 0.8768
-11.7799 -30.1379 4.5568 0.8775
-4.2635 -11.9244 1.7833 0.9501
-4.1317 -12.1111 1.8020 0.9496
-3.7653 -12.1918 1.7969 0.9498
-3.3813 -12.2024 1.7831 0.9501
-2.9278 -11.9075 1.7268 0.9517
-3.7410 -29.9649 4.2525 0.8852
-3.2960 -29.9553 4.2439 0.8854
-2.4110 -29.9363 4.2294 0.8858
-1.9706 -29.9268 4.2235 0.8859
-0.6554 -29.8985 4.2114 0.8862
-0.2184 -29.8891 4.2092 0.8863
0.2183 -29.8797 4.2079 0.8863
4.6061 -29.7853 4.2443 0.8854
2.3176 -12.5471 1.7968 0.9498
2.3690 -11.8528 1.7022 0.9523
2.8105 -12.1963 1.7625 0.9507
2.9727 -12.0900 1.7533 0.9510
3.4500 -11.7782 1.7283 0.9516
12.6335 -33.7688 5.0773 0.8645
14.1005 -33.1813 5.0771 0.8645
6.7483 -13.6111 2.1394 0.9405
6.6456 -12.9257 2.0467 0.9430
7.1734 -13.0032 2.0913 0.9418
7.7210 -12.2454 2.0386 0.9432
7.7903 -11.9639 2.0105 0.9440
20.5430 -29.6190 5.0761 0.8645
20.9733 -29.3153 5.0760 0.8645
21.3991 -29.0054 5.0760 0.8645
21.8204 -28.6892 5.0759 0.8645
22.2370 -28.3669 5.0758 0.8645
22.7445 -28.1571 5.0972 0.8640
23.4204 -28.1426 5.1560 0.8625
24.1123 -28.1277 5.2172 0.8610
12.3866 -12.1181 2.4402 0.9324
12.3204 -11.7060 2.3933 0.9337
13.0823 -11.7218 2.4736 0.9315
33.0728 -27.9349 6.0965 0.8396
17.3279 -13.3801 3.0830 0.9154
17.2109 -12.1242 2.9647 0.9185
18.0191 -12.3036 3.0726 0.9156
18.1154 -11.9850 3.0588 0.9160
17.8545 -11.4409 2.9862 0.9179
17.5864 -10.9100 2.9144 0.9198
19.2139 -11.5343 3.1559 0.9135
28.7028 -16.6649 4.6739 0.8745
28.9061 -16.2230 4.6679 0.8747
23.2298 -12.5945 3.7212 0.8988
23.8495 -11.6082 3.7353 0.8984
11.7028 -3.7082 1.7288 0.9516
11.1949 -3.1904 1.6393 0.9541
11.1671 -3.0068 1.6286 0.9544
11.1828 -2.8364 1.6247 0.9545
11.5946 -2.5829 1.6728 0.9531
12.0031 -2.4903 1.7263 0.9517
11.7841 -2.2658 1.6899 0.9527
21.1908 -3.7543 3.0306 0.9167
21.4745 -2.5218 3.0449 0.9164
22.8436 -1.6720 3.2255 0.9116
24.0799 8.4118 3.5920 0.9021
23.6799 9.4557 3.5907 0.9021
23.8510 9.9305 3.6383 0.9009
17.5931 9.5383 2.8182 0.9223
12.9228 9.6805 2.2738 0.9369
13.0244 10.0571 2.3173 0.9357
5.0818 9.5387 1.5220 0.9573
-0.0684 9.3636 1.3187 0.9629
-5.1817 11.2670 1.7464 0.9511
-5.5583 10.0756 1.6205 0.9546
-5.7152 10.0114 1.6234 0.9545
-10.3561 10.7414 2.1012 0.9415
-10.2709 10.3462 2.0530 0.9428
-10.6171 9.5130 2.0075 0.9440
-10.7143 9.3214 1.9999 0.9442
-10.4632 8.8378 1.9287 0.9462
-10.2230 8.3820 1.8617 0.9480
-15.2163 10.3898 2.5947 0.9283
-14.9458 9.5770 2.4998 0.9308
-15.2263 9.4458 2.5233 0.9302
-15.8032 9.1754 2.5734 0.9288
-15.7761 7.9659 2.4888 0.9311
-17.2896 8.4154 2.7079 0.9253
-20.8006 9.7509 3.2351 0.9114
-20.4462 8.1644 3.1004 0.9149
-1.4506 0.5548 0.2187 0.9937
-1.4456 0.5288 0.2168 0.9938
-1.4409 0.5034 0.2149 0.9939
-1.4323 0.4538 0.2116 0.9939
-1.3928 0.3750 0.2031 0.9942
-1.3847 0.3298 0.2005 0.9943
-1.3825 0.3079 0.1995 0.9943
-1.3803 0.2864 0.1985 0.9943
-1.3765 0.2439 0.1969 0.9944
-1.3748 0.2229 0.1961 0.9944
-1.3699 0.1812 0.1946 0.9944
-1.3674 0.1605 0.1939 0.9945
-1.3650 0.1401 0.1932 0.9945
-1.3607 0.0996 0.1921 0.9945
-1.3550 0.0396 0.1909 0.9945
-1.3534 0.0198 0.1906 0.9945
-1.3079 -0.0000 0.1694 0.9947
-1.3125 -0.0384 0.1701 0.9947
-1.3143 -0.0577 0.1704 0.9947
-1.3162 -0.0770 0.1708 0.9947
-1.3182 -0.0965 0.1712 0.9947
-1.3203 -0.1161 0.1717 0.9947
-1.3226 -0.1358 0.1722 0.9947
-1.3294 -0.1957 0.1741 0.9946
-1.3334 -0.2363 0.1754 0.9946
-1.3350 -0.2568 0.1761 0.9945
-1.3406 -0.3193 0.1785 0.9945
-1.3427 -0.3406 0.1794 0.9944
-1.3683 -0.4336 0.1859 0.9942
-1.3719 -0.4569 0.1873 0.9942
-1.3837 -0.5293 0.1919 0.9940
-1.3881 -0.5543 0.1936 0.9940
-28.1235 -12.6859 3.9966 0.8830
-27.5717 -12.9251 3.9446 0.8844
-23.7671 -12.0008 3.4490 0.8982
-23.4726 -12.7261 3.4588 0.8979
-22.8128 -13.2452 3.4171 0.8991
-17.3053 -11.0890 2.6625 0.9204
-17.3859 -11.5024 2.7004 0.9194
-17.1347 -12.8358 2.7733 0.9173
-17.0833 -13.1913 2.7959 0.9166
-16.8996 -13.4482 2.7977 0.9166
-12.9821 -11.2945 2.2291 0.9329
-12.8672 -11.5291 2.2380 0.9327
-12.7513 -11.7656 2.2475 0.9324
-12.6199 -11.9905 2.2550 0.9322
-12.3666 -12.0985 2.2411 0.9326
-2.3051 -2.3909 0.4302 0.9867
-2.0131 -2.1501 0.3815 0.9882
-2.0562 -2.2614 0.3959 0.9877
-2.1339 -2.4893 0.4247 0.9869
-2.0845 -2.5048 0.4221 0.9869
-2.0708 -2.7228 0.4431 0.9863
-2.0430 -2.7692 0.4458 0.9862
-1.9862 -2.8638 0.4515 0.9860
-1.8981 -3.0104 0.4610 0.9857
-1.6843 -2.7599 0.4188 0.9870
-1.6714 -2.8310 0.4259 0.9868
-1.6230 -2.8430 0.4241 0.9869
-1.3669 -2.7570 0.3986 0.9877
-1.4915 -3.2433 0.4624 0.9857
-1.4343 -3.2429 0.4593 0.9858
-1.3779 -3.2424 0.4564 0.9859
-12.2950 -30.1490 4.2177 0.8769
-11.7799 -30.1379 4.1917 0.8776
-11.2709 -30.1270 4.1668 0.8783
-4.3084 -12.0500 1.6577 0.9497
-4.1247 -12.0904 1.6548 0.9498
-3.9415 -12.1309 1.6523 0.9499
-8.8088 -30.0740 4.0594 0.8813
-3.2315 -12.3607 1.6550 0.9498
-6.9209 -30.0334 3.9925 0.8831
-6.4581 -30.0234 3.9782 0.8835
-5.0881 -29.9939 3.9409 0.8845
-4.6368 -29.9842 3.9303 0.8848
-4.1878 -29.9745 3.9206 0.8851
-2.8528 -29.9458 3.8967 0.8857
-1.9706 -29.9268 3.8851 0.8861
-1.0930 -29.9079 3.8768 0.8863
-0.6554 -29.8985 3.8740 0.8864
-0.2184 -29.8891 3.8719 0.8864
1.5280 -29.8515 3.8720 0.8864
1.9651 -29.8421 3.8741 0.8864
2.4027 -29.8327 3.8770 0.8863
4.6060 -29.7853 3.9042 0.8855
5.0511 -29.7757 3.9122 0.8853
2.6270 -12.2127 1.6182 0.9509
2.9574 -12.0277 1.6045 0.9513
3.2755 -11.8205 1.5889 0.9517
8.6985 -29.6972 4.0086 0.8827
9.6426 -29.6769 4.0422 0.8817
13.7335 -36.7092 5.0772 0.8538
14.2682 -36.5040 5.0771 0.8538
14.7998 -36.2910 5.0770 0.8538
7.3304 -13.7595 2.0196 0.9391
7.3369 -12.8520 1.9170 0.9421
22.3312 -32.1973 5.0758 0.8538
22.7990 -31.8671 5.0757 0.8538
23.2618 -31.5302 5.0757 0.8538
23.7197 -31.1865 5.0756 0.8538
24.6202 -30.4792 5.0755 0.8538
25.0626 -30.1158 5.0754 0.8538
12.3401 -13.9764 2.4152 0.9276
12.0377 -13.2390 2.3179 0.9304
12.3796 -13.2216 2.3463 0.9295
12.8160 -12.1768 2.2900 0.9312
12.8315 -11.8396 2.2616 0.9320
13.0324 -11.6771 2.2667 0.9319
32.1323 -27.9551 5.5172 0.8422
33.0728 -27.9349 5.6080 0.8398
17.4542 -13.4778 2.8566 0.9149
17.0214 -12.7509 2.7550 0.9178
17.3165 -12.5811 2.7727 0.9173
17.3111 -12.1948 2.7430 0.9181
17.9181 -12.2346 2.8106 0.9162
17.9091 -11.4760 2.7554 0.9178
17.6445 -10.9460 2.6897 0.9197
23.0374 -12.4902 3.3946 0.8997
23.1725 -12.1287 3.3881 0.8999
23.1974 -11.7131 3.3663 0.9005
23.8544 -11.6107 3.4367 0.8985
27.4663 -11.4357 3.8540 0.8869
11.3420 -3.5939 1.5412 0.9531
11.2830 -3.3945 1.5263 0.9536
11.2266 -3.1995 1.5122 0.9540
11.2410 -2.3322 1.4872 0.9548
11.7682 -2.2627 1.5524 0.9528
21.3567 -3.4627 2.8027 0.9164
21.9221 -1.9269 2.8507 0.9151
29.2883 9.2804 3.9799 0.8835
24.1717 8.4439 3.3167 0.9019
24.1169 9.2239 3.3448 0.9011
23.2579 9.6835 3.2635 0.9034
18.1140 8.8165 2.6097 0.9220
18.3963 9.2889 2.6696 0.9202
18.4807 9.6729 2.7021 0.9193
13.7912 8.2789 2.0837 0.9372
13.7985 8.5600 2.1035 0.9366
13.4885 8.9238 2.0951 0.9368
13.4693 9.1969 2.1127 0.9363
13.1254 9.5361 2.1016 0.9367
13.0157 9.7502 2.1067 0.9365
13.0134 10.0486 2.1298 0.9358
9.7493 9.5379 1.7668 0.9465
5.0494 9.4779 1.3911 0.9576
-0.0685 9.3868 1.2160 0.9628
-5.4079 11.3203 1.6252 0.9507
-5.4470 10.2243 1.5007 0.9543
-5.3476 9.6939 1.4341 0.9563
-10.3283 10.7127 1.9276 0.9417
-10.4619 9.6532 1.8440 0.9442
-10.6478 9.5404 1.8520 0.9440
-10.5512 9.1796 1.8117 0.9452
-10.3026 8.7021 1.7470 0.9471
-11.4439 9.1067 1.8945 0.9427
-11.6496 8.9955 1.9066 0.9424
-11.8579 8.8829 1.9193 0.9420
-15.0088 9.6174 2.3091 0.9306
-15.2911 9.4861 2.3310 0.9300
-15.8718 9.2152 2.3774 0.9286
-15.9141 8.9314 2.3640 0.9290
-15.8669 8.6025 2.3380 0.9298
-20.4823 9.9693 2.9509 0.9122
-21.4415 9.6718 3.0470 0.9095
-20.5308 8.9023 2.8988 0.9137
-20.5240 8.5452 2.8799 0.9142
-1.3837 0.5292 0.1919 0.9940
-1.3796 0.5046 0.1903 0.9941
-1.3756 0.4805 0.1888 0.9941
-1.3719 0.4568 0.1873 0.9942
-1.3683 0.4336 0.1859 0.9942
-1.3449 0.3621 0.1804 0.9944
-1.3427 0.3405 0.1794 0.9944
-1.3406 0.3192 0.1785 0.9945
-1.3368 0.2773 0.1769 0.9945
-1.3350 0.2567 0.1761 0.9945
-1.3334 0.2362 0.1754 0.9946
-1.3248 0.1555 0.1728 0.9946
-1.3226 0.1357 0.1722 0.9947
-1.3182 0.0964 0.1712 0.9947
-1.3162 0.0770 0.1708 0.9947
-1.3125 0.0383 0.1701 0.9947
-1.3108 0.0191 0.1698 0.9947
-1.2611 -0.0000 0.1492 0.9949
-1.2684 -0.0371 0.1501 0.9949
-1.2789 -0.1312 0.1521 0.9948
-1.2810 -0.1505 0.1526 0.9948
-1.2857 -0.1892 0.1537 0.9948
-1.2882 -0.2089 0.1544 0.9948
-1.2917 -0.2484 0.1556 0.9947
-1.2955 -0.2886 0.1570 0.9947
-1.2976 -0.3090 0.1578 0.9946
-1.2998 -0.3297 0.1586 0.9946
-1.3022 -0.3506 0.1595 0.9946
-1.3046 -0.3718 0.1605 0.9946
-1.3072 -0.3933 0.1615 0.9945
-1.3194 -0.4827 0.1662 0.9944
-1.3229 -0.5060 0.1675 0.9943
-1.3266 -0.5298 0.1690 0.9943
-1.3304 -0.5540 0.1705 0.9942
-1.3345 -0.5787 0.1721 0.9942
-28.2117 -12.7257 3.6609 0.8828
-24.1441 -11.7516 3.1763 0.8975
-23.6353 -11.9343 3.1320 0.8988
-22.7935 -12.3579 3.0670 0.9008
-22.9753 -12.8944 3.1164 0.8993
-18.0928 -11.2242 2.5185 0.9178
-17.4657 -11.5552 2.4772 0.9191
-17.5500 -11.9833 2.5137 0.9180
-18.1642 -13.6070 2.6846 0.9126
-16.8574 -13.4146 2.5483 0.9169
-35.8803 -29.4188 5.4884 0.8295
-34.8021 -29.3956 5.3886 0.8324
-13.0283 -11.3347 2.0427 0.9328
-12.7971 -11.8079 2.0597 0.9323
-1.9284 -2.0002 0.3286 0.9889
-2.0028 -2.1391 0.3466 0.9883
-2.1407 -2.4972 0.3891 0.9868
-2.0991 -2.5224 0.3882 0.9869
-2.0499 -2.5377 0.3859 0.9869
-1.9052 -2.5824 0.3796 0.9872
-1.9907 -2.8702 0.4132 0.9860
-1.9617 -2.9186 0.4160 0.9859
-1.9323 -2.9676 0.4189 0.9858
-1.7134 -2.7175 0.3800 0.9871
-1.6884 -2.8599 0.3928 0.9867
-1.5620 -2.8315 0.3825 0.9871
-1.4334 -2.7880 0.3708 0.9875
-1.3123 -2.7470 0.3601 0.9878
-1.4901 -3.2400 0.4218 0.9857
-1.4329 -3.2396 0.4190 0.9858
-1.3765 -3.2392 0.4163 0.9859
-1.3208 -3.2388 0.4137 0.9860
-11.7799 -30.1379 3.8276 0.8778
-11.2710 -30.1270 3.8049 0.8785
-10.7679 -30.1162 3.7832 0.8791
-10.2705 -30.1054 3.7626 0.8797
-8.8088 -30.0740 3.7068 0.8814
-8.3308 -30.0637 3.6902 0.8819
-3.3102 -12.6618 1.5481 0.9487
-7.3871 -30.0434 3.6596 0.8828
-2.8528 -29.9458 3.5582 0.8859
-1.9707 -29.9268 3.5476 0.8862
-1.0930 -29.9080 3.5401 0.8864
-0.2183 -29.8891 3.5356 0.8866
0.2183 -29.8797 3.5345 0.8866
1.5280 -29.8515 3.5357 0.8866
3.7209 -29.8043 3.5528 0.8861
4.1627 -29.7948 3.5586 0.8859
5.0511 -29.7757 3.5724 0.8855
5.4981 -29.7661 3.5805 0.8852
2.4035 -12.0257 1.4506 0.9518
2.7816 -12.0709 1.4653 0.9513
2.9423 -11.9663 1.4576 0.9516
8.2321 -29.7072 3.6464 0.8832
8.6985 -29.6972 3.6604 0.8828
9.1686 -29.6871 3.6753 0.8824
9.6426 -29.6769 3.6911 0.8819
14.4505 -40.4157 5.0771 0.8412
15.6247 -39.9746 5.0769 0.8412
16.2069 -39.7414 5.0768 0.8412
16.7855 -39.4996 5.0767 0.8412
17.3606 -39.2495 5.0766 0.8412
17.9319 -38.9909 5.0765 0.8413
18.4994 -38.7241 5.0764 0.8413
7.3144 -13.7295 1.8401 0.9393
7.4255 -13.4603 1.8184 0.9400
7.6187 -12.0831 1.6897 0.9441
7.8254 -12.0180 1.6964 0.9439
24.4538 -35.2577 5.0755 0.8413
25.4728 -34.5270 5.0753 0.8413
26.4700 -33.7669 5.0752 0.8413
26.9602 -33.3761 5.0751 0.8413
27.4445 -32.9780 5.0750 0.8413
27.9230 -32.5730 5.0749 0.8413
2.3249 -2.6332 0.4155 0.9860
12.7863 -13.6561 2.2129 0.9274
12.2479 -12.7037 2.0874 0.9314
12.7244 -12.8177 2.1364 0.9298
12.7194 -12.4437 2.1048 0.9308
12.7361 -12.1008 2.0781 0.9317
12.9831 -11.6329 2.0620 0.9322
32.3637 -28.1564 5.0742 0.8413
33.0728 -27.9348 5.1209 0.8400
17.3751 -12.6237 2.5404 0.9171
17.9796 -12.2766 2.5752 0.9160
18.0378 -11.9337 2.5583 0.9166
17.9600 -11.5085 2.5232 0.9177
23.0719 -13.3957 3.1558 0.8981
22.2560 -12.4907 3.0189 0.9023
22.5442 -12.2227 3.0334 0.9019
22.7519 -11.9086 3.0376 0.9017
22.9039 -11.5650 3.0350 0.9018
28.1883 -13.2141 3.6825 0.8821
27.3467 -12.3355 3.5486 0.8862
27.7230 -11.5427 3.5522 0.8861
28.6936 -11.4577 3.6547 0.8830
34.4812 -12.6136 4.3430 0.8625
10.7424 -3.2319 1.3270 0.9558
10.5104 -2.9954 1.2927 0.9569
10.8256 -2.7459 1.3211 0.9560
10.8222 -2.5773 1.3159 0.9562
11.0273 -2.4564 1.3364 0.9555
11.0737 -2.2975 1.3378 0.9555
11.4964 -1.6920 1.3745 0.9543
21.2800 -2.8148 2.5391 0.9172
21.4925 -2.2061 2.5557 0.9167
59.2960 -2.6010 7.0207 0.7874
29.3258 8.8228 3.6225 0.8840
24.2307 8.8638 3.0519 0.9013
24.8419 9.5012 3.1461 0.8984
23.4106 10.1509 3.0183 0.9023
19.7970 8.9299 2.5690 0.9162
18.0734 8.4724 2.3611 0.9227
18.4356 8.9731 2.4253 0.9207
18.6088 9.7400 2.4845 0.9189
18.4033 10.3284 2.4963 0.9185
13.7832 8.2742 1.9016 0.9373
13.7905 8.5551 1.9196 0.9367
13.7978 8.8414 1.9384 0.9361
13.4625 9.1923 1.9283 0.9364
12.9384 9.6923 1.9123 0.9370
12.9452 10.3013 1.9569 0.9355
9.7487 9.5373 1.6132 0.9465
5.0489 9.4769 1.2702 0.9577
-0.0687 9.4098 1.1131 0.9628
-5.4574 11.4239 1.4976 0.9503
-5.0188 9.7617 1.2984 0.9568
-10.9383 10.7012 1.8101 0.9402
-10.3069 9.7929 1.6817 0.9443
-10.4920 9.6810 1.6887 0.9441
-11.0762 9.3555 1.7150 0.9433
-15.0722 9.6580 2.1175 0.9304
-15.3563 9.5265 2.1376 0.9298
-15.6458 9.3923 2.1586 0.9291
-15.7465 8.5372 2.1188 0.9304
-20.5487 10.0016 2.7033 0.9121
-21.1932 9.9350 2.7687 0.9100
-21.1411 9.5363 2.7434 0.9108
-1.3345 0.5786 0.1721 0.9942
-1.3305 0.5539 0.1705 0.9942
-1.3266 0.5297 0.1690 0.9943
-1.3229 0.5059 0.1675 0.9943
-1.2976 0.3090 0.1578 0.9946
-1.2955 0.2886 0.1570 0.9947
-1.2936 0.2684 0.1563 0.9947
-1.2900 0.2285 0.1550 0.9947
-1.2882 0.2089 0.1544 0.9948
-1.2833 0.1697 0.1531 0.9948
-1.2810 0.1504 0.1526 0.9948
-1.2788 0.1312 0.1521 0.9948
-1.2768 0.1122 0.1516 0.9949
-1.2749 0.0933 0.1512 0.9949
-1.2730 0.0745 0.1508 0.9949
-1.2712 0.0557 0.1505 0.9949
-1.2647 0.0185 0.1496 0.9949
-1.2245 -0.0358 0.1312 0.9951
-1.2280 -0.0539 0.1316 0.9951
-1.2317 -0.0721 0.1321 0.9950
-1.2343 -0.0904 0.1325 0.9950
-1.2380 -0.1271 0.1332 0.9950
-1.2400 -0.1456 0.1337 0.9950
-1.2420 -0.1643 0.1341 0.9950
-1.2442 -0.1831 0.1346 0.9950
-1.2465 -0.2021 0.1352 0.9949
-1.2497 -0.2403 0.1363 0.9949
-1.2530 -0.2791 0.1374 0.9948
-1.2587 -0.3389 0.1396 0.9948
-1.2659 -0.4011 0.1422 0.9947
-1.2692 -0.4227 0.1432 0.9946
-1.2736 -0.4659 0.1452 0.9946
-1.2760 -0.4880 0.1463 0.9945
-1.2811 -0.5334 0.1486 0.9944
-1.2939 -0.5837 0.1520 0.9943
-23.6937 -11.1071 2.8017 0.9001
-23.6564 -11.5143 2.8169 0.8996
-22.6769 -12.7269 2.7841 0.9007
-21.9614 -13.1836 2.7424 0.9021
-22.2180 -13.7833 2.7993 0.9002
-18.0062 -11.5382 2.2897 0.9176
-3.1548 -2.3634 0.4220 0.9843
-3.1548 -2.4361 0.4267 0.9841
-12.9594 -11.6117 1.8630 0.9324
-1.8215 -1.6807 0.2654 0.9901
-1.8833 -1.8425 0.2821 0.9895
-1.9537 -2.0264 0.3014 0.9887
-1.8326 -2.0155 0.2917 0.9891
-2.1285 -2.4831 0.3502 0.9869
-2.1140 -2.5402 0.3538 0.9868
-2.0642 -2.5556 0.3517 0.9869
-1.9664 -2.5855 0.3478 0.9870
-1.7766 -2.6432 0.3410 0.9873
-1.7302 -2.6573 0.3395 0.9873
-1.7305 -2.7445 0.3474 0.9870
-1.7183 -2.8157 0.3532 0.9868
-1.7058 -2.8892 0.3592 0.9866
-1.5681 -2.8426 0.3476 0.9870
-1.5024 -2.8202 0.3421 0.9872
-1.3770 -2.7775 0.3319 0.9876
-1.3171 -2.7571 0.3271 0.9878
-1.4315 -3.2364 0.3789 0.9859
-1.3195 -3.2356 0.3741 0.9860
-9.2912 -30.0844 3.3711 0.8810
-8.3308 -30.0637 3.3401 0.8821
-7.8570 -30.0535 3.3258 0.8825
-7.3871 -30.0434 3.3124 0.8830
-5.9985 -30.0135 3.2770 0.8842
-5.0881 -29.9939 3.2572 0.8848
-4.1878 -29.9746 3.2404 0.8854
-3.2960 -29.9554 3.2265 0.8858
-2.8528 -29.9458 3.2207 0.8860
-2.4110 -29.9363 3.2155 0.8862
-1.9706 -29.9268 3.2111 0.8863
-1.5313 -29.9174 3.2073 0.8865
-0.6554 -29.8985 3.2019 0.8866
-0.2184 -29.8891 3.2002 0.8867
0.6549 -29.8704 3.1988 0.8867
1.0913 -29.8609 3.1992 0.8867
1.9651 -29.8421 3.2020 0.8866
3.2805 -29.8138 3.2113 0.8863
3.7210 -29.8043 3.2158 0.8862
5.0511 -29.7757 3.2335 0.8856
5.4981 -29.7661 3.2408 0.8854
2.4210 -12.1136 1.3226 0.9515
2.6059 -12.1144 1.3267 0.9514
6.8526 -29.7369 3.2672 0.8845
7.3094 -29.7271 3.2775 0.8841
7.7691 -29.7172 3.2886 0.8838
8.2321 -29.7072 3.3005 0.8834
9.1686 -29.6871 3.3266 0.8825
9.6426 -29.6769 3.3409 0.8820
15.9645 -44.6498 5.0768 0.8263
17.2616 -44.1625 5.0766 0.8263
17.9047 -43.9047 5.0765 0.8263
20.4372 -42.7804 5.0761 0.8264
7.2986 -13.6997 1.6619 0.9395
7.4096 -13.4315 1.6423 0.9402
7.5181 -13.1695 1.6236 0.9408
27.5806 -38.5507 5.0750 0.8264
2.1215 -2.7064 0.3682 0.9863
29.7834 -36.8712 5.0746 0.8264
30.3185 -36.4315 5.0746 0.8264
30.8471 -35.9840 5.0745 0.8264
2.3247 -2.6330 0.3761 0.9860
12.6959 -13.9628 2.0205 0.9269
12.7608 -13.6288 1.9989 0.9276
12.6928 -13.1652 1.9579 0.9291
12.6398 -12.3657 1.8932 0.9313
17.7116 -13.6764 2.3958 0.9139
15.2066 -11.3914 2.0343 0.9264
17.8822 -11.8307 2.2956 0.9174
17.7604 -11.0179 2.2377 0.9194
29.5510 -17.7398 3.6902 0.8705
22.8621 -11.9662 2.7627 0.9014
22.8739 -11.5498 2.7435 0.9021
23.1956 -11.2900 2.7620 0.9014
34.1349 -12.4869 3.8915 0.8640
10.7341 -3.2295 1.2001 0.9559
9.9815 -2.6876 1.1067 0.9593
10.1924 -2.5852 1.1258 0.9586
11.1037 -2.3037 1.2141 0.9554
11.2501 -1.6557 1.2175 0.9553
21.3222 -2.8204 2.3028 0.9171
21.1482 -2.4835 2.2798 0.9179
21.5759 -2.2146 2.3222 0.9164
22.3693 -1.6373 2.4014 0.9137
36.3114 9.2101 4.0108 0.8601
24.3892 8.1220 2.7522 0.9018
24.2249 9.2652 2.7769 0.9009
23.9270 9.5543 2.7584 0.9015
23.0164 10.3821 2.7034 0.9034
18.0720 8.4718 2.1369 0.9228
18.3095 9.5833 2.2126 0.9202
18.0662 9.7948 2.2003 0.9207
18.4504 10.3548 2.2652 0.9184
13.7753 8.2694 1.7202 0.9374
13.7825 8.5501 1.7365 0.9368
13.4557 9.1876 1.7444 0.9366
13.2898 9.3620 1.7405 0.9367
13.1175 9.5304 1.7360 0.9369
13.5089 10.1196 1.8071 0.9344
13.4577 10.3917 1.8204 0.9339
9.7482 9.5368 1.4601 0.9466
-0.0689 9.4328 1.0100 0.9628
-5.8116 10.1802 1.2551 0.9539
-10.5222 9.7088 1.5329 0.9440
-10.4745 9.3852 1.5058 0.9450
-11.5863 9.4998 1.6042 0.9415
-15.9227 10.5344 2.0441 0.9261
-15.9580 10.2256 2.0292 0.9266
-15.8671 9.2125 1.9644 0.9288
-15.5147 8.1205 1.8749 0.9320
-20.4490 10.3254 2.4527 0.9120
-1.2938 0.5836 0.1520 0.9943
-1.2811 0.5334 0.1486 0.9944
-1.2785 0.5105 0.1474 0.9945
-1.2760 0.4880 0.1463 0.9945
-1.2714 0.4441 0.1442 0.9946
-1.2692 0.4227 0.1432 0.9946
-1.2659 0.4011 0.1422 0.9947
-1.2631 0.3800 0.1412 0.9947
-1.2608 0.3593 0.1404 0.9947
-1.2587 0.3389 0.1396 0.9948
-1.2567 0.3187 0.1388 0.9948
-1.2548 0.2988 0.1381 0.9948
-1.2529 0.2791 0.1374 0.9948
-1.2513 0.2596 0.1368 0.9949
-1.2497 0.2403 0.1363 0.9949
-1.2482 0.2211 0.1357 0.9949
-1.2465 0.2021 0.1352 0.9949
-1.2442 0.1831 0.1346 0.9950
-1.2420 0.1643 0.1341 0.9950
-1.2400 0.1456 0.1337 0.9950
-1.2317 0.0721 0.1321 0.9950
-1.2245 0.0358 0.1312 0.9951
-1.2210 0.0179 0.1307 0.9951
-1.1804 -0.0173 0.1132 0.9953
-1.1835 -0.0346 0.1135 0.9953
-1.1868 -0.0521 0.1139 0.9952
-1.1938 -0.0874 0.1148 0.9952
-1.1974 -0.1053 0.1152 0.9952
-1.2034 -0.1592 0.1164 0.9951
-1.2054 -0.1774 0.1168 0.9951
-1.2091 -0.2143 0.1177 0.9951
-1.2104 -0.2327 0.1182 0.9951
-1.2164 -0.3086 0.1203 0.9950
-1.2181 -0.3280 0.1209 0.9949
-1.2200 -0.3477 0.1216 0.9949
-1.2241 -0.3879 0.1231 0.9949
-1.2351 -0.4724 0.1268 0.9947
-1.2394 -0.5161 0.1287 0.9946
-1.2417 -0.5385 0.1298 0.9946
-23.3786 -12.2366 2.5297 0.8994
-22.7544 -12.3368 2.4814 0.9012
-22.9543 -12.8826 2.5235 0.8996
-22.2449 -13.8000 2.5097 0.9002
-17.6268 -11.6618 2.0262 0.9186
-3.1277 -2.2725 0.3706 0.9846
-3.1263 -2.5634 0.3876 0.9839
-3.1259 -2.7196 0.3972 0.9835
-1.8197 -1.6791 0.2374 0.9901
-1.8433 -1.7514 0.2438 0.9898
-1.9442 -2.0166 0.2685 0.9888
-1.9305 -2.0618 0.2708 0.9887
-1.7401 -2.0299 0.2563 0.9893
-2.1289 -2.5582 0.3191 0.9867
-2.0292 -2.5886 0.3153 0.9869
-1.9801 -2.6035 0.3136 0.9869
-1.9316 -2.6182 0.3119 0.9870
-1.7420 -2.6753 0.3061 0.9873
-1.6810 -2.7546 0.3094 0.9871
-1.7234 -2.9191 0.3250 0.9865
-1.6423 -2.8769 0.3176 0.9868
-1.3219 -2.7672 0.2940 0.9878
-1.2064 -2.7275 0.2859 0.9881
-1.3738 -3.2328 0.3367 0.9860
-1.3182 -3.2324 0.3347 0.9861
-1.2633 -3.2321 0.3327 0.9862
-1.1585 -3.3959 0.3440 0.9857
-9.7784 -30.0948 3.0337 0.8806
-9.2912 -30.0844 3.0186 0.8812
-8.3308 -30.0637 2.9908 0.8822
-7.8570 -30.0535 2.9781 0.8827
-7.3871 -30.0434 2.9660 0.8831
-5.9985 -30.0135 2.9343 0.8843
-5.0881 -29.9939 2.9166 0.8849
-4.6368 -29.9842 2.9087 0.8852
-4.1878 -29.9745 2.9016 0.8855
-3.7409 -29.9649 2.8950 0.8857
-3.2960 -29.9553 2.8891 0.8859
-2.8528 -29.9458 2.8839 0.8861
-1.5313 -29.9174 2.8719 0.8866
-1.0930 -29.9079 2.8692 0.8867
-0.6554 -29.8985 2.8670 0.8868
-0.2199 -30.0954 2.8853 0.8861
0.2208 -30.2235 2.8976 0.8856
0.6624 -30.2140 2.8973 0.8856
1.5456 -30.1950 2.8986 0.8856
1.9877 -30.1854 2.9001 0.8855
3.3182 -30.1568 2.9086 0.8852
3.7638 -30.1472 2.9126 0.8851
4.2106 -30.1376 2.9173 0.8849
4.6379 -29.9909 2.9094 0.8852
5.4981 -29.7661 2.9019 0.8855
2.5329 -12.6733 1.2390 0.9494
6.3986 -29.7467 2.9170 0.8849
6.8526 -29.7369 2.9256 0.8846
8.6985 -29.6972 2.9667 0.8831
9.1686 -29.6871 2.9787 0.8826
10.1208 -29.6666 3.0051 0.8817
17.8846 -47.8050 4.8933 0.8146
21.1012 -47.7064 5.0010 0.8109
21.8764 -47.5678 5.0195 0.8103
22.7157 -47.5497 5.0520 0.8092
24.2073 -47.0836 5.0755 0.8084
25.5717 -46.3542 5.0753 0.8084
27.5768 -45.1862 5.0750 0.8084
28.2334 -44.7775 5.0749 0.8084
28.8841 -44.3593 5.0748 0.8084
29.5286 -43.9317 5.0747 0.8084
30.7985 -43.0484 5.0745 0.8084
31.4236 -42.5930 5.0744 0.8084
2.1242 -2.7098 0.3301 0.9863
2.3245 -2.6327 0.3367 0.9860
29.4740 -30.5709 4.0711 0.8431
13.1823 -13.2790 1.7938 0.9276
17.6926 -13.6617 2.1430 0.9141
14.7188 -11.0261 1.7631 0.9288
14.7908 -10.7461 1.7527 0.9292
14.8552 -10.4648 1.7420 0.9296
15.5044 -10.2576 1.7823 0.9280
17.4814 -11.2018 1.9905 0.9200
19.1156 -11.8586 2.1566 0.9136
22.5931 -12.2492 2.4639 0.9019
22.6757 -11.8687 2.4537 0.9023
23.1860 -11.7073 2.4901 0.9009
27.6137 -12.4559 2.9042 0.8854
28.3086 -11.7864 2.9398 0.8841
29.7328 -11.3719 3.0518 0.8799
34.8151 -12.1620 3.5355 0.8623
11.2478 -3.7457 1.1365 0.9535
10.5134 -3.1630 1.0525 0.9568
10.2066 -2.7482 1.0133 0.9584
10.6533 -2.5371 1.0499 0.9569
10.8630 -2.4199 1.0670 0.9563
11.0062 -2.2835 1.0776 0.9558
10.8649 -2.0891 1.0607 0.9565
11.2731 -1.8277 1.0949 0.9551
11.2549 -1.6564 1.0906 0.9553
21.4427 -2.2009 2.0665 0.9170
22.1906 -1.9505 2.1356 0.9144
22.2929 -1.6317 2.1429 0.9141
59.1277 -2.5936 5.6740 0.7883
40.7080 9.0680 3.9983 0.8457
34.9261 8.8588 3.4544 0.8652
29.6474 9.8730 2.9957 0.8820
24.0439 9.6010 2.4821 0.9012
23.7685 9.8961 2.4683 0.9017
18.4326 8.9716 1.9653 0.9209
18.4204 9.6414 1.9932 0.9198
17.8550 9.6804 1.9471 0.9216
2.7881 4.0199 0.4690 0.9805
2.6010 3.9945 0.4570 0.9810
2.4268 3.9765 0.4466 0.9815
2.2888 4.0092 0.4426 0.9816
2.1581 4.0507 0.4400 0.9817
2.0933 4.0716 0.4389 0.9818
1.9716 4.1271 0.4385 0.9818
2.0159 4.3832 0.4625 0.9808
0.2021 3.9474 0.3789 0.9842
0.1438 3.9336 0.3774 0.9843
0.0860 3.9205 0.3759 0.9844
0.0286 3.9082 0.3747 0.9844
-0.1981 3.8722 0.3717 0.9845
-4.9998 9.7247 1.0483 0.9570
-5.4253 9.5034 1.0491 0.9570
-10.5522 9.7364 1.3765 0.9439
-15.4879 9.6081 1.7473 0.9294
-15.7811 9.4735 1.7646 0.9287
-15.7454 9.1418 1.7455 0.9295
-15.6269 8.7702 1.7180 0.9305
-20.6821 10.0666 2.2052 0.9117
-1.2418 0.5384 0.1298 0.9946
-1.2394 0.5160 0.1287 0.9946
-1.2372 0.4940 0.1277 0.9947
-1.2351 0.4723 0.1268 0.9947
-1.2331 0.4511 0.1259 0.9947
-1.2300 0.4296 0.1249 0.9948
-1.2270 0.4086 0.1240 0.9948
-1.2219 0.3676 0.1223 0.9949
-1.2181 0.3280 0.1209 0.9949
-1.2164 0.3085 0.1203 0.9950
-1.2147 0.2893 0.1197 0.9950
-1.2132 0.2702 0.1192 0.9950
-1.2054 0.1774 0.1168 0.9951
-1.2034 0.1591 0.1164 0.9951
-1.2016 0.1411 0.1160 0.9952
-1.1974 0.1052 0.1152 0.9952
-1.1938 0.0873 0.1148 0.9952
-1.1835 0.0346 0.1135 0.9953
-1.1803 0.0172 0.1132 0.9953
-1.1453 -0.0335 0.0971 0.9954
-1.1516 -0.0674 0.0977 0.9954
-1.1548 -0.0846 0.0981 0.9954
-1.1582 -0.1018 0.0985 0.9953
-1.1616 -0.1193 0.0989 0.9953
-1.1651 -0.1368 0.0994 0.9953
-1.1672 -0.1544 0.0997 0.9953
-1.1690 -0.1721 0.1001 0.9953
-1.1708 -0.1899 0.1005 0.9952
-1.1725 -0.2078 0.1009 0.9952
-1.1736 -0.2257 0.1012 0.9952
-1.1760 -0.2620 0.1020 0.9952
-1.1787 -0.2990 0.1030 0.9951
-1.1802 -0.3178 0.1035 0.9951
-1.1834 -0.3561 0.1047 0.9951
-1.1851 -0.3756 0.1053 0.9950
-1.1876 -0.3955 0.1060 0.9950
-1.1902 -0.4158 0.1068 0.9950
-1.1929 -0.4364 0.1076 0.9949
-1.2044 -0.5433 0.1119 0.9947
-1.2298 -0.5765 0.1150 0.9946
-23.3679 -12.2310 2.2339 0.8995
-22.9237 -12.4285 2.2086 0.9006
-22.9140 -12.8600 2.2255 0.8999
-3.1010 -2.2530 0.3247 0.9847
-3.1003 -2.3225 0.3281 0.9846
-3.0997 -2.3935 0.3317 0.9844
-3.0990 -2.4661 0.3354 0.9842
-3.0984 -2.5405 0.3394 0.9840
-1.8444 -1.6526 0.2097 0.9901
-1.8324 -1.6908 0.2112 0.9900
-1.8352 -1.7437 0.2144 0.9899
-1.9348 -2.0068 0.2361 0.9889
-1.9655 -2.0992 0.2436 0.9885
-1.7093 -2.0539 0.2263 0.9893
-1.6507 -2.0435 0.2225 0.9895
-1.9940 -2.6218 0.2790 0.9869
-1.9451 -2.6364 0.2775 0.9869
-1.8966 -2.6510 0.2761 0.9870
-1.8486 -2.6654 0.2747 0.9871
-1.8010 -2.6796 0.2735 0.9871
-1.7539 -2.6936 0.2722 0.9872
-1.7163 -2.8123 0.2791 0.9869
-1.6489 -2.8884 0.2817 0.9867
-1.5804 -2.8648 0.2771 0.9870
-1.5140 -2.8420 0.2727 0.9872
-1.4497 -2.8198 0.2685 0.9874
-1.3874 -2.7983 0.2645 0.9875
-1.3169 -3.2293 0.2954 0.9861
-1.2065 -3.3745 0.3035 0.9857
-1.1796 -3.4579 0.3094 0.9854
-8.8088 -30.0740 2.6542 0.8818
-7.8570 -30.0535 2.6310 0.8828
-7.3871 -30.0434 2.6204 0.8832
-6.9209 -30.0333 2.6104 0.8836
-6.4581 -30.0234 2.6011 0.8840
-5.5420 -30.0037 2.5842 0.8847
-4.6368 -29.9842 2.5698 0.8853
-4.1878 -29.9745 2.5634 0.8856
-3.7409 -29.9649 2.5577 0.8858
-3.2960 -29.9553 2.5525 0.8861
-1.9706 -29.9268 2.5402 0.8866
-1.5314 -29.9174 2.5373 0.8867
-1.0930 -29.9079 2.5348 0.8868
0.2208 -30.2235 2.5599 0.8857
0.6623 -30.2140 2.5597 0.8858
1.9877 -30.1855 2.5622 0.8856
3.3182 -30.1568 2.5696 0.8853
3.7638 -30.1472 2.5732 0.8852
4.6379 -29.9909 2.5704 0.8853
5.0511 -29.7757 2.5580 0.8858
2.5229 -12.6235 1.0903 0.9496
6.3986 -29.7467 2.5771 0.8850
6.8526 -29.7369 2.5847 0.8847
9.1686 -29.6871 2.6316 0.8827
9.6426 -29.6769 2.6429 0.8823
17.0987 -47.8220 4.3015 0.8156
17.8846 -47.8050 4.3230 0.8147
21.1141 -47.7355 4.4209 0.8110
21.9453 -47.7176 4.4485 0.8099
26.2725 -47.6245 4.6068 0.8039
28.0949 -47.5853 4.6804 0.8010
29.8012 -45.7677 4.6258 0.8031
2.1268 -2.7132 0.2920 0.9863
2.2862 -2.6669 0.2975 0.9860
2.3243 -2.6325 0.2974 0.9860
29.4740 -30.5708 3.5967 0.8433
29.4546 -29.6705 3.5410 0.8455
30.7566 -29.2225 3.5933 0.8434
28.9239 -22.3343 3.0951 0.8636
14.7053 -11.0159 1.5562 0.9289
14.8934 -10.4916 1.5430 0.9295
15.3414 -10.4753 1.5734 0.9281
29.2151 -18.1240 2.9119 0.8711
29.9608 -17.9857 2.9597 0.8691
22.6175 -12.2625 2.1791 0.9019
22.7176 -11.8906 2.1718 0.9022
23.8115 -11.5898 2.2430 0.8991
27.9472 -12.6064 2.5967 0.8842
28.4205 -11.8330 2.6075 0.8837
29.3967 -11.2433 2.6657 0.8813
33.6075 -11.7401 3.0152 0.8668
10.1442 -3.2143 0.9013 0.9582
10.1247 -3.0461 0.8955 0.9584
10.2395 -2.4386 0.8915 0.9586
10.3189 -2.2986 0.8954 0.9584
10.3237 -2.1418 0.8930 0.9586
11.2865 -1.6611 0.9662 0.9552
11.2683 -1.4905 0.9627 0.9554
21.5302 -2.2100 1.8331 0.9168
59.2809 -3.4688 5.0296 0.7879
59.0753 -2.5913 5.0084 0.7887
40.9198 8.4896 3.5396 0.8456
40.0645 8.9247 3.4765 0.8481
35.3597 8.9688 3.0897 0.8638
34.4355 9.8137 3.0327 0.8661
29.3861 9.7860 2.6233 0.8831
25.0751 8.7595 2.2497 0.8989
23.3377 10.5271 2.1684 0.9023
18.0691 8.4704 1.6902 0.9230
18.8134 9.4995 1.7851 0.9189
19.3014 10.8324 1.8746 0.9150
19.1247 11.1038 1.8730 0.9151
13.6308 9.6021 1.4122 0.9353
9.7470 9.5356 1.1549 0.9467
2.8071 3.9236 0.4086 0.9808
2.7133 3.9120 0.4032 0.9811
2.1770 3.9462 0.3817 0.9821
1.9241 4.0277 0.3781 0.9822
1.9446 4.2283 0.3942 0.9815
0.2935 3.6429 0.3095 0.9854
0.1852 3.6171 0.3068 0.9856
0.1319 3.6056 0.3056 0.9856
0.0789 3.5948 0.3045 0.9857
0.0263 3.5845 0.3036 0.9857
-0.0782 3.5732 0.3027 0.9858
-0.4583 3.6712 0.3134 0.9853
-0.5180 3.7085 0.3171 0.9851
-0.5819 3.7638 0.3226 0.9848
-0.6482 3.8217 0.3283 0.9846
-0.7170 3.8825 0.3344 0.9843
-0.7886 3.9463 0.3408 0.9840
-2.3308 5.2696 0.4880 0.9771
-2.3485 5.1068 0.4761 0.9777
-2.3661 4.9531 0.4649 0.9782
-2.4026 4.6734 0.4451 0.9791
-2.4198 4.5423 0.4359 0.9796
-2.4364 4.4166 0.4272 0.9800
-2.4781 4.1973 0.4128 0.9806
-2.6348 4.1788 0.4184 0.9804
-2.7320 4.1959 0.4241 0.9801
-2.8344 4.2171 0.4304 0.9798
-2.9558 4.2619 0.4393 0.9794
-3.2988 4.4714 0.4706 0.9779
-10.5866 9.7682 1.2200 0.9438
-15.5542 9.6493 1.5503 0.9292
-15.7456 9.4522 1.5555 0.9289
-15.6259 9.0724 1.5304 0.9300
-20.7493 10.0993 1.9545 0.9115
-1.2044 0.5433 0.1119 0.9947
-1.1986 0.4786 0.1093 0.9948
-1.1876 0.3955 0.1060 0.9950
-1.1851 0.3755 0.1053 0.9950
-1.1818 0.3368 0.1041 0.9951
-1.1802 0.3177 0.1035 0.9951
-1.1787 0.2990 0.1030 0.9951
-1.1773 0.2804 0.1025 0.9952
-1.1736 0.2256 0.1012 0.9952
-1.1690 0.1720 0.1001 0.9953
-1.1672 0.1544 0.0997 0.9953
-1.1651 0.1368 0.0994 0.9953
-1.1582 0.1018 0.0985 0.9953
-1.1548 0.0845 0.0981 0.9954
-1.1453 0.0335 0.0971 0.9954
-1.1068 -0.0162 0.0814 0.9956
-1.1096 -0.0325 0.0816 0.9956
-1.1154 -0.0653 0.0822 0.9955
-1.1215 -0.0986 0.0828 0.9955
-1.1279 -0.1325 0.0835 0.9955
-1.1346 -0.1670 0.0843 0.9954
-1.1365 -0.1843 0.0847 0.9954
-1.1381 -0.2017 0.0850 0.9954
-1.1390 -0.2190 0.0853 0.9954
-1.1400 -0.2366 0.0856 0.9953
-1.1411 -0.2543 0.0860 0.9953
-1.1422 -0.2721 0.0864 0.9953
-1.1507 -0.3832 0.0892 0.9951
-1.1530 -0.4028 0.0898 0.9951
-1.1629 -0.4842 0.0926 0.9950
-1.1672 -0.5265 0.0942 0.9949
-1.1690 -0.5480 0.0950 0.9948
-1.4718 -0.7704 0.1222 0.9934
-1.4753 -0.7999 0.1234 0.9933
-22.7903 -12.7905 1.9221 0.9005
-22.4943 -13.0603 1.9130 0.9009
-49.9036 -30.9584 4.3191 0.7901
-48.2579 -30.9229 4.2154 0.7946
-17.8979 -12.2209 1.5939 0.9167
-3.1074 -2.2577 0.2825 0.9847
-3.0681 -2.2984 0.2819 0.9847
-3.0719 -2.4446 0.2887 0.9844
-3.0710 -2.5180 0.2921 0.9842
-3.0693 -2.6704 0.2992 0.9838
-1.8453 -1.7027 0.1847 0.9900
-1.8332 -1.7418 0.1860 0.9899
-1.8579 -1.8177 0.1912 0.9896
-1.8906 -1.9045 0.1974 0.9893
-1.8653 -2.1127 0.2073 0.9888
-1.7385 -2.0891 0.1999 0.9892
-1.6784 -2.0779 0.1964 0.9893
-1.6203 -2.0669 0.1932 0.9895
-1.9098 -2.6695 0.2414 0.9869
-1.8614 -2.6838 0.2402 0.9870
-1.8134 -2.6980 0.2391 0.9870
-1.7530 -2.8724 0.2475 0.9866
-1.5199 -2.8530 0.2377 0.9871
-1.4552 -2.8305 0.2341 0.9873
-1.3925 -2.8088 0.2306 0.9875
-1.2726 -2.7671 0.2240 0.9879
-1.2150 -2.7471 0.2209 0.9880
-1.1591 -2.7276 0.2180 0.9882
-1.3156 -3.2261 0.2562 0.9861
-1.2608 -3.2258 0.2547 0.9862
-1.2067 -3.2255 0.2533 0.9863
-1.1531 -3.2252 0.2519 0.9864
-9.2912 -30.0844 2.3157 0.8814
-8.8088 -30.0740 2.3048 0.8819
-6.9209 -30.0333 2.2667 0.8837
-5.9985 -30.0135 2.2510 0.8845
-5.5420 -30.0037 2.2440 0.8848
-5.0881 -29.9939 2.2375 0.8851
-4.6368 -29.9842 2.2315 0.8854
-4.1878 -29.9745 2.2259 0.8857
-2.4110 -29.9363 2.2088 0.8865
-1.9706 -29.9268 2.2058 0.8867
-1.5313 -29.9174 2.2032 0.8868
-1.0930 -29.9079 2.2011 0.8869
-0.6554 -29.8985 2.1995 0.8870
1.9877 -30.1854 2.2248 0.8857
2.4304 -30.1759 2.2265 0.8857
2.8738 -30.1664 2.2287 0.8856
3.3182 -30.1568 2.2313 0.8854
3.7638 -30.1472 2.2344 0.8853
5.0511 -29.7757 2.2212 0.8859
6.3986 -29.7467 2.2378 0.8851
7.3094 -29.7271 2.2515 0.8845
2.2043 -8.4316 0.6410 0.9656
2.4651 -8.4162 0.6450 0.9654
2.5997 -8.4174 0.6479 0.9653
2.7362 -8.4210 0.6512 0.9651
2.8791 -8.4393 0.6558 0.9649
17.8847 -47.8050 3.7539 0.8149
18.6787 -47.7879 3.7736 0.8140
19.4813 -47.7706 3.7943 0.8131
20.2929 -47.7532 3.8161 0.8121
21.1141 -47.7355 3.8389 0.8111
21.9453 -47.7176 3.8628 0.8101
27.1765 -47.6050 4.0315 0.8026
28.0949 -47.5852 4.0642 0.8012
7.6104 -12.4700 1.0744 0.9431
1.9879 -2.9574 0.2621 0.9858
2.1295 -2.7166 0.2539 0.9863
2.2625 -2.8009 0.2648 0.9857
29.4545 -29.6705 3.0748 0.8456
12.7908 -12.5135 1.3160 0.9307
30.7565 -29.2225 3.1203 0.8435
13.8234 -10.6741 1.2845 0.9323
14.1517 -10.6012 1.3005 0.9315
14.3224 -10.4058 1.3020 0.9315
14.5604 -10.2571 1.3099 0.9311
14.9207 -9.5610 1.3033 0.9314
31.3610 -18.2082 2.6671 0.8646
23.4527 -12.7153 1.9620 0.8985
23.6058 -11.9194 1.9449 0.8994
24.6805 -12.0128 2.0188 0.8958
27.8612 -12.0808 2.2334 0.8853
28.3734 -11.8134 2.2604 0.8840
33.7882 -12.3600 2.6461 0.8656
10.1368 -3.2120 0.7821 0.9582
10.3064 -2.9372 0.7882 0.9579
10.0042 -2.6937 0.7620 0.9593
10.2152 -1.9641 0.7651 0.9591
11.2891 -1.6614 0.8392 0.9553
11.2999 -1.4946 0.8383 0.9553
21.5155 -2.5266 1.5933 0.9168
21.6184 -2.2190 1.5983 0.9165
21.8426 -1.9199 1.6126 0.9158
58.5756 -2.5694 4.3122 0.7904
59.4210 -1.7371 4.3721 0.7879
57.1866 10.1314 4.2714 0.7922
40.6367 8.4309 3.0523 0.8467
35.7563 7.9650 2.6942 0.8634
35.5327 8.4620 2.6864 0.8637
35.2115 9.4808 2.6819 0.8639
34.6688 9.8802 2.6513 0.8654
30.2610 9.1042 2.3241 0.8810
29.7515 9.9077 2.3063 0.8818
29.5239 10.3135 2.3001 0.8821
19.2513 9.7206 1.5861 0.9171
18.6456 9.7592 1.5478 0.9191
18.5333 10.0480 1.5505 0.9189
13.6526 9.6175 1.2282 0.9352
2.8259 3.8304 0.3501 0.9811
2.6458 3.8146 0.3414 0.9816
2.5607 3.8096 0.3376 0.9818
2.4775 3.8048 0.3339 0.9820
2.3962 3.8002 0.3304 0.9821
2.1987 3.8513 0.3262 0.9824
2.1345 3.8691 0.3250 0.9824
2.0707 3.8868 0.3239 0.9825
2.0075 3.9046 0.3229 0.9825
1.9460 3.9250 0.3222 0.9826
1.8849 3.9455 0.3216 0.9826
1.9169 4.3338 0.3485 0.9812
1.9600 4.6122 0.3686 0.9801
2.0279 4.9728 0.3950 0.9787
0.3953 4.1482 0.3065 0.9834
0.2767 3.4348 0.2534 0.9863
0.2206 3.3482 0.2468 0.9866
0.0728 3.3195 0.2442 0.9868
0.0243 3.3193 0.2441 0.9868
-0.1213 3.3211 0.2444 0.9868
-0.2678 3.3261 0.2454 0.9867
-0.3170 3.3283 0.2459 0.9867
-0.3679 3.3447 0.2475 0.9866
-0.4209 3.3723 0.2499 0.9865
-0.5304 3.4305 0.2553 0.9862
-0.8393 3.6424 0.2749 0.9851
-2.2672 5.5597 0.4416 0.9762
-2.2873 5.3826 0.4301 0.9768
-2.3245 5.0546 0.4092 0.9779
-2.3418 4.9023 0.3996 0.9784
-2.3788 4.6270 0.3826 0.9793
-2.3963 4.4982 0.3748 0.9798
-2.4139 4.3759 0.3676 0.9802
-2.4358 4.2670 0.3614 0.9805
-2.4975 3.9612 0.3444 0.9814
-2.5341 3.8919 0.3416 0.9815
-2.6245 3.9047 0.3460 0.9813
-2.7304 3.9368 0.3524 0.9810
-2.8430 3.9739 0.3594 0.9806
-2.9606 4.0131 0.3668 0.9802
-3.0879 4.0601 0.3752 0.9797
-3.2319 4.1229 0.3853 0.9792
-3.4148 4.2276 0.3997 0.9784
-10.9041 9.7701 1.0768 0.9430
-15.6211 9.6907 1.3520 0.9289
-15.6252 9.3800 1.3404 0.9295
-1.4718 0.7703 0.1222 0.9934
-1.4717 0.7431 0.1213 0.9934
-1.1689 0.5479 0.0950 0.9948
-1.1655 0.5054 0.0934 0.9949
-1.1629 0.4842 0.0926 0.9950
-1.1603 0.4633 0.0919 0.9950
-1.1553 0.4226 0.0905 0.9951
-1.1507 0.3832 0.0892 0.9951
-1.1459 0.3266 0.0876 0.9952
-1.1434 0.2900 0.0868 0.9953
-1.1411 0.2542 0.0860 0.9953
-1.1401 0.2365 0.0856 0.9953
-1.1381 0.2016 0.0850 0.9954
-1.1346 0.1669 0.0843 0.9954
-1.1312 0.1496 0.0839 0.9954
-1.1279 0.1324 0.0835 0.9955
-1.1246 0.1154 0.0832 0.9955
-1.1184 0.0818 0.0825 0.9955
-1.1154 0.0652 0.0822 0.9955
-1.1096 0.0324 0.0816 0.9956
-1.1068 0.0161 0.0814 0.9956
-1.0331 0.0000 0.0645 0.9959
-1.0421 -0.0305 0.0651 0.9958
-1.0537 -0.0617 0.0659 0.9958
-1.0661 -0.0938 0.0668 0.9957
-1.0725 -0.1101 0.0673 0.9957
-1.0859 -0.1436 0.0684 0.9956
-1.1002 -0.1784 0.0696 0.9955
-1.1056 -0.1959 0.0701 0.9955
-1.1065 -0.2128 0.0703 0.9955
-1.1083 -0.2469 0.0709 0.9955
-1.1092 -0.2642 0.0712 0.9954
-1.1112 -0.2993 0.0718 0.9954
-1.1123 -0.3170 0.0722 0.9954
-1.1147 -0.3532 0.0730 0.9953
-1.1201 -0.4098 0.0744 0.9952
-1.1222 -0.4293 0.0750 0.9952
-1.1244 -0.4490 0.0756 0.9952
-1.1290 -0.4896 0.0768 0.9951
-1.1314 -0.5104 0.0775 0.9950
-1.1716 -0.5703 0.0813 0.9948
-1.2577 -0.6351 0.0879 0.9944
-1.4446 -0.8108 0.1034 0.9934
-1.4516 -0.8429 0.1048 0.9933
-48.2579 -30.9230 3.5773 0.7948
-3.1494 -2.2186 0.2404 0.9847
-3.0706 -2.3003 0.2395 0.9847
-3.0466 -2.3526 0.2402 0.9847
-3.0454 -2.4235 0.2429 0.9845
-3.0430 -2.5703 0.2486 0.9842
-1.8702 -1.6757 0.1567 0.9900
-1.8583 -1.7146 0.1578 0.9899
-1.8462 -1.7541 0.1589 0.9898
-1.8496 -1.8095 0.1615 0.9897
-1.9163 -1.9877 0.1723 0.9890
-1.9532 -2.0861 0.1784 0.9886
-1.8327 -2.1380 0.1758 0.9888
-1.7071 -2.1134 0.1696 0.9892
-1.6474 -2.1017 0.1667 0.9894
-1.5898 -2.0903 0.1639 0.9895
-1.9232 -2.6882 0.2063 0.9868
-1.8744 -2.7025 0.2053 0.9869
-1.8009 -2.7658 0.2060 0.9869
-1.7962 -2.8487 0.2102 0.9866
-1.5928 -2.8873 0.2058 0.9869
-1.5258 -2.8640 0.2025 0.9871
-1.3977 -2.8193 0.1964 0.9875
-1.2772 -2.7771 0.1908 0.9878
-1.2194 -2.7570 0.1882 0.9880
-1.1084 -2.7182 0.1832 0.9883
-1.2596 -3.2227 0.2160 0.9862
-1.2055 -3.2224 0.2147 0.9863
-1.1520 -3.2221 0.2136 0.9864
-9.2912 -30.0844 1.9652 0.8814
-8.3308 -30.0637 1.9471 0.8825
-7.3871 -30.0434 1.9310 0.8834
-6.9209 -30.0333 1.9236 0.8838
-2.4608 -12.3126 0.7837 0.9509
-5.5419 -30.0037 1.9043 0.8849
-4.1878 -29.9745 1.8890 0.8858
-3.7409 -29.9649 1.8847 0.8860
-2.8528 -29.9458 1.8775 0.8864
-1.9706 -29.9268 1.8719 0.8867
-0.2199 -30.0954 1.8784 0.8864
0.6624 -30.2140 1.8862 0.8859
1.9877 -30.1855 1.8881 0.8858
2.8738 -30.1664 1.8913 0.8856
4.2106 -30.1376 1.8993 0.8852
4.6378 -29.9909 1.8941 0.8855
5.0511 -29.7757 1.8850 0.8860
5.4981 -29.7661 1.8892 0.8858
1.6571 -8.2911 0.5277 0.9667
1.9042 -8.2634 0.5293 0.9666
2.0297 -8.2547 0.5306 0.9665
2.5427 -8.2331 0.5378 0.9661
2.6739 -8.2294 0.5401 0.9659
3.3636 -8.2481 0.5560 0.9649
3.5127 -8.2662 0.5606 0.9646
21.8764 -47.5678 3.2678 0.8107
23.6402 -47.6811 3.3217 0.8079
24.5050 -47.6625 3.3449 0.8067
26.2725 -47.6245 3.3947 0.8041
