ply
format ascii 1.0
element vertex 1594
property float32 x
property float32 y
property float32 z
property float32 I
end_header
-0.3330 0.5115 -0.1402 0.9975
-0.3376 0.4867 -0.1361 0.9976
-0.3397 0.4748 -0.1341 0.9976
-0.3417 0.4631 -0.1322 0.9976
-0.3436 0.4517 -0.1304 0.9977
-0.3471 0.4296 -0.1269 0.9977
-0.3489 0.4192 -0.1253 0.9978
-0.3615 0.3642 -0.1179 0.9979
-0.3648 0.3466 -0.1156 0.9979
-0.3672 0.3290 -0.1132 0.9980
-0.3683 0.3204 -0.1121 0.9980
-0.3693 0.3120 -0.1110 0.9980
-0.3703 0.3036 -0.1100 0.9980
-0.3713 0.2954 -0.1090 0.9981
-0.3730 0.2794 -0.1070 0.9981
-0.3738 0.2716 -0.1061 0.9981
-0.3775 0.2266 -0.1011 0.9982
-0.3780 0.2195 -0.1004 0.9982
-0.3784 0.2124 -0.0997 0.9982
-0.3788 0.2054 -0.0990 0.9982
-0.3792 0.1985 -0.0983 0.9982
-0.3795 0.1916 -0.0977 0.9983
-0.3810 0.1786 -0.0967 0.9983
-0.3816 0.1721 -0.0961 0.9983
-0.3821 0.1657 -0.0957 0.9983
-0.3825 0.1593 -0.0952 0.9983
-0.3829 0.1529 -0.0947 0.9983
-0.3833 0.1466 -0.0943 0.9983
-0.3837 0.1404 -0.0938 0.9983
-0.3840 0.1341 -0.0934 0.9983
-0.3843 0.1280 -0.0930 0.9983
-0.3846 0.1219 -0.0927 0.9983
-0.3850 0.1097 -0.0920 0.9984
-0.3854 0.0918 -0.0910 0.9984
-0.3856 0.0741 -0.0902 0.9984
-0.3855 0.0683 -0.0899 0.9984
-0.3852 0.0452 -0.0891 0.9984
-0.3851 0.0395 -0.0889 0.9984
-0.3848 0.0338 -0.0887 0.9984
-0.3846 0.0282 -0.0886 0.9984
-0.3841 0.0169 -0.0883 0.9984
-0.3838 0.0112 -0.0882 0.9984
-0.3772 -0.0110 -0.0911 0.9984
-0.3777 -0.0221 -0.0913 0.9984
-0.3783 -0.0388 -0.0918 0.9984
-0.3785 -0.0445 -0.0920 0.9984
-0.3786 -0.0557 -0.0924 0.9984
-0.3787 -0.0614 -0.0926 0.9984
-0.3787 -0.0671 -0.0928 0.9984
-0.3787 -0.0728 -0.0931 0.9984
-0.3784 -0.0960 -0.0942 0.9984
-0.3770 -0.1317 -0.0964 0.9984
-0.3754 -0.1563 -0.0982 0.9983
-0.3730 -0.1816 -0.1002 0.9983
-0.3722 -0.1880 -0.1007 0.9983
-0.3712 -0.2013 -0.1019 0.9983
-0.3672 -0.2507 -0.1073 0.9982
-0.3664 -0.2581 -0.1082 0.9982
-0.3657 -0.2656 -0.1091 0.9981
-0.3648 -0.2733 -0.1100 0.9981
-0.3620 -0.2968 -0.1130 0.9981
-0.3574 -0.3298 -0.1174 0.9980
-0.3562 -0.3384 -0.1186 0.9980
-0.3548 -0.3471 -0.1198 0.9980
-0.3531 -0.3557 -0.1210 0.9979
-0.3511 -0.3641 -0.1221 0.9979
-0.3490 -0.3727 -0.1233 0.9979
-0.3468 -0.3814 -0.1244 0.9979
-0.3447 -0.3904 -0.1257 0.9979
-0.3401 -0.4087 -0.1284 0.9978
-0.3377 -0.4181 -0.1297 0.9978
-0.3332 -0.4380 -0.1329 0.9977
-0.3312 -0.4489 -0.1347 0.9977
-0.3269 -0.4714 -0.1385 0.9976
-0.3246 -0.4830 -0.1405 0.9976
-0.3222 -0.4949 -0.1426 0.9976
-0.3143 -0.5323 -0.1492 0.9975
-0.3106 -0.5829 -0.1594 0.9973
-0.3237 -0.6297 -0.1709 0.9971
-0.3388 -0.6832 -0.1841 0.9969
-1.2098 -2.6306 -0.6990 0.9882
-1.1973 -2.7069 -0.7145 0.9879
-1.1843 -2.7869 -0.7310 0.9876
-0.9248 -2.5864 -0.6631 0.9888
-0.9001 -2.6385 -0.6730 0.9886
-0.9691 -3.9412 -0.9797 0.9834
-0.9114 -3.9550 -0.9797 0.9834
-0.8535 -3.9679 -0.9797 0.9834
-0.8078 -4.0418 -0.9950 0.9832
-0.7487 -4.0532 -0.9950 0.9832
-0.6894 -4.0637 -0.9950 0.9832
-0.6299 -4.0734 -0.9950 0.9832
-0.5703 -4.0821 -0.9950 0.9832
-0.5106 -4.0900 -0.9950 0.9832
-0.3309 -4.1085 -0.9950 0.9832
-0.1506 -4.1191 -0.9950 0.9832
-0.0301 -4.1217 -0.9950 0.9832
0.0301 -4.1217 -0.9950 0.9832
0.0903 -4.1208 -0.9950 0.9832
0.1505 -4.1191 -0.9950 0.9832
0.4508 -4.0971 -0.9950 0.9832
0.5106 -4.0901 -0.9950 0.9832
0.6299 -4.0734 -0.9950 0.9832
0.8078 -4.0419 -0.9950 0.9832
0.8668 -4.0297 -0.9950 0.9832
0.9113 -3.9551 -0.9798 0.9834
1.0266 -3.9268 -0.9798 0.9834
1.0705 -3.4661 -0.8757 0.9852
1.1395 -3.5071 -0.8902 0.9849
1.2115 -3.5511 -0.9058 0.9847
1.3484 -3.6043 -0.9290 0.9843
1.4776 -3.7803 -0.9798 0.9834
1.5326 -3.7583 -0.9798 0.9834
1.7496 -3.6624 -0.9798 0.9834
1.8029 -3.6364 -0.9798 0.9834
1.9084 -3.5822 -0.9798 0.9834
2.0123 -3.5249 -0.9798 0.9834
2.0636 -3.4951 -0.9798 0.9834
2.1648 -3.4333 -0.9798 0.9834
2.2642 -3.3687 -0.9798 0.9834
2.4097 -3.2662 -0.9798 0.9834
2.4571 -3.2306 -0.9798 0.9834
2.5505 -3.1575 -0.9798 0.9834
2.5964 -3.1198 -0.9798 0.9834
2.6864 -3.0427 -0.9798 0.9834
2.7742 -2.9629 -0.9798 0.9834
2.8596 -2.8805 -0.9798 0.9834
2.9830 -2.7525 -0.9798 0.9834
3.0622 -2.6641 -0.9798 0.9834
3.1008 -2.6191 -0.9798 0.9834
3.1388 -2.5735 -0.9798 0.9834
3.1760 -2.5274 -0.9798 0.9834
3.2126 -2.4807 -0.9798 0.9834
3.3182 -2.3376 -0.9798 0.9834
3.3521 -2.2888 -0.9798 0.9834
3.4175 -2.1899 -0.9798 0.9834
3.5648 -2.0697 -0.9951 0.9832
3.7323 -1.7496 -0.9951 0.9832
3.7819 -1.6399 -0.9951 0.9832
3.8054 -1.5844 -0.9951 0.9832
3.8282 -1.5286 -0.9951 0.9832
3.8915 -1.3594 -0.9951 0.9832
3.9296 -1.2451 -0.9951 0.9832
3.9473 -1.1876 -0.9951 0.9832
3.9803 -1.0717 -0.9951 0.9832
4.0235 -0.8963 -0.9951 0.9832
4.0480 -0.7783 -0.9951 0.9832
4.0690 -0.6597 -0.9951 0.9832
4.0782 -0.6002 -0.9951 0.9832
4.0865 -0.5405 -0.9951 0.9832
4.0940 -0.4808 -0.9951 0.9832
4.1006 -0.4209 -0.9951 0.9832
4.1063 -0.3609 -0.9951 0.9832
4.1151 -0.2408 -0.9951 0.9832
4.1182 -0.1806 -0.9951 0.9832
4.1204 -0.1205 -0.9951 0.9832
4.1111 0.3009 -0.9951 0.9832
4.1063 0.3609 -0.9951 0.9832
4.1006 0.4209 -0.9951 0.9832
4.0940 0.4808 -0.9951 0.9832
4.0690 0.6597 -0.9951 0.9832
4.0589 0.7191 -0.9951 0.9832
4.0480 0.7783 -0.9951 0.9832
4.0235 0.8963 -0.9951 0.9832
4.0100 0.9550 -0.9951 0.9832
3.9956 1.0134 -0.9951 0.9832
3.9643 1.1298 -0.9951 0.9832
3.9110 1.3024 -0.9951 0.9832
3.8915 1.3595 -0.9951 0.9832
3.8501 1.4726 -0.9951 0.9832
3.7819 1.6398 -0.9951 0.9832
3.7323 1.7497 -0.9951 0.9832
3.7064 1.8040 -0.9951 0.9832
3.6521 1.9116 -0.9951 0.9832
3.6237 1.9647 -0.9951 0.9832
3.5028 2.1730 -0.9951 0.9832
3.4707 2.2240 -0.9951 0.9832
3.3699 2.3739 -0.9951 0.9832
3.3348 2.4229 -0.9951 0.9832
3.2626 2.5193 -0.9951 0.9832
3.2254 2.5667 -0.9951 0.9832
3.1876 2.6135 -0.9951 0.9832
3.1491 2.6598 -0.9951 0.9832
2.9883 2.8393 -0.9951 0.9832
2.8610 2.9675 -0.9951 0.9832
2.8173 3.0089 -0.9951 0.9832
2.6828 3.1295 -0.9950 0.9832
2.6367 3.1684 -0.9950 0.9832
2.5902 3.2066 -0.9950 0.9832
2.4472 3.3170 -0.9950 0.9832
2.3984 3.3524 -0.9950 0.9832
2.2994 3.4210 -0.9950 0.9832
2.2492 3.4543 -0.9950 0.9832
2.0436 3.5797 -0.9950 0.9832
1.9911 3.6092 -0.9950 0.9832
1.8310 3.6930 -0.9950 0.9832
1.7768 3.7194 -0.9950 0.9832
1.5667 3.4067 -0.9052 0.9847
1.3540 3.3202 -0.8656 0.9854
1.2528 3.3487 -0.8631 0.9854
1.2078 3.3780 -0.8660 0.9853
1.1666 3.4196 -0.8722 0.9852
1.1131 3.6043 -0.9106 0.9846
1.1007 3.9722 -0.9950 0.9832
1.0425 3.9879 -0.9950 0.9832
0.9256 4.0166 -0.9950 0.9832
0.7487 4.0533 -0.9950 0.9832
0.6299 4.0734 -0.9950 0.9832
0.5704 4.0822 -0.9950 0.9832
0.5106 4.0901 -0.9950 0.9832
0.4508 4.0971 -0.9950 0.9832
0.3909 4.1033 -0.9950 0.9832
0.3309 4.1086 -0.9950 0.9832
0.0796 3.6316 -0.8769 0.9852
0.0262 3.5868 -0.8659 0.9853
-0.0778 3.5481 -0.8567 0.9855
-0.1296 3.5455 -0.8564 0.9855
-0.1819 3.5529 -0.8588 0.9855
-0.2352 3.5721 -0.8642 0.9854
-0.2906 3.6083 -0.8739 0.9852
-0.3508 3.6825 -0.8930 0.9849
-0.4508 4.0971 -0.9950 0.9832
-0.5106 4.0900 -0.9950 0.9832
-0.5703 4.0821 -0.9950 0.9832
-0.7487 4.0532 -0.9950 0.9832
-0.8668 4.0296 -0.9950 0.9832
-0.9842 4.0026 -0.9950 0.9832
-1.2163 3.9382 -0.9950 0.9832
-1.3877 3.8811 -0.9950 0.9832
-1.5564 3.8165 -0.9950 0.9832
-1.6120 3.7934 -0.9950 0.9832
-1.6673 3.7695 -0.9950 0.9832
-1.7222 3.7447 -0.9950 0.9832
-0.3561 0.7453 -0.1994 0.9966
-0.3388 0.6832 -0.1841 0.9969
-0.3083 0.5589 -0.1541 0.9974
-0.3114 0.5454 -0.1516 0.9974
-0.3171 0.5195 -0.1469 0.9975
-0.3246 0.4830 -0.1405 0.9976
-0.3269 0.4714 -0.1385 0.9976
-0.3291 0.4600 -0.1365 0.9977
-0.3332 0.4381 -0.1329 0.9977
-0.3424 0.3995 -0.1270 0.9978
-0.3468 0.3814 -0.1244 0.9979
-0.3490 0.3727 -0.1233 0.9979
-0.3511 0.3641 -0.1221 0.9979
-0.3531 0.3557 -0.1210 0.9979
-0.3548 0.3471 -0.1198 0.9980
-0.3562 0.3384 -0.1186 0.9980
-0.3587 0.3214 -0.1163 0.9980
-0.3598 0.3131 -0.1151 0.9980
-0.3609 0.3049 -0.1141 0.9981
-0.3620 0.2968 -0.1130 0.9981
-0.3630 0.2888 -0.1120 0.9981
-0.3639 0.2810 -0.1110 0.9981
-0.3648 0.2733 -0.1100 0.9981
-0.3657 0.2657 -0.1091 0.9981
-0.3672 0.2507 -0.1073 0.9982
-0.3685 0.2361 -0.1057 0.9982
-0.3697 0.2220 -0.1041 0.9982
-0.3702 0.2150 -0.1033 0.9982
-0.3712 0.2013 -0.1019 0.9983
-0.3731 0.1816 -0.1002 0.9983
-0.3738 0.1752 -0.0997 0.9983
-0.3749 0.1625 -0.0986 0.9983
-0.3754 0.1562 -0.0982 0.9983
-0.3758 0.1501 -0.0977 0.9983
-0.3762 0.1439 -0.0972 0.9983
-0.3766 0.1378 -0.0968 0.9984
-0.3770 0.1317 -0.0964 0.9984
-0.3776 0.1196 -0.0956 0.9984
-0.3780 0.1077 -0.0949 0.9984
-0.3785 0.0901 -0.0939 0.9984
-0.3787 0.0728 -0.0931 0.9984
-0.3786 0.0501 -0.0922 0.9984
-0.3785 0.0445 -0.0920 0.9984
-0.3783 0.0388 -0.0918 0.9984
-0.3779 0.0277 -0.0915 0.9984
-0.3772 0.0110 -0.0911 0.9984
-0.3707 -0.0109 -0.0939 0.9985
-0.3712 -0.0217 -0.0941 0.9985
-0.3719 -0.0437 -0.0948 0.9985
-0.3720 -0.0492 -0.0950 0.9985
-0.3721 -0.0548 -0.0952 0.9984
-0.3721 -0.0603 -0.0954 0.9984
-0.3721 -0.0659 -0.0957 0.9984
-0.3717 -0.0943 -0.0971 0.9984
-0.3715 -0.1000 -0.0974 0.9984
-0.3713 -0.1058 -0.0977 0.9984
-0.3705 -0.1234 -0.0989 0.9984
-0.3701 -0.1293 -0.0993 0.9984
-0.3698 -0.1352 -0.0997 0.9984
-0.3693 -0.1413 -0.1001 0.9984
-0.3668 -0.1720 -0.1026 0.9983
-0.3660 -0.1781 -0.1031 0.9983
-0.3652 -0.1844 -0.1036 0.9983
-0.3637 -0.1972 -0.1047 0.9983
-0.3627 -0.2106 -0.1062 0.9983
-0.3616 -0.2243 -0.1077 0.9982
-0.3609 -0.2312 -0.1085 0.9982
-0.3602 -0.2383 -0.1093 0.9982
-0.3595 -0.2455 -0.1102 0.9982
-0.3587 -0.2527 -0.1111 0.9982
-0.3570 -0.2674 -0.1129 0.9982
-0.3560 -0.2749 -0.1139 0.9981
-0.3540 -0.2902 -0.1159 0.9981
-0.3492 -0.3223 -0.1203 0.9980
-0.3479 -0.3305 -0.1215 0.9980
-0.3465 -0.3390 -0.1227 0.9980
-0.3430 -0.3557 -0.1251 0.9980
-0.3408 -0.3640 -0.1262 0.9979
-0.3341 -0.3897 -0.1300 0.9979
-0.3318 -0.3986 -0.1313 0.9979
-0.3293 -0.4077 -0.1327 0.9978
-0.3268 -0.4169 -0.1341 0.9978
-0.3215 -0.4357 -0.1371 0.9978
-0.3192 -0.4461 -0.1389 0.9977
-0.3169 -0.4569 -0.1408 0.9977
-0.3145 -0.4680 -0.1427 0.9977
-0.3121 -0.4792 -0.1448 0.9976
-0.3095 -0.4908 -0.1469 0.9976
-0.3039 -0.5147 -0.1513 0.9975
-0.2978 -0.5398 -0.1561 0.9975
-0.2945 -0.5529 -0.1586 0.9974
-0.2911 -0.5662 -0.1612 0.9974
-0.3002 -0.6054 -0.1711 0.9972
-0.3125 -0.6542 -0.1835 0.9970
-0.3267 -0.7103 -0.1979 0.9968
-1.1973 -2.8176 -0.7750 0.9874
-1.1880 -2.9132 -0.7965 0.9871
-0.7653 -2.4779 -0.6565 0.9894
-0.7387 -2.5220 -0.6653 0.9892
-0.7112 -2.5662 -0.6742 0.9891
-0.6825 -2.6105 -0.6831 0.9889
-0.6528 -2.6547 -0.6921 0.9888
-0.6219 -2.6988 -0.7011 0.9886
-0.8139 -3.7836 -0.9797 0.9842
-0.7030 -3.8057 -0.9797 0.9842
-0.4233 -3.8470 -0.9798 0.9842
-0.2543 -3.8618 -0.9798 0.9842
-0.1978 -3.8651 -0.9798 0.9842
-0.1413 -3.8676 -0.9798 0.9842
-0.0283 -3.8701 -0.9798 0.9842
0.0282 -3.8701 -0.9798 0.9842
0.1414 -3.8676 -0.9798 0.9842
0.1978 -3.8651 -0.9798 0.9842
0.3670 -3.8527 -0.9798 0.9842
0.4233 -3.8470 -0.9798 0.9842
0.4795 -3.8404 -0.9798 0.9842
0.5915 -3.8248 -0.9798 0.9842
0.6473 -3.8157 -0.9798 0.9842
0.7585 -3.7952 -0.9798 0.9842
0.8139 -3.7837 -0.9798 0.9842
0.8691 -3.7714 -0.9798 0.9842
0.9241 -3.7583 -0.9798 0.9842
1.0879 -3.7142 -0.9798 0.9842
1.1538 -3.5509 -0.9452 0.9847
1.2269 -3.5964 -0.9620 0.9844
1.3030 -3.6443 -0.9798 0.9842
1.4089 -3.6047 -0.9798 0.9842
1.5137 -3.5620 -0.9798 0.9842
1.5656 -3.5395 -0.9798 0.9842
1.6171 -3.5162 -0.9798 0.9842
1.7697 -3.4420 -0.9798 0.9842
1.9677 -3.3328 -0.9798 0.9842
2.0643 -3.2739 -0.9798 0.9842
2.3878 -3.0460 -0.9798 0.9842
2.4320 -3.0108 -0.9798 0.9842
2.5190 -2.9384 -0.9798 0.9842
2.5616 -2.9013 -0.9798 0.9842
2.6453 -2.8252 -0.9798 0.9842
2.6863 -2.7863 -0.9798 0.9842
2.7666 -2.7066 -0.9798 0.9842
2.8445 -2.6246 -0.9798 0.9842
2.8825 -2.5828 -0.9798 0.9842
2.9930 -2.4540 -0.9798 0.9842
3.0285 -2.4100 -0.9798 0.9842
3.0634 -2.3655 -0.9798 0.9842
3.1312 -2.2749 -0.9798 0.9842
3.1641 -2.2290 -0.9798 0.9842
3.3700 -2.0230 -0.9951 0.9839
3.3992 -1.9736 -0.9951 0.9839
3.4824 -1.8227 -0.9951 0.9839
3.5087 -1.7716 -0.9951 0.9839
3.5830 -1.6162 -0.9951 0.9839
3.6062 -1.5637 -0.9951 0.9839
3.6287 -1.5108 -0.9951 0.9839
3.6504 -1.4577 -0.9951 0.9839
3.7107 -1.2963 -0.9951 0.9839
3.7293 -1.2420 -0.9951 0.9839
3.7470 -1.1873 -0.9951 0.9839
3.7954 -1.0220 -0.9951 0.9839
3.8599 -0.7421 -0.9951 0.9839
3.8800 -0.6291 -0.9951 0.9839
3.8887 -0.5723 -0.9951 0.9839
3.9038 -0.4584 -0.9951 0.9839
3.9155 -0.3441 -0.9951 0.9839
3.9202 -0.2869 -0.9951 0.9839
3.9290 -0.1148 -0.9951 0.9839
3.9302 0.0574 -0.9951 0.9839
3.9155 0.3442 -0.9951 0.9839
3.9101 0.4013 -0.9951 0.9839
3.8967 0.5154 -0.9951 0.9839
3.8887 0.5723 -0.9951 0.9839
3.8800 0.6291 -0.9951 0.9839
3.8704 0.6857 -0.9951 0.9839
3.8237 0.9106 -0.9951 0.9839
3.7954 1.0220 -0.9951 0.9839
3.7640 1.1324 -0.9951 0.9839
3.7470 1.1873 -0.9951 0.9839
3.6062 1.5637 -0.9951 0.9839
3.5830 1.6162 -0.9951 0.9839
3.5342 1.7202 -0.9951 0.9839
3.5087 1.7716 -0.9951 0.9839
3.4554 1.8734 -0.9951 0.9839
3.3401 2.0721 -0.9951 0.9839
3.2781 2.1688 -0.9951 0.9839
3.2133 2.2636 -0.9951 0.9839
3.1799 2.3104 -0.9951 0.9839
3.1458 2.3566 -0.9951 0.9839
3.1110 2.4023 -0.9951 0.9839
3.0395 2.4921 -0.9951 0.9839
3.0028 2.5363 -0.9951 0.9839
2.8096 2.7487 -0.9951 0.9839
2.7281 2.8296 -0.9950 0.9839
2.6865 2.8692 -0.9950 0.9839
2.6015 2.9464 -0.9950 0.9839
2.5143 3.0212 -0.9950 0.9839
2.4698 3.0576 -0.9950 0.9839
2.1447 3.2938 -0.9950 0.9839
1.9983 3.3846 -0.9950 0.9839
1.7972 3.4955 -0.9950 0.9839
1.6943 3.5466 -0.9950 0.9839
1.6423 3.5709 -0.9950 0.9839
1.5132 3.4211 -0.9470 0.9847
1.4324 3.3706 -0.9271 0.9850
1.1612 3.5740 -0.9513 0.9846
1.1048 3.7720 -0.9950 0.9839
0.9941 3.8027 -0.9950 0.9839
0.8826 3.8300 -0.9950 0.9839
0.7139 3.8650 -0.9950 0.9839
0.4299 3.9068 -0.9950 0.9839
0.3727 3.9127 -0.9950 0.9839
0.3155 3.9177 -0.9950 0.9839
0.2582 3.9219 -0.9950 0.9839
0.2009 3.9252 -0.9950 0.9839
0.1435 3.9277 -0.9950 0.9839
0.0266 3.6371 -0.9208 0.9851
-0.0263 3.6023 -0.9120 0.9852
-0.0786 3.5859 -0.9080 0.9853
-0.1310 3.5828 -0.9076 0.9853
-0.2384 3.6195 -0.9183 0.9851
-0.3727 3.9127 -0.9950 0.9839
-0.4869 3.9000 -0.9950 0.9839
-0.5438 3.8925 -0.9950 0.9839
-0.7139 3.8649 -0.9950 0.9839
-0.7703 3.8541 -0.9950 0.9839
-0.8265 3.8424 -0.9950 0.9839
-0.8826 3.8299 -0.9950 0.9839
-0.9384 3.8166 -0.9950 0.9839
-0.9941 3.8025 -0.9950 0.9839
-1.0496 3.7875 -0.9950 0.9839
-1.1598 3.7553 -0.9950 0.9839
-1.4308 3.6606 -0.9950 0.9839
-1.5371 3.6172 -0.9950 0.9839
-0.3430 0.7755 -0.2147 0.9965
-0.3001 0.6054 -0.1711 0.9972
-0.2911 0.5662 -0.1612 0.9974
-0.2978 0.5398 -0.1561 0.9975
-0.3039 0.5148 -0.1513 0.9975
-0.3095 0.4908 -0.1469 0.9976
-0.3121 0.4793 -0.1448 0.9976
-0.3146 0.4680 -0.1427 0.9977
-0.3192 0.4461 -0.1389 0.9977
-0.3215 0.4357 -0.1371 0.9978
-0.3268 0.4169 -0.1341 0.9978
-0.3293 0.4077 -0.1327 0.9978
-0.3364 0.3809 -0.1287 0.9979
-0.3386 0.3724 -0.1274 0.9979
-0.3408 0.3640 -0.1262 0.9979
-0.3450 0.3475 -0.1240 0.9980
-0.3465 0.3390 -0.1227 0.9980
-0.3479 0.3306 -0.1215 0.9980
-0.3493 0.3223 -0.1203 0.9980
-0.3517 0.3060 -0.1180 0.9981
-0.3529 0.2980 -0.1169 0.9981
-0.3540 0.2902 -0.1159 0.9981
-0.3550 0.2825 -0.1149 0.9981
-0.3560 0.2749 -0.1139 0.9981
-0.3570 0.2674 -0.1129 0.9982
-0.3579 0.2600 -0.1120 0.9982
-0.3587 0.2527 -0.1111 0.9982
-0.3595 0.2454 -0.1102 0.9982
-0.3602 0.2383 -0.1093 0.9982
-0.3628 0.2106 -0.1062 0.9983
-0.3652 0.1844 -0.1036 0.9983
-0.3660 0.1782 -0.1031 0.9983
-0.3674 0.1657 -0.1020 0.9983
-0.3684 0.1534 -0.1010 0.9984
-0.3689 0.1473 -0.1006 0.9984
-0.3701 0.1293 -0.0993 0.9984
-0.3705 0.1234 -0.0989 0.9984
-0.3708 0.1175 -0.0985 0.9984
-0.3711 0.1116 -0.0981 0.9984
-0.3718 0.0886 -0.0968 0.9984
-0.3719 0.0829 -0.0965 0.9984
-0.3720 0.0771 -0.0962 0.9984
-0.3721 0.0716 -0.0959 0.9984
-0.3721 0.0604 -0.0954 0.9984
-0.3721 0.0548 -0.0952 0.9984
-0.3720 0.0492 -0.0950 0.9985
-0.3716 0.0327 -0.0944 0.9985
-0.3712 0.0217 -0.0941 0.9985
-0.3710 0.0163 -0.0940 0.9985
-0.3707 0.0108 -0.0939 0.9985
-0.3642 -0.0053 -0.0965 0.9985
-0.3645 -0.0107 -0.0966 0.9985
-0.3647 -0.0160 -0.0967 0.9985
-0.3649 -0.0213 -0.0969 0.9985
-0.3651 -0.0267 -0.0970 0.9985
-0.3653 -0.0321 -0.0972 0.9985
-0.3655 -0.0429 -0.0975 0.9985
-0.3656 -0.0484 -0.0977 0.9985
-0.3657 -0.0538 -0.0979 0.9985
-0.3657 -0.0648 -0.0984 0.9985
-0.3656 -0.0703 -0.0987 0.9985
-0.3653 -0.0870 -0.0995 0.9984
-0.3650 -0.0983 -0.1002 0.9984
-0.3645 -0.1096 -0.1009 0.9984
-0.3642 -0.1154 -0.1012 0.9984
-0.3635 -0.1270 -0.1020 0.9984
-0.3627 -0.1387 -0.1029 0.9984
-0.3600 -0.1688 -0.1054 0.9984
-0.3592 -0.1748 -0.1059 0.9983
-0.3584 -0.1809 -0.1064 0.9983
-0.3575 -0.1871 -0.1069 0.9983
-0.3566 -0.1934 -0.1075 0.9983
-0.3561 -0.1998 -0.1082 0.9983
-0.3555 -0.2064 -0.1089 0.9983
-0.3549 -0.2131 -0.1097 0.9983
-0.3543 -0.2198 -0.1105 0.9983
-0.3536 -0.2266 -0.1113 0.9983
-0.3520 -0.2404 -0.1130 0.9982
-0.3484 -0.2690 -0.1166 0.9982
-0.3452 -0.2915 -0.1197 0.9981
-0.3439 -0.2993 -0.1208 0.9981
-0.3386 -0.3312 -0.1255 0.9980
-0.3370 -0.3395 -0.1268 0.9980
-0.3352 -0.3476 -0.1280 0.9980
-0.3308 -0.3638 -0.1303 0.9980
-0.3285 -0.3721 -0.1315 0.9979
-0.3237 -0.3890 -0.1341 0.9979
-0.3213 -0.3977 -0.1355 0.9979
-0.3161 -0.4156 -0.1384 0.9978
-0.3134 -0.4248 -0.1399 0.9978
-0.3106 -0.4340 -0.1414 0.9978
-0.3076 -0.4435 -0.1430 0.9978
-0.3050 -0.4537 -0.1449 0.9977
-0.2970 -0.4867 -0.1511 0.9976
-0.2941 -0.4982 -0.1533 0.9976
-0.2812 -0.5469 -0.1629 0.9975
-0.2884 -0.6272 -0.1829 0.9971
-1.2048 -3.0824 -0.8770 0.9864
-1.2955 -3.4630 -0.9797 0.9848
-1.2448 -3.4815 -0.9797 0.9848
-1.0910 -3.5327 -0.9797 0.9848
-1.0393 -3.5483 -0.9797 0.9848
-0.9874 -3.5631 -0.9797 0.9848
-0.9352 -3.5771 -0.9797 0.9848
-0.7775 -3.6147 -0.9797 0.9848
-0.6184 -3.6453 -0.9797 0.9848
-0.5651 -3.6540 -0.9797 0.9848
-0.5116 -3.6619 -0.9797 0.9848
-0.4581 -3.6689 -0.9797 0.9848
-0.4044 -3.6753 -0.9798 0.9848
-0.3507 -3.6808 -0.9798 0.9848
-0.2968 -3.6855 -0.9798 0.9848
-0.1350 -3.6950 -0.9798 0.9848
0.0270 -3.6974 -0.9798 0.9848
0.0810 -3.6966 -0.9798 0.9848
0.1350 -3.6950 -0.9798 0.9848
0.1890 -3.6926 -0.9798 0.9848
0.2429 -3.6895 -0.9798 0.9848
0.2968 -3.6855 -0.9798 0.9848
0.3506 -3.6808 -0.9798 0.9848
0.4044 -3.6753 -0.9798 0.9848
0.5116 -3.6620 -0.9798 0.9848
0.6184 -3.6454 -0.9798 0.9848
0.7775 -3.6148 -0.9798 0.9848
0.9352 -3.5773 -0.9798 0.9848
0.9874 -3.5632 -0.9798 0.9848
1.0394 -3.5484 -0.9798 0.9848
1.2449 -3.4817 -0.9798 0.9848
1.3461 -3.4438 -0.9798 0.9848
1.3963 -3.4237 -0.9798 0.9848
1.4957 -3.3816 -0.9798 0.9848
1.5450 -3.3593 -0.9798 0.9848
1.6424 -3.3128 -0.9798 0.9848
1.6907 -3.2884 -0.9798 0.9848
1.7860 -3.2376 -0.9798 0.9848
1.8332 -3.2112 -0.9798 0.9848
1.8799 -3.1840 -0.9798 0.9848
1.9721 -3.1277 -0.9798 0.9848
2.0176 -3.0986 -0.9798 0.9848
2.1073 -3.0384 -0.9798 0.9848
2.1515 -3.0072 -0.9798 0.9848
2.1952 -2.9755 -0.9798 0.9848
2.2384 -2.9431 -0.9798 0.9848
2.2812 -2.9101 -0.9798 0.9848
2.3653 -2.8421 -0.9798 0.9848
2.4473 -2.7719 -0.9798 0.9848
2.6431 -2.5859 -0.9798 0.9848
2.6806 -2.5469 -0.9798 0.9848
2.7539 -2.4675 -0.9798 0.9848
2.8248 -2.3860 -0.9798 0.9848
2.8933 -2.3025 -0.9798 0.9848
2.9594 -2.2169 -0.9798 0.9848
3.2196 -1.9327 -0.9951 0.9846
3.2475 -1.8855 -0.9951 0.9846
3.2747 -1.8379 -0.9951 0.9846
3.3012 -1.7898 -0.9951 0.9846
3.3271 -1.7414 -0.9951 0.9846
3.3765 -1.6434 -0.9951 0.9846
3.4230 -1.5441 -0.9951 0.9846
3.4453 -1.4939 -0.9951 0.9846
3.5074 -1.3415 -0.9951 0.9846
3.5266 -1.2901 -0.9951 0.9846
3.5451 -1.2384 -0.9951 0.9846
3.5629 -1.1865 -0.9951 0.9846
3.5798 -1.1343 -0.9951 0.9846
3.6530 -0.8700 -0.9951 0.9846
3.6654 -0.8165 -0.9951 0.9846
3.6877 -0.7090 -0.9951 0.9846
3.6976 -0.6551 -0.9951 0.9846
3.7152 -0.5468 -0.9951 0.9846
3.7228 -0.4924 -0.9951 0.9846
3.7296 -0.4380 -0.9951 0.9846
3.7356 -0.3834 -0.9951 0.9846
3.7488 -0.2193 -0.9951 0.9846
3.7516 -0.1646 -0.9951 0.9846
3.7552 0.0000 -0.9951 0.9846
3.7488 0.2194 -0.9951 0.9846
3.7452 0.2741 -0.9951 0.9846
3.7356 0.3834 -0.9951 0.9846
3.7228 0.4924 -0.9951 0.9846
3.7152 0.5468 -0.9951 0.9846
3.6877 0.7090 -0.9951 0.9846
3.6769 0.7629 -0.9951 0.9846
3.6531 0.8699 -0.9951 0.9846
3.6114 1.0292 -0.9951 0.9846
3.5798 1.1343 -0.9951 0.9846
3.5629 1.1865 -0.9951 0.9846
3.4231 1.5441 -0.9951 0.9846
3.3521 1.6926 -0.9951 0.9846
3.3012 1.7898 -0.9951 0.9846
3.2747 1.8378 -0.9951 0.9846
3.1910 1.9796 -0.9951 0.9846
3.1318 2.0720 -0.9951 0.9846
3.1012 2.1175 -0.9951 0.9846
3.0699 2.1626 -0.9951 0.9846
3.0054 2.2514 -0.9951 0.9846
2.8688 2.4231 -0.9951 0.9846
2.8330 2.4648 -0.9951 0.9846
2.7598 2.5465 -0.9950 0.9846
2.6063 2.7034 -0.9950 0.9846
2.5262 2.7783 -0.9950 0.9846
2.4854 2.8149 -0.9950 0.9846
2.4440 2.8510 -0.9950 0.9846
2.3596 2.9212 -0.9950 0.9846
2.3167 2.9553 -0.9950 0.9846
2.2293 3.0218 -0.9950 0.9846
2.0490 3.1468 -0.9950 0.9846
2.0028 3.1764 -0.9950 0.9846
1.9562 3.2053 -0.9950 0.9846
1.9092 3.2336 -0.9950 0.9846
1.8138 3.2880 -0.9950 0.9846
1.7656 3.3141 -0.9950 0.9846
1.6187 3.3883 -0.9950 0.9846
1.5690 3.4116 -0.9950 0.9846
1.5190 3.4341 -0.9950 0.9846
1.4042 3.4433 -0.9854 0.9847
1.3432 3.4365 -0.9777 0.9848
1.2933 3.4570 -0.9780 0.9848
1.2538 3.5067 -0.9868 0.9847
1.2124 3.5539 -0.9950 0.9846
1.1604 3.5712 -0.9950 0.9846
1.1081 3.5879 -0.9950 0.9846
0.8432 3.6591 -0.9950 0.9846
0.7359 3.6822 -0.9950 0.9846
0.6280 3.7021 -0.9950 0.9846
0.5739 3.7109 -0.9950 0.9846
0.5196 3.7189 -0.9950 0.9846
0.4652 3.7261 -0.9950 0.9846
0.3014 3.7429 -0.9950 0.9846
0.2467 3.7469 -0.9950 0.9846
0.1920 3.7501 -0.9950 0.9846
0.0823 3.7541 -0.9950 0.9846
0.0274 3.7548 -0.9950 0.9846
-0.0269 3.6828 -0.9759 0.9849
-0.2467 3.7468 -0.9950 0.9846
-0.3014 3.7428 -0.9950 0.9846
-0.5196 3.7188 -0.9950 0.9846
-0.5738 3.7108 -0.9950 0.9846
-0.6280 3.7020 -0.9950 0.9846
-0.6821 3.6924 -0.9950 0.9846
-0.7359 3.6821 -0.9950 0.9846
-0.8432 3.6590 -0.9950 0.9846
-0.9497 3.6328 -0.9950 0.9846
-1.0027 3.6186 -0.9950 0.9846
-1.1603 3.5711 -0.9950 0.9846
-1.2124 3.5538 -0.9950 0.9846
-1.3157 3.5168 -0.9950 0.9846
-1.3669 3.4972 -0.9950 0.9846
-1.4179 3.4769 -0.9950 0.9846
-0.3129 0.7364 -0.2120 0.9967
-0.2999 0.6780 -0.1964 0.9969
-0.2884 0.6272 -0.1829 0.9971
-0.2812 0.5469 -0.1629 0.9975
-0.2942 0.4982 -0.1533 0.9976
-0.2971 0.4867 -0.1511 0.9976
-0.2998 0.4755 -0.1489 0.9977
-0.3050 0.4537 -0.1449 0.9977
-0.3134 0.4248 -0.1399 0.9978
-0.3161 0.4156 -0.1384 0.9978
-0.3213 0.3978 -0.1355 0.9979
-0.3237 0.3890 -0.1341 0.9979
-0.3261 0.3805 -0.1328 0.9979
-0.3285 0.3721 -0.1315 0.9979
-0.3308 0.3638 -0.1303 0.9980
-0.3352 0.3477 -0.1280 0.9980
-0.3371 0.3395 -0.1268 0.9980
-0.3386 0.3312 -0.1255 0.9980
-0.3400 0.3230 -0.1243 0.9981
-0.3414 0.3150 -0.1231 0.9981
-0.3474 0.2764 -0.1176 0.9982
-0.3484 0.2690 -0.1166 0.9982
-0.3494 0.2617 -0.1157 0.9982
-0.3503 0.2545 -0.1147 0.9982
-0.3512 0.2474 -0.1138 0.9982
-0.3528 0.2334 -0.1121 0.9983
-0.3536 0.2266 -0.1113 0.9983
-0.3549 0.2130 -0.1097 0.9983
-0.3561 0.1998 -0.1082 0.9983
-0.3575 0.1871 -0.1069 0.9983
-0.3600 0.1688 -0.1054 0.9984
-0.3606 0.1627 -0.1048 0.9984
-0.3627 0.1387 -0.1029 0.9984
-0.3635 0.1270 -0.1020 0.9984
-0.3645 0.1096 -0.1009 0.9984
-0.3650 0.0983 -0.1002 0.9984
-0.3656 0.0759 -0.0989 0.9985
-0.3656 0.0703 -0.0987 0.9985
-0.3657 0.0648 -0.0984 0.9985
-0.3657 0.0538 -0.0979 0.9985
-0.3656 0.0483 -0.0977 0.9985
-0.3651 0.0267 -0.0970 0.9985
-0.3580 -0.0052 -0.0991 0.9985
-0.3586 -0.0157 -0.0994 0.9985
-0.3592 -0.0369 -0.1000 0.9985
-0.3593 -0.0422 -0.1002 0.9985
-0.3594 -0.0475 -0.1004 0.9985
-0.3595 -0.0583 -0.1008 0.9985
-0.3594 -0.0691 -0.1013 0.9985
-0.3587 -0.0966 -0.1028 0.9985
-0.3584 -0.1021 -0.1032 0.9985
-0.3581 -0.1077 -0.1035 0.9984
-0.3578 -0.1134 -0.1039 0.9984
-0.3575 -0.1191 -0.1043 0.9984
-0.3571 -0.1247 -0.1047 0.9984
-0.3567 -0.1305 -0.1052 0.9984
-0.3562 -0.1363 -0.1056 0.9984
-0.3518 -0.1776 -0.1091 0.9984
-0.3485 -0.2023 -0.1116 0.9983
-0.3472 -0.2154 -0.1131 0.9983
-0.3465 -0.2220 -0.1139 0.9983
-0.3431 -0.2493 -0.1174 0.9982
-0.3421 -0.2563 -0.1184 0.9982
-0.3411 -0.2634 -0.1193 0.9982
-0.3377 -0.2853 -0.1224 0.9982
-0.3352 -0.3003 -0.1246 0.9981
-0.3309 -0.3237 -0.1282 0.9981
-0.3210 -0.3636 -0.1343 0.9980
-0.3084 -0.4055 -0.1410 0.9979
-0.3028 -0.4232 -0.1441 0.9978
-0.2968 -0.4416 -0.1473 0.9978
-0.2936 -0.4510 -0.1490 0.9978
-0.2907 -0.4610 -0.1509 0.9977
-0.2879 -0.4717 -0.1530 0.9977
-0.2849 -0.4826 -0.1552 0.9977
-0.2787 -0.5052 -0.1597 0.9976
-0.2682 -0.5410 -0.1672 0.9975
-0.2604 -0.5662 -0.1726 0.9974
-0.2754 -0.6480 -0.1949 0.9971
-0.2857 -0.7006 -0.2095 0.9969
-1.2148 -3.1079 -0.9239 0.9862
-1.2399 -3.3142 -0.9797 0.9854
-1.1913 -3.3319 -0.9797 0.9854
-1.1425 -3.3490 -0.9797 0.9854
-1.0935 -3.3654 -0.9797 0.9854
-1.0442 -3.3809 -0.9797 0.9854
-0.9947 -3.3959 -0.9797 0.9854
-0.9450 -3.4100 -0.9797 0.9854
-0.7946 -3.4482 -0.9797 0.9854
-0.7442 -3.4595 -0.9797 0.9854
-0.6427 -3.4797 -0.9797 0.9854
-0.5408 -3.4970 -0.9797 0.9854
-0.4384 -3.5113 -0.9798 0.9854
-0.3356 -3.5226 -0.9798 0.9854
-0.2841 -3.5271 -0.9798 0.9854
-0.1293 -3.5362 -0.9798 0.9854
-0.0776 -3.5377 -0.9798 0.9854
0.0258 -3.5386 -0.9798 0.9854
0.0775 -3.5377 -0.9798 0.9854
0.1292 -3.5362 -0.9798 0.9854
0.1809 -3.5340 -0.9798 0.9854
0.2325 -3.5309 -0.9798 0.9854
0.3356 -3.5227 -0.9798 0.9854
0.3870 -3.5174 -0.9798 0.9854
0.4384 -3.5114 -0.9798 0.9854
0.4896 -3.5046 -0.9798 0.9854
0.5408 -3.4971 -0.9798 0.9854
0.7442 -3.4595 -0.9798 0.9854
0.7946 -3.4483 -0.9798 0.9854
0.8950 -3.4236 -0.9798 0.9854
0.9450 -3.4102 -0.9798 0.9854
1.0935 -3.3655 -0.9798 0.9854
1.1426 -3.3491 -0.9798 0.9854
1.1914 -3.3321 -0.9798 0.9854
1.2399 -3.3143 -0.9798 0.9854
1.3362 -3.2767 -0.9798 0.9854
1.3840 -3.2568 -0.9798 0.9854
1.4314 -3.2362 -0.9798 0.9854
1.5719 -3.1705 -0.9798 0.9854
1.6180 -3.1471 -0.9798 0.9854
1.6638 -3.1232 -0.9798 0.9854
1.7544 -3.0732 -0.9798 0.9854
1.8435 -3.0206 -0.9798 0.9854
1.9309 -2.9655 -0.9798 0.9854
2.0168 -2.9078 -0.9798 0.9854
2.0590 -2.8780 -0.9798 0.9854
2.1422 -2.8166 -0.9798 0.9854
2.1832 -2.7850 -0.9798 0.9854
2.2637 -2.7200 -0.9798 0.9854
2.3807 -2.6183 -0.9798 0.9854
2.6008 -2.3998 -0.9798 0.9854
2.6698 -2.3228 -0.9798 0.9854
2.8009 -2.1629 -0.9798 0.9854
2.8504 -2.1353 -0.9861 0.9853
2.9972 -1.9830 -0.9951 0.9852
3.0539 -1.8945 -0.9951 0.9852
3.0813 -1.8497 -0.9951 0.9852
3.1080 -1.8045 -0.9951 0.9852
3.1340 -1.7589 -0.9951 0.9852
3.1841 -1.6666 -0.9951 0.9852
3.2314 -1.5728 -0.9951 0.9852
3.2540 -1.5255 -0.9951 0.9852
3.3376 -1.3327 -0.9951 0.9852
3.3567 -1.2838 -0.9951 0.9852
3.3751 -1.2346 -0.9951 0.9852
3.4097 -1.1355 -0.9951 0.9852
3.4260 -1.0855 -0.9951 0.9852
3.4415 -1.0354 -0.9951 0.9852
3.4563 -0.9850 -0.9951 0.9852
3.4703 -0.9344 -0.9951 0.9852
3.4961 -0.8326 -0.9951 0.9852
3.5079 -0.7814 -0.9951 0.9852
3.5292 -0.6786 -0.9951 0.9852
3.5388 -0.6270 -0.9951 0.9852
3.5556 -0.5233 -0.9951 0.9852
3.5751 -0.3670 -0.9951 0.9852
3.5801 -0.3147 -0.9951 0.9852
3.5843 -0.2623 -0.9951 0.9852
3.5877 -0.2099 -0.9951 0.9852
3.5904 -0.1575 -0.9951 0.9852
3.5924 -0.1050 -0.9951 0.9852
3.5935 -0.0525 -0.9951 0.9852
3.5935 0.0525 -0.9951 0.9852
3.5904 0.1575 -0.9951 0.9852
3.5878 0.2099 -0.9951 0.9852
3.5843 0.2623 -0.9951 0.9852
3.5801 0.3147 -0.9951 0.9852
3.5693 0.4192 -0.9951 0.9852
3.5292 0.6786 -0.9951 0.9852
3.4961 0.8326 -0.9951 0.9852
3.4836 0.8836 -0.9951 0.9852
3.4703 0.9344 -0.9951 0.9852
3.4562 0.9850 -0.9951 0.9852
3.4098 1.1355 -0.9951 0.9852
3.3928 1.1852 -0.9951 0.9852
3.3567 1.2838 -0.9951 0.9852
3.3376 1.3327 -0.9951 0.9852
3.2972 1.4297 -0.9951 0.9852
3.2760 1.4777 -0.9951 0.9852
3.2541 1.5254 -0.9951 0.9852
3.2314 1.5728 -0.9951 0.9852
3.2081 1.6198 -0.9951 0.9852
3.1594 1.7129 -0.9951 0.9852
3.1340 1.7589 -0.9951 0.9852
3.0539 1.8945 -0.9951 0.9852
3.0259 1.9390 -0.9951 0.9852
2.9972 1.9830 -0.9951 0.9852
2.9679 2.0266 -0.9951 0.9852
2.5689 2.5132 -0.9950 0.9852
2.4944 2.5872 -0.9950 0.9852
2.3786 2.6940 -0.9950 0.9852
2.2988 2.7623 -0.9950 0.9852
2.2171 2.8284 -0.9950 0.9852
2.1336 2.8920 -0.9950 0.9852
2.0481 2.9530 -0.9950 0.9852
2.0047 2.9826 -0.9950 0.9852
1.9610 3.0116 -0.9950 0.9852
1.9167 3.0399 -0.9950 0.9852
1.6432 3.1961 -0.9950 0.9852
1.5491 3.2427 -0.9950 0.9852
1.5016 3.2650 -0.9950 0.9852
1.4055 3.3075 -0.9950 0.9852
1.3571 3.3277 -0.9950 0.9852
1.3082 3.3471 -0.9950 0.9852
1.2592 3.3659 -0.9950 0.9852
1.0604 3.4337 -0.9950 0.9852
0.8581 3.4898 -0.9950 0.9852
0.7557 3.5134 -0.9950 0.9852
0.7043 3.5240 -0.9950 0.9852
0.6527 3.5339 -0.9950 0.9852
0.5492 3.5515 -0.9950 0.9852
0.4452 3.5660 -0.9950 0.9852
0.3408 3.5775 -0.9950 0.9852
0.1837 3.5890 -0.9950 0.9852
0.1312 3.5912 -0.9950 0.9852
0.0787 3.5928 -0.9950 0.9852
0.0262 3.5936 -0.9950 0.9852
-0.0263 3.5936 -0.9950 0.9852
-0.2885 3.5820 -0.9950 0.9852
-0.3408 3.5774 -0.9950 0.9852
-0.4973 3.5590 -0.9950 0.9852
-0.5492 3.5514 -0.9950 0.9852
-0.8070 3.5018 -0.9950 0.9852
-0.8581 3.4896 -0.9950 0.9852
-0.9089 3.4767 -0.9950 0.9852
-0.9596 3.4631 -0.9950 0.9852
-1.0101 3.4487 -0.9950 0.9852
-1.1105 3.4177 -0.9950 0.9852
-0.2662 0.6019 -0.1822 0.9973
-0.2604 0.5663 -0.1726 0.9974
-0.2644 0.5535 -0.1698 0.9975
-0.2682 0.5409 -0.1672 0.9975
-0.2718 0.5288 -0.1646 0.9975
-0.2753 0.5168 -0.1621 0.9976
-0.2787 0.5052 -0.1597 0.9976
-0.2819 0.4937 -0.1574 0.9976
-0.2849 0.4826 -0.1552 0.9977
-0.2879 0.4717 -0.1530 0.9977
-0.2907 0.4610 -0.1509 0.9977
-0.3028 0.4232 -0.1441 0.9978
-0.3084 0.4055 -0.1410 0.9979
-0.3110 0.3968 -0.1396 0.9979
-0.3161 0.3798 -0.1368 0.9980
-0.3186 0.3716 -0.1355 0.9980
-0.3255 0.3477 -0.1319 0.9980
-0.3294 0.3318 -0.1294 0.9981
-0.3309 0.3237 -0.1282 0.9981
-0.3324 0.3158 -0.1269 0.9981
-0.3338 0.3080 -0.1258 0.9981
-0.3352 0.3003 -0.1246 0.9981
-0.3365 0.2927 -0.1235 0.9982
-0.3377 0.2852 -0.1224 0.9982
-0.3389 0.2779 -0.1213 0.9982
-0.3400 0.2706 -0.1203 0.9982
-0.3421 0.2563 -0.1184 0.9982
-0.3431 0.2493 -0.1174 0.9982
-0.3449 0.2355 -0.1156 0.9983
-0.3457 0.2287 -0.1148 0.9983
-0.3472 0.2154 -0.1131 0.9983
-0.3499 0.1897 -0.1102 0.9983
-0.3518 0.1776 -0.1091 0.9984
-0.3541 0.1597 -0.1075 0.9984
-0.3547 0.1538 -0.1070 0.9984
-0.3557 0.1420 -0.1061 0.9984
-0.3567 0.1305 -0.1052 0.9984
-0.3584 0.1021 -0.1032 0.9985
-0.3586 0.0966 -0.1028 0.9985
-0.3593 0.0745 -0.1016 0.9985
-0.3594 0.0691 -0.1013 0.9985
-0.3595 0.0583 -0.1008 0.9985
-0.3594 0.0475 -0.1004 0.9985
-0.3590 0.0262 -0.0997 0.9985
-0.3588 0.0210 -0.0995 0.9985
-0.3580 0.0052 -0.0991 0.9985
-0.3518 0.0000 -0.1016 0.9985
-0.3526 -0.0155 -0.1019 0.9985
-0.3534 -0.0467 -0.1030 0.9985
-0.3534 -0.0520 -0.1032 0.9985
-0.3534 -0.0573 -0.1034 0.9985
-0.3534 -0.0626 -0.1037 0.9985
-0.3533 -0.0679 -0.1039 0.9985
-0.3532 -0.0733 -0.1042 0.9985
-0.3531 -0.0787 -0.1045 0.9985
-0.3525 -0.0949 -0.1054 0.9985
-0.3519 -0.1059 -0.1062 0.9985
-0.3516 -0.1114 -0.1065 0.9985
-0.3509 -0.1226 -0.1073 0.9985
-0.3495 -0.1395 -0.1087 0.9984
-0.3489 -0.1453 -0.1092 0.9984
-0.3483 -0.1510 -0.1097 0.9984
-0.3453 -0.1744 -0.1117 0.9984
-0.3444 -0.1803 -0.1123 0.9984
-0.3425 -0.1922 -0.1134 0.9984
-0.3417 -0.1984 -0.1141 0.9984
-0.3411 -0.2048 -0.1149 0.9983
-0.3396 -0.2176 -0.1165 0.9983
-0.3361 -0.2442 -0.1200 0.9983
-0.3351 -0.2510 -0.1209 0.9983
-0.3340 -0.2579 -0.1219 0.9982
-0.3279 -0.2938 -0.1272 0.9982
-0.3251 -0.3088 -0.1295 0.9981
-0.3220 -0.3243 -0.1320 0.9981
-0.3183 -0.3399 -0.1345 0.9981
-0.3161 -0.3476 -0.1357 0.9980
-0.3088 -0.3711 -0.1394 0.9980
-0.3063 -0.3791 -0.1408 0.9980
-0.3037 -0.3873 -0.1422 0.9980
-0.2982 -0.4042 -0.1451 0.9979
-0.2924 -0.4216 -0.1482 0.9979
-0.2894 -0.4305 -0.1498 0.9978
-0.2862 -0.4395 -0.1515 0.9978
-0.2796 -0.4581 -0.1550 0.9978
-0.2731 -0.4785 -0.1591 0.9977
-0.2699 -0.4893 -0.1614 0.9977
-0.2665 -0.5004 -0.1637 0.9976
-0.2594 -0.5232 -0.1687 0.9976
-0.2556 -0.5350 -0.1713 0.9975
-0.2516 -0.5471 -0.1739 0.9975
-0.2529 -0.6201 -0.1934 0.9972
-0.2609 -0.6675 -0.2070 0.9970
-1.1420 -3.1939 -0.9797 0.9860
-1.0952 -3.2102 -0.9797 0.9860
-0.9058 -3.2687 -0.9797 0.9860
-0.8579 -3.2816 -0.9797 0.9860
-0.7617 -3.3053 -0.9797 0.9860
-0.7133 -3.3161 -0.9797 0.9860
-0.6648 -3.3261 -0.9797 0.9860
-0.6161 -3.3355 -0.9797 0.9860
-0.5673 -3.3442 -0.9797 0.9860
-0.5184 -3.3521 -0.9797 0.9860
-0.4693 -3.3593 -0.9797 0.9860
-0.4202 -3.3659 -0.9798 0.9860
-0.3710 -3.3716 -0.9798 0.9860
-0.2229 -3.3846 -0.9798 0.9860
-0.1734 -3.3875 -0.9798 0.9860
0.0248 -3.3919 -0.9798 0.9860
0.2229 -3.3847 -0.9798 0.9860
0.3217 -3.3767 -0.9798 0.9860
0.3710 -3.3717 -0.9798 0.9860
0.4202 -3.3659 -0.9798 0.9860
0.5184 -3.3522 -0.9798 0.9860
0.6648 -3.3262 -0.9798 0.9860
0.7133 -3.3162 -0.9798 0.9860
0.8580 -3.2817 -0.9798 0.9860
1.0009 -3.2410 -0.9798 0.9860
1.0952 -3.2104 -0.9798 0.9860
1.1420 -3.1940 -0.9798 0.9860
1.1886 -3.1770 -0.9798 0.9860
1.2348 -3.1593 -0.9798 0.9860
1.4173 -3.0818 -0.9798 0.9860
1.5067 -3.0391 -0.9798 0.9860
1.5949 -2.9937 -0.9798 0.9860
1.6385 -2.9701 -0.9798 0.9860
1.7671 -2.8955 -0.9798 0.9860
1.8509 -2.8426 -0.9798 0.9860
1.9332 -2.7873 -0.9798 0.9860
1.9737 -2.7587 -0.9798 0.9860
2.0927 -2.6696 -0.9798 0.9860
2.2077 -2.5754 -0.9798 0.9860
2.2451 -2.5428 -0.9798 0.9860
2.2820 -2.5098 -0.9798 0.9860
2.3184 -2.4762 -0.9798 0.9860
2.4247 -2.3722 -0.9798 0.9860
2.4592 -2.3365 -0.9798 0.9860
2.6231 -2.1508 -0.9798 0.9860
2.6787 -2.1316 -0.9888 0.9858
2.8163 -1.9839 -0.9951 0.9858
2.8450 -1.9425 -0.9951 0.9858
2.8731 -1.9008 -0.9951 0.9858
2.9274 -1.8161 -0.9951 0.9858
2.9536 -1.7731 -0.9951 0.9858
3.0041 -1.6860 -0.9951 0.9858
3.1803 -1.3241 -0.9951 0.9858
3.2176 -1.2307 -0.9951 0.9858
3.2522 -1.1361 -0.9951 0.9858
3.2840 -1.0405 -0.9951 0.9858
3.2989 -0.9925 -0.9951 0.9858
3.3512 -0.7981 -0.9951 0.9858
3.3830 -0.6505 -0.9951 0.9858
3.3921 -0.6009 -0.9951 0.9858
3.4005 -0.5514 -0.9951 0.9858
3.4082 -0.5016 -0.9951 0.9858
3.4270 -0.3518 -0.9951 0.9858
3.4358 -0.2514 -0.9951 0.9858
3.4391 -0.2013 -0.9951 0.9858
3.4435 -0.1007 -0.9951 0.9858
3.4446 -0.0504 -0.9951 0.9858
3.4449 0.0000 -0.9951 0.9858
3.4435 0.1007 -0.9951 0.9858
3.4416 0.1510 -0.9951 0.9858
3.4391 0.2012 -0.9951 0.9858
3.4358 0.2514 -0.9951 0.9858
3.4317 0.3016 -0.9951 0.9858
3.4270 0.3518 -0.9951 0.9858
3.4214 0.4018 -0.9951 0.9858
3.4083 0.5016 -0.9951 0.9858
3.4006 0.5513 -0.9951 0.9858
3.3731 0.6998 -0.9951 0.9858
3.3625 0.7491 -0.9951 0.9858
3.2176 1.2306 -0.9951 0.9858
3.1993 1.2775 -0.9951 0.9858
3.1606 1.3705 -0.9951 0.9858
3.1402 1.4165 -0.9951 0.9858
3.1192 1.4622 -0.9951 0.9858
3.0975 1.5077 -0.9951 0.9858
2.9274 1.8160 -0.9951 0.9858
2.8731 1.9008 -0.9951 0.9858
2.8450 1.9426 -0.9951 0.9858
2.7571 2.0654 -0.9950 0.9858
2.6639 2.1842 -0.9950 0.9858
2.5990 2.2611 -0.9950 0.9858
2.5318 2.3361 -0.9950 0.9858
2.4625 2.4091 -0.9950 0.9858
2.3175 2.5488 -0.9950 0.9858
2.2420 2.6154 -0.9950 0.9858
2.2036 2.6479 -0.9950 0.9858
2.1647 2.6798 -0.9950 0.9858
2.0854 2.7419 -0.9950 0.9858
2.0451 2.7721 -0.9950 0.9858
1.9633 2.8307 -0.9950 0.9858
1.8797 2.8868 -0.9950 0.9858
1.7946 2.9405 -0.9950 0.9858
1.7514 2.9664 -0.9950 0.9858
1.7079 2.9917 -0.9950 0.9858
1.6197 3.0403 -0.9950 0.9858
1.5751 3.0637 -0.9950 0.9858
1.5302 3.0863 -0.9950 0.9858
1.4393 3.1297 -0.9950 0.9858
1.3473 3.1705 -0.9950 0.9858
1.2070 3.2264 -0.9950 0.9858
1.1123 3.2603 -0.9950 0.9858
1.0645 3.2762 -0.9950 0.9858
1.0165 3.2914 -0.9950 0.9858
0.9683 3.3059 -0.9950 0.9858
0.8713 3.3328 -0.9950 0.9858
0.7735 3.3568 -0.9950 0.9858
0.6751 3.3780 -0.9950 0.9858
0.6257 3.3875 -0.9950 0.9858
0.5761 3.3963 -0.9950 0.9858
0.5264 3.4043 -0.9950 0.9858
0.4767 3.4116 -0.9950 0.9858
0.3768 3.4241 -0.9950 0.9858
0.3267 3.4293 -0.9950 0.9858
0.2765 3.4337 -0.9950 0.9858
0.1761 3.4402 -0.9950 0.9858
0.1258 3.4424 -0.9950 0.9858
0.0755 3.4439 -0.9950 0.9858
-0.0252 3.4446 -0.9950 0.9858
-0.1258 3.4424 -0.9950 0.9858
-0.1761 3.4402 -0.9950 0.9858
-0.2263 3.4373 -0.9950 0.9858
-0.3267 3.4292 -0.9950 0.9858
-0.4267 3.4182 -0.9950 0.9858
-0.4766 3.4116 -0.9950 0.9858
-0.5264 3.4043 -0.9950 0.9858
-0.5761 3.3962 -0.9950 0.9858
-0.8225 3.3450 -0.9950 0.9858
-0.9199 3.3196 -0.9950 0.9858
-1.1597 3.2436 -0.9950 0.9858
-0.2609 0.6676 -0.2070 0.9970
-0.2529 0.6201 -0.1934 0.9972
-0.2475 0.5595 -0.1767 0.9975
-0.2516 0.5471 -0.1739 0.9975
-0.2594 0.5232 -0.1687 0.9976
-0.2665 0.5003 -0.1637 0.9976
-0.2699 0.4893 -0.1614 0.9977
-0.2830 0.4487 -0.1532 0.9978
-0.2894 0.4305 -0.1498 0.9978
-0.2954 0.4129 -0.1466 0.9979
-0.2982 0.4042 -0.1451 0.9979
-0.3062 0.3791 -0.1408 0.9980
-0.3160 0.3476 -0.1357 0.9980
-0.3236 0.3166 -0.1307 0.9981
-0.3251 0.3089 -0.1295 0.9981
-0.3305 0.2792 -0.1250 0.9982
-0.3370 0.2374 -0.1191 0.9983
-0.3388 0.2241 -0.1173 0.9983
-0.3404 0.2111 -0.1157 0.9983
-0.3411 0.2048 -0.1149 0.9983
-0.3418 0.1984 -0.1141 0.9984
-0.3424 0.1922 -0.1134 0.9984
-0.3453 0.1744 -0.1117 0.9984
-0.3471 0.1627 -0.1107 0.9984
-0.3477 0.1569 -0.1102 0.9984
-0.3483 0.1511 -0.1097 0.9984
-0.3489 0.1453 -0.1092 0.9984
-0.3494 0.1395 -0.1087 0.9984
-0.3504 0.1282 -0.1078 0.9984
-0.3519 0.1059 -0.1062 0.9985
-0.3522 0.1004 -0.1058 0.9985
-0.3525 0.0949 -0.1054 0.9985
-0.3527 0.0895 -0.1051 0.9985
-0.3534 0.0626 -0.1037 0.9985
-0.3534 0.0520 -0.1032 0.9985
-0.3531 0.0311 -0.1024 0.9985
-0.3524 0.0103 -0.1018 0.9985
-0.3461 0.0000 -0.1041 0.9986
-0.3466 -0.0101 -0.1043 0.9986
-0.3470 -0.0203 -0.1046 0.9985
-0.3473 -0.0305 -0.1049 0.9985
-0.3475 -0.0460 -0.1055 0.9985
-0.3475 -0.0563 -0.1059 0.9985
-0.3471 -0.0773 -0.1070 0.9985
-0.3459 -0.1041 -0.1087 0.9985
-0.3443 -0.1260 -0.1103 0.9985
-0.3428 -0.1427 -0.1117 0.9985
-0.3408 -0.1598 -0.1133 0.9984
-0.3400 -0.1655 -0.1138 0.9984
-0.3391 -0.1713 -0.1143 0.9984
-0.3372 -0.1828 -0.1154 0.9984
-0.3362 -0.1887 -0.1160 0.9984
-0.3352 -0.1946 -0.1166 0.9984
-0.3337 -0.2071 -0.1182 0.9984
-0.3321 -0.2197 -0.1198 0.9983
-0.3283 -0.2459 -0.1234 0.9983
-0.3261 -0.2595 -0.1254 0.9983
-0.3248 -0.2663 -0.1264 0.9982
-0.3236 -0.2734 -0.1275 0.9982
-0.3223 -0.2804 -0.1285 0.9982
-0.3180 -0.3021 -0.1320 0.9982
-0.3165 -0.3096 -0.1332 0.9982
-0.3131 -0.3248 -0.1358 0.9981
-0.3043 -0.3550 -0.1407 0.9980
-0.2992 -0.3705 -0.1433 0.9980
-0.2966 -0.3784 -0.1446 0.9980
-0.2911 -0.3946 -0.1475 0.9980
-0.2853 -0.4114 -0.1506 0.9979
-0.2725 -0.4464 -0.1574 0.9978
-0.2690 -0.4556 -0.1592 0.9978
-0.2616 -0.4743 -0.1630 0.9977
-0.2548 -0.4955 -0.1676 0.9977
-0.2433 -0.5291 -0.1752 0.9976
-0.2349 -0.5527 -0.1807 0.9975
-0.2304 -0.5650 -0.1836 0.9975
-0.9609 -3.1112 -0.9797 0.9865
-0.8695 -3.1379 -0.9797 0.9865
-0.8236 -3.1503 -0.9797 0.9865
-0.7775 -3.1620 -0.9797 0.9865
-0.7312 -3.1730 -0.9797 0.9865
-0.6848 -3.1833 -0.9797 0.9865
-0.6382 -3.1930 -0.9797 0.9865
-0.5446 -3.2103 -0.9797 0.9865
-0.4976 -3.2179 -0.9797 0.9865
-0.4034 -3.2311 -0.9798 0.9865
-0.2614 -3.2457 -0.9798 0.9865
-0.1189 -3.2540 -0.9798 0.9865
-0.0714 -3.2554 -0.9798 0.9865
0.0713 -3.2554 -0.9798 0.9865
0.1664 -3.2520 -0.9798 0.9865
0.2139 -3.2491 -0.9798 0.9865
0.3088 -3.2416 -0.9798 0.9865
0.4034 -3.2312 -0.9798 0.9865
0.4505 -3.2249 -0.9798 0.9865
0.4976 -3.2180 -0.9798 0.9865
0.6848 -3.1834 -0.9798 0.9865
0.7775 -3.1621 -0.9798 0.9865
0.8696 -3.1380 -0.9798 0.9865
0.9153 -3.1250 -0.9798 0.9865
1.0062 -3.0969 -0.9798 0.9865
1.3172 -2.9780 -0.9798 0.9865
1.4037 -2.9382 -0.9798 0.9865
1.4464 -2.9174 -0.9798 0.9865
1.5310 -2.8739 -0.9798 0.9865
1.6963 -2.7796 -0.9798 0.9865
1.7368 -2.7545 -0.9798 0.9865
1.8165 -2.7025 -0.9798 0.9865
1.9713 -2.5918 -0.9798 0.9865
2.0089 -2.5627 -0.9798 0.9865
2.0462 -2.5331 -0.9798 0.9865
2.1552 -2.4410 -0.9798 0.9865
2.1907 -2.4093 -0.9798 0.9865
2.2256 -2.3770 -0.9798 0.9865
2.2601 -2.3442 -0.9798 0.9865
2.3277 -2.2772 -0.9798 0.9865
2.3607 -2.2430 -0.9798 0.9865
2.3932 -2.2082 -0.9798 0.9865
2.5185 -2.1273 -0.9919 0.9863
2.5877 -2.0592 -0.9950 0.9863
2.6175 -2.0211 -0.9950 0.9863
2.6467 -1.9827 -0.9950 0.9863
2.6754 -1.9438 -0.9950 0.9863
2.7580 -1.8247 -0.9950 0.9863
2.7844 -1.7842 -0.9950 0.9863
2.8599 -1.6605 -0.9951 0.9863
2.9072 -1.5762 -0.9951 0.9863
2.9521 -1.4906 -0.9951 0.9863
2.9735 -1.4473 -0.9951 0.9863
2.9943 -1.4037 -0.9951 0.9863
3.0145 -1.3598 -0.9951 0.9863
3.0341 -1.3156 -0.9951 0.9863
3.0530 -1.2711 -0.9951 0.9863
3.0712 -1.2264 -0.9951 0.9863
3.0888 -1.1814 -0.9951 0.9863
3.1376 -1.0449 -0.9951 0.9863
3.1526 -0.9989 -0.9951 0.9863
3.1668 -0.9528 -0.9951 0.9863
3.1804 -0.9064 -0.9951 0.9863
3.1933 -0.8598 -0.9951 0.9863
3.2055 -0.8130 -0.9951 0.9863
3.2476 -0.6244 -0.9951 0.9863
3.2563 -0.5769 -0.9951 0.9863
3.2644 -0.5293 -0.9951 0.9863
3.2718 -0.4815 -0.9951 0.9863
3.2785 -0.4337 -0.9951 0.9863
3.2982 -0.2414 -0.9951 0.9863
3.3039 -0.1449 -0.9951 0.9863
3.3056 -0.0966 -0.9951 0.9863
3.3067 -0.0484 -0.9951 0.9863
3.3067 0.0483 -0.9951 0.9863
3.3038 0.1449 -0.9951 0.9863
3.2982 0.2414 -0.9951 0.9863
3.2845 0.3857 -0.9951 0.9863
3.2785 0.4337 -0.9951 0.9863
3.2718 0.4815 -0.9951 0.9863
3.2563 0.5769 -0.9951 0.9863
3.2476 0.6244 -0.9951 0.9863
3.2381 0.6718 -0.9951 0.9863
3.2171 0.7661 -0.9951 0.9863
3.1933 0.8598 -0.9951 0.9863
3.1220 1.0906 -0.9951 0.9863
3.0341 1.3156 -0.9951 0.9863
3.0145 1.3598 -0.9951 0.9863
2.9735 1.4473 -0.9951 0.9863
2.9520 1.4906 -0.9951 0.9863
2.9299 1.5336 -0.9951 0.9863
2.8599 1.6605 -0.9951 0.9863
2.8354 1.7021 -0.9951 0.9863
2.8102 1.7434 -0.9951 0.9863
2.7844 1.7842 -0.9950 0.9863
2.7580 1.8247 -0.9950 0.9863
2.6754 1.9438 -0.9950 0.9863
2.6175 2.0212 -0.9950 0.9863
2.5877 2.0591 -0.9950 0.9863
2.4629 2.2068 -0.9950 0.9863
2.4304 2.2426 -0.9950 0.9863
2.2953 2.3807 -0.9950 0.9863
2.2603 2.4140 -0.9950 0.9863
2.2247 2.4467 -0.9950 0.9863
2.1888 2.4790 -0.9950 0.9863
2.0780 2.5725 -0.9950 0.9863
2.0402 2.6026 -0.9950 0.9863
2.0019 2.6322 -0.9950 0.9863
1.9633 2.6611 -0.9950 0.9863
1.7638 2.7973 -0.9950 0.9863
1.7227 2.8228 -0.9950 0.9863
1.6813 2.8477 -0.9950 0.9863
1.6395 2.8719 -0.9950 0.9863
1.5974 2.8955 -0.9950 0.9863
1.5549 2.9186 -0.9950 0.9863
1.5121 2.9410 -0.9950 0.9863
1.4689 2.9628 -0.9950 0.9863
1.4255 2.9839 -0.9950 0.9863
1.2934 3.0435 -0.9950 0.9863
1.2038 3.0800 -0.9950 0.9863
1.1587 3.0973 -0.9950 0.9863
1.0677 3.1298 -0.9950 0.9863
0.9758 3.1596 -0.9950 0.9863
0.9296 3.1736 -0.9950 0.9863
0.8364 3.1994 -0.9950 0.9863
0.7896 3.2112 -0.9950 0.9863
0.6954 3.2329 -0.9950 0.9863
0.6006 3.2519 -0.9950 0.9863
0.5531 3.2603 -0.9950 0.9863
0.3617 3.2870 -0.9950 0.9863
0.2173 3.2997 -0.9950 0.9863
0.1690 3.3025 -0.9950 0.9863
0.0242 3.3068 -0.9950 0.9863
-0.1208 3.3046 -0.9950 0.9863
-0.2173 3.2997 -0.9950 0.9863
-0.2655 3.2961 -0.9950 0.9863
-0.3617 3.2870 -0.9950 0.9863
-0.4576 3.2750 -0.9950 0.9863
-0.6954 3.2329 -0.9950 0.9863
-0.7426 3.2224 -0.9950 0.9863
-0.7896 3.2112 -0.9950 0.9863
-0.8364 3.1993 -0.9950 0.9863
-0.8831 3.1867 -0.9950 0.9863
-0.9296 3.1734 -0.9950 0.9863
-0.2304 0.5650 -0.1836 0.9975
-0.2392 0.5407 -0.1779 0.9975
-0.2433 0.5291 -0.1752 0.9976
-0.2473 0.5177 -0.1726 0.9976
-0.2511 0.5064 -0.1701 0.9976
-0.2547 0.4955 -0.1676 0.9977
-0.2653 0.4648 -0.1611 0.9978
-0.2690 0.4555 -0.1592 0.9978
-0.2725 0.4464 -0.1574 0.9978
-0.2791 0.4286 -0.1539 0.9979
-0.2822 0.4200 -0.1522 0.9979
-0.2911 0.3946 -0.1475 0.9980
-0.2966 0.3783 -0.1446 0.9980
-0.2992 0.3705 -0.1433 0.9980
-0.3018 0.3627 -0.1420 0.9980
-0.3067 0.3474 -0.1394 0.9981
-0.3091 0.3399 -0.1382 0.9981
-0.3113 0.3325 -0.1371 0.9981
-0.3131 0.3248 -0.1358 0.9981
-0.3149 0.3171 -0.1345 0.9981
-0.3165 0.3096 -0.1332 0.9982
-0.3195 0.2948 -0.1308 0.9982
-0.3209 0.2876 -0.1297 0.9982
-0.3223 0.2804 -0.1285 0.9982
-0.3249 0.2664 -0.1264 0.9982
-0.3303 0.2327 -0.1216 0.9983
-0.3321 0.2197 -0.1198 0.9983
-0.3330 0.2134 -0.1190 0.9983
-0.3337 0.2070 -0.1182 0.9984
-0.3362 0.1887 -0.1160 0.9984
-0.3372 0.1828 -0.1154 0.9984
-0.3382 0.1770 -0.1149 0.9984
-0.3391 0.1713 -0.1143 0.9984
-0.3400 0.1655 -0.1138 0.9984
-0.3409 0.1598 -0.1133 0.9984
-0.3415 0.1541 -0.1127 0.9984
-0.3438 0.1315 -0.1108 0.9985
-0.3443 0.1260 -0.1103 0.9985
-0.3456 0.1095 -0.1091 0.9985
-0.3459 0.1041 -0.1087 0.9985
-0.3462 0.0987 -0.1083 0.9985
-0.3467 0.0880 -0.1076 0.9985
-0.3469 0.0827 -0.1073 0.9985
-0.3471 0.0773 -0.1070 0.9985
-0.3473 0.0720 -0.1067 0.9985
-0.3474 0.0616 -0.1062 0.9985
-0.3475 0.0460 -0.1055 0.9985
-0.3475 0.0408 -0.1053 0.9985
-0.3474 0.0356 -0.1051 0.9985
-0.3470 0.0203 -0.1046 0.9985
-0.3464 0.0051 -0.1042 0.9986
-0.3404 0.0000 -0.1066 0.9986
-0.3414 -0.0200 -0.1070 0.9986
-0.3415 -0.0250 -0.1072 0.9986
-0.3417 -0.0351 -0.1075 0.9986
-0.3418 -0.0452 -0.1079 0.9986
-0.3418 -0.0554 -0.1084 0.9985
-0.3417 -0.0605 -0.1086 0.9985
-0.3415 -0.0709 -0.1092 0.9985
-0.3411 -0.0812 -0.1098 0.9985
-0.3409 -0.0865 -0.1101 0.9985
-0.3407 -0.0917 -0.1104 0.9985
-0.3400 -0.1023 -0.1112 0.9985
-0.3393 -0.1130 -0.1119 0.9985
-0.3389 -0.1184 -0.1124 0.9985
-0.3384 -0.1238 -0.1128 0.9985
-0.3379 -0.1292 -0.1132 0.9985
-0.3368 -0.1402 -0.1142 0.9985
-0.3362 -0.1457 -0.1147 0.9985
-0.3356 -0.1513 -0.1152 0.9985
-0.3331 -0.1682 -0.1168 0.9984
-0.3311 -0.1795 -0.1179 0.9984
-0.3274 -0.2031 -0.1206 0.9984
-0.3265 -0.2093 -0.1214 0.9984
-0.3257 -0.2155 -0.1222 0.9984
-0.3238 -0.2281 -0.1240 0.9983
-0.3206 -0.2476 -0.1268 0.9983
-0.3194 -0.2542 -0.1278 0.9983
-0.3169 -0.2677 -0.1299 0.9983
-0.3156 -0.2746 -0.1309 0.9982
-0.3142 -0.2815 -0.1321 0.9982
-0.3128 -0.2886 -0.1332 0.9982
-0.3112 -0.2957 -0.1344 0.9982
-0.3096 -0.3030 -0.1356 0.9982
-0.3045 -0.3252 -0.1395 0.9981
-0.2976 -0.3471 -0.1431 0.9981
-0.2951 -0.3546 -0.1444 0.9981
-0.2925 -0.3621 -0.1457 0.9981
-0.2843 -0.3853 -0.1499 0.9980
-0.2814 -0.3934 -0.1514 0.9980
-0.2785 -0.4015 -0.1530 0.9980
-0.2754 -0.4098 -0.1545 0.9979
-0.2723 -0.4182 -0.1562 0.9979
-0.2690 -0.4266 -0.1579 0.9979
-0.2586 -0.4530 -0.1633 0.9978
-0.2471 -0.4805 -0.1691 0.9977
-0.2433 -0.4906 -0.1714 0.9977
-0.2355 -0.5121 -0.1764 0.9976
-0.2314 -0.5231 -0.1791 0.9976
-0.2271 -0.5345 -0.1818 0.9976
-0.2180 -0.5578 -0.1875 0.9975
-0.2225 -0.6522 -0.2157 0.9971
-0.9672 -2.9768 -0.9797 0.9870
-0.8798 -3.0038 -0.9797 0.9870
-0.8358 -3.0163 -0.9797 0.9870
-0.7917 -3.0282 -0.9797 0.9870
-0.7474 -3.0395 -0.9797 0.9870
-0.6135 -3.0693 -0.9797 0.9870
-0.5235 -3.0860 -0.9797 0.9870
-0.4783 -3.0933 -0.9797 0.9870
-0.4331 -3.0999 -0.9798 0.9870
-0.3878 -3.1059 -0.9798 0.9870
-0.2513 -3.1200 -0.9798 0.9870
-0.2057 -3.1233 -0.9798 0.9870
-0.1600 -3.1260 -0.9798 0.9870
-0.1143 -3.1279 -0.9798 0.9870
-0.0229 -3.1300 -0.9798 0.9870
0.0229 -3.1300 -0.9798 0.9870
0.2057 -3.1233 -0.9798 0.9870
0.2968 -3.1160 -0.9798 0.9870
0.3423 -3.1113 -0.9798 0.9870
0.4331 -3.1000 -0.9798 0.9870
0.4783 -3.0933 -0.9798 0.9870
0.5685 -3.0780 -0.9798 0.9870
0.6134 -3.0694 -0.9798 0.9870
0.7029 -3.0502 -0.9798 0.9870
0.7474 -3.0396 -0.9798 0.9870
0.8359 -3.0164 -0.9798 0.9870
0.8798 -3.0039 -0.9798 0.9870
1.0538 -2.9474 -0.9798 0.9870
1.1820 -2.8984 -0.9798 0.9870
1.3904 -2.8044 -0.9798 0.9870
1.4312 -2.7837 -0.9798 0.9870
1.5120 -2.7408 -0.9798 0.9870
1.5518 -2.7184 -0.9798 0.9870
1.5914 -2.6954 -0.9798 0.9870
1.7461 -2.5979 -0.9798 0.9870
1.7839 -2.5721 -0.9798 0.9870
1.8213 -2.5457 -0.9798 0.9870
1.8583 -2.5189 -0.9798 0.9870
1.8949 -2.4914 -0.9798 0.9870
1.9311 -2.4635 -0.9798 0.9870
1.9669 -2.4350 -0.9798 0.9870
2.0023 -2.4060 -0.9798 0.9870
2.1726 -2.2534 -0.9798 0.9870
2.2052 -2.2214 -0.9798 0.9870
2.2375 -2.1890 -0.9798 0.9870
2.2692 -2.1561 -0.9798 0.9870
2.3168 -2.1377 -0.9867 0.9869
2.3676 -2.1213 -0.9950 0.9868
2.4285 -2.0513 -0.9950 0.9868
2.5988 -1.8307 -0.9950 0.9868
2.6512 -1.7540 -0.9950 0.9868
2.6766 -1.7151 -0.9950 0.9868
2.7255 -1.6362 -0.9950 0.9868
2.7492 -1.5961 -0.9950 0.9868
2.7946 -1.5152 -0.9950 0.9868
2.8377 -1.4329 -0.9951 0.9868
2.8583 -1.3913 -0.9951 0.9868
2.9165 -1.2646 -0.9951 0.9868
2.9347 -1.2219 -0.9951 0.9868
2.9522 -1.1789 -0.9951 0.9868
3.0161 -1.0044 -0.9951 0.9868
3.0696 -0.8265 -0.9951 0.9868
3.0813 -0.7816 -0.9951 0.9868
3.1029 -0.6912 -0.9951 0.9868
3.1379 -0.5088 -0.9951 0.9868
3.1572 -0.3707 -0.9951 0.9868
3.1623 -0.3246 -0.9951 0.9868
3.1667 -0.2784 -0.9951 0.9868
3.1735 -0.1857 -0.9951 0.9868
3.1759 -0.1393 -0.9951 0.9868
3.1786 -0.0464 -0.9951 0.9868
3.1776 0.0929 -0.9951 0.9868
3.1759 0.1393 -0.9951 0.9868
3.1735 0.1857 -0.9951 0.9868
3.1705 0.2321 -0.9951 0.9868
3.1667 0.2784 -0.9951 0.9868
3.1623 0.3246 -0.9951 0.9868
3.1450 0.4628 -0.9951 0.9868
3.1379 0.5087 -0.9951 0.9868
3.1302 0.5545 -0.9951 0.9868
3.1218 0.6002 -0.9951 0.9868
3.1127 0.6458 -0.9951 0.9868
3.1029 0.6912 -0.9951 0.9868
3.0924 0.7365 -0.9951 0.9868
3.0572 0.8713 -0.9951 0.9868
3.0304 0.9602 -0.9951 0.9868
3.0011 1.0484 -0.9951 0.9868
2.9691 1.1356 -0.9951 0.9868
2.9347 1.2219 -0.9951 0.9868
2.9165 1.2646 -0.9951 0.9868
2.8978 1.3071 -0.9951 0.9868
2.8783 1.3493 -0.9951 0.9868
2.8165 1.4741 -0.9951 0.9868
2.7946 1.5152 -0.9950 0.9868
2.7721 1.5558 -0.9950 0.9868
2.7255 1.6361 -0.9950 0.9868
2.6766 1.7151 -0.9950 0.9868
2.5988 1.8307 -0.9950 0.9868
2.5161 1.9429 -0.9950 0.9868
2.4874 1.9794 -0.9950 0.9868
