ply
format ascii 1.0
element vertex 1596
property float32 x
property float32 y
property float32 z
property float32 I
end_header
2.7308 -2.8324 -0.8580 0.9840
2.1429 -2.0964 -0.6537 0.9878
2.1722 -2.0638 -0.6534 0.9878
2.2300 -1.9981 -0.6529 0.9878
2.2585 -1.9649 -0.6528 0.9878
2.2869 -1.9316 -0.6528 0.9878
2.2429 -1.7320 -0.6180 0.9885
2.4052 -1.5913 -0.6289 0.9883
2.5053 -1.5039 -0.6372 0.9881
3.3741 -1.9590 -0.8508 0.9842
3.4815 -1.9539 -0.8706 0.9838
3.9015 -1.8989 -0.9462 0.9824
3.9335 -1.7743 -0.9410 0.9825
4.0974 -1.5671 -0.9566 0.9822
4.3726 -1.3155 -0.9957 0.9815
4.4260 -1.1227 -0.9957 0.9815
4.4420 -1.0579 -0.9957 0.9815
4.4962 -0.7966 -0.9957 0.9815
4.5074 -0.7308 -0.9957 0.9815
4.5619 -0.2001 -0.9957 0.9815
4.5658 -0.0667 -0.9957 0.9815
4.5658 0.0667 -0.9957 0.9815
4.5541 0.3333 -0.9957 0.9815
4.5424 0.4663 -0.9957 0.9815
4.5268 0.5987 -0.9957 0.9815
4.5176 0.6648 -0.9957 0.9815
4.5074 0.7308 -0.9957 0.9815
4.4841 0.8622 -0.9957 0.9815
4.4710 0.9276 -0.9957 0.9815
4.4420 1.0579 -0.9957 0.9815
4.4092 1.1872 -0.9957 0.9815
4.3913 1.2515 -0.9957 0.9815
4.3726 1.3155 -0.9957 0.9815
4.3107 1.5059 -0.9957 0.9815
4.2882 1.5687 -0.9957 0.9815
4.2648 1.6312 -0.9957 0.9815
4.2405 1.6933 -0.9957 0.9815
4.1622 1.8775 -0.9957 0.9815
4.1343 1.9381 -0.9957 0.9815
4.0140 2.1762 -0.9957 0.9815
3.9486 2.2926 -0.9957 0.9815
3.9147 2.3500 -0.9957 0.9815
3.8800 2.4070 -0.9957 0.9815
3.8443 2.4634 -0.9957 0.9815
3.8079 2.5193 -0.9957 0.9815
3.7707 2.5746 -0.9956 0.9815
3.7327 2.6295 -0.9956 0.9815
3.6938 2.6837 -0.9956 0.9815
3.6138 2.7905 -0.9956 0.9815
3.5726 2.8430 -0.9956 0.9815
3.5307 2.8948 -0.9956 0.9815
3.4880 2.9461 -0.9956 0.9815
3.4004 3.0468 -0.9956 0.9815
3.3554 3.0961 -0.9956 0.9815
3.3099 3.1448 -0.9956 0.9815
3.2165 3.2401 -0.9956 0.9815
3.1688 3.2868 -0.9956 0.9815
3.0714 3.3779 -0.9956 0.9815
2.9713 3.4662 -0.9956 0.9815
2.9204 3.5092 -0.9955 0.9815
2.8687 3.5514 -0.9955 0.9815
2.8165 3.5930 -0.9955 0.9815
2.7103 3.6737 -0.9955 0.9815
2.6018 3.7513 -0.9955 0.9815
2.5467 3.7888 -0.9955 0.9815
2.4348 3.8616 -0.9955 0.9815
2.3781 3.8968 -0.9955 0.9815
2.2632 3.9645 -0.9955 0.9815
2.2050 3.9971 -0.9955 0.9815
2.0873 4.0598 -0.9954 0.9815
2.0277 4.0898 -0.9954 0.9815
1.9677 4.1190 -0.9954 0.9815
1.9073 4.1473 -0.9954 0.9815
1.8465 4.1746 -0.9954 0.9815
1.7853 4.2012 -0.9954 0.9815
1.6618 4.2515 -0.9954 0.9815
1.5995 4.2753 -0.9954 0.9815
1.4738 4.3201 -0.9954 0.9815
1.4105 4.3411 -0.9954 0.9815
1.1545 4.4160 -0.9953 0.9815
0.9598 4.4623 -0.9953 0.9815
0.8945 4.4757 -0.9953 0.9815
0.6975 4.5105 -0.9953 0.9815
0.5654 4.5289 -0.9953 0.9815
0.4992 4.5367 -0.9953 0.9815
0.4328 4.5434 -0.9952 0.9815
0.2999 4.5541 -0.9952 0.9815
0.2333 4.5579 -0.9952 0.9815
0.1667 4.5608 -0.9952 0.9815
-0.0334 4.5636 -0.9952 0.9815
-0.1000 4.5627 -0.9952 0.9815
-0.2333 4.5577 -0.9952 0.9815
-0.2999 4.5538 -0.9952 0.9815
-0.3663 4.5489 -0.9952 0.9815
-0.4362 3.9640 -0.8696 0.9838
-0.4683 3.7510 -0.8243 0.9846
-0.5113 3.6600 -0.8059 0.9850
-0.5678 3.6716 -0.8102 0.9849
-0.6826 3.6955 -0.8195 0.9847
-0.8944 4.4748 -0.9951 0.9815
-0.9596 4.4612 -0.9951 0.9815
-1.0247 4.4467 -0.9951 0.9815
-1.0896 4.4312 -0.9951 0.9815
-1.2186 4.3974 -0.9951 0.9815
-1.3465 4.3598 -0.9950 0.9815
-1.4100 4.3397 -0.9950 0.9815
-1.5362 4.2966 -0.9950 0.9815
-1.8457 4.1728 -0.9950 0.9815
-1.9064 4.1454 -0.9950 0.9815
-1.9668 4.1170 -0.9950 0.9815
-2.0862 4.0578 -0.9949 0.9815
-0.4093 0.7683 -0.1898 0.9964
-0.3582 0.6275 -0.1576 0.9970
-0.3422 0.5427 -0.1399 0.9974
-0.3445 0.5291 -0.1377 0.9974
-0.3489 0.5030 -0.1335 0.9975
-0.3509 0.4904 -0.1315 0.9975
-0.3579 0.4430 -0.1242 0.9977
-0.3594 0.4318 -0.1225 0.9977
-0.3624 0.4105 -0.1194 0.9978
-0.3665 0.3914 -0.1169 0.9978
-0.3684 0.3821 -0.1157 0.9978
-0.3704 0.3731 -0.1146 0.9979
-0.3722 0.3642 -0.1136 0.9979
-0.3749 0.3459 -0.1112 0.9979
-0.3760 0.3369 -0.1101 0.9979
-0.3771 0.3280 -0.1090 0.9980
-0.3781 0.3193 -0.1079 0.9980
-0.3829 0.2697 -0.1021 0.9981
-0.3846 0.2465 -0.0996 0.9981
-0.3852 0.2389 -0.0988 0.9981
-0.3857 0.2315 -0.0981 0.9982
-0.3861 0.2241 -0.0973 0.9982
-0.3871 0.2026 -0.0953 0.9982
-0.3874 0.1956 -0.0946 0.9982
-0.3878 0.1887 -0.0941 0.9982
-0.3885 0.1821 -0.0936 0.9982
-0.3890 0.1755 -0.0931 0.9983
-0.3907 0.1494 -0.0912 0.9983
-0.3910 0.1430 -0.0908 0.9983
-0.3920 0.1179 -0.0893 0.9983
-0.3925 0.0995 -0.0883 0.9983
-0.3925 0.0935 -0.0880 0.9983
-0.3926 0.0814 -0.0874 0.9984
-0.3926 0.0696 -0.0869 0.9984
-0.3925 0.0636 -0.0867 0.9984
-0.3924 0.0578 -0.0865 0.9984
-0.3923 0.0519 -0.0863 0.9984
-0.3922 0.0461 -0.0861 0.9984
-0.3920 0.0403 -0.0859 0.9984
-0.3918 0.0345 -0.0858 0.9984
-0.3910 0.0172 -0.0853 0.9984
-0.3832 -0.0000 -0.0880 0.9984
-0.3839 -0.0112 -0.0882 0.9984
-0.3849 -0.0338 -0.0887 0.9984
-0.3851 -0.0395 -0.0889 0.9984
-0.3854 -0.0567 -0.0895 0.9984
-0.3856 -0.0683 -0.0899 0.9984
-0.3855 -0.0741 -0.0902 0.9984
-0.3855 -0.0800 -0.0904 0.9984
-0.3853 -0.0977 -0.0913 0.9984
-0.3852 -0.1037 -0.0916 0.9984
-0.3850 -0.1097 -0.0920 0.9984
-0.3846 -0.1218 -0.0927 0.9983
-0.3841 -0.1341 -0.0934 0.9983
-0.3829 -0.1529 -0.0947 0.9983
-0.3825 -0.1593 -0.0952 0.9983
-0.3821 -0.1656 -0.0957 0.9983
-0.3810 -0.1786 -0.0967 0.9983
-0.3803 -0.1851 -0.0972 0.9983
-0.3792 -0.1985 -0.0983 0.9982
-0.3788 -0.2054 -0.0990 0.9982
-0.3780 -0.2195 -0.1004 0.9982
-0.3752 -0.2562 -0.1044 0.9981
-0.3745 -0.2638 -0.1052 0.9981
-0.3737 -0.2715 -0.1061 0.9981
-0.3730 -0.2794 -0.1070 0.9981
-0.3713 -0.2954 -0.1090 0.9981
-0.3683 -0.3204 -0.1121 0.9980
-0.3672 -0.3289 -0.1132 0.9980
-0.3660 -0.3377 -0.1144 0.9980
-0.3635 -0.3556 -0.1168 0.9979
-0.3615 -0.3642 -0.1179 0.9979
-0.3533 -0.4002 -0.1226 0.9978
-0.3512 -0.4096 -0.1239 0.9978
-0.3489 -0.4192 -0.1253 0.9978
-0.3454 -0.4405 -0.1286 0.9977
-0.3436 -0.4517 -0.1304 0.9977
-0.3376 -0.4867 -0.1361 0.9976
-0.3354 -0.4989 -0.1381 0.9975
-0.3280 -0.5375 -0.1446 0.9974
-0.3225 -0.5649 -0.1494 0.9973
-0.3335 -0.6046 -0.1586 0.9972
-1.8946 -3.8213 -0.9797 0.9826
-1.8386 -3.8486 -0.9797 0.9826
-1.7822 -3.8751 -0.9797 0.9826
-1.2308 -3.0181 -0.7487 0.9867
-0.8699 -2.3252 -0.5702 0.9899
-0.8362 -2.3388 -0.5705 0.9899
-0.6724 -2.4264 -0.5784 0.9897
-0.4426 -2.3962 -0.5597 0.9900
-0.3430 -2.2180 -0.5155 0.9908
-0.3135 -2.2435 -0.5203 0.9907
-0.2525 -2.2953 -0.5304 0.9906
-0.2196 -2.3049 -0.5318 0.9905
-0.1531 -2.3243 -0.5351 0.9905
-0.0516 -2.3543 -0.5409 0.9904
-0.0173 -2.3646 -0.5432 0.9903
0.0174 -2.3750 -0.5456 0.9903
0.0530 -2.4176 -0.5555 0.9901
0.0871 -2.3836 -0.5479 0.9903
0.1203 -2.3501 -0.5405 0.9904
0.1526 -2.3173 -0.5334 0.9905
0.1840 -2.2849 -0.5266 0.9906
0.2347 -2.4641 -0.5686 0.9899
0.3374 -2.4148 -0.5601 0.9900
0.7247 -4.2719 -0.9953 0.9824
0.8492 -4.2490 -0.9953 0.9824
0.9112 -4.2361 -0.9953 0.9824
0.9730 -4.2224 -0.9953 0.9824
1.0346 -4.2078 -0.9953 0.9824
1.0960 -4.1922 -0.9953 0.9824
1.1571 -4.1758 -0.9953 0.9824
1.3391 -4.1212 -0.9954 0.9824
1.5775 -4.0360 -0.9954 0.9824
1.6948 -3.9882 -0.9954 0.9824
1.7529 -3.9631 -0.9954 0.9824
1.8394 -3.8503 -0.9802 0.9826
1.8955 -3.8231 -0.9802 0.9826
1.9511 -3.7950 -0.9802 0.9826
2.0064 -3.7661 -0.9802 0.9826
2.1156 -3.7059 -0.9802 0.9826
2.2230 -3.6426 -0.9802 0.9826
2.3575 -3.5074 -0.9707 0.9828
2.4095 -3.4741 -0.9712 0.9828
2.1577 -3.0159 -0.8518 0.9849
2.2156 -3.0032 -0.8573 0.9848
2.2715 -2.9865 -0.8619 0.9847
2.3280 -2.9698 -0.8668 0.9846
2.4432 -2.9359 -0.8773 0.9844
2.5617 -2.9013 -0.8890 0.9842
2.7137 -2.8147 -0.8981 0.9841
2.7677 -2.7880 -0.9024 0.9840
2.6393 -2.5821 -0.8481 0.9850
2.1775 -1.9511 -0.6716 0.9881
2.2054 -1.9187 -0.6715 0.9881
2.2605 -1.8534 -0.6715 0.9881
2.2877 -1.8205 -0.6716 0.9881
2.2184 -1.6618 -0.6367 0.9887
2.5319 -1.6224 -0.6907 0.9877
3.5710 -2.0733 -0.9485 0.9832
3.4424 -1.8664 -0.8995 0.9841
3.5227 -1.8438 -0.9133 0.9838
3.8758 -1.8865 -0.9901 0.9825
3.9007 -1.7595 -0.9829 0.9826
4.0256 -1.6075 -0.9957 0.9824
4.0487 -1.5485 -0.9957 0.9824
4.1126 -1.3696 -0.9957 0.9824
4.1509 -1.2488 -0.9957 0.9824
4.1687 -1.1880 -0.9957 0.9824
4.2310 -0.9425 -0.9957 0.9824
4.2444 -0.8806 -0.9957 0.9824
4.2568 -0.8185 -0.9957 0.9824
4.2789 -0.6938 -0.9957 0.9824
4.3122 -0.4426 -0.9957 0.9824
4.3329 -0.1266 -0.9957 0.9824
4.3344 -0.0633 -0.9957 0.9824
4.3274 0.2532 -0.9957 0.9824
4.3232 0.3164 -0.9957 0.9824
4.3122 0.4426 -0.9957 0.9824
4.3052 0.5055 -0.9957 0.9824
4.2974 0.5684 -0.9957 0.9824
4.2886 0.6312 -0.9957 0.9824
4.2683 0.7562 -0.9957 0.9824
4.2568 0.8185 -0.9957 0.9824
4.2444 0.8806 -0.9957 0.9824
4.2310 0.9425 -0.9957 0.9824
4.2168 1.0042 -0.9957 0.9824
4.1857 1.1270 -0.9957 0.9824
4.1509 1.2488 -0.9957 0.9824
4.1323 1.3094 -0.9957 0.9824
4.1127 1.3696 -0.9957 0.9824
4.0922 1.4295 -0.9957 0.9824
3.9769 1.7244 -0.9957 0.9824
3.8403 2.0100 -0.9957 0.9824
3.7799 2.1214 -0.9956 0.9824
3.7485 2.1764 -0.9956 0.9824
3.6495 2.3386 -0.9956 0.9824
3.6149 2.3916 -0.9956 0.9824
3.5796 2.4442 -0.9956 0.9824
3.5434 2.4962 -0.9956 0.9824
3.4690 2.5986 -0.9956 0.9824
3.3915 2.6989 -0.9956 0.9824
3.3517 2.7482 -0.9956 0.9824
3.2280 2.8923 -0.9956 0.9824
3.1421 2.9854 -0.9956 0.9824
3.0981 3.0310 -0.9956 0.9824
3.0082 3.1202 -0.9956 0.9824
2.8207 3.2905 -0.9955 0.9824
2.7723 3.3313 -0.9955 0.9824
2.7233 3.3714 -0.9955 0.9824
2.6738 3.4109 -0.9955 0.9824
2.5730 3.4875 -0.9955 0.9824
2.4699 3.5611 -0.9955 0.9824
2.3648 3.6318 -0.9955 0.9824
2.3114 3.6659 -0.9955 0.9824
2.2033 3.7318 -0.9955 0.9824
2.1485 3.7636 -0.9955 0.9824
2.0933 3.7946 -0.9954 0.9824
2.0376 3.8247 -0.9954 0.9824
1.9815 3.8541 -0.9954 0.9824
1.9249 3.8826 -0.9954 0.9824
1.8680 3.9103 -0.9954 0.9824
1.8107 3.9371 -0.9954 0.9824
1.7530 3.9631 -0.9954 0.9824
1.6948 3.9883 -0.9954 0.9824
1.6364 4.0126 -0.9954 0.9824
1.5184 4.0586 -0.9954 0.9824
1.3991 4.1012 -0.9954 0.9824
1.3391 4.1212 -0.9954 0.9824
1.2786 4.1403 -0.9953 0.9824
1.2180 4.1585 -0.9953 0.9824
1.0960 4.1922 -0.9953 0.9824
0.9730 4.2225 -0.9953 0.9824
0.7870 4.2609 -0.9953 0.9824
0.6622 4.2821 -0.9953 0.9824
0.5995 4.2912 -0.9953 0.9824
0.4739 4.3068 -0.9953 0.9824
0.0950 4.3316 -0.9952 0.9824
-0.0316 4.3324 -0.9952 0.9824
-0.0950 4.3314 -0.9952 0.9824
-0.1582 4.3296 -0.9952 0.9824
-0.4109 4.3128 -0.9951 0.9824
-0.4357 3.9594 -0.9150 0.9838
-0.5163 3.6952 -0.8570 0.9848
-0.5733 3.7072 -0.8617 0.9847
-0.6310 3.7194 -0.8666 0.9846
-0.9110 4.2352 -0.9951 0.9824
-0.9728 4.2214 -0.9951 0.9824
-1.0344 4.2067 -0.9951 0.9824
-1.1568 4.1746 -0.9951 0.9824
-1.3386 4.1198 -0.9950 0.9824
-1.4584 4.0789 -0.9950 0.9824
-1.5769 4.0345 -0.9950 0.9824
-1.6357 4.0110 -0.9950 0.9824
-1.6942 3.9866 -0.9950 0.9824
-1.7522 3.9614 -0.9950 0.9824
-1.8099 3.9354 -0.9950 0.9824
-1.9241 3.8808 -0.9950 0.9824
-0.3335 0.6045 -0.1586 0.9972
-0.3280 0.5375 -0.1446 0.9974
-0.3353 0.4989 -0.1381 0.9975
-0.3489 0.4192 -0.1253 0.9978
-0.3511 0.4096 -0.1239 0.9978
-0.3575 0.3818 -0.1201 0.9979
-0.3615 0.3642 -0.1179 0.9979
-0.3634 0.3556 -0.1168 0.9979
-0.3648 0.3466 -0.1156 0.9979
-0.3660 0.3377 -0.1144 0.9980
-0.3683 0.3204 -0.1121 0.9980
-0.3693 0.3120 -0.1110 0.9980
-0.3713 0.2954 -0.1090 0.9981
-0.3722 0.2874 -0.1080 0.9981
-0.3730 0.2794 -0.1070 0.9981
-0.3745 0.2638 -0.1052 0.9981
-0.3752 0.2562 -0.1044 0.9981
-0.3780 0.2195 -0.1004 0.9982
-0.3784 0.2124 -0.0997 0.9982
-0.3789 0.2054 -0.0990 0.9982
-0.3792 0.1985 -0.0983 0.9982
-0.3810 0.1786 -0.0967 0.9983
-0.3837 0.1404 -0.0938 0.9983
-0.3843 0.1280 -0.0930 0.9983
-0.3846 0.1219 -0.0927 0.9983
-0.3850 0.1097 -0.0920 0.9984
-0.3854 0.0918 -0.0910 0.9984
-0.3855 0.0859 -0.0907 0.9984
-0.3856 0.0741 -0.0902 0.9984
-0.3855 0.0683 -0.0899 0.9984
-0.3852 0.0453 -0.0891 0.9984
-0.3849 0.0339 -0.0887 0.9984
-0.3844 0.0225 -0.0884 0.9984
-0.3842 0.0169 -0.0883 0.9984
-0.3838 0.0112 -0.0882 0.9984
-0.3835 0.0056 -0.0881 0.9984
-0.3765 0.0000 -0.0909 0.9985
-0.3769 -0.0055 -0.0910 0.9985
-0.3772 -0.0110 -0.0911 0.9984
-0.3777 -0.0221 -0.0913 0.9984
-0.3780 -0.0276 -0.0915 0.9984
-0.3782 -0.0332 -0.0916 0.9984
-0.3786 -0.0500 -0.0922 0.9984
-0.3787 -0.0728 -0.0931 0.9984
-0.3786 -0.0843 -0.0936 0.9984
-0.3782 -0.1018 -0.0946 0.9984
-0.3781 -0.1078 -0.0949 0.9984
-0.3776 -0.1196 -0.0956 0.9984
-0.3773 -0.1256 -0.0960 0.9984
-0.3770 -0.1317 -0.0964 0.9984
-0.3766 -0.1378 -0.0968 0.9984
-0.3762 -0.1439 -0.0972 0.9983
-0.3749 -0.1625 -0.0986 0.9983
-0.3744 -0.1688 -0.0991 0.9983
-0.3738 -0.1752 -0.0997 0.9983
-0.3723 -0.1880 -0.1007 0.9983
-0.3697 -0.2219 -0.1041 0.9982
-0.3692 -0.2290 -0.1049 0.9982
-0.3686 -0.2361 -0.1057 0.9982
-0.3679 -0.2434 -0.1065 0.9982
-0.3648 -0.2732 -0.1100 0.9981
-0.3630 -0.2889 -0.1120 0.9981
-0.3620 -0.2968 -0.1130 0.9981
-0.3609 -0.3049 -0.1141 0.9981
-0.3575 -0.3298 -0.1174 0.9980
-0.3562 -0.3384 -0.1186 0.9980
-0.3548 -0.3471 -0.1198 0.9980
-0.3490 -0.3727 -0.1233 0.9979
-0.3447 -0.3904 -0.1257 0.9979
-0.3401 -0.4087 -0.1284 0.9978
-0.3352 -0.4276 -0.1312 0.9978
-0.3291 -0.4600 -0.1365 0.9977
-0.3269 -0.4714 -0.1385 0.9976
-0.3246 -0.4830 -0.1405 0.9976
-0.3222 -0.4949 -0.1426 0.9976
-0.3197 -0.5070 -0.1447 0.9975
-0.3171 -0.5195 -0.1469 0.9975
-0.3143 -0.5323 -0.1492 0.9975
-0.3106 -0.5829 -0.1594 0.9973
-0.3237 -0.6296 -0.1709 0.9971
-1.6958 -3.6874 -0.9797 0.9834
-1.1745 -3.0050 -0.7788 0.9868
-1.1331 -3.0287 -0.7806 0.9868
-0.7981 -2.3393 -0.5967 0.9899
-0.7719 -2.3755 -0.6030 0.9898
-0.6216 -2.3775 -0.5932 0.9899
-0.5176 -2.4064 -0.5942 0.9899
-0.4829 -2.4163 -0.5948 0.9899
-0.4482 -2.4264 -0.5956 0.9899
-0.3866 -2.2790 -0.5580 0.9905
-0.3565 -2.3055 -0.5632 0.9904
-0.3259 -2.3329 -0.5686 0.9904
-0.1873 -2.3248 -0.5630 0.9904
-0.1200 -2.3446 -0.5667 0.9904
-0.0861 -2.3547 -0.5688 0.9904
-0.0174 -2.3753 -0.5734 0.9903
0.0173 -2.3737 -0.5730 0.9903
0.0513 -2.3412 -0.5653 0.9904
0.0844 -2.3093 -0.5578 0.9905
0.1166 -2.2778 -0.5506 0.9907
0.1480 -2.2468 -0.5436 0.9908
0.1939 -2.4079 -0.5832 0.9901
0.2616 -2.3771 -0.5773 0.9902
0.2948 -2.3615 -0.5745 0.9903
0.3277 -2.3457 -0.5718 0.9903
0.3925 -2.3138 -0.5665 0.9904
0.8671 -4.0308 -0.9953 0.9832
1.0429 -3.9890 -0.9953 0.9832
1.1011 -3.9734 -0.9953 0.9832
1.1980 -3.8793 -0.9801 0.9834
1.3109 -3.8427 -0.9801 0.9834
1.4781 -3.7816 -0.9801 0.9834
1.5332 -3.7596 -0.9801 0.9834
1.6424 -3.7132 -0.9801 0.9834
1.7502 -3.6638 -0.9802 0.9834
1.8036 -3.6379 -0.9802 0.9834
1.9092 -3.5836 -0.9802 0.9834
1.9613 -3.5554 -0.9802 0.9834
2.0131 -3.5263 -0.9802 0.9834
2.1153 -3.4661 -0.9802 0.9834
2.1657 -3.4348 -0.9802 0.9834
2.2157 -3.4028 -0.9802 0.9834
2.3142 -3.3366 -0.9802 0.9834
2.1375 -2.9877 -0.8868 0.9850
2.2015 -2.9841 -0.8952 0.9849
2.3982 -2.9689 -0.9213 0.9844
2.4566 -2.9519 -0.9271 0.9843
2.5576 -2.2916 -0.8290 0.9860
2.4760 -2.0914 -0.7824 0.9868
2.2083 -1.8106 -0.6893 0.9883
2.2348 -1.7784 -0.6895 0.9883
2.2612 -1.7461 -0.6897 0.9883
2.2874 -1.7135 -0.6899 0.9883
2.3134 -1.6808 -0.6903 0.9883
2.5249 -1.6179 -0.7239 0.9877
3.5540 -2.0634 -0.9920 0.9832
3.5288 -1.9805 -0.9768 0.9835
3.4652 -1.8787 -0.9515 0.9839
3.5469 -1.8565 -0.9664 0.9837
3.7597 -1.6959 -0.9956 0.9832
3.8304 -1.5295 -0.9957 0.9832
3.8735 -1.4170 -0.9957 0.9832
3.8938 -1.3602 -0.9957 0.9832
3.9319 -1.2459 -0.9957 0.9832
3.9827 -1.0724 -0.9957 0.9832
4.0260 -0.8968 -0.9957 0.9832
4.0614 -0.7195 -0.9957 0.9832
4.0715 -0.6601 -0.9957 0.9832
4.0807 -0.6005 -0.9957 0.9832
4.0890 -0.5409 -0.9957 0.9832
4.1088 -0.3611 -0.9957 0.9832
4.1137 -0.3011 -0.9957 0.9832
4.1176 -0.2409 -0.9957 0.9832
4.1229 -0.1205 -0.9957 0.9832
4.1247 0.0000 -0.9957 0.9832
4.1176 0.2409 -0.9957 0.9832
4.1137 0.3011 -0.9957 0.9832
4.1031 0.4212 -0.9957 0.9832
4.0965 0.4811 -0.9957 0.9832
4.0807 0.6006 -0.9957 0.9832
4.0715 0.6601 -0.9957 0.9832
4.0504 0.7788 -0.9957 0.9832
4.0259 0.8968 -0.9957 0.9832
3.9828 1.0724 -0.9957 0.9832
3.9666 1.1305 -0.9957 0.9832
3.8735 1.4170 -0.9957 0.9832
3.8524 1.4734 -0.9957 0.9832
3.8304 1.5296 -0.9957 0.9832
3.8077 1.5854 -0.9957 0.9832
3.7841 1.6408 -0.9956 0.9832
3.7085 1.8051 -0.9956 0.9832
3.5668 2.0709 -0.9956 0.9832
3.5362 2.1228 -0.9956 0.9832
3.4397 2.2757 -0.9956 0.9832
3.3008 2.4727 -0.9956 0.9832
3.2643 2.5207 -0.9956 0.9832
3.1507 2.6612 -0.9956 0.9832
3.0716 2.7521 -0.9956 0.9832
3.0310 2.7967 -0.9956 0.9832
2.9898 2.8407 -0.9956 0.9832
2.9480 2.8841 -0.9955 0.9832
2.9055 2.9268 -0.9955 0.9832
2.8187 3.0104 -0.9955 0.9832
2.7295 3.0914 -0.9955 0.9832
2.6380 3.1699 -0.9955 0.9832
2.5914 3.2080 -0.9955 0.9832
2.4965 3.2824 -0.9955 0.9832
2.4483 3.3185 -0.9955 0.9832
2.3502 3.3886 -0.9955 0.9832
2.1482 3.5200 -0.9955 0.9832
2.0444 3.5812 -0.9954 0.9832
1.8317 3.6944 -0.9954 0.9832
1.7775 3.7207 -0.9954 0.9832
1.6680 3.7711 -0.9954 0.9832
1.6127 3.7950 -0.9954 0.9832
1.5571 3.8181 -0.9954 0.9832
1.3882 3.8826 -0.9954 0.9832
1.2742 3.9215 -0.9953 0.9832
1.2167 3.9396 -0.9953 0.9832
1.1011 3.9735 -0.9953 0.9832
0.9845 4.0039 -0.9953 0.9832
0.9258 4.0178 -0.9953 0.9832
0.7489 4.0545 -0.9953 0.9832
0.6301 4.0745 -0.9953 0.9832
0.5705 4.0833 -0.9953 0.9832
0.5107 4.0912 -0.9953 0.9832
0.4509 4.0981 -0.9953 0.9832
0.3310 4.1095 -0.9952 0.9832
0.2709 4.1139 -0.9952 0.9832
0.2108 4.1174 -0.9952 0.9832
0.0903 4.1217 -0.9952 0.9832
0.0301 4.1225 -0.9952 0.9832
-0.0301 4.1225 -0.9952 0.9832
-0.0904 4.1216 -0.9952 0.9832
-0.1506 4.1198 -0.9952 0.9832
-0.2709 4.1136 -0.9952 0.9832
-0.4684 3.7521 -0.9128 0.9846
-0.5861 3.7901 -0.9258 0.9843
-0.8079 4.0423 -0.9951 0.9832
-0.9843 4.0029 -0.9951 0.9832
-1.1008 3.9724 -0.9951 0.9832
-1.2164 3.9385 -0.9951 0.9832
-1.2738 3.9202 -0.9950 0.9832
-1.4443 3.8606 -0.9950 0.9832
-1.5005 3.8391 -0.9950 0.9832
-1.6121 3.7935 -0.9950 0.9832
-0.3237 0.6296 -0.1709 0.9971
-0.3105 0.5829 -0.1594 0.9973
-0.3114 0.5454 -0.1516 0.9974
-0.3143 0.5323 -0.1492 0.9975
-0.3222 0.4949 -0.1426 0.9976
-0.3291 0.4600 -0.1365 0.9977
-0.3352 0.4276 -0.1312 0.9978
-0.3377 0.4181 -0.1297 0.9978
-0.3401 0.4087 -0.1284 0.9978
-0.3425 0.3995 -0.1270 0.9978
-0.3446 0.3904 -0.1257 0.9979
-0.3468 0.3814 -0.1244 0.9979
-0.3531 0.3557 -0.1210 0.9979
-0.3548 0.3471 -0.1198 0.9980
-0.3562 0.3384 -0.1186 0.9980
-0.3574 0.3298 -0.1174 0.9980
-0.3587 0.3214 -0.1163 0.9980
-0.3609 0.3049 -0.1141 0.9981
-0.3620 0.2968 -0.1130 0.9981
-0.3639 0.2811 -0.1110 0.9981
-0.3664 0.2582 -0.1082 0.9982
-0.3679 0.2434 -0.1065 0.9982
-0.3685 0.2362 -0.1057 0.9982
-0.3697 0.2220 -0.1041 0.9982
-0.3702 0.2150 -0.1033 0.9982
-0.3712 0.2012 -0.1019 0.9983
-0.3722 0.1880 -0.1007 0.9983
-0.3730 0.1816 -0.1002 0.9983
-0.3738 0.1752 -0.0997 0.9983
-0.3749 0.1626 -0.0986 0.9983
-0.3753 0.1563 -0.0982 0.9983
-0.3773 0.1257 -0.0960 0.9984
-0.3781 0.1077 -0.0949 0.9984
-0.3783 0.1018 -0.0946 0.9984
-0.3784 0.0960 -0.0942 0.9984
-0.3785 0.0902 -0.0939 0.9984
-0.3787 0.0786 -0.0934 0.9984
-0.3787 0.0729 -0.0931 0.9984
-0.3787 0.0614 -0.0926 0.9984
-0.3787 0.0557 -0.0924 0.9984
-0.3786 0.0501 -0.0922 0.9984
-0.3783 0.0388 -0.0918 0.9984
-0.3772 0.0111 -0.0911 0.9984
-0.3769 0.0055 -0.0910 0.9985
-0.3704 -0.0054 -0.0938 0.9985
-0.3707 -0.0109 -0.0939 0.9985
-0.3710 -0.0163 -0.0940 0.9985
-0.3712 -0.0217 -0.0941 0.9985
-0.3716 -0.0326 -0.0944 0.9985
-0.3718 -0.0382 -0.0946 0.9985
-0.3719 -0.0436 -0.0948 0.9985
-0.3720 -0.0492 -0.0950 0.9985
-0.3721 -0.0603 -0.0954 0.9984
-0.3721 -0.0715 -0.0959 0.9984
-0.3715 -0.1000 -0.0974 0.9984
-0.3713 -0.1058 -0.0977 0.9984
-0.3710 -0.1116 -0.0981 0.9984
-0.3708 -0.1175 -0.0985 0.9984
-0.3705 -0.1234 -0.0989 0.9984
-0.3698 -0.1352 -0.0997 0.9984
-0.3694 -0.1412 -0.1001 0.9984
-0.3679 -0.1595 -0.1015 0.9983
-0.3674 -0.1657 -0.1020 0.9983
-0.3668 -0.1719 -0.1026 0.9983
-0.3652 -0.1844 -0.1036 0.9983
-0.3633 -0.2039 -0.1055 0.9983
-0.3628 -0.2106 -0.1062 0.9983
-0.3622 -0.2174 -0.1069 0.9983
-0.3609 -0.2312 -0.1085 0.9982
-0.3602 -0.2383 -0.1093 0.9982
-0.3595 -0.2454 -0.1102 0.9982
-0.3579 -0.2600 -0.1120 0.9982
-0.3550 -0.2825 -0.1149 0.9981
-0.3529 -0.2980 -0.1169 0.9981
-0.3517 -0.3060 -0.1180 0.9981
-0.3505 -0.3141 -0.1191 0.9981
-0.3364 -0.3810 -0.1287 0.9979
-0.3318 -0.3986 -0.1313 0.9979
-0.3293 -0.4077 -0.1327 0.9978
-0.3268 -0.4169 -0.1341 0.9978
-0.3215 -0.4357 -0.1371 0.9978
-0.3169 -0.4569 -0.1408 0.9977
-0.3145 -0.4679 -0.1427 0.9977
-0.3121 -0.4793 -0.1448 0.9976
-0.3039 -0.5147 -0.1513 0.9975
-0.3009 -0.5271 -0.1537 0.9975
-0.2978 -0.5398 -0.1561 0.9975
-0.2945 -0.5529 -0.1586 0.9974
-0.3267 -0.7103 -0.1979 0.9968
-0.3430 -0.7755 -0.2147 0.9965
-1.5137 -3.5619 -0.9798 0.9842
-1.2010 -2.9450 -0.8051 0.9870
-0.9409 -2.6316 -0.7075 0.9885
-0.7861 -2.3043 -0.6164 0.9900
-0.7336 -2.3754 -0.6294 0.9898
-0.5780 -2.3507 -0.6128 0.9901
-0.5190 -2.4129 -0.6248 0.9899
-0.4884 -2.4436 -0.6308 0.9898
-0.4539 -2.4575 -0.6327 0.9897
-0.3645 -2.3568 -0.6037 0.9902
-0.2486 -2.2592 -0.5754 0.9907
-0.1881 -2.3352 -0.5931 0.9904
-0.1205 -2.3552 -0.5970 0.9903
-0.0518 -2.3623 -0.5982 0.9903
0.0498 -2.2691 -0.5746 0.9907
0.1131 -2.2095 -0.5601 0.9909
0.1884 -2.3393 -0.5941 0.9904
0.2215 -2.3247 -0.5912 0.9904
0.2542 -2.3101 -0.5883 0.9905
0.3503 -2.2650 -0.5802 0.9906
0.3816 -2.2497 -0.5777 0.9906
0.7587 -3.7962 -0.9800 0.9842
0.8141 -3.7847 -0.9800 0.9842
0.8693 -3.7725 -0.9801 0.9842
0.9244 -3.7594 -0.9801 0.9842
0.9792 -3.7455 -0.9801 0.9842
1.0882 -3.7154 -0.9801 0.9842
1.1424 -3.6991 -0.9801 0.9842
1.2500 -3.6642 -0.9801 0.9842
1.5142 -3.5632 -0.9801 0.9842
1.5661 -3.5408 -0.9801 0.9842
1.8205 -3.4171 -0.9802 0.9842
1.9195 -3.3625 -0.9802 0.9842
1.9685 -3.3341 -0.9802 0.9842
2.0651 -3.2752 -0.9802 0.9842
2.1127 -3.2447 -0.9802 0.9842
2.2530 -3.1491 -0.9802 0.9842
2.3168 -2.9554 -0.9507 0.9846
2.4113 -2.9852 -0.9715 0.9843
2.5628 -2.9027 -0.9803 0.9841
2.6466 -2.8265 -0.9803 0.9841
2.6307 -2.7286 -0.9595 0.9845
2.5646 -2.5090 -0.9083 0.9853
2.5335 -2.4071 -0.8847 0.9857
2.5036 -2.3100 -0.8624 0.9860
2.6169 -2.0825 -0.8466 0.9863
2.4223 -1.7063 -0.7501 0.9878
2.5350 -1.6771 -0.7695 0.9875
2.5179 -1.6134 -0.7571 0.9877
2.5013 -1.5517 -0.7452 0.9879
3.3718 -2.0241 -0.9956 0.9839
3.4296 -1.9247 -0.9956 0.9839
3.4843 -1.8237 -0.9956 0.9839
3.5362 -1.7212 -0.9956 0.9839
3.5610 -1.6693 -0.9956 0.9839
3.5850 -1.6171 -0.9956 0.9839
3.6082 -1.5645 -0.9956 0.9839
3.6734 -1.4049 -0.9956 0.9839
3.6935 -1.3511 -0.9956 0.9839
3.7661 -1.1331 -0.9956 0.9839
3.7823 -1.0779 -0.9956 0.9839
3.7977 -1.0225 -0.9956 0.9839
3.8122 -0.9670 -0.9957 0.9839
3.8388 -0.8552 -0.9957 0.9839
3.8509 -0.7990 -0.9957 0.9839
3.8622 -0.7426 -0.9957 0.9839
3.8727 -0.6861 -0.9957 0.9839
3.8991 -0.5157 -0.9957 0.9839
3.9124 -0.4015 -0.9957 0.9839
3.9179 -0.3443 -0.9957 0.9839
3.9225 -0.2871 -0.9957 0.9839
3.9292 -0.1723 -0.9957 0.9839
3.9292 0.1724 -0.9957 0.9839
3.9179 0.3444 -0.9957 0.9839
3.9125 0.4016 -0.9957 0.9839
3.8911 0.5727 -0.9957 0.9839
3.8823 0.6295 -0.9957 0.9839
3.8726 0.6861 -0.9957 0.9839
3.7823 1.0779 -0.9956 0.9839
3.7662 1.1331 -0.9956 0.9839
3.7492 1.1880 -0.9956 0.9839
3.7129 1.2970 -0.9956 0.9839
3.6935 1.3511 -0.9956 0.9839
3.6734 1.4050 -0.9956 0.9839
3.6307 1.5117 -0.9956 0.9839
3.5362 1.7212 -0.9956 0.9839
3.4844 1.8237 -0.9956 0.9839
3.4295 1.9248 -0.9956 0.9839
3.4011 1.9747 -0.9956 0.9839
3.3419 2.0732 -0.9956 0.9839
3.3112 2.1218 -0.9956 0.9839
3.2799 2.1699 -0.9956 0.9839
3.2478 2.2177 -0.9956 0.9839
3.2150 2.2649 -0.9956 0.9839
3.1475 2.3578 -0.9956 0.9839
3.1126 2.4035 -0.9956 0.9839
3.0411 2.4934 -0.9956 0.9839
3.0043 2.5376 -0.9956 0.9839
2.9288 2.6243 -0.9955 0.9839
2.8901 2.6668 -0.9955 0.9839
2.7294 2.8310 -0.9955 0.9839
2.6877 2.8705 -0.9955 0.9839
2.6027 2.9479 -0.9955 0.9839
2.5593 2.9855 -0.9955 0.9839
2.4709 3.0590 -0.9955 0.9839
2.2880 3.1981 -0.9955 0.9839
2.0972 3.3262 -0.9954 0.9839
1.9991 3.3860 -0.9954 0.9839
1.9494 3.4148 -0.9954 0.9839
1.8993 3.4429 -0.9954 0.9839
1.7979 3.4969 -0.9954 0.9839
1.7466 3.5228 -0.9954 0.9839
1.6949 3.5479 -0.9954 0.9839
1.6428 3.5722 -0.9954 0.9839
1.5905 3.5958 -0.9954 0.9839
1.5378 3.6187 -0.9954 0.9839
1.4847 3.6407 -0.9954 0.9839
1.3777 3.6825 -0.9954 0.9839
1.3237 3.7023 -0.9954 0.9839
1.2695 3.7212 -0.9953 0.9839
1.2150 3.7393 -0.9953 0.9839
1.1602 3.7566 -0.9953 0.9839
1.1052 3.7732 -0.9953 0.9839
0.9944 3.8038 -0.9953 0.9839
0.9387 3.8179 -0.9953 0.9839
0.8828 3.8312 -0.9953 0.9839
0.7141 3.8661 -0.9953 0.9839
0.6575 3.8761 -0.9953 0.9839
0.6008 3.8853 -0.9953 0.9839
0.5440 3.8936 -0.9953 0.9839
0.0861 3.9302 -0.9952 0.9839
0.0287 3.9311 -0.9952 0.9839
-0.2583 3.9225 -0.9952 0.9839
-0.4870 3.9007 -0.9951 0.9839
-0.5439 3.8931 -0.9951 0.9839
-0.8266 3.8429 -0.9951 0.9839
-0.8827 3.8303 -0.9951 0.9839
-1.1049 3.7721 -0.9951 0.9839
-1.2146 3.7382 -0.9951 0.9839
-1.3233 3.7011 -0.9950 0.9839
-1.3772 3.6813 -0.9950 0.9839
-0.3267 0.7103 -0.1979 0.9968
-0.3125 0.6541 -0.1835 0.9970
-0.3001 0.6054 -0.1710 0.9972
-0.3009 0.5271 -0.1537 0.9975
-0.3039 0.5147 -0.1513 0.9975
-0.3067 0.5026 -0.1491 0.9976
-0.3095 0.4908 -0.1469 0.9976
-0.3121 0.4792 -0.1448 0.9976
-0.3145 0.4679 -0.1427 0.9977
-0.3169 0.4569 -0.1408 0.9977
-0.3192 0.4461 -0.1389 0.9977
-0.3317 0.3986 -0.1313 0.9979
-0.3341 0.3897 -0.1300 0.9979
-0.3364 0.3810 -0.1287 0.9979
-0.3450 0.3475 -0.1240 0.9980
-0.3493 0.3222 -0.1203 0.9980
-0.3506 0.3141 -0.1191 0.9981
-0.3517 0.3060 -0.1180 0.9981
-0.3560 0.2749 -0.1139 0.9981
-0.3569 0.2674 -0.1129 0.9982
-0.3595 0.2454 -0.1102 0.9982
-0.3609 0.2312 -0.1085 0.9982
-0.3633 0.2039 -0.1055 0.9983
-0.3643 0.1907 -0.1041 0.9983
-0.3652 0.1844 -0.1036 0.9983
-0.3668 0.1720 -0.1026 0.9983
-0.3674 0.1657 -0.1020 0.9983
-0.3689 0.1473 -0.1006 0.9984
-0.3694 0.1412 -0.1001 0.9984
-0.3705 0.1234 -0.0989 0.9984
-0.3708 0.1175 -0.0985 0.9984
-0.3711 0.1116 -0.0981 0.9984
-0.3717 0.0943 -0.0971 0.9984
-0.3718 0.0886 -0.0968 0.9984
-0.3719 0.0829 -0.0965 0.9984
-0.3720 0.0772 -0.0962 0.9984
-0.3721 0.0715 -0.0959 0.9984
-0.3721 0.0659 -0.0957 0.9984
-0.3721 0.0548 -0.0952 0.9984
-0.3720 0.0492 -0.0950 0.9985
-0.3718 0.0382 -0.0946 0.9985
-0.3714 0.0272 -0.0943 0.9985
-0.3712 0.0217 -0.0941 0.9985
-0.3707 0.0108 -0.0939 0.9985
-0.3704 0.0054 -0.0938 0.9985
-0.3647 -0.0160 -0.0967 0.9985
-0.3649 -0.0213 -0.0969 0.9985
-0.3651 -0.0267 -0.0970 0.9985
-0.3653 -0.0321 -0.0972 0.9985
-0.3654 -0.0375 -0.0973 0.9985
-0.3655 -0.0429 -0.0975 0.9985
-0.3657 -0.0538 -0.0979 0.9985
-0.3657 -0.0593 -0.0982 0.9985
-0.3656 -0.0758 -0.0989 0.9985
-0.3655 -0.0814 -0.0992 0.9985
-0.3645 -0.1096 -0.1009 0.9984
-0.3642 -0.1154 -0.1012 0.9984
-0.3639 -0.1212 -0.1016 0.9984
-0.3635 -0.1270 -0.1020 0.9984
-0.3631 -0.1328 -0.1025 0.9984
-0.3612 -0.1566 -0.1043 0.9984
-0.3606 -0.1627 -0.1048 0.9984
-0.3600 -0.1688 -0.1054 0.9984
-0.3592 -0.1748 -0.1059 0.9983
-0.3566 -0.1933 -0.1075 0.9983
-0.3561 -0.1998 -0.1082 0.9983
-0.3549 -0.2130 -0.1097 0.9983
-0.3536 -0.2266 -0.1113 0.9983
-0.3528 -0.2334 -0.1121 0.9983
-0.3512 -0.2474 -0.1138 0.9982
-0.3494 -0.2618 -0.1157 0.9982
-0.3463 -0.2839 -0.1187 0.9981
-0.3400 -0.3230 -0.1243 0.9981
-0.3386 -0.3312 -0.1255 0.9980
-0.3370 -0.3395 -0.1268 0.9980
-0.3352 -0.3476 -0.1280 0.9980
-0.3285 -0.3721 -0.1315 0.9979
-0.3237 -0.3890 -0.1341 0.9979
-0.3213 -0.3977 -0.1355 0.9979
-0.3188 -0.4066 -0.1369 0.9979
-0.3161 -0.4156 -0.1384 0.9978
-0.3134 -0.4247 -0.1399 0.9978
-0.3076 -0.4435 -0.1430 0.9978
-0.3050 -0.4537 -0.1449 0.9977
-0.3025 -0.4645 -0.1469 0.9977
-0.2970 -0.4867 -0.1511 0.9976
-0.2911 -0.5100 -0.1556 0.9976
-0.2880 -0.5220 -0.1580 0.9975
-0.2847 -0.5343 -0.1604 0.9975
-0.2775 -0.5598 -0.1656 0.9974
-0.2783 -0.5826 -0.1711 0.9973
-0.2884 -0.6272 -0.1829 0.9971
-1.3963 -3.4238 -0.9798 0.9848
-1.1139 -2.8498 -0.8108 0.9874
-1.0725 -2.8667 -0.8110 0.9874
-0.8163 -2.3928 -0.6699 0.9896
-0.7205 -2.3330 -0.6470 0.9899
-0.6897 -2.3546 -0.6502 0.9899
-0.5237 -2.4348 -0.6599 0.9897
-0.4955 -2.4792 -0.6699 0.9896
-0.4569 -2.4736 -0.6666 0.9896
-0.3089 -2.2108 -0.5915 0.9908
-0.2937 -2.3527 -0.6283 0.9902
-0.2405 -2.1858 -0.5827 0.9909
-0.2175 -2.2832 -0.6078 0.9906
-0.1564 -1.9420 -0.5163 0.9920
-0.0847 -2.3186 -0.6148 0.9904
0.0163 -2.2297 -0.5909 0.9908
0.0817 -2.2355 -0.5928 0.9908
0.1132 -2.2126 -0.5871 0.9909
0.1832 -2.2742 -0.6046 0.9906
0.2471 -2.2463 -0.5988 0.9907
0.2787 -2.2321 -0.5961 0.9907
0.3099 -2.2178 -0.5934 0.9908
0.6186 -3.6464 -0.9800 0.9848
0.6718 -3.6370 -0.9800 0.9848
0.8305 -3.6041 -0.9801 0.9848
0.9355 -3.5784 -0.9801 0.9848
0.9877 -3.5643 -0.9801 0.9848
1.0397 -3.5495 -0.9801 0.9848
1.1430 -3.5177 -0.9801 0.9848
1.3967 -3.4250 -0.9801 0.9848
1.4466 -3.4042 -0.9801 0.9848
1.5944 -3.3376 -0.9801 0.9848
1.6913 -3.2896 -0.9802 0.9848
1.7867 -3.2389 -0.9802 0.9848
1.9270 -3.1575 -0.9802 0.9848
1.9729 -3.1290 -0.9802 0.9848
2.0636 -3.0701 -0.9802 0.9848
2.1524 -3.0084 -0.9802 0.9848
2.2394 -2.9443 -0.9802 0.9848
2.2822 -2.9113 -0.9802 0.9848
2.3245 -2.8777 -0.9802 0.9848
2.3663 -2.8434 -0.9802 0.9848
2.4484 -2.7731 -0.9802 0.9848
2.5364 -2.6308 -0.9684 0.9850
2.5064 -2.5247 -0.9427 0.9854
2.4496 -2.3274 -0.8954 0.9861
2.4227 -2.2354 -0.8735 0.9865
2.4351 -2.1185 -0.8553 0.9867
2.6857 -2.2686 -0.9316 0.9856
2.5167 -2.0635 -0.8624 0.9866
2.6035 -2.0718 -0.8817 0.9863
2.4113 -1.6986 -0.7816 0.9879
2.5453 -1.7379 -0.8167 0.9873
2.5278 -1.6724 -0.8031 0.9875
2.5108 -1.6089 -0.7902 0.9877
3.2213 -1.9337 -0.9956 0.9846
3.2492 -1.8865 -0.9956 0.9846
3.3030 -1.7907 -0.9956 0.9846
3.3539 -1.6935 -0.9956 0.9846
3.3783 -1.6443 -0.9956 0.9846
3.4249 -1.5449 -0.9956 0.9846
3.4686 -1.4442 -0.9956 0.9846
3.4894 -1.3934 -0.9956 0.9846
3.5094 -1.3422 -0.9956 0.9846
3.5286 -1.2908 -0.9956 0.9846
3.5471 -1.2391 -0.9956 0.9846
3.6281 -0.9769 -0.9956 0.9846
3.6420 -0.9237 -0.9956 0.9846
3.6551 -0.8704 -0.9956 0.9846
3.6675 -0.8170 -0.9956 0.9846
3.6790 -0.7633 -0.9956 0.9846
3.6998 -0.6555 -0.9956 0.9846
3.7430 -0.3290 -0.9956 0.9846
3.7510 -0.2195 -0.9956 0.9846
3.7538 -0.1646 -0.9956 0.9846
3.7558 -0.1098 -0.9956 0.9846
3.7574 0.0000 -0.9956 0.9846
3.7570 0.0549 -0.9956 0.9846
3.7538 0.1647 -0.9956 0.9846
3.7474 0.2743 -0.9956 0.9846
3.7430 0.3290 -0.9956 0.9846
3.7317 0.4382 -0.9956 0.9846
3.7249 0.4927 -0.9956 0.9846
3.7173 0.5471 -0.9956 0.9846
3.7089 0.6013 -0.9956 0.9846
3.6998 0.6555 -0.9956 0.9846
3.6898 0.7095 -0.9956 0.9846
3.6135 1.0298 -0.9956 0.9846
3.5980 1.0825 -0.9956 0.9846
3.5648 1.1871 -0.9956 0.9846
3.5286 1.2908 -0.9956 0.9846
3.5094 1.3422 -0.9956 0.9846
3.4472 1.4947 -0.9956 0.9846
3.4249 1.5449 -0.9956 0.9846
3.3783 1.6443 -0.9956 0.9846
3.3539 1.6936 -0.9956 0.9846
3.3288 1.7423 -0.9956 0.9846
3.2764 1.8388 -0.9956 0.9846
3.2492 1.8865 -0.9956 0.9846
3.1926 1.9806 -0.9956 0.9846
3.1634 2.0271 -0.9956 0.9846
3.0396 2.2084 -0.9956 0.9846
3.0069 2.2525 -0.9956 0.9846
2.9737 2.2962 -0.9956 0.9846
2.9398 2.3394 -0.9955 0.9846
2.9053 2.3821 -0.9955 0.9846
2.8702 2.4243 -0.9955 0.9846
2.8344 2.4659 -0.9955 0.9846
2.7612 2.5477 -0.9955 0.9846
2.6468 2.6662 -0.9955 0.9846
2.5677 2.7424 -0.9955 0.9846
2.5274 2.7796 -0.9955 0.9846
2.4865 2.8162 -0.9955 0.9846
2.3607 2.9225 -0.9955 0.9846
2.2303 3.0230 -0.9955 0.9846
2.0036 3.1777 -0.9954 0.9846
1.9569 3.2066 -0.9954 0.9846
1.7662 3.3154 -0.9954 0.9846
1.6686 3.3655 -0.9954 0.9846
1.5696 3.4128 -0.9954 0.9846
1.3675 3.4986 -0.9954 0.9846
1.1607 3.5724 -0.9953 0.9846
1.1084 3.5889 -0.9953 0.9846
1.0558 3.6048 -0.9953 0.9846
0.7899 3.6721 -0.9953 0.9846
0.7361 3.6832 -0.9953 0.9846
0.6822 3.6936 -0.9953 0.9846
0.5740 3.7119 -0.9953 0.9846
0.4653 3.7270 -0.9953 0.9846
0.3562 3.7390 -0.9952 0.9846
0.1372 3.7533 -0.9952 0.9846
0.0823 3.7548 -0.9952 0.9846
0.0274 3.7556 -0.9952 0.9846
-0.0275 3.7556 -0.9952 0.9846
-0.1920 3.7507 -0.9952 0.9846
-0.2467 3.7475 -0.9952 0.9846
-0.3015 3.7435 -0.9952 0.9846
-0.3562 3.7386 -0.9952 0.9846
-0.5197 3.7193 -0.9951 0.9846
-0.6281 3.7025 -0.9951 0.9846
-0.7360 3.6826 -0.9951 0.9846
-0.7898 3.6714 -0.9951 0.9846
-0.8433 3.6594 -0.9951 0.9846
-0.8967 3.6467 -0.9951 0.9846
-1.1081 3.5880 -0.9951 0.9846
-1.2643 3.5359 -0.9950 0.9846
-0.2999 0.6779 -0.1964 0.9969
-0.2884 0.6271 -0.1829 0.9971
-0.2783 0.5825 -0.1711 0.9973
-0.2879 0.5220 -0.1580 0.9975
-0.2970 0.4867 -0.1511 0.9976
-0.2998 0.4755 -0.1489 0.9977
-0.3076 0.4436 -0.1430 0.9978
-0.3105 0.4341 -0.1414 0.9978
-0.3134 0.4247 -0.1399 0.9978
-0.3161 0.4156 -0.1384 0.9978
-0.3261 0.3804 -0.1328 0.9979
-0.3285 0.3721 -0.1315 0.9979
-0.3308 0.3638 -0.1303 0.9980
-0.3330 0.3557 -0.1291 0.9980
-0.3352 0.3476 -0.1280 0.9980
-0.3386 0.3312 -0.1255 0.9980
-0.3400 0.3230 -0.1243 0.9981
-0.3414 0.3150 -0.1231 0.9981
-0.3439 0.2993 -0.1208 0.9981
-0.3463 0.2839 -0.1187 0.9981
-0.3474 0.2764 -0.1176 0.9982
-0.3494 0.2618 -0.1157 0.9982
-0.3503 0.2545 -0.1147 0.9982
-0.3512 0.2474 -0.1138 0.9982
-0.3528 0.2334 -0.1121 0.9983
-0.3543 0.2198 -0.1105 0.9983
-0.3555 0.2064 -0.1089 0.9983
-0.3561 0.1998 -0.1082 0.9983
-0.3566 0.1933 -0.1075 0.9983
-0.3583 0.1809 -0.1064 0.9983
-0.3607 0.1627 -0.1048 0.9984
-0.3612 0.1566 -0.1043 0.9984
-0.3622 0.1446 -0.1034 0.9984
-0.3627 0.1387 -0.1029 0.9984
-0.3631 0.1329 -0.1025 0.9984
-0.3642 0.1154 -0.1012 0.9984
-0.3648 0.1039 -0.1005 0.9984
-0.3652 0.0926 -0.0998 0.9984
-0.3653 0.0870 -0.0995 0.9984
-0.3656 0.0759 -0.0989 0.9985
-0.3657 0.0593 -0.0982 0.9985
-0.3656 0.0484 -0.0977 0.9985
-0.3653 0.0321 -0.0972 0.9985
-0.3644 0.0107 -0.0966 0.9985
-0.3583 -0.0105 -0.0993 0.9985
-0.3590 -0.0262 -0.0997 0.9985
-0.3591 -0.0316 -0.0998 0.9985
-0.3594 -0.0422 -0.1002 0.9985
-0.3594 -0.0475 -0.1004 0.9985
-0.3594 -0.0637 -0.1011 0.9985
-0.3594 -0.0691 -0.1013 0.9985
-0.3590 -0.0855 -0.1022 0.9985
-0.3581 -0.1077 -0.1035 0.9984
-0.3575 -0.1190 -0.1043 0.9984
-0.3552 -0.1479 -0.1065 0.9984
-0.3541 -0.1597 -0.1075 0.9984
-0.3526 -0.1716 -0.1086 0.9984
-0.3491 -0.1959 -0.1108 0.9983
-0.3479 -0.2088 -0.1123 0.9983
-0.3449 -0.2354 -0.1156 0.9983
-0.3440 -0.2423 -0.1165 0.9983
-0.3431 -0.2492 -0.1174 0.9982
-0.3411 -0.2634 -0.1193 0.9982
-0.3400 -0.2706 -0.1203 0.9982
-0.3377 -0.2852 -0.1224 0.9982
-0.3352 -0.3003 -0.1246 0.9981
-0.3309 -0.3237 -0.1282 0.9981
-0.3233 -0.3555 -0.1330 0.9980
-0.3161 -0.3798 -0.1368 0.9980
-0.3084 -0.4054 -0.1410 0.9979
-0.3028 -0.4232 -0.1441 0.9978
-0.2999 -0.4323 -0.1457 0.9978
-0.2907 -0.4610 -0.1509 0.9977
-0.2682 -0.5409 -0.1672 0.9975
-0.2644 -0.5534 -0.1698 0.9975
-0.2604 -0.5662 -0.1726 0.9974
-0.2754 -0.6480 -0.1949 0.9971
-1.0708 -2.7394 -0.8144 0.9879
-0.8637 -2.4157 -0.7103 0.9894
-0.8272 -2.4246 -0.7093 0.9894
-0.7908 -2.4337 -0.7085 0.9894
-0.7124 -2.3068 -0.6685 0.9900
-0.5882 -2.3923 -0.6821 0.9898
-0.5563 -2.4139 -0.6859 0.9898
-0.5239 -2.4357 -0.6898 0.9897
-0.4875 -2.4389 -0.6886 0.9897
-0.4045 -2.3844 -0.6696 0.9900
-0.3733 -2.4137 -0.6763 0.9899
-0.3022 -2.1627 -0.6046 0.9910
-0.2103 -2.2080 -0.6141 0.9908
-0.1517 -2.3046 -0.6395 0.9905
-0.1165 -2.2756 -0.6309 0.9906
-0.0486 -2.2188 -0.6145 0.9908
-0.0160 -2.1910 -0.6067 0.9909
0.1095 -2.1388 -0.5930 0.9912
0.2095 -2.1989 -0.6116 0.9909
0.5409 -3.4979 -0.9800 0.9854
0.5920 -3.4897 -0.9800 0.9854
0.6429 -3.4807 -0.9800 0.9854
0.6937 -3.4709 -0.9800 0.9854
0.7443 -3.4604 -0.9800 0.9854
0.7948 -3.4493 -0.9800 0.9854
0.8451 -3.4373 -0.9801 0.9854
0.9452 -3.4111 -0.9801 0.9854
1.0445 -3.3821 -0.9801 0.9854
1.0938 -3.3665 -0.9801 0.9854
1.2887 -3.2970 -0.9801 0.9854
1.3367 -3.2778 -0.9801 0.9854
1.3844 -3.2579 -0.9801 0.9854
1.4791 -3.2161 -0.9801 0.9854
1.5259 -3.1942 -0.9801 0.9854
1.5725 -3.1716 -0.9801 0.9854
1.6186 -3.1482 -0.9801 0.9854
1.6645 -3.1243 -0.9802 0.9854
1.7550 -3.0743 -0.9802 0.9854
1.8441 -3.0218 -0.9802 0.9854
1.8881 -2.9945 -0.9802 0.9854
1.9317 -2.9666 -0.9802 0.9854
1.9748 -2.9382 -0.9802 0.9854
2.0176 -2.9089 -0.9802 0.9854
2.1017 -2.8488 -0.9802 0.9854
2.2246 -2.7541 -0.9802 0.9854
2.3817 -2.6194 -0.9802 0.9854
2.4214 -2.4392 -0.9516 0.9858
2.3956 -2.3437 -0.9279 0.9862
2.6769 -2.2611 -0.9702 0.9856
2.6454 -2.1690 -0.9472 0.9859
2.5902 -2.0612 -0.9165 0.9864
2.4898 -1.8651 -0.8613 0.9872
2.4438 -1.7755 -0.8364 0.9875
2.4004 -1.6909 -0.8130 0.9879
2.5038 -1.6044 -0.8234 0.9877
3.0554 -1.8955 -0.9956 0.9852
3.0828 -1.8507 -0.9956 0.9852
3.1356 -1.7598 -0.9956 0.9852
3.2098 -1.6207 -0.9956 0.9852
3.2990 -1.4305 -0.9956 0.9852
3.3195 -1.3821 -0.9956 0.9852
3.3394 -1.3335 -0.9956 0.9852
3.3585 -1.2845 -0.9956 0.9852
3.3947 -1.1858 -0.9956 0.9852
3.4279 -1.0861 -0.9956 0.9852
3.4434 -1.0359 -0.9956 0.9852
3.4582 -0.9855 -0.9956 0.9852
3.4855 -0.8841 -0.9956 0.9852
3.4980 -0.8330 -0.9956 0.9852
3.5098 -0.7818 -0.9956 0.9852
3.5209 -0.7305 -0.9956 0.9852
3.5576 -0.5236 -0.9956 0.9852
3.5649 -0.4715 -0.9956 0.9852
3.5713 -0.4194 -0.9956 0.9852
3.5771 -0.3671 -0.9956 0.9852
3.5821 -0.3148 -0.9956 0.9852
3.5898 -0.2100 -0.9956 0.9852
3.5925 -0.1576 -0.9956 0.9852
3.5944 -0.1050 -0.9956 0.9852
3.5955 -0.0525 -0.9956 0.9852
3.5959 0.0000 -0.9956 0.9852
3.5955 0.0525 -0.9956 0.9852
3.5944 0.1051 -0.9956 0.9852
3.5925 0.1576 -0.9956 0.9852
3.5898 0.2101 -0.9956 0.9852
3.5863 0.2625 -0.9956 0.9852
3.5771 0.3671 -0.9956 0.9852
3.5648 0.4716 -0.9956 0.9852
3.5496 0.5755 -0.9956 0.9852
3.5407 0.6273 -0.9956 0.9852
3.5312 0.6789 -0.9956 0.9852
3.5098 0.7819 -0.9956 0.9852
3.4981 0.8331 -0.9956 0.9852
3.4855 0.8841 -0.9956 0.9852
3.4722 0.9349 -0.9956 0.9852
3.4279 1.0861 -0.9956 0.9852
3.4116 1.1362 -0.9956 0.9852
3.3770 1.2354 -0.9956 0.9852
3.3394 1.3335 -0.9956 0.9852
3.3195 1.3821 -0.9956 0.9852
3.2558 1.5262 -0.9956 0.9852
3.1858 1.6675 -0.9956 0.9852
3.1610 1.7138 -0.9956 0.9852
3.1356 1.7598 -0.9956 0.9852
2.9988 1.9840 -0.9956 0.9852
2.9395 2.0707 -0.9955 0.9852
2.8777 2.1557 -0.9955 0.9852
2.8459 2.1975 -0.9955 0.9852
2.8135 2.2389 -0.9955 0.9852
2.7126 2.3600 -0.9955 0.9852
2.6778 2.3993 -0.9955 0.9852
2.6065 2.4766 -0.9955 0.9852
2.5701 2.5144 -0.9955 0.9852
2.5330 2.5516 -0.9955 0.9852
2.4955 2.5884 -0.9955 0.9852
2.3796 2.6952 -0.9955 0.9852
2.2998 2.7636 -0.9955 0.9852
2.2592 2.7968 -0.9955 0.9852
2.2181 2.8295 -0.9955 0.9852
2.1765 2.8617 -0.9955 0.9852
2.1344 2.8932 -0.9955 0.9852
2.0920 2.9240 -0.9954 0.9852
2.0490 2.9543 -0.9954 0.9852
1.9618 3.0129 -0.9954 0.9852
1.8728 3.0688 -0.9954 0.9852
1.7366 3.1479 -0.9954 0.9852
1.5021 3.2661 -0.9954 0.9852
1.3575 3.3288 -0.9954 0.9852
1.2596 3.3670 -0.9953 0.9852
1.2103 3.3850 -0.9953 0.9852
1.1607 3.4023 -0.9953 0.9852
1.1108 3.4189 -0.9953 0.9852
1.0105 3.4499 -0.9953 0.9852
0.9600 3.4643 -0.9953 0.9852
0.7559 3.5143 -0.9953 0.9852
0.6529 3.5348 -0.9953 0.9852
0.5493 3.5524 -0.9953 0.9852
0.4974 3.5600 -0.9953 0.9852
0.4453 3.5668 -0.9952 0.9852
0.2362 3.5867 -0.9952 0.9852
0.1313 3.5920 -0.9952 0.9852
-0.0788 3.5935 -0.9952 0.9852
-0.1838 3.5896 -0.9952 0.9852
-0.2362 3.5865 -0.9952 0.9852
-0.2885 3.5827 -0.9952 0.9852
-0.4973 3.5596 -0.9951 0.9852
-0.8071 3.5022 -0.9951 0.9852
-0.8582 3.4900 -0.9951 0.9852
-0.9090 3.4771 -0.9951 0.9852
-1.0102 3.4490 -0.9951 0.9852
-1.0605 3.4339 -0.9951 0.9852
-1.1604 3.4014 -0.9951 0.9852
-1.2593 3.3660 -0.9950 0.9852
-1.3083 3.3472 -0.9950 0.9852
-0.2662 0.6018 -0.1822 0.9973
-0.2604 0.5662 -0.1726 0.9974
-0.2644 0.5535 -0.1698 0.9975
-0.2718 0.5287 -0.1646 0.9975
-0.2753 0.5168 -0.1621 0.9976
-0.2786 0.5052 -0.1597 0.9976
-0.2819 0.4937 -0.1574 0.9976
-0.2907 0.4610 -0.1509 0.9977
-0.3057 0.4143 -0.1425 0.9979
-0.3110 0.3968 -0.1396 0.9979
-0.3136 0.3882 -0.1382 0.9979
-0.3255 0.3477 -0.1319 0.9980
-0.3277 0.3398 -0.1307 0.9980
-0.3338 0.3080 -0.1258 0.9981
-0.3352 0.3003 -0.1246 0.9981
-0.3365 0.2927 -0.1235 0.9982
-0.3377 0.2853 -0.1224 0.9982
-0.3400 0.2706 -0.1203 0.9982
-0.3411 0.2634 -0.1193 0.9982
-0.3421 0.2562 -0.1184 0.9982
-0.3431 0.2493 -0.1174 0.9982
-0.3449 0.2355 -0.1156 0.9983
-0.3465 0.2220 -0.1139 0.9983
-0.3517 0.1776 -0.1091 0.9984
-0.3526 0.1716 -0.1086 0.9984
-0.3546 0.1538 -0.1070 0.9984
-0.3558 0.1421 -0.1061 0.9984
-0.3562 0.1363 -0.1056 0.9984
-0.3567 0.1305 -0.1052 0.9984
-0.3575 0.1191 -0.1043 0.9984
-0.3584 0.1021 -0.1032 0.9985
-0.3586 0.0966 -0.1028 0.9985
-0.3589 0.0911 -0.1025 0.9985
-0.3592 0.0800 -0.1019 0.9985
-0.3593 0.0746 -0.1016 0.9985
-0.3595 0.0583 -0.1008 0.9985
-0.3590 0.0263 -0.0997 0.9985
-0.3586 0.0157 -0.0994 0.9985
-0.3581 0.0052 -0.0991 0.9985
-0.3518 0.0000 -0.1016 0.9985
-0.3526 -0.0154 -0.1019 0.9985
-0.3528 -0.0207 -0.1021 0.9985
-0.3531 -0.0310 -0.1024 0.9985
-0.3534 -0.0520 -0.1032 0.9985
-0.3534 -0.0573 -0.1034 0.9985
-0.3533 -0.0626 -0.1037 0.9985
-0.3529 -0.0841 -0.1048 0.9985
-0.3527 -0.0894 -0.1051 0.9985
-0.3525 -0.0949 -0.1054 0.9985
-0.3516 -0.1114 -0.1065 0.9985
-0.3504 -0.1282 -0.1078 0.9984
-0.3494 -0.1395 -0.1087 0.9984
-0.3483 -0.1511 -0.1097 0.9984
-0.3471 -0.1627 -0.1107 0.9984
-0.3462 -0.1685 -0.1112 0.9984
-0.3453 -0.1744 -0.1117 0.9984
-0.3425 -0.1922 -0.1134 0.9984
-0.3417 -0.1984 -0.1141 0.9984
-0.3340 -0.2579 -0.1219 0.9982
-0.3329 -0.2649 -0.1229 0.9982
-0.3318 -0.2720 -0.1239 0.9982
-0.3305 -0.2792 -0.1250 0.9982
-0.3292 -0.2864 -0.1261 0.9982
-0.3279 -0.2938 -0.1272 0.9982
-0.3265 -0.3013 -0.1283 0.9982
-0.3236 -0.3165 -0.1307 0.9981
-0.3203 -0.3322 -0.1333 0.9981
-0.3183 -0.3399 -0.1345 0.9981
-0.3137 -0.3553 -0.1369 0.9980
-0.3113 -0.3632 -0.1382 0.9980
-0.3088 -0.3711 -0.1394 0.9980
-0.3036 -0.3873 -0.1422 0.9980
-0.3010 -0.3957 -0.1436 0.9979
-0.2862 -0.4396 -0.1515 0.9978
-0.2666 -0.5003 -0.1637 0.9976
-0.2630 -0.5116 -0.1662 0.9976
-0.2594 -0.5232 -0.1687 0.9976
-0.2556 -0.5350 -0.1713 0.9975
-0.2516 -0.5471 -0.1739 0.9975
-0.2457 -0.5782 -0.1814 0.9974
-0.2529 -0.6201 -0.1934 0.9972
-0.9922 -2.6522 -0.8179 0.9883
-0.7045 -2.2810 -0.6896 0.9901
-0.6437 -2.3229 -0.6962 0.9900
-0.5815 -2.3651 -0.7035 0.9899
-0.5482 -2.3789 -0.7052 0.9899
-0.5106 -2.3736 -0.7013 0.9899
-0.2257 -2.0514 -0.5961 0.9914
-0.1129 -2.2062 -0.6381 0.9908
-0.0796 -2.1793 -0.6299 0.9910
-0.0156 -2.1267 -0.6143 0.9912
0.0156 -2.1297 -0.6152 0.9912
0.0462 -2.1096 -0.6095 0.9913
0.1059 -2.0694 -0.5985 0.9914
0.1350 -2.0493 -0.5932 0.9915
0.1634 -2.0293 -0.5880 0.9916
0.2039 -2.1405 -0.6211 0.9911
0.4203 -3.3667 -0.9800 0.9860
0.5185 -3.3530 -0.9800 0.9860
0.6650 -3.3271 -0.9800 0.9860
0.7135 -3.3171 -0.9800 0.9860
0.7619 -3.3063 -0.9800 0.9860
0.8101 -3.2948 -0.9800 0.9860
0.9061 -3.2698 -0.9801 0.9860
1.0013 -3.2420 -0.9801 0.9860
1.0485 -3.2270 -0.9801 0.9860
1.1424 -3.1950 -0.9801 0.9860
1.2352 -3.1604 -0.9801 0.9860
1.3271 -3.1229 -0.9801 0.9860
1.4178 -3.0829 -0.9801 0.9860
1.4627 -3.0618 -0.9801 0.9860
1.5955 -2.9948 -0.9801 0.9860
1.6391 -2.9712 -0.9801 0.9860
1.7252 -2.9221 -0.9802 0.9860
1.7678 -2.8966 -0.9802 0.9860
1.8099 -2.8704 -0.9802 0.9860
1.8517 -2.8437 -0.9802 0.9860
1.9340 -2.7884 -0.9802 0.9860
2.0147 -2.7307 -0.9802 0.9860
2.0544 -2.7010 -0.9802 0.9860
2.1324 -2.6399 -0.9802 0.9860
2.1708 -2.6084 -0.9802 0.9860
2.2086 -2.5765 -0.9802 0.9860
2.2461 -2.5439 -0.9802 0.9860
2.2830 -2.5109 -0.9802 0.9860
2.3195 -2.4772 -0.9802 0.9860
2.5275 -2.2647 -0.9803 0.9860
2.6244 -2.1518 -0.9803 0.9860
2.5259 -1.9504 -0.9218 0.9868
2.5306 -1.7279 -0.8851 0.9873
2.5134 -1.6629 -0.8705 0.9875
2.9020 -1.8595 -0.9955 0.9858
2.9288 -1.8169 -0.9955 0.9858
3.0300 -1.6428 -0.9956 0.9858
3.0537 -1.5983 -0.9956 0.9858
3.0767 -1.5535 -0.9956 0.9858
3.0991 -1.5084 -0.9956 0.9858
3.1208 -1.4630 -0.9956 0.9858
3.1419 -1.4172 -0.9956 0.9858
3.1623 -1.3711 -0.9956 0.9858
3.2193 -1.2313 -0.9956 0.9858
3.2370 -1.1841 -0.9956 0.9858
3.2702 -1.0890 -0.9956 0.9858
3.3006 -0.9930 -0.9956 0.9858
3.3283 -0.8961 -0.9956 0.9858
3.3410 -0.8475 -0.9956 0.9858
3.3940 -0.6013 -0.9956 0.9858
3.4101 -0.5019 -0.9956 0.9858
3.4233 -0.4020 -0.9956 0.9858
3.4336 -0.3018 -0.9956 0.9858
3.4436 -0.1511 -0.9956 0.9858
3.4468 0.0000 -0.9956 0.9858
3.4465 0.0504 -0.9956 0.9858
3.4435 0.1511 -0.9956 0.9858
3.4376 0.2516 -0.9956 0.9858
3.4336 0.3018 -0.9956 0.9858
3.4171 0.4520 -0.9956 0.9858
3.4101 0.5019 -0.9956 0.9858
3.3940 0.6013 -0.9956 0.9858
3.3750 0.7002 -0.9956 0.9858
3.3643 0.7494 -0.9956 0.9858
3.3007 0.9930 -0.9956 0.9858
3.2858 1.0412 -0.9956 0.9858
3.2702 1.0891 -0.9956 0.9858
3.2370 1.1841 -0.9956 0.9858
3.2193 1.2313 -0.9956 0.9858
3.2010 1.2782 -0.9956 0.9858
3.1623 1.3712 -0.9956 0.9858
3.1419 1.4173 -0.9956 0.9858
3.1208 1.4630 -0.9956 0.9858
3.0767 1.5535 -0.9956 0.9858
3.0537 1.5983 -0.9956 0.9858
3.0057 1.6869 -0.9956 0.9858
2.9288 1.8170 -0.9955 0.9858
2.8464 1.9436 -0.9955 0.9858
2.8177 1.9850 -0.9955 0.9858
2.7883 2.0259 -0.9955 0.9858
2.7279 2.1064 -0.9955 0.9858
2.6002 2.2621 -0.9955 0.9858
2.5668 2.2999 -0.9955 0.9858
2.4281 2.4459 -0.9955 0.9858
2.3556 2.5158 -0.9955 0.9858
2.3185 2.5500 -0.9955 0.9858
2.2430 2.6166 -0.9955 0.9858
2.1261 2.7123 -0.9955 0.9858
2.0863 2.7430 -0.9954 0.9858
2.0460 2.7732 -0.9954 0.9858
2.0052 2.8028 -0.9954 0.9858
1.9641 2.8318 -0.9954 0.9858
1.7952 2.9416 -0.9954 0.9858
1.7085 2.9929 -0.9954 0.9858
1.6203 3.0414 -0.9954 0.9858
1.3939 3.1515 -0.9954 0.9858
1.3477 3.1715 -0.9954 0.9858
1.2545 3.2095 -0.9953 0.9858
1.1601 3.2448 -0.9953 0.9858
1.0168 3.2925 -0.9953 0.9858
0.9202 3.3207 -0.9953 0.9858
0.8227 3.3461 -0.9953 0.9858
0.6753 3.3789 -0.9953 0.9858
0.6258 3.3884 -0.9953 0.9858
0.5763 3.3971 -0.9953 0.9858
0.5266 3.4052 -0.9953 0.9858
0.4768 3.4125 -0.9953 0.9858
0.4269 3.4191 -0.9952 0.9858
0.3768 3.4249 -0.9952 0.9858
0.2766 3.4345 -0.9952 0.9858
0.1258 3.4432 -0.9952 0.9858
0.0251 3.4453 -0.9952 0.9858
-0.0252 3.4454 -0.9952 0.9858
-0.0755 3.4446 -0.9952 0.9858
-0.1762 3.4409 -0.9952 0.9858
-0.2264 3.4379 -0.9952 0.9858
-0.2766 3.4342 -0.9952 0.9858
-0.3768 3.4246 -0.9952 0.9858
-0.4268 3.4187 -0.9951 0.9858
-0.5265 3.4047 -0.9951 0.9858
-0.5762 3.3967 -0.9951 0.9858
-0.6258 3.3879 -0.9951 0.9858
-0.7245 3.3681 -0.9951 0.9858
-1.0166 3.2916 -0.9951 0.9858
-1.1123 3.2605 -0.9951 0.9858
-0.2609 0.6675 -0.2070 0.9970
-0.2556 0.5350 -0.1713 0.9975
-0.2862 0.4396 -0.1515 0.9978
-0.2982 0.4042 -0.1451 0.9979
-0.3037 0.3873 -0.1422 0.9980
-0.3062 0.3791 -0.1408 0.9980
-0.3088 0.3711 -0.1394 0.9980
-0.3137 0.3553 -0.1369 0.9980
-0.3183 0.3399 -0.1345 0.9981
-0.3203 0.3322 -0.1333 0.9981
-0.3220 0.3243 -0.1320 0.9981
-0.3251 0.3088 -0.1295 0.9981
-0.3265 0.3013 -0.1283 0.9982
-0.3279 0.2938 -0.1272 0.9982
-0.3292 0.2864 -0.1261 0.9982
-0.3317 0.2720 -0.1239 0.9982
-0.3329 0.2649 -0.1229 0.9982
-0.3340 0.2579 -0.1219 0.9982
-0.3351 0.2510 -0.1209 0.9983
-0.3361 0.2442 -0.1200 0.9983
-0.3370 0.2374 -0.1191 0.9983
-0.3388 0.2242 -0.1173 0.9983
-0.3404 0.2111 -0.1157 0.9983
-0.3411 0.2047 -0.1149 0.9983
-0.3417 0.1985 -0.1141 0.9984
-0.3444 0.1803 -0.1123 0.9984
-0.3453 0.1744 -0.1117 0.9984
-0.3470 0.1627 -0.1107 0.9984
-0.3477 0.1569 -0.1102 0.9984
-0.3483 0.1511 -0.1097 0.9984
-0.3504 0.1282 -0.1078 0.9984
-0.3508 0.1226 -0.1073 0.9985
-0.3512 0.1170 -0.1069 0.9985
-0.3516 0.1114 -0.1065 0.9985
-0.3527 0.0895 -0.1051 0.9985
-0.3529 0.0840 -0.1048 0.9985
-0.3532 0.0733 -0.1042 0.9985
-0.3534 0.0627 -0.1037 0.9985
-0.3534 0.0573 -0.1034 0.9985
-0.3534 0.0468 -0.1030 0.9985
-0.3533 0.0415 -0.1028 0.9985
-0.3530 0.0259 -0.1022 0.9985
-0.3528 0.0207 -0.1021 0.9985
-0.3526 0.0155 -0.1019 0.9985
-0.3461 0.0000 -0.1041 0.9986
-0.3464 -0.0050 -0.1042 0.9986
-0.3468 -0.0152 -0.1045 0.9986
-0.3472 -0.0254 -0.1047 0.9985
-0.3474 -0.0357 -0.1051 0.9985
-0.3475 -0.0460 -0.1055 0.9985
-0.3475 -0.0564 -0.1059 0.9985
-0.3475 -0.0616 -0.1062 0.9985
-0.3469 -0.0826 -0.1073 0.9985
-0.3448 -0.1204 -0.1099 0.9985
-0.3443 -0.1259 -0.1103 0.9985
-0.3433 -0.1371 -0.1112 0.9985
-0.3428 -0.1427 -0.1117 0.9985
-0.3409 -0.1598 -0.1133 0.9984
-0.3400 -0.1655 -0.1138 0.9984
-0.3391 -0.1712 -0.1143 0.9984
-0.3372 -0.1829 -0.1154 0.9984
-0.3330 -0.2134 -0.1190 0.9983
-0.3293 -0.2393 -0.1225 0.9983
-0.3283 -0.2459 -0.1234 0.9983
-0.3272 -0.2527 -0.1244 0.9983
-0.3223 -0.2804 -0.1285 0.9982
-0.3149 -0.3171 -0.1345 0.9981
-0.3132 -0.3248 -0.1358 0.9981
-0.3043 -0.3550 -0.1407 0.9980
-0.3018 -0.3627 -0.1420 0.9980
-0.2993 -0.3704 -0.1433 0.9980
-0.2966 -0.3783 -0.1446 0.9980
-0.2823 -0.4199 -0.1522 0.9979
-0.2791 -0.4286 -0.1539 0.9979
-0.2758 -0.4375 -0.1556 0.9978
-0.2725 -0.4464 -0.1574 0.9978
-0.2690 -0.4556 -0.1592 0.9978
-0.2654 -0.4648 -0.1610 0.9978
-0.2511 -0.5064 -0.1701 0.9976
-0.2473 -0.5177 -0.1726 0.9976
-0.2433 -0.5291 -0.1752 0.9976
-0.2322 -0.5940 -0.1919 0.9973
-0.2383 -0.6369 -0.2046 0.9972
-0.9874 -2.8943 -0.9201 0.9873
-0.7262 -2.2352 -0.7071 0.9902
-0.6059 -2.3175 -0.7208 0.9900
-0.5692 -2.3150 -0.7173 0.9901
-0.5324 -2.3105 -0.7134 0.9901
-0.4959 -2.3057 -0.7096 0.9902
-0.4598 -2.3005 -0.7059 0.9902
-0.3876 -2.2849 -0.6973 0.9904
-0.3505 -2.2664 -0.6900 0.9905
-0.3141 -2.2479 -0.6829 0.9906
-0.1972 -2.0704 -0.6258 0.9914
-0.1738 -2.1572 -0.6512 0.9910
-0.1419 -2.1546 -0.6497 0.9910
-0.1093 -2.1358 -0.6435 0.9911
-0.0774 -2.1170 -0.6374 0.9912
-0.0460 -2.0982 -0.6315 0.9913
