ply
format ascii 1.0
element vertex 1614
property float32 x
property float32 y
property float32 z
property float32 I
end_header
1.6630 4.0778 0.4222 0.9825
1.5979 4.0880 0.4208 0.9825
1.5652 4.3775 0.4457 0.9815
-1.4901 5.0873 0.5082 0.9789
-1.5154 4.9068 0.4923 0.9796
-1.5393 4.7373 0.4775 0.9802
-1.6034 4.2857 0.4387 0.9818
-1.6226 4.1512 0.4273 0.9822
-1.7373 3.9277 0.4117 0.9829
-1.8075 3.9302 0.4147 0.9828
-1.9514 3.9359 0.4212 0.9825
-2.0265 3.9414 0.4249 0.9823
-2.1035 3.9482 0.4289 0.9822
-2.2962 4.0222 0.4440 0.9816
-2.5254 4.1380 0.4647 0.9807
-10.1800 10.2546 1.3853 0.9436
-14.8235 9.8071 1.7040 0.9311
-16.1501 9.0639 1.7755 0.9283
-20.1542 10.1765 2.1645 0.9133
-19.7439 9.6100 2.1051 0.9155
-20.1247 9.4341 2.1308 0.9146
-1.2442 0.5612 0.1309 0.9945
-1.2418 0.5384 0.1298 0.9946
-1.2351 0.4724 0.1268 0.9947
-1.2300 0.4296 0.1249 0.9948
-1.2219 0.3676 0.1223 0.9949
-1.2147 0.2893 0.1197 0.9950
-1.2104 0.2327 0.1182 0.9951
-1.2074 0.1958 0.1173 0.9951
-1.2054 0.1774 0.1168 0.9951
-1.2034 0.1592 0.1164 0.9951
-1.2016 0.1411 0.1160 0.9952
-1.1998 0.1231 0.1156 0.9952
-1.1974 0.1053 0.1152 0.9952
-1.1903 0.0696 0.1143 0.9952
-1.1869 0.0521 0.1139 0.9952
-1.1835 0.0346 0.1135 0.9953
-1.1424 -0.0167 0.0968 0.9954
-1.1454 -0.0335 0.0971 0.9954
-1.1581 -0.1018 0.0985 0.9953
-1.1616 -0.1192 0.0989 0.9953
-1.1673 -0.1544 0.0997 0.9953
-1.1709 -0.1898 0.1005 0.9952
-1.1725 -0.2077 0.1009 0.9952
-1.1736 -0.2257 0.1012 0.9952
-1.1773 -0.2804 0.1025 0.9952
-1.1787 -0.2990 0.1030 0.9951
-1.1818 -0.3368 0.1041 0.9951
-1.1834 -0.3561 0.1047 0.9951
-1.1851 -0.3755 0.1053 0.9950
-1.1929 -0.4364 0.1076 0.9949
-1.1957 -0.4573 0.1084 0.9949
-1.1986 -0.4786 0.1093 0.9948
-1.2004 -0.4998 0.1101 0.9948
-1.2298 -0.5765 0.1150 0.9946
-6.3152 -3.1887 0.5992 0.9720
-22.1162 -12.4122 2.1480 0.9032
-21.7845 -13.0774 2.1520 0.9030
-49.7398 -30.8568 4.9577 0.7906
-17.4075 -11.8861 1.7853 0.9189
-17.2368 -12.1424 1.7858 0.9188
-16.6109 -12.4434 1.7579 0.9201
-38.4714 -30.6143 4.1642 0.8209
-13.4519 -11.7031 1.5102 0.9309
-13.2113 -11.8374 1.5024 0.9313
-12.8573 -11.8634 1.4817 0.9322
-12.3800 -12.1116 1.4669 0.9328
-29.3262 -30.4175 3.5787 0.8440
-2.2861 -2.7471 0.3027 0.9858
-24.4862 -30.3134 3.3005 0.8552
-23.0318 -30.2821 3.2224 0.8584
-2.2198 -3.0088 0.3167 0.9851
-20.9721 -30.2378 3.1168 0.8627
-20.3147 -30.2236 3.0844 0.8640
-18.5479 -30.3919 3.0156 0.8668
-16.6293 -30.1443 2.9159 0.8709
-15.4856 -30.1197 2.8685 0.8729
-11.7413 -30.0391 2.7317 0.8786
-11.2340 -30.0282 2.7155 0.8792
-10.7327 -30.0174 2.7000 0.8799
-10.2368 -30.0068 2.6853 0.8805
-9.7463 -29.9962 2.6714 0.8811
-8.3035 -29.9652 2.6336 0.8827
-7.8312 -29.9550 2.6224 0.8831
-7.3629 -29.9449 2.6118 0.8836
-6.8982 -29.9349 2.6019 0.8840
-6.4370 -29.9250 2.5926 0.8844
-5.5238 -29.9053 2.5758 0.8851
-5.0714 -29.8956 2.5683 0.8854
-1.9487 -12.6014 1.0800 0.9501
-4.2223 -30.2211 2.5845 0.8847
-3.7717 -30.2115 2.5787 0.8850
-3.3231 -30.2018 2.5735 0.8852
-2.8763 -30.1922 2.5688 0.8854
-2.4309 -30.1826 2.5647 0.8855
-1.9869 -30.1730 2.5611 0.8857
-1.1020 -30.1540 2.5557 0.8859
0.0544 -2.4800 0.2101 0.9901
1.0877 -29.7631 2.5225 0.8873
1.9587 -29.7443 2.5247 0.8872
2.8318 -29.7255 2.5291 0.8870
3.2697 -29.7161 2.5321 0.8869
3.7088 -29.7067 2.5356 0.8868
4.1491 -29.6972 2.5397 0.8866
4.5910 -29.6877 2.5444 0.8864
5.0345 -29.6781 2.5496 0.8862
5.9277 -29.6589 2.5617 0.8857
3.0651 -12.4655 1.0873 0.9498
15.5176 -47.7581 4.2532 0.8174
17.8483 -47.7079 4.3143 0.8151
21.9008 -47.6207 4.4395 0.8103
23.5922 -47.5843 4.4984 0.8080
24.4552 -47.5657 4.5300 0.8068
25.2497 -45.7705 4.4274 0.8107
26.1053 -45.7286 4.4598 0.8095
26.9875 -45.7096 4.4959 0.8081
8.1879 -12.5746 1.2709 0.9415
24.9288 -30.8612 3.3601 0.8528
24.9087 -29.9309 3.2981 0.8553
9.5574 -10.2074 1.1844 0.9454
9.7409 -10.1034 1.1887 0.9452
10.0609 -9.8428 1.1921 0.9451
10.1881 -9.6798 1.1903 0.9451
10.2364 -9.4451 1.1797 0.9456
11.0070 -9.5761 1.2357 0.9431
25.1616 -20.6304 2.7559 0.8776
24.4141 -18.8519 2.6125 0.8835
18.9496 -12.9389 1.9434 0.9120
18.0894 -11.9678 1.8371 0.9166
5.7549 -3.5701 0.5736 0.9732
5.7596 -3.1227 0.5549 0.9740
5.6953 -2.4695 0.5258 0.9754
5.9003 -2.4566 0.5413 0.9747
5.8989 -2.3555 0.5380 0.9748
5.9698 -1.9880 0.5329 0.9751
6.2353 -1.9757 0.5540 0.9741
6.5606 -1.7664 0.5755 0.9731
6.8245 -1.6252 0.5942 0.9722
16.7141 -3.4677 1.4458 0.9338
16.9063 -3.2507 1.4582 0.9332
16.9637 -2.7504 1.4555 0.9333
17.0207 -2.5050 1.4571 0.9333
17.1237 -2.2650 1.4630 0.9330
17.1210 -2.0105 1.4601 0.9331
52.6472 9.3272 4.5285 0.8068
36.0170 8.5774 3.1359 0.8619
31.0035 8.3479 2.7194 0.8791
30.9397 8.8175 2.7249 0.8788
30.4186 9.6385 2.7026 0.8798
29.9600 9.9771 2.6746 0.8809
25.7779 9.0050 2.3127 0.8962
25.1334 10.0361 2.2922 0.8971
20.3034 9.1584 1.8865 0.9145
20.0500 9.3991 1.8755 0.9149
19.8128 9.6434 1.8663 0.9153
19.5827 9.8879 1.8581 0.9157
19.3545 10.1303 1.8502 0.9160
7.2956 3.9554 0.7029 0.9672
7.0988 3.9840 0.6895 0.9679
6.9093 4.0116 0.6767 0.9684
6.7267 4.0381 0.6645 0.9690
6.3805 4.0886 0.6418 0.9700
6.2165 4.1128 0.6313 0.9705
6.1048 4.1684 0.6261 0.9708
6.1753 4.6260 0.6535 0.9695
6.1995 4.7871 0.6634 0.9690
6.3191 5.3374 0.7006 0.9673
6.3669 5.5392 0.7148 0.9667
9.7433 9.8148 1.1713 0.9460
2.3350 3.9549 0.3890 0.9817
2.2601 3.9589 0.3861 0.9819
1.8435 4.0085 0.3737 0.9824
1.5825 4.0486 0.3682 0.9827
1.5200 4.0629 0.3674 0.9827
1.4738 4.3201 0.3866 0.9818
-1.4387 5.1916 0.4563 0.9786
-1.4619 4.9909 0.4405 0.9793
-1.5065 4.6365 0.4129 0.9806
-1.5295 4.4833 0.4012 0.9812
-1.5513 4.3386 0.3903 0.9817
-1.5720 4.2018 0.3800 0.9822
-1.5916 4.0720 0.3703 0.9826
-1.6104 3.9488 0.3612 0.9830
-1.6306 3.8371 0.3531 0.9834
-1.6980 3.8387 0.3555 0.9833
-1.7663 3.8406 0.3580 0.9832
-1.9810 3.8530 0.3669 0.9828
-2.1321 3.8650 0.3739 0.9824
-2.2245 3.8967 0.3800 0.9821
-2.3259 3.9395 0.3875 0.9818
-2.4343 3.9888 0.3958 0.9814
-9.6378 9.7086 1.1587 0.9466
-14.8689 9.8371 1.5100 0.9309
-20.5119 10.3571 1.9462 0.9119
-19.8352 9.6544 1.8684 0.9153
-1.2297 0.5765 0.1150 0.9946
-1.2044 0.5433 0.1119 0.9947
-1.2024 0.5214 0.1110 0.9948
-1.1986 0.4786 0.1093 0.9948
-1.1957 0.4573 0.1084 0.9949
-1.1902 0.4158 0.1068 0.9950
-1.1876 0.3955 0.1060 0.9950
-1.1851 0.3755 0.1053 0.9950
-1.1834 0.3561 0.1047 0.9951
-1.1818 0.3368 0.1041 0.9951
-1.1802 0.3178 0.1035 0.9951
-1.1787 0.2990 0.1030 0.9951
-1.1736 0.2257 0.1012 0.9952
-1.1725 0.2077 0.1009 0.9952
-1.1690 0.1721 0.1001 0.9953
-1.1651 0.1368 0.0994 0.9953
-1.1582 0.1018 0.0985 0.9953
-1.1548 0.0845 0.0981 0.9954
-1.1454 0.0335 0.0971 0.9954
-1.1041 0.0000 0.0812 0.9956
-1.1068 -0.0162 0.0814 0.9956
-1.1096 -0.0324 0.0816 0.9956
-1.1125 -0.0487 0.0819 0.9955
-1.1154 -0.0653 0.0822 0.9955
-1.1215 -0.0986 0.0828 0.9955
-1.1247 -0.1154 0.0832 0.9955
-1.1279 -0.1324 0.0835 0.9955
-1.1312 -0.1496 0.0839 0.9954
-1.1346 -0.1670 0.0843 0.9954
-1.1401 -0.2365 0.0856 0.9953
-1.1422 -0.2720 0.0864 0.9953
-1.1434 -0.2900 0.0868 0.9953
-1.1447 -0.3082 0.0872 0.9953
-1.1459 -0.3266 0.0876 0.9952
-1.1473 -0.3452 0.0881 0.9952
-1.1507 -0.3832 0.0892 0.9951
-1.1554 -0.4226 0.0905 0.9951
-1.1578 -0.4428 0.0912 0.9950
-1.1603 -0.4633 0.0919 0.9950
-1.1629 -0.4842 0.0926 0.9950
-1.1655 -0.5054 0.0934 0.9949
-1.1672 -0.5265 0.0942 0.9949
-1.1690 -0.5479 0.0950 0.9948
-1.2434 -0.6052 0.1017 0.9945
-1.4717 -0.7431 0.1213 0.9934
-6.5110 -3.7803 0.5537 0.9703
-21.7071 -13.4663 1.8787 0.9026
-48.0996 -30.8215 4.2015 0.7952
-46.5358 -30.7878 4.1038 0.7995
-17.6540 -12.0543 1.5722 0.9178
-16.6883 -12.5014 1.5336 0.9198
-39.6805 -30.6403 3.6872 0.8179
-37.3078 -30.5893 3.5483 0.8241
-36.1868 -30.5652 3.4838 0.8270
-32.0766 -30.4767 3.2542 0.8374
-29.3262 -30.4175 3.1075 0.8441
-28.4630 -30.3990 3.0628 0.8462
-27.6242 -30.3809 3.0200 0.8482
-2.2741 -2.6528 0.2570 0.9861
-24.4862 -30.3134 2.8659 0.8553
-23.7503 -30.2975 2.8313 0.8569
-23.0318 -30.2821 2.7981 0.8585
-21.7131 -30.3494 2.7445 0.8610
-19.8978 -30.5584 2.6819 0.8639
-19.2593 -30.5447 2.6557 0.8652
-18.6329 -30.5312 2.6306 0.8664
-18.0182 -30.5180 2.6065 0.8675
-17.4145 -30.5050 2.5834 0.8686
-16.0528 -30.1319 2.5110 0.8720
-15.4856 -30.1197 2.4908 0.8730
-12.7747 -30.0614 2.4023 0.8772
-12.2547 -30.0502 2.3868 0.8780
-11.7413 -30.0391 2.3720 0.8787
-10.7327 -30.0174 2.3446 0.8800
-10.2369 -30.0067 2.3318 0.8806
-8.7799 -29.9754 2.2972 0.8823
-2.1837 -8.3527 0.6350 0.9660
-1.9181 -8.3238 0.6282 0.9663
-1.7877 -8.3108 0.6252 0.9665
-1.4143 -8.3373 0.6219 0.9667
-1.1775 -8.4284 0.6259 0.9664
-3.7717 -30.2115 2.2392 0.8850
-3.3231 -30.2018 2.2347 0.8853
-2.4309 -30.1826 2.2270 0.8856
-1.9869 -30.1731 2.2239 0.8858
-1.5439 -30.1635 2.2213 0.8859
-1.1020 -30.1540 2.2192 0.8860
-0.6608 -30.1445 2.2176 0.8861
-0.0185 -2.5342 0.1864 0.9899
0.0183 -2.5064 0.1843 0.9900
0.0544 -2.4793 0.1824 0.9901
1.5230 -29.7537 2.1912 0.8874
3.7088 -29.7067 2.2018 0.8869
4.1491 -29.6972 2.2053 0.8867
4.5910 -29.6877 2.2094 0.8865
5.9277 -29.6589 2.2245 0.8858
10.2971 -47.8704 3.6012 0.8217
3.0645 -12.4634 0.9439 0.9498
12.5026 -47.8230 3.6354 0.8202
13.2476 -47.8069 3.6485 0.8196
13.9982 -47.7908 3.6625 0.8189
15.5175 -47.7581 3.6932 0.8176
17.0640 -47.7248 3.7276 0.8160
17.8483 -47.7079 3.7463 0.8152
19.3806 -47.5236 3.7747 0.8140
21.9007 -47.6207 3.8550 0.8104
22.7409 -47.6027 3.8800 0.8093
23.5922 -47.5843 3.9062 0.8081
24.4552 -47.5657 3.9336 0.8069
26.1053 -45.7286 3.8726 0.8096
26.9875 -45.7096 3.9040 0.8082
8.9433 -10.7464 1.0283 0.9455
9.0635 -10.5728 1.0242 0.9457
9.2654 -10.4940 1.0296 0.9454
9.6752 -10.3333 1.0411 0.9448
9.8638 -10.2309 1.0452 0.9446
9.8697 -9.9421 1.0303 0.9454
10.0066 -9.5074 1.0152 0.9461
10.2169 -9.4271 1.0224 0.9458
10.9447 -9.5219 1.0669 0.9435
24.4099 -18.8487 2.2682 0.8837
25.4146 -17.9033 2.2864 0.8828
19.4198 -12.4439 1.6963 0.9116
5.6666 -3.2900 0.4819 0.9741
5.7075 -3.2032 0.4814 0.9741
5.6253 -3.0498 0.4706 0.9747
5.7912 -2.9242 0.4771 0.9743
5.9193 -2.7748 0.4808 0.9741
5.8702 -2.5454 0.4706 0.9747
5.7978 -2.4139 0.4619 0.9751
5.7346 -2.2899 0.4541 0.9755
5.6735 -2.1699 0.4467 0.9759
5.9352 -2.0733 0.4624 0.9751
6.0058 -2.0000 0.4656 0.9749
6.2968 -1.9952 0.4858 0.9739
6.5310 -1.7585 0.4974 0.9732
6.8557 -1.7389 0.5202 0.9720
6.9329 -1.5444 0.5224 0.9719
16.3925 -3.4010 1.2313 0.9351
16.6445 -3.2004 1.2466 0.9343
16.6418 -2.6982 1.2399 0.9346
17.1636 -2.0156 1.2710 0.9330
21.9437 -2.2524 1.6224 0.9153
54.5238 -2.3917 4.0139 0.8034
65.4983 -1.9147 4.8193 0.7689
51.8856 9.1923 3.8754 0.8095
51.5121 9.9045 3.8579 0.8103
35.8383 8.5348 2.7095 0.8626
31.1432 8.3855 2.3721 0.8787
30.4405 9.6454 2.3485 0.8798
30.2909 10.5815 2.3598 0.8792
25.2259 10.0730 1.9977 0.8968
25.0298 10.4213 1.9940 0.8970
20.1413 9.4418 1.6360 0.9146
19.9077 9.6896 1.6284 0.9150
7.2782 3.9460 0.6089 0.9673
6.8933 4.0022 0.5862 0.9685
6.1155 4.3080 0.5502 0.9704
6.2193 4.9491 0.5846 0.9686
6.2563 5.1296 0.5950 0.9681
6.4427 5.7727 0.6362 0.9659
2.3872 3.9116 0.3370 0.9818
2.3086 3.9101 0.3340 0.9820
2.1652 3.9248 0.3297 0.9822
2.0261 3.9407 0.3259 0.9824
1.9593 3.9518 0.3244 0.9825
1.8250 3.9682 0.3212 0.9826
1.7594 3.9778 0.3199 0.9827
1.5052 4.0233 0.3159 0.9829
0.6315 9.5894 0.7068 0.9622
-1.4165 5.1117 0.3901 0.9790
-1.4623 4.7347 0.3645 0.9803
-1.4830 4.5643 0.3530 0.9809
-1.5210 4.2538 0.3323 0.9820
-1.5418 4.1212 0.3236 0.9825
-1.5619 3.9959 0.3155 0.9829
-1.5810 3.8768 0.3079 0.9833
-1.5992 3.7633 0.3007 0.9837
-1.7270 3.7552 0.3040 0.9836
-2.0846 3.7787 0.3174 0.9828
-9.5964 9.6668 1.0018 0.9468
-15.0284 9.6300 1.3127 0.9309
-1.4753 0.7998 0.1234 0.9933
-1.4718 0.7704 0.1222 0.9934
-1.4717 0.7431 0.1213 0.9934
-1.2434 0.6052 0.1017 0.9945
-1.1690 0.5480 0.0950 0.9948
-1.1603 0.4634 0.0919 0.9950
-1.1554 0.4227 0.0905 0.9951
-1.1530 0.4028 0.0898 0.9951
-1.1507 0.3832 0.0892 0.9951
-1.1473 0.3452 0.0881 0.9952
-1.1447 0.3082 0.0872 0.9953
-1.1434 0.2900 0.0868 0.9953
-1.1422 0.2721 0.0864 0.9953
-1.1411 0.2542 0.0860 0.9953
-1.1390 0.2190 0.0853 0.9954
-1.1381 0.2016 0.0850 0.9954
-1.1184 0.0819 0.0825 0.9955
-1.1068 0.0162 0.0814 0.9956
-1.0331 0.0000 0.0645 0.9959
-1.0421 -0.0304 0.0651 0.9958
-1.0479 -0.0459 0.0655 0.9958
-1.0537 -0.0616 0.0659 0.9958
-1.0598 -0.0775 0.0663 0.9958
-1.0661 -0.0937 0.0668 0.9957
-1.0725 -0.1101 0.0673 0.9957
-1.0791 -0.1267 0.0678 0.9957
-1.0860 -0.1436 0.0684 0.9956
-1.1056 -0.1959 0.0701 0.9955
-1.1065 -0.2127 0.0703 0.9955
-1.1092 -0.2641 0.0712 0.9954
-1.1102 -0.2816 0.0715 0.9954
-1.1113 -0.2992 0.0718 0.9954
-1.1123 -0.3170 0.0722 0.9954
-1.1147 -0.3532 0.0730 0.9953
-1.1162 -0.3717 0.0734 0.9953
-1.1202 -0.4098 0.0744 0.9952
-1.1222 -0.4292 0.0750 0.9952
-1.1244 -0.4490 0.0756 0.9952
-1.1267 -0.4691 0.0762 0.9951
-1.1290 -0.4895 0.0768 0.9951
-1.1337 -0.5314 0.0781 0.9950
-1.2577 -0.6351 0.0879 0.9944
-1.4422 -0.7548 0.1016 0.9935
-1.4418 -0.7817 0.1024 0.9934
-1.4446 -0.8108 0.1034 0.9934
-1.4516 -0.8429 0.1048 0.9933
-49.7398 -30.8568 3.6533 0.7909
-48.0995 -30.8215 3.5655 0.7954
-46.5358 -30.7878 3.4826 0.7996
-17.3945 -12.2536 1.3280 0.9183
-17.0780 -12.4079 1.3175 0.9189
-40.9385 -30.6673 3.1926 0.8146
-39.6805 -30.6403 3.1290 0.8180
-37.5255 -30.7677 3.0287 0.8233
-35.5109 -30.8944 2.9378 0.8281
-33.0527 -30.4977 2.8070 0.8351
-31.1313 -30.4564 2.7182 0.8398
-30.2151 -30.4366 2.6768 0.8421
-29.3262 -30.4175 2.6371 0.8442
-2.4567 -2.7019 0.2279 0.9855
-2.2961 -2.6006 0.2165 0.9862
-2.2961 -2.7591 0.2240 0.9857
-24.4862 -30.3134 2.4321 0.8554
-23.7503 -30.2976 2.4028 0.8570
-21.7132 -30.3495 2.3291 0.8611
-21.2142 -30.5868 2.3233 0.8614
-20.5493 -30.5725 2.2991 0.8627
-19.2593 -30.5447 2.2537 0.8653
-18.6329 -30.5313 2.2324 0.8665
-18.0182 -30.5180 2.2120 0.8676
-7.0240 -12.3040 0.8843 0.9448
-16.6294 -30.1443 2.1487 0.8711
-16.0528 -30.1319 2.1309 0.8721
-15.4856 -30.1197 2.1138 0.8731
-14.3775 -30.0959 2.0817 0.8749
-13.8357 -30.0842 2.0667 0.8757
-12.7747 -30.0614 2.0386 0.8773
-11.2340 -30.0282 2.0010 0.8794
-10.7327 -30.0174 1.9897 0.8801
-2.8294 -8.2937 0.5469 0.9655
-2.5522 -8.2638 0.5398 0.9659
-2.2836 -8.2409 0.5337 0.9663
-2.1525 -8.2333 0.5311 0.9665
-1.8948 -8.2225 0.5267 0.9667
-1.6413 -8.2121 0.5227 0.9670
-1.5163 -8.2092 0.5210 0.9671
-1.2692 -8.2075 0.5184 0.9673
-1.1484 -8.2200 0.5180 0.9673
-0.7938 -8.3327 0.5224 0.9670
-2.4309 -30.1826 1.8899 0.8857
-1.5439 -30.1635 1.8851 0.8860
-0.0947 -2.5908 0.1618 0.9897
-0.0562 -2.5618 0.1599 0.9898
0.0916 -2.5049 0.1564 0.9900
0.1632 -3.1871 0.1992 0.9873
2.8318 -29.7255 1.8637 0.8872
3.2697 -29.7161 1.8659 0.8871
3.7088 -29.7067 1.8685 0.8869
4.1491 -29.6972 1.8715 0.8868
5.4801 -29.6686 1.8831 0.8861
10.9930 -47.7041 3.0554 0.8218
11.7257 -47.6884 3.0651 0.8213
13.2060 -47.6565 3.0865 0.8202
14.7083 -47.6242 3.1109 0.8189
15.4687 -47.6078 3.1243 0.8182
16.2359 -47.5913 3.1385 0.8175
17.0103 -47.5747 3.1534 0.8167
18.5821 -47.5409 3.1858 0.8150
19.3806 -47.5236 3.2033 0.8141
23.5179 -47.4346 3.3045 0.8088
24.4552 -47.5658 3.3382 0.8071
25.2495 -45.7702 3.2626 0.8110
26.1053 -45.7286 3.2864 0.8097
9.0283 -11.1768 0.8967 0.9440
9.1321 -10.6529 0.8758 0.9453
9.4087 -10.6564 0.8872 0.9446
9.2063 -10.1249 0.8541 0.9466
9.7949 -10.4610 0.8944 0.9442
9.8617 -9.6479 0.8611 0.9462
25.5319 -19.1262 1.9911 0.8800
25.4282 -17.9129 1.9413 0.8828
27.2255 -18.5898 2.0576 0.8762
19.4068 -12.4356 1.4386 0.9118
6.5525 -4.0649 0.4813 0.9696
5.5263 -3.1014 0.3955 0.9749
5.7285 -3.1058 0.4067 0.9742
5.9488 -2.8954 0.4129 0.9738
5.9470 -2.5787 0.4046 0.9744
5.8316 -2.3286 0.3919 0.9751
5.7884 -2.2138 0.3868 0.9755
6.3593 -2.0150 0.4164 0.9736
6.5503 -1.9707 0.4269 0.9730
7.4063 -1.6498 0.4736 0.9700
7.5226 -1.5607 0.4795 0.9697
16.8519 -2.7322 1.0655 0.9339
17.2063 -2.0206 1.0813 0.9329
22.3094 -2.2899 1.3997 0.9140
26.3871 -2.3194 1.6533 0.8993
54.5556 -3.1923 3.4109 0.8033
55.9559 -1.6357 3.4939 0.7990
64.6631 9.5164 4.0793 0.7696
51.9787 8.4274 3.2866 0.8097
52.0750 10.0127 3.3097 0.8085
41.0242 8.5113 2.6150 0.8454
41.1832 9.1739 2.6334 0.8444
36.4772 8.6870 2.3404 0.8605
31.0959 8.3727 2.0099 0.8789
31.0749 8.8560 2.0167 0.8785
28.4265 8.5523 1.8528 0.8878
28.2349 8.9466 1.8486 0.8881
30.5390 10.6682 2.0190 0.8784
25.7332 9.4134 1.7102 0.8960
25.5166 9.7593 1.7051 0.8963
25.3190 10.1102 1.7016 0.8965
6.8774 3.9930 0.4963 0.9686
6.5214 4.0456 0.4790 0.9697
6.3531 4.0710 0.4709 0.9702
6.1055 4.3010 0.4661 0.9705
6.1796 4.7718 0.4873 0.9692
6.2085 4.9405 0.4952 0.9687
6.2440 5.1196 0.5040 0.9682
6.4133 5.7463 0.5375 0.9661
2.3603 3.8675 0.2828 0.9820
2.2834 3.8674 0.2803 0.9822
2.2125 3.8756 0.2785 0.9823
2.0734 3.8919 0.2752 0.9825
2.0067 3.9030 0.2739 0.9826
1.8741 3.9229 0.2714 0.9827
1.7418 3.9378 0.2687 0.9829
1.4907 3.9845 0.2655 0.9831
1.4300 3.9993 0.2651 0.9831
1.4709 4.7627 0.3111 0.9802
-1.3693 5.2377 0.3379 0.9785
-1.3951 5.0344 0.3261 0.9793
-1.4191 4.8448 0.3151 0.9800
-1.4826 4.3457 0.2866 0.9818
-1.5713 3.6975 0.2508 0.9840
-1.6246 3.6730 0.2507 0.9840
-1.6909 3.6766 0.2526 0.9839
-1.7581 3.6802 0.2546 0.9838
-1.8265 3.6840 0.2566 0.9837
-1.8961 3.6880 0.2588 0.9835
-2.0391 3.6963 0.2635 0.9832
-2.1127 3.7008 0.2660 0.9831
-2.3875 3.7866 0.2794 0.9822
-2.4923 3.8275 0.2851 0.9819
-2.6015 3.8704 0.2911 0.9815
-4.0904 4.9153 0.3991 0.9747
-4.1376 4.5507 0.3839 0.9757
-4.1527 4.4353 0.3792 0.9759
-4.1674 4.3226 0.3748 0.9762
-4.1818 4.2127 0.3705 0.9765
-4.1960 4.1051 0.3664 0.9767
-4.2099 4.0000 0.3625 0.9770
-4.6270 3.9083 0.3780 0.9760
-4.8211 3.9530 0.3891 0.9753
-1.4516 0.8429 0.1048 0.9933
-1.4446 0.8108 0.1034 0.9934
-1.2577 0.6351 0.0879 0.9944
-1.1337 0.5314 0.0781 0.9950
-1.1314 0.5104 0.0775 0.9950
-1.1290 0.4896 0.0768 0.9951
-1.1267 0.4691 0.0762 0.9951
-1.1222 0.4293 0.0750 0.9952
-1.1181 0.3906 0.0739 0.9953
-1.1162 0.3717 0.0734 0.9953
-1.1147 0.3532 0.0730 0.9953
-1.1123 0.3170 0.0722 0.9954
-1.1112 0.2992 0.0718 0.9954
-1.1102 0.2816 0.0715 0.9954
-1.1092 0.2642 0.0712 0.9954
-1.1083 0.2469 0.0709 0.9955
-1.1074 0.2298 0.0706 0.9955
-1.0859 0.1436 0.0684 0.9956
-1.0598 0.0776 0.0663 0.9958
-1.0375 0.0152 0.0648 0.9959
-0.9685 0.0000 0.0497 0.9961
-0.9762 -0.0285 0.0501 0.9961
-0.9845 -0.0576 0.0506 0.9961
-0.9897 -0.0724 0.0509 0.9960
-1.0242 -0.1661 0.0532 0.9959
-1.0361 -0.1992 0.0541 0.9958
-1.0407 -0.2318 0.0547 0.9957
-1.0539 -0.3171 0.0565 0.9956
-1.0733 -0.3926 0.0586 0.9954
-1.0767 -0.4299 0.0595 0.9954
-1.0785 -0.4490 0.0599 0.9953
-1.0824 -0.4882 0.0609 0.9953
-1.0867 -0.5289 0.0620 0.9952
-1.1839 -0.5978 0.0680 0.9947
-1.4204 -0.7434 0.0822 0.9936
-1.4187 -0.7692 0.0828 0.9936
-1.4171 -0.8228 0.0841 0.9935
-48.0995 -30.8215 2.9304 0.7955
-5.9906 -3.9634 0.3685 0.9716
-45.0430 -30.7557 2.7978 0.8038
-17.4774 -12.3119 1.0966 0.9179
-17.2841 -12.5576 1.0959 0.9180
-39.6805 -30.6403 2.5717 0.8181
-34.4549 -30.8717 2.3731 0.8309
-33.0527 -30.4977 2.3070 0.8352
-32.0766 -30.4767 2.2697 0.8376
-31.1313 -30.4563 2.2341 0.8399
-29.3261 -30.4175 2.1674 0.8443
-28.4630 -30.3989 2.1362 0.8464
-2.4582 -2.7036 0.1874 0.9855
-2.2999 -2.6049 0.1783 0.9862
-2.2818 -2.6618 0.1798 0.9861
-2.3011 -2.7650 0.1845 0.9857
-24.4862 -30.3134 1.9989 0.8555
-23.7503 -30.2975 1.9748 0.8571
-20.5492 -30.5725 1.8896 0.8628
-19.2593 -30.5447 1.8523 0.8653
-7.0230 -12.3022 0.7267 0.9448
-16.6294 -30.1443 1.7660 0.8712
-16.0528 -30.1319 1.7513 0.8722
-14.9273 -30.1077 1.7238 0.8741
-14.3775 -30.0959 1.7109 0.8749
-13.8357 -30.0842 1.6986 0.8758
-13.3016 -30.0727 1.6868 0.8766
-12.7747 -30.0613 1.6755 0.8774
-3.0933 -8.2683 0.4528 0.9653
-2.8058 -8.2246 0.4458 0.9658
-2.6700 -8.2175 0.4432 0.9660
-2.2718 -8.1982 0.4364 0.9665
-2.1415 -8.1915 0.4343 0.9667
-1.8853 -8.1811 0.4307 0.9669
-1.7587 -8.1761 0.4290 0.9671
-1.6331 -8.1711 0.4274 0.9672
-1.5088 -8.1685 0.4261 0.9673
-1.3852 -8.1660 0.4249 0.9674
-1.2628 -8.1661 0.4239 0.9674
-1.1417 -8.1720 0.4233 0.9675
-1.0205 -8.1742 0.4226 0.9675
-0.7832 -8.2216 0.4237 0.9675
-0.5824 -8.8454 0.4547 0.9651
-0.0946 -2.5900 0.1330 0.9897
-0.0185 -2.5327 0.1299 0.9899
0.0183 -2.5050 0.1285 0.9900
0.2095 -3.1820 0.1636 0.9873
0.2565 -3.1848 0.1639 0.9873
4.1491 -29.6972 1.5382 0.8868
4.5910 -29.6877 1.5410 0.8866
5.0346 -29.6781 1.5441 0.8864
5.9277 -29.6589 1.5515 0.8859
10.2647 -47.7198 2.5038 0.8224
10.9988 -47.7294 2.5125 0.8219
12.4698 -47.6977 2.5290 0.8208
13.2129 -47.6817 2.5381 0.8202
14.7083 -47.6242 2.5568 0.8190
18.5919 -47.5660 2.6197 0.8150
3.6905 -8.6845 0.4840 0.9629
21.9007 -47.6207 2.6887 0.8106
24.4552 -47.5657 2.7436 0.8072
25.2510 -47.3973 2.7548 0.8065
26.1053 -45.7286 2.7010 0.8099
26.9875 -45.7096 2.7229 0.8085
8.3386 -12.4059 0.7668 0.9419
9.0138 -9.9132 0.6873 0.9478
9.2003 -9.8261 0.6905 0.9475
9.8733 -9.9457 0.7189 0.9454
10.1589 -9.9387 0.7290 0.9447
10.3015 -9.5052 0.7190 0.9454
10.6373 -9.5311 0.7326 0.9444
23.6546 -19.9797 1.5883 0.8834
26.4131 -18.6067 1.6573 0.8786
6.5300 -4.0509 0.3942 0.9697
6.1513 -3.5714 0.3649 0.9719
5.8778 -3.0765 0.3403 0.9738
5.6303 -2.5396 0.3168 0.9756
5.6792 -2.3645 0.3156 0.9757
5.8421 -2.1371 0.3191 0.9754
5.7167 -1.9037 0.3091 0.9762
5.6567 -1.7924 0.3044 0.9765
6.5459 -1.8655 0.3492 0.9731
6.4727 -1.7428 0.3439 0.9735
7.3016 -1.6265 0.3837 0.9705
7.4108 -1.4249 0.3871 0.9702
7.4660 -1.3227 0.3889 0.9701
17.0667 -2.7671 0.8869 0.9331
17.1494 -2.5239 0.8892 0.9329
17.5062 -2.0558 0.9042 0.9318
22.1866 -2.2773 1.1441 0.9145
22.1821 -1.9497 1.1423 0.9147
54.3342 -3.1793 2.7919 0.8041
54.9424 -1.6061 2.8196 0.8024
63.8545 8.4462 3.3040 0.7726
58.8057 8.6544 3.0490 0.7881
52.9047 8.5775 2.7493 0.8068
38.0740 9.0672 2.0077 0.8549
36.8548 9.3480 1.9504 0.8587
35.4391 9.5421 1.8826 0.8633
28.0646 8.8926 1.5102 0.8888
28.1563 9.3765 1.5223 0.8879
20.1889 9.8265 1.1518 0.9140
7.2439 3.9274 0.4227 0.9675
6.5071 4.0368 0.3928 0.9698
6.1777 4.0871 0.3800 0.9708
6.1182 4.4451 0.3879 0.9702
6.1435 4.6022 0.3938 0.9697
6.1698 4.7642 0.3999 0.9693
6.2321 5.1098 0.4134 0.9682
6.2778 5.3025 0.4215 0.9676
6.3154 5.4944 0.4294 0.9670
2.4089 3.8205 0.2317 0.9821
2.3340 3.8244 0.2298 0.9822
2.2595 3.8270 0.2280 0.9824
2.1204 3.8437 0.2252 0.9826
2.0537 3.8549 0.2241 0.9827
1.9224 3.8774 0.2220 0.9828
1.8562 3.8856 0.2209 0.9829
1.7904 3.8930 0.2198 0.9830
1.7252 3.9003 0.2188 0.9831
1.6612 3.9090 0.2179 0.9831
1.5358 3.9292 0.2164 0.9832
1.4762 3.9459 0.2161 0.9833
1.4157 3.9596 0.2157 0.9833
1.3555 3.9732 0.2153 0.9833
1.5555 5.3104 0.2838 0.9781
-1.2900 5.5981 0.2947 0.9773
-1.3202 5.3692 0.2836 0.9781
-1.3482 5.1570 0.2734 0.9789
-1.3743 4.9594 0.2640 0.9796
-1.4430 4.4409 0.2395 0.9815
-1.4631 4.2888 0.2325 0.9820
-1.4822 4.1454 0.2258 0.9825
-1.5002 4.0100 0.2196 0.9830
-1.5343 3.7622 0.2084 0.9839
-1.5518 3.6518 0.2035 0.9842
-1.6008 3.6192 0.2030 0.9843
-1.6660 3.6225 0.2045 0.9842
-1.7322 3.6259 0.2061 0.9840
-1.8678 3.6329 0.2095 0.9838
-2.0802 3.6439 0.2152 0.9833
-2.1537 3.6478 0.2173 0.9832
-2.3271 3.6907 0.2238 0.9827
-2.6309 3.7932 0.2368 0.9817
-2.7448 3.8365 0.2420 0.9813
-4.0211 5.1297 0.3343 0.9742
-4.0384 4.9996 0.3297 0.9746
-4.0552 4.8730 0.3252 0.9749
-4.0877 4.6299 0.3168 0.9756
-4.1034 4.5130 0.3129 0.9759
-4.1187 4.3990 0.3091 0.9762
-4.1338 4.2877 0.3055 0.9764
-4.1484 4.1790 0.3021 0.9767
-4.1629 4.0728 0.2987 0.9769
-4.2167 3.7783 0.2904 0.9776
-4.2363 3.6857 0.2880 0.9778
-4.2555 3.5946 0.2858 0.9779
-4.2966 3.5230 0.2850 0.9780
-4.5962 3.5491 0.2979 0.9770
-6.8951 5.0097 0.4372 0.9664
-6.9360 4.7360 0.4308 0.9669
-6.9772 4.4709 0.4251 0.9674
-1.4486 0.8987 0.0874 0.9932
-1.4185 0.8516 0.0849 0.9934
-1.4171 0.8228 0.0841 0.9935
-1.4204 0.7434 0.0822 0.9936
-1.1839 0.5978 0.0680 0.9947
-1.0785 0.4491 0.0599 0.9953
-1.0767 0.4300 0.0595 0.9954
-1.0750 0.4111 0.0590 0.9954
-1.0733 0.3926 0.0586 0.9954
-1.0704 0.3739 0.0582 0.9955
-1.0621 0.3537 0.0574 0.9955
-1.0539 0.3171 0.0565 0.9956
-1.0510 0.2996 0.0561 0.9956
-1.0457 0.2652 0.0553 0.9957
-1.0407 0.2318 0.0547 0.9957
-1.0383 0.2154 0.0544 0.9958
-1.0361 0.1993 0.0541 0.9958
-1.0304 0.1825 0.0537 0.9958
-1.0242 0.1661 0.0532 0.9959
-1.0180 0.1498 0.0528 0.9959
-1.0063 0.1182 0.0520 0.9960
-0.9951 0.0875 0.0512 0.9960
-0.9898 0.0725 0.0509 0.9960
-0.9845 0.0576 0.0506 0.9961
-0.9803 0.0430 0.0503 0.9961
-0.9762 0.0286 0.0501 0.9961
-0.9723 0.0142 0.0499 0.9961
-0.9255 -0.0541 0.0373 0.9963
-0.9292 -0.0680 0.0374 0.9963
-0.9580 -0.1554 0.0390 0.9961
-0.9634 -0.1707 0.0393 0.9961
-0.9766 -0.2326 0.0404 0.9960
-0.9786 -0.2482 0.0406 0.9960
-0.9828 -0.2801 0.0411 0.9959
-0.9851 -0.2964 0.0413 0.9959
-0.9873 -0.3129 0.0416 0.9959
-0.9938 -0.3309 0.0421 0.9958
-1.0014 -0.3498 0.0426 0.9958
-1.0216 -0.4079 0.0442 0.9956
-1.0243 -0.4441 0.0449 0.9955
-1.0257 -0.4627 0.0452 0.9955
-1.0272 -0.4816 0.0456 0.9955
-1.0304 -0.5203 0.0464 0.9954
-1.0322 -0.5402 0.0468 0.9953
-1.4222 -0.8823 0.0673 0.9933
-46.5358 -30.7879 2.2426 0.7998
-45.0430 -30.7557 2.1921 0.8039
-43.6156 -30.7250 2.1443 0.8077
-39.6805 -30.6403 2.0150 0.8182
-38.4714 -30.6143 1.9761 0.8213
-36.6045 -30.9180 1.9258 0.8255
-35.5108 -30.8944 1.8918 0.8283
-34.4549 -30.8717 1.8594 0.8309
-32.0766 -30.4767 1.7783 0.8377
-31.1313 -30.4563 1.7504 0.8400
-8.1845 -8.7409 0.4813 0.9532
-2.3215 -2.5532 0.1387 0.9863
-2.3038 -2.6093 0.1399 0.9862
-2.2856 -2.6663 0.1411 0.9860
-2.3061 -2.7711 0.1449 0.9857
-2.2156 -3.0032 0.1500 0.9852
-2.2334 -3.1218 0.1543 0.9848
-20.5492 -30.5725 1.4805 0.8629
-18.6329 -30.5312 1.4376 0.8666
-18.0182 -30.5180 1.4244 0.8677
-7.0275 -12.3102 0.5697 0.9448
-16.6294 -30.1443 1.3837 0.8713
-16.0528 -30.1319 1.3722 0.8723
-15.4856 -30.1197 1.3612 0.8732
-14.9273 -30.1077 1.3506 0.8741
-14.3775 -30.0959 1.3405 0.8750
-13.8357 -30.0842 1.3309 0.8759
-3.0616 -8.1836 0.3512 0.9656
-2.9269 -8.1861 0.3494 0.9658
-2.6572 -8.1780 0.3456 0.9662
-2.3919 -8.1661 0.3420 0.9665
-2.2610 -8.1592 0.3403 0.9667
-1.8758 -8.1402 0.3357 0.9671
-1.7499 -8.1353 0.3345 0.9672
-1.6250 -8.1307 0.3333 0.9674
-1.2568 -8.1269 0.3305 0.9676
-1.0148 -8.1286 0.3292 0.9677
-0.8954 -8.1377 0.3290 0.9678
-0.7776 -8.1624 0.3295 0.9677
-0.2159 -2.6805 0.1081 0.9893
-0.1744 -2.6494 0.1067 0.9894
-0.1340 -2.6190 0.1054 0.9896
-0.0946 -2.5893 0.1041 0.9897
-0.0561 -2.5603 0.1029 0.9898
0.0183 -2.5043 0.1007 0.9900
0.0924 -2.5288 0.1017 0.9899
0.2090 -3.1740 0.1278 0.9873
0.3029 -3.1797 0.1284 0.9873
3.7088 -29.7067 1.2032 0.8871
4.1491 -29.6971 1.2052 0.8869
4.5910 -29.6877 1.2074 0.8867
5.9277 -29.6589 1.2156 0.8860
10.2647 -47.7198 1.9618 0.8225
10.9988 -47.7293 1.9686 0.8219
3.2338 -12.3694 0.5139 0.9501
13.9615 -47.6656 1.9963 0.8197
3.1545 -8.8224 0.3766 0.9632
3.3343 -8.5306 0.3681 0.9640
3.4802 -8.5339 0.3704 0.9638
3.6294 -8.5407 0.3730 0.9635
3.7769 -8.5390 0.3753 0.9633
4.0704 -8.5204 0.3795 0.9629
4.2220 -8.5154 0.3820 0.9627
4.5573 -8.5542 0.3896 0.9619
26.1052 -45.7286 2.1163 0.8099
26.9875 -45.7096 2.1335 0.8086
24.9285 -30.8608 1.5945 0.8532
9.4611 -9.8132 0.5479 0.9469
9.7279 -9.7991 0.5550 0.9462
10.0197 -9.8025 0.5634 0.9454
10.2087 -9.6995 0.5660 0.9452
10.3443 -9.5446 0.5657 0.9452
10.6712 -9.5614 0.5759 0.9443
24.2966 -19.9211 1.2628 0.8818
24.3503 -19.3771 1.2507 0.8829
25.3995 -19.6128 1.2898 0.8794
25.5325 -19.1266 1.2822 0.8801
6.0890 -3.5353 0.2830 0.9722
5.7115 -3.2054 0.2632 0.9741
5.8646 -3.0696 0.2660 0.9738
5.8492 -2.8469 0.2615 0.9743
5.8322 -2.7340 0.2589 0.9745
5.8240 -2.5253 0.2551 0.9749
5.6733 -2.2654 0.2455 0.9758
5.5053 -2.1056 0.2369 0.9767
5.8961 -2.0597 0.2510 0.9753
5.8312 -1.9419 0.2470 0.9757
6.5165 -1.8571 0.2723 0.9732
7.3417 -1.6354 0.3023 0.9703
7.5076 -1.3301 0.3064 0.9699
17.3308 -2.2924 0.7026 0.9324
22.2242 -2.2811 0.8979 0.9144
26.3936 -2.3199 1.0649 0.8994
26.8048 -1.9619 1.0802 0.8980
54.6096 -3.1955 2.1986 0.8033
54.2643 -2.3803 2.1831 0.8046
33.2285 3.4107 1.3425 0.8748
33.3042 3.9110 1.3478 0.8744
33.4577 4.9239 1.3592 0.8734
33.5398 5.4379 1.3656 0.8728
41.5020 9.2450 1.7089 0.8435
41.1148 10.4285 1.7048 0.8438
28.5946 8.1491 1.1950 0.8878
27.7051 8.7787 1.1681 0.8902
27.3522 9.1087 1.1587 0.8910
28.0648 9.8039 1.1948 0.8878
28.2650 10.3396 1.2096 0.8865
16.2924 7.9300 0.7283 0.9300
15.7498 7.9525 0.7091 0.9318
7.4288 3.8883 0.3370 0.9670
7.0327 3.9469 0.3241 0.9682
6.4932 4.0281 0.3071 0.9699
6.1649 4.0786 0.2971 0.9708
6.0628 4.1397 0.2951 0.9710
6.0857 4.2871 0.2992 0.9706
6.1079 4.4376 0.3034 0.9702
6.1590 4.7558 0.3128 0.9693
6.1872 4.9236 0.3178 0.9688
6.2613 5.2886 0.3294 0.9677
6.3553 5.6943 0.3430 0.9664
6.4108 5.9152 0.3506 0.9657
2.5332 3.7688 0.1825 0.9820
2.4571 3.7736 0.1810 0.9821
2.3823 3.7782 0.1795 0.9823
2.3083 3.7823 0.1781 0.9824
2.2361 3.7874 0.1768 0.9825
2.1004 3.8074 0.1748 0.9827
2.0345 3.8187 0.1739 0.9828
1.9692 3.8301 0.1731 0.9829
1.6451 3.8713 0.1691 0.9833
1.3422 3.9343 0.1671 0.9835
1.2827 3.9478 0.1668 0.9835
1.3609 4.4065 0.1854 0.9817
1.4863 5.0743 0.2125 0.9791
1.6002 5.7746 0.2408 0.9763
-1.2361 5.7465 0.2362 0.9767
-1.2690 5.5067 0.2271 0.9776
-1.2994 5.2848 0.2187 0.9784
-1.3278 5.0787 0.2110 0.9792
-1.4020 4.5395 0.1910 0.9812
-1.4237 4.3818 0.1852 0.9817
-1.5069 3.8553 0.1664 0.9836
-1.5255 3.7406 0.1624 0.9840
-1.5431 3.6314 0.1586 0.9843
-1.5919 3.5990 0.1582 0.9844
-1.7215 3.6035 0.1605 0.9841
-1.7882 3.6067 0.1618 0.9840
-1.9251 3.6134 0.1646 0.9837
-2.0668 3.6204 0.1676 0.9834
-2.1397 3.6240 0.1691 0.9833
-2.3082 3.6606 0.1739 0.9828
-2.4972 3.7152 0.1799 0.9822
-2.5968 3.7441 0.1831 0.9819
-3.9678 5.2169 0.2634 0.9741
-4.0207 4.8315 0.2526 0.9752
-4.0698 4.4760 0.2431 0.9761
-4.1006 4.2534 0.2375 0.9766
-4.1327 4.0432 0.2324 0.9771
-4.1486 3.9418 0.2300 0.9774
-4.1680 3.8459 0.2279 0.9776
-4.1880 3.7525 0.2260 0.9777
-4.2076 3.6607 0.2242 0.9779
-4.2270 3.5704 0.2224 0.9781
-6.9342 4.4435 0.3310 0.9676
-1.4222 0.8823 0.0673 0.9933
-1.4127 0.8480 0.0662 0.9934
-1.4123 0.8200 0.0656 0.9935
-1.4130 0.7930 0.0651 0.9935
-1.0322 0.5403 0.0468 0.9953
-1.0305 0.5204 0.0464 0.9954
-1.0288 0.5007 0.0460 0.9954
-1.0273 0.4816 0.0456 0.9955
-1.0257 0.4627 0.0452 0.9955
-1.0243 0.4442 0.0449 0.9955
-1.0216 0.4079 0.0442 0.9956
-1.0091 0.3691 0.0432 0.9957
-1.0014 0.3498 0.0426 0.9958
-0.9828 0.2801 0.0411 0.9959
-0.9807 0.2641 0.0408 0.9959
-0.9688 0.1863 0.0397 0.9961
-0.9528 0.1402 0.0387 0.9962
-0.9477 0.1254 0.0384 0.9962
-0.9427 0.1107 0.0381 0.9962
-0.9292 0.0680 0.0374 0.9963
-0.9219 0.0404 0.0371 0.9963
-0.9149 0.0134 0.0368 0.9963
-0.8609 0.0000 0.0251 0.9966
-0.8639 -0.0126 0.0251 0.9965
-0.8701 -0.0382 0.0253 0.9965
-0.8798 -0.0773 0.0257 0.9965
-0.8832 -0.0907 0.0258 0.9965
-0.8867 -0.1041 0.0260 0.9964
-0.8910 -0.1179 0.0262 0.9964
-0.8954 -0.1318 0.0263 0.9964
-0.9181 -0.2187 0.0275 0.9962
-0.9213 -0.2481 0.0278 0.9962
-0.9230 -0.2630 0.0279 0.9962
-0.9597 -0.3832 0.0301 0.9959
-0.9718 -0.4214 0.0308 0.9958
-0.9747 -0.4396 0.0311 0.9957
-0.9780 -0.4938 0.0319 0.9956
-0.9791 -0.5125 0.0322 0.9956
-0.9804 -0.5315 0.0324 0.9955
-1.1001 -0.6174 0.0367 0.9950
-46.5359 -30.7878 1.6236 0.7999
-17.3158 -12.5807 0.6228 0.9179
-40.9385 -30.6674 1.4883 0.8149
-39.6805 -30.6403 1.4587 0.8182
-37.7385 -30.9424 1.4200 0.8226
-36.6046 -30.9179 1.3942 0.8255
-32.0766 -30.4767 1.2874 0.8377
-8.9019 -8.7086 0.3624 0.9514
-8.6334 -8.6965 0.3566 0.9521
-8.3743 -8.6857 0.3511 0.9529
-2.3254 -2.5575 0.1006 0.9863
-2.3076 -2.6136 0.1014 0.9861
-2.1057 -2.4564 0.0941 0.9871
-2.3111 -2.7771 0.1051 0.9856
-2.2146 -3.0018 0.1085 0.9852
-2.2324 -3.1204 0.1116 0.9848
-21.2142 -30.5868 1.0831 0.8616
-20.5492 -30.5725 1.0718 0.8629
-19.8978 -30.5585 1.0610 0.8642
-19.2593 -30.5447 1.0507 0.8655
-18.6329 -30.5312 1.0407 0.8666
-18.0182 -30.5180 1.0312 0.8678
-7.0352 -12.3235 0.4129 0.9448
-16.6294 -30.1443 1.0017 0.8713
-15.4856 -30.1197 0.9854 0.8733
-14.3775 -30.0958 0.9705 0.8751
-13.8357 -30.0842 0.9635 0.8759
-13.3016 -30.0727 0.9568 0.8767
-3.4696 -8.1646 0.2581 0.9651
-2.9141 -8.1502 0.2518 0.9660
-2.3805 -8.1274 0.2464 0.9667
-2.1212 -8.1137 0.2440 0.9670
-1.9933 -8.1069 0.2429 0.9671
-1.3721 -8.0887 0.2387 0.9677
-1.2508 -8.0882 0.2381 0.9678
-1.1301 -8.0887 0.2376 0.9678
-1.0091 -8.0834 0.2370 0.9679
-0.3020 -2.7446 0.0803 0.9890
-0.2583 -2.7117 0.0793 0.9892
-0.2158 -2.6797 0.0782 0.9893
-0.0185 -2.5314 0.0737 0.9899
0.0184 -2.5204 0.0733 0.9900
0.0555 -2.5305 0.0736 0.9899
3.7087 -29.7067 0.8711 0.8871
4.1491 -29.6972 0.8725 0.8869
5.4801 -29.6686 0.8779 0.8863
10.9988 -47.7293 1.4252 0.8220
11.7319 -47.7136 1.4297 0.8215
13.2129 -47.6817 1.4397 0.8204
13.9615 -47.6656 1.4452 0.8197
14.7083 -47.6242 1.4503 0.8192
3.1771 -8.4922 0.2638 0.9644
3.3189 -8.4911 0.2653 0.9642
3.4609 -8.4864 0.2667 0.9640
3.6091 -8.4929 0.2685 0.9637
4.5128 -8.4707 0.2793 0.9623
4.6714 -8.4679 0.2814 0.9620
26.9875 -45.7096 1.5445 0.8086
9.2381 -10.7764 0.4130 0.9448
9.1171 -10.3261 0.4008 0.9464
9.1076 -10.0164 0.3939 0.9473
9.0942 -9.7127 0.3872 0.9481
9.8357 -9.9078 0.4062 0.9457
10.0676 -9.8493 0.4098 0.9452
10.1228 -9.6179 0.4063 0.9457
10.3874 -9.5844 0.4112 0.9450
10.4727 -9.3836 0.4091 0.9453
10.9082 -9.2136 0.4155 0.9445
24.4635 -19.4673 0.9097 0.8824
25.5448 -19.1358 0.9287 0.8801
5.4160 -3.4705 0.1872 0.9746
5.5434 -3.3277 0.1881 0.9745
5.8798 -2.9689 0.1917 0.9740
5.9566 -2.8993 0.1928 0.9738
5.8823 -2.7575 0.1890 0.9743
5.5573 -2.3138 0.1752 0.9762
5.6250 -1.9650 0.1734 0.9764
5.8842 -1.8644 0.1796 0.9756
6.9482 -1.8708 0.2094 0.9716
6.9360 -1.7593 0.2082 0.9718
7.3823 -1.6445 0.2201 0.9702
7.2878 -1.5120 0.2166 0.9707
7.5497 -1.3375 0.2231 0.9698
16.9016 -2.7403 0.4982 0.9338
21.6183 -2.5387 0.6334 0.9166
26.3590 -2.3169 0.7699 0.8995
26.7212 -1.9557 0.7796 0.8983
54.5688 -2.3936 1.5893 0.8037
33.5264 5.4357 0.9883 0.8729
34.1043 7.5971 1.0167 0.8695
41.7462 9.9418 1.2487 0.8422
11.1674 4.0851 0.3460 0.9535
11.1688 4.4598 0.3499 0.9530
11.2023 4.6641 0.3531 0.9526
7.2100 3.9091 0.2386 0.9677
6.8302 3.9657 0.2298 0.9689
6.6514 3.9929 0.2257 0.9694
6.0978 4.4304 0.2193 0.9703
6.1224 4.5863 0.2226 0.9699
6.1758 4.9145 0.2296 0.9689
6.2817 5.4650 0.2423 0.9672
2.5051 3.7270 0.1307 0.9822
2.4301 3.7319 0.1296 0.9823
2.3562 3.7369 0.1285 0.9825
2.2133 3.7487 0.1267 0.9827
2.1467 3.7602 0.1260 0.9828
2.0808 3.7718 0.1253 0.9829
1.9510 3.7947 0.1242 0.9831
1.7571 3.8207 0.1224 0.9833
1.6933 3.8282 0.1218 0.9834
1.5674 3.8435 0.1208 0.9835
1.5070 3.8554 0.1204 0.9836
1.3292 3.8961 0.1198 0.9837
1.2703 3.9095 0.1196 0.9837
0.6338 9.6245 0.2806 0.9621
-1.2155 5.6506 0.1682 0.9771
-1.2486 5.4183 0.1618 0.9780
-1.3079 5.0029 0.1505 0.9795
-1.3359 4.8208 0.1456 0.9802
-1.3890 4.4973 0.1370 0.9813
-1.4132 4.3494 0.1331 0.9819
-1.4362 4.2097 0.1294 0.9824
-1.4785 3.9520 0.1228 0.9833
-1.4981 3.8328 0.1197 0.9837
-1.5168 3.7193 0.1169 0.9841
-1.5831 3.5793 0.1139 0.9845
-1.6469 3.5809 0.1147 0.9844
-1.7771 3.5845 0.1164 0.9841
-1.8445 3.5875 0.1174 0.9840
-1.9130 3.5907 0.1184 0.9839
-1.9826 3.5939 0.1194 0.9837
-2.0536 3.5973 0.1205 0.9836
-2.2006 3.6058 0.1229 0.9832
-2.2895 3.6311 0.1249 0.9830
-2.4764 3.6843 0.1292 0.9824
-2.7853 3.7753 0.1365 0.9814
-3.9513 5.0407 0.1864 0.9747
-4.0038 4.6707 0.1790 0.9757
-4.0367 4.4396 0.1746 0.9763
-4.0526 4.3283 0.1725 0.9766
-4.0697 4.2212 0.1706 0.9768
-4.0864 4.1165 0.1688 0.9771
-4.1028 4.0140 0.1670 0.9773
-4.1191 3.9137 0.1653 0.9775
-4.1395 3.8197 0.1639 0.9777
-4.1596 3.7271 0.1625 0.9779
-4.2180 3.4586 0.1587 0.9784
-4.2740 3.2018 0.1554 0.9789
-4.2923 3.1186 0.1544 0.9790
-4.3102 3.0364 0.1534 0.9791
-4.6712 2.9933 0.1614 0.9780
-1.4151 0.8495 0.0480 0.9934
-1.1001 0.6174 0.0367 0.9950
-0.9804 0.5315 0.0324 0.9955
-0.9791 0.5125 0.0322 0.9956
-0.9718 0.4214 0.0308 0.9958
-0.9403 0.3285 0.0290 0.9960
-0.9230 0.2630 0.0279 0.9962
-0.9197 0.2333 0.0276 0.9962
-0.9181 0.2187 0.0275 0.9962
-0.9140 0.1896 0.0272 0.9963
-0.8954 0.1318 0.0263 0.9964
-0.8910 0.1179 0.0262 0.9964
-0.8832 0.0907 0.0258 0.9965
-0.8733 0.0511 0.0255 0.9965
-0.8639 0.0126 0.0251 0.9965
-0.8211 -0.0240 0.0148 0.9967
-0.8267 -0.0484 0.0149 0.9967
-0.8384 -0.0985 0.0152 0.9966
-0.8414 -0.1113 0.0153 0.9966
-0.8446 -0.1243 0.0154 0.9966
-0.8565 -0.1647 0.0157 0.9965
-0.8606 -0.1785 0.0158 0.9965
-0.8687 -0.2339 0.0162 0.9964
-0.8713 -0.2621 0.0164 0.9964
-0.8807 -0.2933 0.0167 0.9963
-0.8919 -0.3262 0.0171 0.9962
-0.8977 -0.3433 0.0173 0.9962
-0.9037 -0.3609 0.0175 0.9961
-0.9141 -0.3963 0.0179 0.9960
-0.9193 -0.4147 0.0182 0.9960
-0.9313 -0.4875 0.0189 0.9958
-5.8799 -3.6477 0.1246 0.9727
-5.8537 -3.7510 0.1252 0.9726
-13.0916 -8.9391 0.2855 0.9385
-13.1106 -9.5254 0.2919 0.9372
-40.9385 -30.6674 0.9212 0.8149
-37.7385 -30.9424 0.8789 0.8226
-36.6045 -30.9180 0.8629 0.8256
-8.0630 -8.6111 0.2125 0.9539
-2.3306 -2.5632 0.0624 0.9862
-2.3119 -2.6185 0.0629 0.9861
-2.2934 -2.6753 0.0635 0.9860
-2.0722 -2.4900 0.0583 0.9871
-19.8978 -30.5585 0.6567 0.8643
-18.6329 -30.5312 0.6442 0.8667
-18.0182 -30.5180 0.6382 0.8678
-16.0528 -30.1319 0.6149 0.8723
-14.3775 -30.0959 0.6007 0.8751
-3.4448 -8.1064 0.1586 0.9654
-3.2469 -7.9618 0.1549 0.9662
-3.1691 -8.1080 0.1568 0.9658
-3.0346 -8.1115 0.1560 0.9659
-2.7673 -8.1118 0.1544 0.9663
-2.5003 -8.0957 0.1526 0.9667
-1.9840 -8.0691 0.1496 0.9673
-1.8579 -8.0626 0.1490 0.9674
-1.4871 -8.0510 0.1474 0.9678
-1.2446 -8.0479 0.1467 0.9679
-0.3468 -2.7775 0.0504 0.9889
-0.3019 -2.7437 0.0497 0.9890
-0.2583 -2.7109 0.0490 0.9892
-0.0561 -2.5589 0.0461 0.9898
-0.0185 -2.5306 0.0456 0.9899
0.0185 -2.5323 0.0456 0.9899
0.0558 -2.5426 0.0458 0.9899
0.0933 -2.5530 0.0460 0.9898
0.1312 -2.5635 0.0462 0.9898
0.2080 -3.1582 0.0570 0.9874
0.2546 -3.1610 0.0571 0.9874
0.3014 -3.1638 0.0572 0.9874
0.3484 -3.1666 0.0574 0.9873
4.1491 -29.6971 0.5400 0.8870
5.4801 -29.6686 0.5433 0.8863
13.2129 -47.6817 0.8911 0.8204
2.7765 -9.4790 0.1779 0.9613
2.7320 -8.8460 0.1667 0.9636
2.8833 -8.4517 0.1608 0.9649
3.1642 -8.4576 0.1626 0.9645
3.3036 -8.4520 0.1634 0.9643
3.4445 -8.4463 0.1643 0.9642
3.5891 -8.4457 0.1653 0.9640
3.7340 -8.4419 0.1662 0.9637
4.0247 -8.4246 0.1681 0.9633
4.4832 -8.4151 0.1717 0.9626
4.6354 -8.4025 0.1728 0.9623
4.7946 -8.3987 0.1742 0.9620
26.9875 -45.7096 0.9560 0.8087
9.3883 -11.2812 0.2643 0.9430
9.5471 -10.1964 0.2516 0.9457
9.5195 -9.8737 0.2470 0.9466
9.7156 -9.7868 0.2484 0.9463
10.1188 -9.8994 0.2549 0.9449
10.4230 -9.9032 0.2589 0.9441
10.4308 -9.6245 0.2556 0.9448
10.5271 -9.4323 0.2546 0.9450
5.3791 -3.5587 0.1162 0.9745
5.5067 -3.4161 0.1167 0.9744
5.6355 -3.2720 0.1174 0.9743
5.8747 -3.1850 0.1203 0.9736
5.8433 -2.9505 0.1179 0.9742
5.3915 -2.4320 0.1065 0.9766
6.0677 -2.6310 0.1191 0.9739
5.7946 -2.4126 0.1130 0.9752
5.8020 -2.3168 0.1125 0.9753
6.0284 -2.3057 0.1162 0.9745
5.7714 -2.0161 0.1101 0.9758
5.8991 -1.8692 0.1114 0.9755
6.0551 -1.7256 0.1134 0.9751
6.0214 -1.6213 0.1123 0.9754
6.9563 -1.7644 0.1292 0.9717
6.9441 -1.6537 0.1286 0.9718
7.4791 -1.5517 0.1376 0.9699
26.1798 -2.6871 0.4740 0.9001
54.0036 -3.1600 0.9742 0.8054
62.7145 -1.8333 1.1299 0.7780
33.1547 3.4031 0.6002 0.8752
21.0644 4.3702 0.3874 0.9175
17.7653 3.9574 0.3278 0.9298
11.2842 3.3949 0.2122 0.9540
10.9936 3.4834 0.2077 0.9549
11.0262 3.8518 0.2103 0.9543
11.0429 4.0396 0.2118 0.9540
11.0598 4.2300 0.2133 0.9537
11.0883 4.4277 0.2150 0.9534
11.2209 5.2602 0.2232 0.9516
7.3958 3.8710 0.1503 0.9672
7.1900 3.8982 0.1473 0.9678
6.9969 3.9268 0.1445 0.9684
6.0886 4.4236 0.1355 0.9703
6.1367 4.7386 0.1396 0.9695
6.1636 4.9048 0.1419 0.9690
6.1954 5.0797 0.1443 0.9685
6.2657 5.4511 0.1496 0.9673
6.3010 5.6457 0.1524 0.9667
6.3553 5.8641 0.1557 0.9660
6.5238 6.5716 0.1668 0.9636
6.6071 6.8530 0.1714 0.9626
2.5535 3.6816 0.0807 0.9822
2.1925 3.7136 0.0777 0.9829
1.8048 3.7779 0.0754 0.9834
1.5530 3.8082 0.0741 0.9837
1.4925 3.8184 0.0738 0.9837
1.3172 3.8610 0.0735 0.9838
1.2593 3.8756 0.0734 0.9838
1.2015 3.8903 0.0733 0.9838
-1.1203 6.0654 0.1111 0.9756
-1.1595 5.8013 0.1065 0.9766
-1.1969 5.5641 0.1025 0.9775
-1.2327 5.3492 0.0989 0.9783
-1.2661 5.1490 0.0955 0.9790
-1.3265 4.7868 0.0895 0.9803
-1.4697 3.9285 0.0755 0.9834
-1.4894 3.8105 0.0737 0.9838
-1.5261 3.5911 0.0703 0.9845
-1.5745 3.5597 0.0701 0.9845
-1.6378 3.5611 0.0706 0.9844
-1.7020 3.5627 0.0711 0.9843
-1.7672 3.5642 0.0716 0.9842
-1.8333 3.5658 0.0722 0.9841
-2.1123 3.5775 0.0748 0.9835
-2.5533 3.6813 0.0807 0.9822
-2.6559 3.7122 0.0822 0.9819
-3.8986 5.1260 0.1160 0.9746
-3.9356 4.8724 0.1128 0.9753
-3.9534 4.7507 0.1113 0.9756
-4.0226 4.2963 0.1060 0.9767
-4.0399 4.1904 0.1048 0.9770
-4.0735 3.9853 0.1026 0.9775
-4.0910 3.8871 0.1016 0.9777
-4.1516 3.6120 0.0991 0.9782
-4.1711 3.5232 0.0983 0.9784
-4.1904 3.4359 0.0976 0.9786
-4.2094 3.3498 0.0969 0.9787
-4.2281 3.2650 0.0962 0.9789
-4.2466 3.1812 0.0956 0.9790
-4.4946 2.9737 0.0971 0.9787
-4.6553 2.9831 0.0996 0.9781
-0.9337 0.5421 0.0194 0.9957
-0.9328 0.5236 0.0193 0.9957
-0.9321 0.5054 0.0191 0.9958
-0.9090 0.3785 0.0177 0.9961
-0.9037 0.3609 0.0175 0.9961
-0.8862 0.3096 0.0169 0.9963
-0.8807 0.2933 0.0167 0.9963
-0.8713 0.2621 0.0164 0.9964
-0.8688 0.2339 0.0162 0.9964
-0.8675 0.2200 0.0161 0.9964
-0.8663 0.2063 0.0160 0.9964
-0.8648 0.1926 0.0160 0.9965
-0.8565 0.1647 0.0157 0.9965
-0.8525 0.1511 0.0156 0.9965
-0.8414 0.1113 0.0153 0.9966
-0.8384 0.0985 0.0152 0.9966
-0.8354 0.0857 0.0151 0.9966
-0.8295 0.0607 0.0150 0.9967
-0.8211 0.0240 0.0148 0.9967
-0.8184 0.0120 0.0147 0.9967
-0.7750 0.0000 0.0054 0.9969
-0.7774 -0.0113 0.0054 0.9969
-0.7799 -0.0228 0.0054 0.9969
-0.7823 -0.0343 0.0054 0.9969
-0.7848 -0.0459 0.0054 0.9969
-0.7951 -0.0934 0.0055 0.9968
-0.8061 -0.1428 0.0057 0.9967
-0.8096 -0.1557 0.0057 0.9967
-0.8131 -0.1687 0.0058 0.9967
-0.8167 -0.1819 0.0058 0.9967
-0.8200 -0.1953 0.0058 0.9966
-0.8209 -0.2082 0.0059 0.9966
-0.8228 -0.2345 0.0059 0.9966
-0.8287 -0.2626 0.0060 0.9965
-0.8478 -0.3242 0.0063 0.9964
-0.8672 -0.3912 0.0066 0.9962
-0.8717 -0.4086 0.0067 0.9962
-0.8810 -0.4449 0.0068 0.9961
-0.8858 -0.4636 0.0069 0.9960
-0.8883 -0.4816 0.0070 0.9960
-0.8891 -0.5162 0.0071 0.9959
-0.9723 -0.6031 0.0079 0.9954
-5.9234 -3.7956 0.0487 0.9723
-5.8970 -3.9014 0.0490 0.9721
-5.8703 -4.0083 0.0492 0.9720
-12.8284 -9.6099 0.1110 0.9379
-39.6805 -30.6403 0.3472 0.8183
-38.4714 -30.6143 0.3405 0.8215
-35.5108 -30.8944 0.3260 0.8284
-34.4548 -30.8717 0.3204 0.8311
-9.3316 -8.6099 0.0879 0.9505
-8.7758 -8.5853 0.0850 0.9521
-2.3369 -2.5701 0.0241 0.9862
-2.3182 -2.6256 0.0243 0.9861
-2.2991 -2.6820 0.0245 0.9860
-2.0827 -2.5027 0.0226 0.9871
-2.0386 -2.5237 0.0225 0.9871
-1.8987 -2.4964 0.0217 0.9875
-1.9408 -2.7128 0.0231 0.9867
-20.5492 -30.5725 0.2551 0.8630
-19.2593 -30.5447 0.2501 0.8655
-18.6329 -30.5312 0.2477 0.8667
-18.0182 -30.5180 0.2455 0.8678
-16.6294 -30.1443 0.2384 0.8714
-3.8615 -8.0831 0.0620 0.9648
-3.7122 -8.0717 0.0615 0.9651
-3.0208 -8.0744 0.0597 0.9661
-2.2291 -8.0445 0.0578 0.9672
-2.1014 -8.0381 0.0575 0.9673
-1.9748 -8.0317 0.0573 0.9675
-1.4778 -8.0008 0.0564 0.9680
-0.4403 -2.8470 0.0200 0.9885
-0.3928 -2.8113 0.0197 0.9887
-0.2157 -2.6781 0.0186 0.9893
-0.1339 -2.6167 0.0181 0.9896
-0.0561 -2.5582 0.0177 0.9898
-0.0185 -2.5299 0.0175 0.9899
0.0938 -2.5654 0.0178 0.9898
0.1319 -2.5759 0.0179 0.9897
0.2540 -3.1531 0.0219 0.9874
0.3007 -3.1559 0.0220 0.9874
0.3947 -3.1615 0.0221 0.9873
0.4421 -3.1643 0.0221 0.9873
4.5910 -29.6877 0.2081 0.8868
5.4801 -29.6685 0.2090 0.8863
10.2647 -47.7198 0.3381 0.8226
10.9988 -47.7293 0.3392 0.8221
11.7319 -47.7136 0.3403 0.8216
2.5299 -9.1297 0.0656 0.9628
2.5054 -8.5536 0.0617 0.9650
2.6076 -8.4432 0.0612 0.9653
2.7382 -8.4271 0.0614 0.9652
3.0105 -8.4199 0.0619 0.9649
3.1497 -8.4191 0.0623 0.9647
3.7129 -8.3942 0.0636 0.9640
4.2993 -8.3621 0.0651 0.9631
4.4500 -8.3528 0.0655 0.9628
8.3471 -12.4184 0.1036 0.9419
9.0449 -11.1974 0.0997 0.9440
8.8176 -10.5954 0.0955 0.9464
9.1332 -10.0446 0.0940 0.9471
9.6212 -9.6917 0.0946 0.9468
9.8093 -9.5967 0.0950 0.9466
10.4745 -9.6648 0.0987 0.9446
10.5820 -9.4814 0.0984 0.9448
10.7294 -9.3345 0.0985 0.9447
11.1310 -9.1264 0.0997 0.9440
25.5576 -19.1454 0.2212 0.8801
5.4697 -3.5049 0.0450 0.9743
5.5340 -3.4331 0.0451 0.9743
5.7291 -3.2153 0.0455 0.9741
5.4498 -2.5548 0.0417 0.9762
5.4214 -2.3507 0.0409 0.9766
5.5790 -2.2278 0.0416 0.9763
5.8639 -2.2427 0.0435 0.9752
5.8332 -2.1338 0.0430 0.9755
5.8030 -2.0271 0.0426 0.9757
5.7735 -1.9227 0.0421 0.9760
6.1263 -1.7459 0.0441 0.9748
6.6550 -1.6880 0.0476 0.9729
7.2576 -1.6167 0.0515 0.9707
7.4620 -1.5482 0.0528 0.9700
7.5778 -1.4570 0.0534 0.9696
7.5819 -1.3432 0.0533 0.9697
17.1586 -2.7820 0.1204 0.9328
21.9126 -2.5732 0.1528 0.9155
26.5307 -2.3320 0.1845 0.8989
54.6765 -2.3984 0.3791 0.8034
73.7814 -1.0782 0.5111 0.7444
55.9163 4.0925 0.3883 0.7991
33.9190 2.9814 0.2358 0.8727
33.2183 3.9009 0.2317 0.8748
33.3104 4.4060 0.2327 0.8742
24.8811 3.6617 0.1742 0.9043
17.4386 4.1530 0.1242 0.9308
11.5440 3.1083 0.0828 0.9533
10.9191 3.2851 0.0790 0.9554
10.9266 3.4622 0.0794 0.9552
10.9399 3.6432 0.0799 0.9549
10.9558 3.8272 0.0804 0.9546
10.9719 4.0137 0.0809 0.9543
11.0137 4.3979 0.0821 0.9537
11.0419 4.5973 0.0828 0.9533
11.0705 4.8002 0.0836 0.9529
11.1362 5.2204 0.0852 0.9520
11.1703 5.4369 0.0860 0.9515
11.2051 5.6578 0.0869 0.9510
7.3938 3.8700 0.0578 0.9672
7.1836 3.8947 0.0566 0.9678
6.9820 3.9185 0.0555 0.9685
6.4524 4.0028 0.0526 0.9701
6.2940 4.0331 0.0518 0.9705
6.1404 4.0624 0.0510 0.9710
6.0327 4.1192 0.0506 0.9712
6.1038 4.5724 0.0528 0.9700
6.1539 4.8971 0.0545 0.9690
6.2127 5.2476 0.0563 0.9680
6.2458 5.4338 0.0573 0.9674
6.2801 5.6270 0.0584 0.9668
6.3084 5.8208 0.0594 0.9662
6.3363 6.0203 0.0605 0.9656
6.3656 6.2275 0.0617 0.9650
2.5396 3.6615 0.0309 0.9823
2.4639 3.6657 0.0306 0.9825
2.3896 3.6698 0.0303 0.9826
2.3182 3.6766 0.0301 0.9828
2.2489 3.6850 0.0299 0.9829
2.1818 3.6954 0.0297 0.9830
2.0499 3.7158 0.0294 0.9832
1.9850 3.7259 0.0292 0.9833
1.8569 3.7452 0.0290 0.9834
1.7940 3.7552 0.0288 0.9835
1.5468 3.7929 0.0284 0.9837
1.4865 3.8032 0.0283 0.9838
1.4272 3.8147 0.0282 0.9838
1.2534 3.8575 0.0281 0.9839
1.1959 3.8721 0.0281 0.9839
1.2234 4.1766 0.0301 0.9827
1.3656 4.9280 0.0354 0.9798
1.5478 5.9204 0.0424 0.9758
0.6317 9.5925 0.0666 0.9623
-1.1071 5.9934 0.0422 0.9759
-1.1487 5.7473 0.0406 0.9768
-1.1873 5.5195 0.0391 0.9777
-1.2566 5.1106 0.0364 0.9792
-1.2879 4.9261 0.0353 0.9798
-1.3172 4.7533 0.0342 0.9805
-1.3447 4.5909 0.0331 0.9810
-1.4402 4.0280 0.0296 0.9830
-1.4997 3.6774 0.0275 0.9842
-1.5177 3.5714 0.0269 0.9846
-1.6926 3.5430 0.0272 0.9844
-1.7573 3.5444 0.0274 0.9843
-2.0277 3.5518 0.0283 0.9838
-2.1713 3.5577 0.0289 0.9835
-2.2532 3.5734 0.0293 0.9832
-2.3430 3.5982 0.0297 0.9830
-2.5332 3.6524 0.0308 0.9824
-2.6346 3.6824 0.0314 0.9821
-2.7398 3.7136 0.0320 0.9817
-2.8492 3.7461 0.0326 0.9813
-3.8840 4.9548 0.0436 0.9751
-3.9206 4.7113 0.0425 0.9758
-3.9752 4.3720 0.0409 0.9766
-3.9931 4.2648 0.0405 0.9769
-4.0445 3.9570 0.0392 0.9776
-4.0632 3.8607 0.0388 0.9778
-4.0838 3.7683 0.0385 0.9780
-4.1042 3.6775 0.0382 0.9782
-4.1241 3.5880 0.0379 0.9784
-4.1437 3.5001 0.0376 0.9785
-4.1631 3.4135 0.0373 0.9787
-4.1822 3.3281 0.0370 0.9788
-4.2040 3.2463 0.0368 0.9790
-4.2686 3.0071 0.0362 0.9793
-4.4797 2.9639 0.0372 0.9787
-0.8895 0.5340 0.0072 0.9959
-0.8891 0.5162 0.0071 0.9959
-0.8887 0.4988 0.0071 0.9959
-0.8858 0.4637 0.0069 0.9960
-0.8763 0.4265 0.0068 0.9961
-0.8717 0.4086 0.0067 0.9962
-0.8580 0.3572 0.0064 0.9963
-0.8429 0.3083 0.0062 0.9964
-0.8333 0.2775 0.0061 0.9965
-0.8242 0.2480 0.0060 0.9966
-0.8228 0.2345 0.0059 0.9966
-0.8209 0.2082 0.0059 0.9966
-0.8200 0.1953 0.0058 0.9966
-0.8061 0.1429 0.0057 0.9967
-0.8032 0.1302 0.0056 0.9968
-0.8005 0.1178 0.0056 0.9968
-0.7899 0.0695 0.0055 0.9968
-0.7874 0.0577 0.0055 0.9968
-0.7848 0.0459 0.0054 0.9969
-0.7798 0.0228 0.0054 0.9969
-0.7403 -0.0108 -0.0031 0.9970
-0.7426 -0.0217 -0.0031 0.9970
-0.7448 -0.0327 -0.0031 0.9970
-0.7470 -0.0437 -0.0031 0.9970
-0.7516 -0.0661 -0.0031 0.9970
-0.7538 -0.0774 -0.0031 0.9970
-0.7585 -0.1003 -0.0032 0.9969
-0.7632 -0.1237 -0.0032 0.9969
-0.7706 -0.1599 -0.0033 0.9969
-0.7737 -0.1723 -0.0033 0.9968
-0.7769 -0.1850 -0.0033 0.9968
-0.7791 -0.1976 -0.0033 0.9968
-0.7798 -0.2100 -0.0034 0.9968
-0.7805 -0.2224 -0.0034 0.9968
-0.7829 -0.2355 -0.0034 0.9967
-0.7868 -0.2493 -0.0034 0.9967
-0.7948 -0.2777 -0.0035 0.9966
-0.7989 -0.2923 -0.0035 0.9966
-0.8163 -0.3539 -0.0037 0.9964
-0.8207 -0.3702 -0.0037 0.9964
-0.8282 -0.4031 -0.0038 0.9963
-0.8321 -0.4201 -0.0039 0.9963
-0.8401 -0.4555 -0.0040 0.9962
-0.8486 -0.5264 -0.0041 0.9960
-0.8486 -0.5438 -0.0042 0.9960
-5.9684 -3.9487 -0.0297 0.9718
-5.9418 -4.0571 -0.0299 0.9716
-12.6085 -9.4451 -0.0655 0.9389
-12.6989 -9.8058 -0.0667 0.9378
