ply
format ascii 1.0
element vertex 1596
property float32 x
property float32 y
property float32 z
property float32 I
end_header
0.8689 -3.7706 -0.9796 0.9842
0.9787 -3.7436 -0.9796 0.9842
1.0333 -3.7288 -0.9796 0.9842
1.2493 -3.6621 -0.9795 0.9842
1.3027 -3.6434 -0.9795 0.9842
1.4086 -3.6037 -0.9795 0.9842
1.4611 -3.5828 -0.9795 0.9842
1.6167 -3.5153 -0.9795 0.9842
1.7692 -3.4410 -0.9795 0.9842
1.8690 -3.3878 -0.9795 0.9842
1.9328 -3.1670 -0.9393 0.9848
1.9737 -3.1302 -0.9368 0.9848
2.0143 -3.0935 -0.9345 0.9849
2.0547 -3.0570 -0.9325 0.9849
2.0950 -3.0206 -0.9306 0.9849
2.3870 -3.0450 -0.9795 0.9842
2.4312 -3.0098 -0.9795 0.9842
2.5181 -2.9374 -0.9795 0.9842
2.6444 -2.8243 -0.9795 0.9842
2.8435 -2.6237 -0.9795 0.9842
2.8815 -2.5818 -0.9795 0.9842
2.9189 -2.5395 -0.9795 0.9842
2.9919 -2.4531 -0.9794 0.9842
3.0274 -2.4091 -0.9794 0.9842
3.0622 -2.3646 -0.9794 0.9842
3.3388 -2.0712 -0.9947 0.9839
3.3687 -2.0222 -0.9947 0.9839
3.3979 -1.9728 -0.9947 0.9839
3.5328 -1.7195 -0.9947 0.9839
3.5575 -1.6677 -0.9947 0.9839
3.5815 -1.6155 -0.9947 0.9839
3.6047 -1.5630 -0.9947 0.9839
3.6272 -1.5102 -0.9947 0.9839
3.6488 -1.4570 -0.9947 0.9839
3.6698 -1.4035 -0.9946 0.9839
3.6898 -1.3498 -0.9946 0.9839
3.7277 -1.2414 -0.9946 0.9839
3.7454 -1.1868 -0.9946 0.9839
3.7785 -1.0769 -0.9946 0.9839
3.7938 -1.0215 -0.9946 0.9839
3.8470 -0.7981 -0.9946 0.9839
3.8583 -0.7419 -0.9946 0.9839
3.8871 -0.5721 -0.9946 0.9839
3.9021 -0.4582 -0.9946 0.9839
3.9084 -0.4012 -0.9946 0.9839
3.9139 -0.3440 -0.9946 0.9839
3.9185 -0.2868 -0.9946 0.9839
3.9272 -0.1148 -0.9946 0.9839
3.9285 -0.0574 -0.9946 0.9839
3.9184 0.2868 -0.9946 0.9839
3.9138 0.3440 -0.9946 0.9839
3.9084 0.4012 -0.9946 0.9839
3.9021 0.4582 -0.9946 0.9839
3.8950 0.5152 -0.9946 0.9839
3.8583 0.7419 -0.9946 0.9839
3.8470 0.7981 -0.9946 0.9839
3.8349 0.8543 -0.9946 0.9839
3.8221 0.9102 -0.9946 0.9839
3.8084 0.9660 -0.9946 0.9839
3.7938 1.0215 -0.9946 0.9839
3.7785 1.0769 -0.9946 0.9839
3.7624 1.1319 -0.9946 0.9839
3.6697 1.4036 -0.9946 0.9839
3.6488 1.4570 -0.9947 0.9839
3.6047 1.5630 -0.9947 0.9839
3.5815 1.6155 -0.9947 0.9839
3.5575 1.6677 -0.9947 0.9839
3.4541 1.8727 -0.9947 0.9839
3.4263 1.9230 -0.9947 0.9839
3.3979 1.9728 -0.9947 0.9839
3.3388 2.0712 -0.9947 0.9839
3.3082 2.1198 -0.9947 0.9839
3.2769 2.1680 -0.9947 0.9839
3.1099 2.4013 -0.9947 0.9839
3.0745 2.4466 -0.9947 0.9839
3.0017 2.5354 -0.9947 0.9839
2.9643 2.5789 -0.9947 0.9839
2.8877 2.6645 -0.9947 0.9839
2.8086 2.7477 -0.9947 0.9839
2.7272 2.8287 -0.9947 0.9839
2.6855 2.8682 -0.9947 0.9839
2.6006 2.9455 -0.9947 0.9839
2.5135 3.0202 -0.9947 0.9839
2.4241 3.0924 -0.9947 0.9839
2.3787 3.1275 -0.9947 0.9839
2.3327 3.1619 -0.9947 0.9839
2.2863 3.1956 -0.9947 0.9839
2.1441 3.2928 -0.9947 0.9839
1.9481 3.4125 -0.9947 0.9839
1.8980 3.4406 -0.9947 0.9839
1.6938 3.5456 -0.9948 0.9839
1.6419 3.5700 -0.9948 0.9839
1.5895 3.5936 -0.9948 0.9839
1.5368 3.6165 -0.9948 0.9839
1.4838 3.6386 -0.9948 0.9839
1.4305 3.6598 -0.9948 0.9839
1.3230 3.7001 -0.9948 0.9839
1.2688 3.7190 -0.9948 0.9839
1.1046 3.7711 -0.9948 0.9839
0.9939 3.8018 -0.9948 0.9839
0.6572 3.8743 -0.9948 0.9839
0.5438 3.8919 -0.9948 0.9839
0.4298 3.9061 -0.9948 0.9839
0.3155 3.9170 -0.9948 0.9839
0.2582 3.9213 -0.9948 0.9839
0.1435 3.9271 -0.9948 0.9839
-0.0861 3.9289 -0.9949 0.9839
-0.1436 3.9272 -0.9949 0.9839
-0.3155 3.9172 -0.9949 0.9839
-0.3727 3.9122 -0.9949 0.9839
-0.4298 3.9063 -0.9949 0.9839
-0.6573 3.8746 -0.9949 0.9839
-0.8265 3.8421 -0.9949 0.9839
-0.8825 3.8296 -0.9949 0.9839
-0.9940 3.8023 -0.9949 0.9839
-1.0495 3.7873 -0.9949 0.9839
-1.1047 3.7716 -0.9949 0.9839
-1.2145 3.7377 -0.9949 0.9839
-1.2689 3.7196 -0.9949 0.9839
-1.3231 3.7007 -0.9949 0.9839
-1.4307 3.6604 -0.9949 0.9839
-1.4841 3.6391 -0.9949 0.9839
-0.3266 0.7103 -0.1979 0.9968
-0.3125 0.6542 -0.1835 0.9970
-0.2911 0.5662 -0.1612 0.9974
-0.2978 0.5398 -0.1561 0.9975
-0.3009 0.5271 -0.1537 0.9975
-0.3039 0.5147 -0.1513 0.9975
-0.3095 0.4908 -0.1469 0.9976
-0.3121 0.4793 -0.1448 0.9976
-0.3169 0.4570 -0.1408 0.9977
-0.3191 0.4461 -0.1389 0.9977
-0.3242 0.4262 -0.1356 0.9978
-0.3317 0.3986 -0.1313 0.9979
-0.3363 0.3809 -0.1287 0.9979
-0.3386 0.3724 -0.1274 0.9979
-0.3408 0.3640 -0.1262 0.9979
-0.3429 0.3557 -0.1251 0.9980
-0.3450 0.3475 -0.1240 0.9980
-0.3465 0.3390 -0.1227 0.9980
-0.3493 0.3223 -0.1203 0.9980
-0.3540 0.2902 -0.1159 0.9981
-0.3550 0.2825 -0.1149 0.9981
-0.3560 0.2749 -0.1139 0.9981
-0.3570 0.2674 -0.1129 0.9982
-0.3578 0.2600 -0.1120 0.9982
-0.3595 0.2454 -0.1102 0.9982
-0.3616 0.2243 -0.1077 0.9982
-0.3622 0.2174 -0.1069 0.9983
-0.3627 0.2106 -0.1062 0.9983
-0.3643 0.1907 -0.1041 0.9983
-0.3660 0.1782 -0.1031 0.9983
-0.3674 0.1657 -0.1020 0.9983
-0.3684 0.1534 -0.1010 0.9984
-0.3689 0.1473 -0.1006 0.9984
-0.3693 0.1412 -0.1001 0.9984
-0.3704 0.1234 -0.0989 0.9984
-0.3715 0.1000 -0.0974 0.9984
-0.3717 0.0943 -0.0971 0.9984
-0.3719 0.0829 -0.0965 0.9984
-0.3721 0.0715 -0.0959 0.9984
-0.3721 0.0604 -0.0954 0.9984
-0.3721 0.0548 -0.0952 0.9984
-0.3718 0.0382 -0.0946 0.9985
-0.3716 0.0327 -0.0944 0.9985
-0.3712 0.0217 -0.0941 0.9985
-0.3710 0.0163 -0.0940 0.9985
-0.3707 0.0108 -0.0939 0.9985
-0.3704 0.0054 -0.0938 0.9985
-0.3638 0.0000 -0.0964 0.9985
-0.3641 -0.0054 -0.0965 0.9985
-0.3647 -0.0160 -0.0967 0.9985
-0.3649 -0.0213 -0.0969 0.9985
-0.3651 -0.0267 -0.0970 0.9985
-0.3654 -0.0375 -0.0973 0.9985
-0.3657 -0.0538 -0.0979 0.9985
-0.3657 -0.0593 -0.0982 0.9985
-0.3655 -0.0814 -0.0992 0.9985
-0.3653 -0.0870 -0.0995 0.9984
-0.3642 -0.1154 -0.1012 0.9984
-0.3638 -0.1212 -0.1016 0.9984
-0.3631 -0.1328 -0.1025 0.9984
-0.3622 -0.1446 -0.1034 0.9984
-0.3617 -0.1506 -0.1038 0.9984
-0.3575 -0.1871 -0.1069 0.9983
-0.3555 -0.2064 -0.1089 0.9983
-0.3549 -0.2130 -0.1097 0.9983
-0.3536 -0.2265 -0.1113 0.9983
-0.3528 -0.2334 -0.1121 0.9983
-0.3512 -0.2474 -0.1138 0.9982
-0.3503 -0.2545 -0.1147 0.9982
-0.3494 -0.2617 -0.1157 0.9982
-0.3484 -0.2690 -0.1166 0.9982
-0.3452 -0.2915 -0.1197 0.9981
-0.3439 -0.2993 -0.1208 0.9981
-0.3427 -0.3071 -0.1219 0.9981
-0.3414 -0.3150 -0.1231 0.9981
-0.3385 -0.3312 -0.1255 0.9980
-0.3370 -0.3395 -0.1268 0.9980
-0.3352 -0.3476 -0.1280 0.9980
-0.3330 -0.3557 -0.1291 0.9980
-0.3261 -0.3804 -0.1328 0.9979
-0.3237 -0.3890 -0.1341 0.9979
-0.3187 -0.4066 -0.1369 0.9979
-0.3134 -0.4248 -0.1399 0.9978
-0.3105 -0.4341 -0.1414 0.9978
-0.3050 -0.4537 -0.1449 0.9977
-0.3024 -0.4645 -0.1469 0.9977
-0.2911 -0.5099 -0.1556 0.9976
-0.2879 -0.5220 -0.1580 0.9975
-0.2812 -0.5469 -0.1629 0.9975
-0.2775 -0.5598 -0.1656 0.9974
-0.2783 -0.5826 -0.1711 0.9973
-0.2999 -0.6780 -0.1964 0.9969
-0.3129 -0.7364 -0.2120 0.9967
-1.0910 -3.5325 -0.9797 0.9848
-0.8828 -3.5902 -0.9797 0.9848
-0.7775 -3.6144 -0.9797 0.9848
-0.6715 -3.6355 -0.9797 0.9848
-0.6183 -3.6450 -0.9796 0.9848
-0.5116 -3.6615 -0.9796 0.9848
-0.4044 -3.6748 -0.9796 0.9848
-0.2429 -3.6889 -0.9796 0.9848
-0.1350 -3.6945 -0.9796 0.9848
-0.0810 -3.6961 -0.9796 0.9848
0.0270 -3.6968 -0.9796 0.9848
0.0811 -3.6960 -0.9796 0.9848
0.2429 -3.6889 -0.9796 0.9848
0.3506 -3.6802 -0.9796 0.9848
0.4043 -3.6746 -0.9796 0.9848
0.4580 -3.6683 -0.9796 0.9848
0.5115 -3.6612 -0.9796 0.9848
0.6183 -3.6447 -0.9796 0.9848
0.8827 -3.5898 -0.9796 0.9848
0.9350 -3.5765 -0.9796 0.9848
0.9872 -3.5624 -0.9796 0.9848
1.0909 -3.5320 -0.9796 0.9848
1.1423 -3.5157 -0.9796 0.9848
1.1936 -3.4986 -0.9795 0.9848
1.3959 -3.4229 -0.9795 0.9848
1.4458 -3.4021 -0.9795 0.9848
1.4953 -3.3807 -0.9795 0.9848
1.5446 -3.3584 -0.9795 0.9848
1.5935 -3.3355 -0.9795 0.9848
1.6420 -3.3118 -0.9795 0.9848
1.6903 -3.2875 -0.9795 0.9848
1.8327 -3.2102 -0.9795 0.9848
1.9716 -3.1268 -0.9795 0.9848
2.0621 -3.0679 -0.9795 0.9848
2.1351 -2.9844 -0.9723 0.9849
2.1751 -2.9482 -0.9708 0.9850
2.2377 -2.9421 -0.9795 0.9848
2.2805 -2.9091 -0.9795 0.9848
2.3645 -2.8412 -0.9795 0.9848
2.4058 -2.8064 -0.9795 0.9848
2.4465 -2.7709 -0.9795 0.9848
2.4867 -2.7349 -0.9795 0.9848
2.6797 -2.5460 -0.9795 0.9848
2.9238 -2.3267 -0.9901 0.9847
3.1000 -2.1167 -0.9947 0.9846
3.1606 -2.0252 -0.9947 0.9846
3.1898 -1.9788 -0.9947 0.9846
3.2184 -1.9320 -0.9947 0.9846
3.2462 -1.8848 -0.9947 0.9846
3.2734 -1.8371 -0.9947 0.9846
3.3257 -1.7407 -0.9947 0.9846
3.3988 -1.5933 -0.9947 0.9846
3.4217 -1.5434 -0.9947 0.9846
3.4439 -1.4933 -0.9947 0.9846
3.4653 -1.4428 -0.9947 0.9846
3.4860 -1.3920 -0.9947 0.9846
3.5060 -1.3409 -0.9947 0.9846
3.5783 -1.1338 -0.9947 0.9846
3.6099 -1.0287 -0.9947 0.9846
3.6384 -0.9228 -0.9947 0.9846
3.6516 -0.8696 -0.9947 0.9846
3.6754 -0.7625 -0.9946 0.9846
3.6861 -0.7088 -0.9946 0.9846
3.6961 -0.6548 -0.9946 0.9846
3.7053 -0.6007 -0.9946 0.9846
3.7392 -0.3287 -0.9946 0.9846
3.7532 -0.0548 -0.9946 0.9846
3.7532 0.0548 -0.9946 0.9846
3.7520 0.1097 -0.9946 0.9846
3.7500 0.1645 -0.9946 0.9846
3.7472 0.2193 -0.9946 0.9846
3.7340 0.3833 -0.9946 0.9846
3.7280 0.4378 -0.9946 0.9846
3.7053 0.6007 -0.9946 0.9846
3.6861 0.7088 -0.9946 0.9846
3.6754 0.7626 -0.9946 0.9846
3.6638 0.8161 -0.9947 0.9846
3.6515 0.8696 -0.9947 0.9846
3.6385 0.9229 -0.9947 0.9846
3.6246 0.9759 -0.9947 0.9846
3.6100 1.0288 -0.9947 0.9846
3.5614 1.1860 -0.9947 0.9846
3.5252 1.2896 -0.9947 0.9846
3.5060 1.3409 -0.9947 0.9846
3.3988 1.5933 -0.9947 0.9846
3.3508 1.6920 -0.9947 0.9846
3.3257 1.7407 -0.9947 0.9846
3.2999 1.7891 -0.9947 0.9846
3.2735 1.8371 -0.9947 0.9846
3.1898 1.9788 -0.9947 0.9846
3.1306 2.0712 -0.9947 0.9846
3.0369 2.2064 -0.9947 0.9846
3.0043 2.2506 -0.9947 0.9846
2.9711 2.2942 -0.9947 0.9846
2.9028 2.3801 -0.9947 0.9846
2.8677 2.4222 -0.9947 0.9846
2.8320 2.4639 -0.9947 0.9846
2.6833 2.6252 -0.9947 0.9846
2.5657 2.7402 -0.9947 0.9846
2.5254 2.7774 -0.9947 0.9846
2.4846 2.8140 -0.9947 0.9846
2.4432 2.8500 -0.9947 0.9846
2.4013 2.8855 -0.9947 0.9846
2.3589 2.9202 -0.9947 0.9846
2.3160 2.9544 -0.9947 0.9846
2.1843 3.0531 -0.9947 0.9846
2.1394 3.0847 -0.9947 0.9846
2.0941 3.1156 -0.9947 0.9846
2.0484 3.1459 -0.9947 0.9846
1.8612 3.2602 -0.9948 0.9846
1.7651 3.3132 -0.9948 0.9846
1.5186 3.4333 -0.9948 0.9846
1.4682 3.4551 -0.9948 0.9846
1.4176 3.4762 -0.9948 0.9846
1.3667 3.4965 -0.9948 0.9846
1.3154 3.5161 -0.9948 0.9846
1.2639 3.5350 -0.9948 0.9846
1.2122 3.5531 -0.9948 0.9846
1.1601 3.5704 -0.9948 0.9846
1.0025 3.6179 -0.9948 0.9846
0.7895 3.6704 -0.9948 0.9846
0.6279 3.7014 -0.9948 0.9846
0.5738 3.7102 -0.9948 0.9846
0.5195 3.7182 -0.9948 0.9846
0.4651 3.7254 -0.9948 0.9846
0.4106 3.7318 -0.9948 0.9846
0.3560 3.7374 -0.9948 0.9846
0.1919 3.7495 -0.9948 0.9846
0.1371 3.7519 -0.9948 0.9846
0.0823 3.7535 -0.9949 0.9846
-0.0274 3.7543 -0.9949 0.9846
-0.1371 3.7520 -0.9949 0.9846
-0.1919 3.7495 -0.9949 0.9846
-0.3014 3.7424 -0.9949 0.9846
-0.4106 3.7320 -0.9949 0.9846
-0.4651 3.7256 -0.9949 0.9846
-0.5195 3.7184 -0.9949 0.9846
-0.5738 3.7104 -0.9949 0.9846
-0.6279 3.7017 -0.9949 0.9846
-0.7896 3.6707 -0.9949 0.9846
-0.8431 3.6587 -0.9949 0.9846
-0.8965 3.6460 -0.9949 0.9846
-0.9497 3.6325 -0.9949 0.9846
-1.0027 3.6183 -0.9949 0.9846
-1.1080 3.5875 -0.9949 0.9846
-1.1602 3.5709 -0.9949 0.9846
-1.2123 3.5536 -0.9949 0.9846
-1.2641 3.5355 -0.9949 0.9846
-1.3156 3.5167 -0.9949 0.9846
-1.3669 3.4971 -0.9949 0.9846
-1.4178 3.4767 -0.9949 0.9846
-0.3129 0.7364 -0.2120 0.9967
-0.2999 0.6780 -0.1964 0.9969
-0.2884 0.6271 -0.1829 0.9971
-0.2812 0.5469 -0.1629 0.9975
-0.2846 0.5343 -0.1604 0.9975
-0.2879 0.5220 -0.1580 0.9975
-0.2911 0.5099 -0.1556 0.9976
-0.2970 0.4867 -0.1511 0.9976
-0.3024 0.4645 -0.1469 0.9977
-0.3050 0.4537 -0.1449 0.9977
-0.3076 0.4435 -0.1430 0.9978
-0.3161 0.4156 -0.1384 0.9978
-0.3187 0.4066 -0.1369 0.9979
-0.3237 0.3890 -0.1341 0.9979
-0.3285 0.3721 -0.1315 0.9979
-0.3308 0.3638 -0.1303 0.9980
-0.3330 0.3557 -0.1291 0.9980
-0.3351 0.3477 -0.1280 0.9980
-0.3370 0.3395 -0.1268 0.9980
-0.3386 0.3312 -0.1255 0.9980
-0.3494 0.2617 -0.1157 0.9982
-0.3503 0.2545 -0.1147 0.9982
-0.3520 0.2404 -0.1130 0.9982
-0.3528 0.2335 -0.1121 0.9983
-0.3535 0.2266 -0.1113 0.9983
-0.3575 0.1871 -0.1069 0.9983
-0.3584 0.1809 -0.1064 0.9983
-0.3600 0.1688 -0.1054 0.9984
-0.3606 0.1627 -0.1048 0.9984
-0.3612 0.1566 -0.1043 0.9984
-0.3639 0.1212 -0.1016 0.9984
-0.3642 0.1154 -0.1012 0.9984
-0.3650 0.0983 -0.1002 0.9984
-0.3654 0.0814 -0.0992 0.9985
-0.3656 0.0703 -0.0987 0.9985
-0.3656 0.0648 -0.0984 0.9985
-0.3656 0.0484 -0.0977 0.9985
-0.3655 0.0429 -0.0975 0.9985
-0.3654 0.0375 -0.0973 0.9985
-0.3649 0.0214 -0.0969 0.9985
-0.3644 0.0107 -0.0966 0.9985
-0.3641 0.0054 -0.0965 0.9985
-0.3577 0.0000 -0.0991 0.9985
-0.3580 -0.0052 -0.0991 0.9985
-0.3583 -0.0105 -0.0993 0.9985
-0.3586 -0.0157 -0.0994 0.9985
-0.3588 -0.0210 -0.0995 0.9985
-0.3591 -0.0316 -0.0998 0.9985
-0.3594 -0.0529 -0.1006 0.9985
-0.3594 -0.0637 -0.1011 0.9985
-0.3594 -0.0691 -0.1013 0.9985
-0.3593 -0.0745 -0.1016 0.9985
-0.3589 -0.0910 -0.1025 0.9985
-0.3586 -0.0966 -0.1028 0.9985
-0.3584 -0.1021 -0.1032 0.9985
-0.3581 -0.1077 -0.1035 0.9984
-0.3575 -0.1191 -0.1043 0.9984
-0.3562 -0.1363 -0.1056 0.9984
-0.3557 -0.1420 -0.1061 0.9984
-0.3534 -0.1657 -0.1081 0.9984
-0.3526 -0.1716 -0.1086 0.9984
-0.3517 -0.1776 -0.1091 0.9984
-0.3499 -0.1897 -0.1102 0.9983
-0.3491 -0.1959 -0.1108 0.9983
-0.3485 -0.2023 -0.1116 0.9983
-0.3479 -0.2088 -0.1123 0.9983
-0.3472 -0.2154 -0.1131 0.9983
-0.3464 -0.2220 -0.1139 0.9983
-0.3448 -0.2355 -0.1156 0.9983
-0.3440 -0.2423 -0.1165 0.9983
-0.3431 -0.2493 -0.1174 0.9982
-0.3421 -0.2563 -0.1184 0.9982
-0.3400 -0.2705 -0.1203 0.9982
-0.3389 -0.2779 -0.1213 0.9982
-0.3377 -0.2852 -0.1224 0.9982
-0.3364 -0.2927 -0.1235 0.9982
-0.3352 -0.3003 -0.1246 0.9981
-0.3338 -0.3080 -0.1258 0.9981
-0.3309 -0.3237 -0.1282 0.9981
-0.3277 -0.3398 -0.1307 0.9980
-0.3255 -0.3477 -0.1319 0.9980
-0.3210 -0.3635 -0.1343 0.9980
-0.3185 -0.3716 -0.1355 0.9980
-0.3161 -0.3798 -0.1368 0.9980
-0.3136 -0.3882 -0.1382 0.9979
-0.3110 -0.3968 -0.1396 0.9979
-0.3084 -0.4054 -0.1410 0.9979
-0.3056 -0.4143 -0.1425 0.9979
-0.3028 -0.4232 -0.1441 0.9978
-0.2999 -0.4323 -0.1457 0.9978
-0.2968 -0.4416 -0.1473 0.9978
-0.2936 -0.4510 -0.1490 0.9978
-0.2879 -0.4717 -0.1530 0.9977
-0.2849 -0.4826 -0.1552 0.9977
-0.2753 -0.5168 -0.1621 0.9976
-0.2644 -0.5534 -0.1698 0.9975
-0.2662 -0.6018 -0.1822 0.9973
-0.2857 -0.7005 -0.2095 0.9969
-1.2881 -3.2955 -0.9797 0.9854
-1.1913 -3.3318 -0.9797 0.9854
-0.9946 -3.3956 -0.9797 0.9854
-0.9449 -3.4098 -0.9797 0.9854
-0.8949 -3.4232 -0.9797 0.9854
-0.8448 -3.4359 -0.9797 0.9854
-0.7946 -3.4479 -0.9797 0.9854
-0.6934 -3.4696 -0.9797 0.9854
-0.5918 -3.4884 -0.9796 0.9854
-0.4896 -3.5041 -0.9796 0.9854
-0.4383 -3.5109 -0.9796 0.9854
0.0776 -3.5372 -0.9796 0.9854
0.2325 -3.5304 -0.9796 0.9854
0.3355 -3.5221 -0.9796 0.9854
0.4896 -3.5039 -0.9796 0.9854
0.5407 -3.4964 -0.9796 0.9854
0.6934 -3.4693 -0.9796 0.9854
1.0440 -3.3803 -0.9796 0.9854
1.1423 -3.3484 -0.9796 0.9854
1.1911 -3.3313 -0.9795 0.9854
1.3359 -3.2759 -0.9795 0.9854
1.4311 -3.2354 -0.9795 0.9854
1.5250 -3.1922 -0.9795 0.9854
1.5715 -3.1696 -0.9795 0.9854
1.6176 -3.1463 -0.9795 0.9854
1.6634 -3.1223 -0.9795 0.9854
1.7089 -3.0977 -0.9795 0.9854
1.8869 -2.9925 -0.9795 0.9854
1.9735 -2.9361 -0.9795 0.9854
2.0162 -2.9070 -0.9795 0.9854
2.0584 -2.8771 -0.9795 0.9854
2.1416 -2.8157 -0.9795 0.9854
2.1825 -2.7841 -0.9795 0.9854
2.2230 -2.7520 -0.9795 0.9854
2.2629 -2.7192 -0.9795 0.9854
2.3799 -2.6174 -0.9795 0.9854
2.4179 -2.5823 -0.9795 0.9854
2.4554 -2.5467 -0.9795 0.9854
2.5999 -2.3989 -0.9795 0.9854
2.6347 -2.3607 -0.9795 0.9854
2.6853 -2.3363 -0.9855 0.9853
2.7446 -2.3182 -0.9947 0.9852
2.8753 -2.1539 -0.9947 0.9852
2.9669 -2.0258 -0.9947 0.9852
2.9962 -1.9822 -0.9947 0.9852
3.0248 -1.9382 -0.9947 0.9852
3.0801 -1.8490 -0.9947 0.9852
3.1068 -1.8038 -0.9947 0.9852
3.1328 -1.7582 -0.9947 0.9852
3.2302 -1.5722 -0.9947 0.9852
3.3363 -1.3322 -0.9947 0.9852
3.3554 -1.2833 -0.9947 0.9852
3.3915 -1.1847 -0.9947 0.9852
3.4084 -1.1350 -0.9947 0.9852
3.4246 -1.0852 -0.9947 0.9852
3.4549 -0.9846 -0.9947 0.9852
3.4689 -0.9340 -0.9947 0.9852
3.4822 -0.8832 -0.9947 0.9852
3.5065 -0.7811 -0.9947 0.9852
3.5175 -0.7298 -0.9947 0.9852
3.5373 -0.6267 -0.9947 0.9852
3.5541 -0.5230 -0.9947 0.9852
3.5614 -0.4711 -0.9947 0.9852
3.5679 -0.4189 -0.9947 0.9852
3.5786 -0.3145 -0.9947 0.9852
3.5828 -0.2622 -0.9947 0.9852
3.5889 -0.1574 -0.9947 0.9852
3.5920 0.0525 -0.9947 0.9852
3.5909 0.1050 -0.9947 0.9852
3.5863 0.2099 -0.9947 0.9852
3.5786 0.3146 -0.9947 0.9852
3.5679 0.4190 -0.9947 0.9852
3.5614 0.4711 -0.9947 0.9852
3.5541 0.5231 -0.9947 0.9852
3.5461 0.5750 -0.9947 0.9852
3.5065 0.7811 -0.9947 0.9852
3.4947 0.8323 -0.9947 0.9852
3.4822 0.8833 -0.9947 0.9852
3.4689 0.9340 -0.9947 0.9852
3.4246 1.0852 -0.9947 0.9852
3.3738 1.2341 -0.9947 0.9852
3.3554 1.2834 -0.9947 0.9852
3.2528 1.5248 -0.9947 0.9852
3.2302 1.5722 -0.9947 0.9852
3.0801 1.8491 -0.9947 0.9852
3.0528 1.8938 -0.9947 0.9852
2.9962 1.9823 -0.9947 0.9852
2.9370 2.0689 -0.9947 0.9852
2.8111 2.2370 -0.9947 0.9852
2.7781 2.2778 -0.9947 0.9852
2.6756 2.3974 -0.9947 0.9852
2.6404 2.4362 -0.9947 0.9852
2.5680 2.5124 -0.9947 0.9852
2.5311 2.5496 -0.9947 0.9852
2.4936 2.5863 -0.9947 0.9852
2.4169 2.6581 -0.9947 0.9852
2.3778 2.6931 -0.9947 0.9852
2.3382 2.7276 -0.9947 0.9852
2.2981 2.7615 -0.9947 0.9852
2.1749 2.8595 -0.9947 0.9852
2.1329 2.8911 -0.9947 0.9852
2.0475 2.9522 -0.9947 0.9852
1.9604 3.0107 -0.9947 0.9852
1.9162 3.0391 -0.9947 0.9852
1.8716 3.0668 -0.9948 0.9852
1.8266 3.0938 -0.9948 0.9852
1.7812 3.1202 -0.9948 0.9852
1.7354 3.1459 -0.9948 0.9852
1.6428 3.1952 -0.9948 0.9852
1.5959 3.2189 -0.9948 0.9852
1.5487 3.2419 -0.9948 0.9852
1.4052 3.3066 -0.9948 0.9852
1.2589 3.3651 -0.9948 0.9852
1.2096 3.3831 -0.9948 0.9852
1.0602 3.4329 -0.9948 0.9852
0.9595 3.4625 -0.9948 0.9852
0.9088 3.4761 -0.9948 0.9852
0.8579 3.4891 -0.9948 0.9852
0.8068 3.5012 -0.9948 0.9852
0.4451 3.5654 -0.9948 0.9852
0.2361 3.5853 -0.9948 0.9852
0.1837 3.5884 -0.9948 0.9852
0.1312 3.5907 -0.9948 0.9852
0.0787 3.5923 -0.9949 0.9852
-0.1312 3.5908 -0.9949 0.9852
-0.1837 3.5885 -0.9949 0.9852
-0.2361 3.5854 -0.9949 0.9852
-0.2885 3.5816 -0.9949 0.9852
-0.3407 3.5770 -0.9949 0.9852
-0.4972 3.5587 -0.9949 0.9852
-0.6010 3.5427 -0.9949 0.9852
-0.7556 3.5129 -0.9949 0.9852
-0.9089 3.4765 -0.9949 0.9852
-0.9596 3.4629 -0.9949 0.9852
-1.0101 3.4485 -0.9949 0.9852
-1.1104 3.4175 -0.9949 0.9852
-1.2098 3.3836 -0.9949 0.9852
-1.3081 3.3468 -0.9949 0.9852
-0.2662 0.6018 -0.1822 0.9973
-0.2682 0.5410 -0.1672 0.9975
-0.2787 0.5051 -0.1597 0.9976
-0.2819 0.4937 -0.1574 0.9976
-0.2907 0.4610 -0.1509 0.9977
-0.2936 0.4510 -0.1490 0.9978
-0.3056 0.4143 -0.1425 0.9979
-0.3110 0.3968 -0.1396 0.9979
-0.3136 0.3882 -0.1382 0.9979
-0.3233 0.3555 -0.1330 0.9980
-0.3293 0.3318 -0.1294 0.9981
-0.3309 0.3237 -0.1282 0.9981
-0.3338 0.3080 -0.1258 0.9981
-0.3352 0.3003 -0.1246 0.9981
-0.3377 0.2852 -0.1224 0.9982
-0.3411 0.2634 -0.1193 0.9982
-0.3440 0.2423 -0.1165 0.9983
-0.3457 0.2287 -0.1148 0.9983
-0.3464 0.2220 -0.1139 0.9983
-0.3472 0.2154 -0.1131 0.9983
-0.3485 0.2023 -0.1116 0.9983
-0.3508 0.1836 -0.1096 0.9984
-0.3517 0.1776 -0.1091 0.9984
-0.3534 0.1657 -0.1081 0.9984
-0.3541 0.1597 -0.1075 0.9984
-0.3552 0.1479 -0.1065 0.9984
-0.3562 0.1363 -0.1056 0.9984
-0.3571 0.1248 -0.1047 0.9984
-0.3575 0.1190 -0.1043 0.9984
-0.3578 0.1134 -0.1039 0.9984
-0.3588 0.0910 -0.1025 0.9985
-0.3590 0.0855 -0.1022 0.9985
-0.3592 0.0800 -0.1019 0.9985
-0.3594 0.0637 -0.1011 0.9985
-0.3595 0.0583 -0.1008 0.9985
-0.3594 0.0475 -0.1004 0.9985
-0.3592 0.0369 -0.1000 0.9985
-0.3590 0.0262 -0.0997 0.9985
-0.3588 0.0210 -0.0995 0.9985
-0.3586 0.0158 -0.0994 0.9985
-0.3580 0.0052 -0.0991 0.9985
-0.3518 0.0000 -0.1016 0.9985
-0.3521 -0.0052 -0.1017 0.9985
-0.3526 -0.0154 -0.1019 0.9985
-0.3531 -0.0310 -0.1024 0.9985
-0.3532 -0.0362 -0.1026 0.9985
-0.3533 -0.0415 -0.1028 0.9985
-0.3534 -0.0467 -0.1030 0.9985
-0.3534 -0.0520 -0.1032 0.9985
-0.3534 -0.0573 -0.1034 0.9985
-0.3534 -0.0626 -0.1037 0.9985
-0.3532 -0.0733 -0.1042 0.9985
-0.3531 -0.0787 -0.1045 0.9985
-0.3529 -0.0840 -0.1048 0.9985
-0.3527 -0.0895 -0.1051 0.9985
-0.3525 -0.0949 -0.1054 0.9985
-0.3519 -0.1059 -0.1062 0.9985
-0.3512 -0.1170 -0.1069 0.9985
-0.3508 -0.1226 -0.1073 0.9985
-0.3504 -0.1282 -0.1078 0.9984
-0.3499 -0.1338 -0.1082 0.9984
-0.3489 -0.1452 -0.1092 0.9984
-0.3483 -0.1510 -0.1097 0.9984
-0.3477 -0.1568 -0.1102 0.9984
-0.3435 -0.1862 -0.1128 0.9984
-0.3396 -0.2176 -0.1165 0.9983
-0.3388 -0.2241 -0.1173 0.9983
-0.3379 -0.2307 -0.1182 0.9983
-0.3370 -0.2374 -0.1191 0.9983
-0.3340 -0.2579 -0.1219 0.9982
-0.3292 -0.2864 -0.1261 0.9982
-0.3279 -0.2938 -0.1272 0.9982
-0.3265 -0.3012 -0.1283 0.9982
-0.3183 -0.3399 -0.1345 0.9981
-0.3160 -0.3475 -0.1357 0.9980
-0.3137 -0.3553 -0.1369 0.9980
-0.3113 -0.3631 -0.1382 0.9980
-0.3036 -0.3873 -0.1422 0.9980
-0.3009 -0.3957 -0.1436 0.9979
-0.2924 -0.4216 -0.1482 0.9979
-0.2829 -0.4487 -0.1532 0.9978
-0.2762 -0.4679 -0.1569 0.9977
-0.2731 -0.4784 -0.1591 0.9977
-0.2699 -0.4892 -0.1614 0.9977
-0.2665 -0.5004 -0.1637 0.9976
-0.2594 -0.5231 -0.1687 0.9976
-0.2516 -0.5471 -0.1739 0.9975
-0.2474 -0.5595 -0.1767 0.9975
-0.2457 -0.5781 -0.1814 0.9974
-0.2529 -0.6201 -0.1934 0.9972
-0.2609 -0.6675 -0.2070 0.9970
-1.1884 -3.1767 -0.9797 0.9860
-1.1419 -3.1937 -0.9797 0.9860
-0.9057 -3.2685 -0.9797 0.9860
-0.8579 -3.2814 -0.9797 0.9860
-0.7132 -3.3158 -0.9797 0.9860
-0.6647 -3.3259 -0.9797 0.9860
-0.6160 -3.3352 -0.9796 0.9860
-0.5672 -3.3438 -0.9796 0.9860
-0.4693 -3.3589 -0.9796 0.9860
-0.4202 -3.3654 -0.9796 0.9860
-0.2723 -3.3806 -0.9796 0.9860
-0.1239 -3.3892 -0.9796 0.9860
-0.0743 -3.3907 -0.9796 0.9860
-0.0248 -3.3914 -0.9796 0.9860
0.0248 -3.3913 -0.9796 0.9860
0.0743 -3.3906 -0.9796 0.9860
0.1734 -3.3870 -0.9796 0.9860
0.2228 -3.3841 -0.9796 0.9860
0.3216 -3.3761 -0.9796 0.9860
0.3709 -3.3711 -0.9796 0.9860
0.4693 -3.3588 -0.9796 0.9860
0.5672 -3.3436 -0.9796 0.9860
0.7132 -3.3155 -0.9796 0.9860
0.9533 -3.2545 -0.9796 0.9860
1.0950 -3.2096 -0.9796 0.9860
1.1418 -3.1933 -0.9796 0.9860
1.1883 -3.1763 -0.9795 0.9860
1.2806 -3.1401 -0.9795 0.9860
1.4170 -3.0810 -0.9795 0.9860
1.6381 -2.9693 -0.9795 0.9860
1.6813 -2.9451 -0.9795 0.9860
1.7241 -2.9202 -0.9795 0.9860
1.7666 -2.8946 -0.9795 0.9860
1.8087 -2.8685 -0.9795 0.9860
1.8504 -2.8418 -0.9795 0.9860
1.8917 -2.8144 -0.9795 0.9860
1.9327 -2.7865 -0.9795 0.9860
1.9731 -2.7579 -0.9795 0.9860
2.0132 -2.7288 -0.9795 0.9860
2.1309 -2.6379 -0.9795 0.9860
2.1692 -2.6065 -0.9795 0.9860
2.2070 -2.5746 -0.9795 0.9860
2.2813 -2.5089 -0.9795 0.9860
2.4240 -2.3714 -0.9795 0.9860
2.5222 -2.3272 -0.9913 0.9858
2.5981 -2.2603 -0.9947 0.9858
2.6308 -2.2221 -0.9947 0.9858
2.6630 -2.1834 -0.9947 0.9858
2.6946 -2.1443 -0.9947 0.9858
2.7562 -2.0646 -0.9947 0.9858
2.7860 -2.0241 -0.9947 0.9858
2.8153 -1.9832 -0.9947 0.9858
2.8720 -1.9001 -0.9947 0.9858
2.9263 -1.8154 -0.9947 0.9858
2.9525 -1.7724 -0.9947 0.9858
2.9781 -1.7291 -0.9947 0.9858
3.0740 -1.5521 -0.9947 0.9858
3.0964 -1.5071 -0.9947 0.9858
3.1180 -1.4616 -0.9947 0.9858
3.1594 -1.3699 -0.9947 0.9858
3.1791 -1.3236 -0.9947 0.9858
3.2164 -1.2301 -0.9947 0.9858
3.2340 -1.1830 -0.9947 0.9858
3.2510 -1.1356 -0.9947 0.9858
3.3252 -0.8954 -0.9947 0.9858
3.3379 -0.8466 -0.9947 0.9858
3.3499 -0.7978 -0.9947 0.9858
3.3817 -0.6502 -0.9947 0.9858
3.3908 -0.6007 -0.9947 0.9858
3.3992 -0.5511 -0.9947 0.9858
3.4201 -0.4016 -0.9947 0.9858
3.4256 -0.3516 -0.9947 0.9858
3.4304 -0.3015 -0.9947 0.9858
3.4432 0.0503 -0.9947 0.9858
3.4421 0.1006 -0.9947 0.9858
3.4403 0.1509 -0.9947 0.9858
3.4377 0.2012 -0.9947 0.9858
3.4256 0.3516 -0.9947 0.9858
3.4201 0.4016 -0.9947 0.9858
3.4138 0.4516 -0.9947 0.9858
3.4069 0.5014 -0.9947 0.9858
3.3992 0.5511 -0.9947 0.9858
3.3817 0.6502 -0.9947 0.9858
3.3379 0.8466 -0.9947 0.9858
3.3252 0.8953 -0.9947 0.9858
3.3117 0.9438 -0.9947 0.9858
3.2828 1.0402 -0.9947 0.9858
3.2340 1.1830 -0.9947 0.9858
3.1981 1.2770 -0.9947 0.9858
3.1391 1.4160 -0.9947 0.9858
3.1181 1.4617 -0.9947 0.9858
3.0740 1.5521 -0.9947 0.9858
2.9263 1.8154 -0.9947 0.9858
2.8995 1.8580 -0.9947 0.9858
2.8720 1.9002 -0.9947 0.9858
2.8153 1.9832 -0.9947 0.9858
2.7860 2.0241 -0.9947 0.9858
2.7257 2.1047 -0.9947 0.9858
2.6947 2.1443 -0.9947 0.9858
2.6309 2.2221 -0.9947 0.9858
2.5981 2.2604 -0.9947 0.9858
2.4617 2.4083 -0.9947 0.9858
2.4262 2.4440 -0.9947 0.9858
2.3902 2.4792 -0.9947 0.9858
2.3168 2.5480 -0.9947 0.9858
2.2793 2.5816 -0.9947 0.9858
2.2414 2.6146 -0.9947 0.9858
2.1246 2.7104 -0.9947 0.9858
1.9627 2.8298 -0.9947 0.9858
1.9212 2.8583 -0.9947 0.9858
1.8368 2.9132 -0.9948 0.9858
1.7509 2.9656 -0.9948 0.9858
1.6193 3.0395 -0.9948 0.9858
1.4846 3.1076 -0.9948 0.9858
1.4390 3.1289 -0.9948 0.9858
1.2538 3.2077 -0.9948 0.9858
1.2068 3.2257 -0.9948 0.9858
1.1120 3.2596 -0.9948 0.9858
1.0643 3.2755 -0.9948 0.9858
1.0163 3.2907 -0.9948 0.9858
0.9681 3.3052 -0.9948 0.9858
0.9197 3.3190 -0.9948 0.9858
0.8711 3.3321 -0.9948 0.9858
0.8223 3.3445 -0.9948 0.9858
0.6750 3.3773 -0.9948 0.9858
0.5264 3.4037 -0.9948 0.9858
0.4766 3.4110 -0.9948 0.9858
0.4267 3.4177 -0.9948 0.9858
0.3767 3.4235 -0.9948 0.9858
0.3266 3.4287 -0.9948 0.9858
0.2765 3.4331 -0.9948 0.9858
0.1761 3.4397 -0.9948 0.9858
0.1258 3.4420 -0.9948 0.9858
0.0755 3.4434 -0.9949 0.9858
-0.0252 3.4441 -0.9949 0.9858
-0.0755 3.4435 -0.9949 0.9858
-0.1258 3.4420 -0.9949 0.9858
-0.1761 3.4398 -0.9949 0.9858
-0.2263 3.4369 -0.9949 0.9858
-0.3767 3.4237 -0.9949 0.9858
-0.5264 3.4039 -0.9949 0.9858
-0.6256 3.3871 -0.9949 0.9858
-0.7243 3.3674 -0.9949 0.9858
-0.9198 3.3193 -0.9949 0.9858
-0.9682 3.3056 -0.9949 0.9858
-0.2457 0.5781 -0.1814 0.9974
-0.2475 0.5595 -0.1767 0.9975
-0.2556 0.5350 -0.1713 0.9975
-0.2594 0.5232 -0.1687 0.9976
-0.2665 0.5003 -0.1637 0.9976
-0.2731 0.4784 -0.1591 0.9977
-0.2796 0.4581 -0.1550 0.9978
-0.2894 0.4305 -0.1498 0.9978
-0.2982 0.4042 -0.1451 0.9979
-0.3010 0.3957 -0.1436 0.9979
-0.3088 0.3711 -0.1394 0.9980
-0.3113 0.3631 -0.1382 0.9980
-0.3137 0.3553 -0.1369 0.9980
-0.3183 0.3399 -0.1345 0.9981
-0.3203 0.3322 -0.1333 0.9981
-0.3220 0.3243 -0.1320 0.9981
-0.3235 0.3166 -0.1307 0.9981
-0.3265 0.3013 -0.1283 0.9982
-0.3293 0.2864 -0.1261 0.9982
-0.3329 0.2649 -0.1229 0.9982
-0.3379 0.2307 -0.1182 0.9983
-0.3388 0.2241 -0.1173 0.9983
-0.3411 0.2048 -0.1149 0.9983
-0.3424 0.1922 -0.1134 0.9984
-0.3434 0.1862 -0.1128 0.9984
-0.3444 0.1803 -0.1123 0.9984
-0.3462 0.1685 -0.1112 0.9984
-0.3483 0.1511 -0.1097 0.9984
-0.3489 0.1453 -0.1092 0.9984
-0.3499 0.1338 -0.1082 0.9984
-0.3504 0.1282 -0.1078 0.9984
-0.3508 0.1226 -0.1073 0.9985
-0.3512 0.1170 -0.1069 0.9985
-0.3516 0.1114 -0.1065 0.9985
-0.3527 0.0895 -0.1051 0.9985
-0.3532 0.0733 -0.1042 0.9985
-0.3534 0.0468 -0.1030 0.9985
-0.3532 0.0363 -0.1026 0.9985
-0.3531 0.0311 -0.1024 0.9985
-0.3530 0.0259 -0.1022 0.9985
-0.3528 0.0206 -0.1021 0.9985
-0.3526 0.0155 -0.1019 0.9985
-0.3524 0.0103 -0.1018 0.9985
-0.3521 0.0052 -0.1017 0.9985
-0.3466 -0.0101 -0.1043 0.9986
-0.3470 -0.0203 -0.1046 0.9985
-0.3472 -0.0254 -0.1047 0.9985
-0.3475 -0.0511 -0.1057 0.9985
-0.3475 -0.0563 -0.1059 0.9985
-0.3473 -0.0720 -0.1067 0.9985
-0.3471 -0.0773 -0.1070 0.9985
-0.3469 -0.0826 -0.1073 0.9985
-0.3462 -0.0987 -0.1083 0.9985
-0.3459 -0.1041 -0.1087 0.9985
-0.3452 -0.1149 -0.1095 0.9985
-0.3448 -0.1204 -0.1099 0.9985
-0.3438 -0.1315 -0.1108 0.9985
-0.3433 -0.1371 -0.1112 0.9985
-0.3428 -0.1427 -0.1117 0.9985
-0.3400 -0.1655 -0.1138 0.9984
-0.3372 -0.1828 -0.1154 0.9984
-0.3345 -0.2008 -0.1174 0.9984
-0.3321 -0.2197 -0.1198 0.9983
-0.3293 -0.2393 -0.1225 0.9983
-0.3282 -0.2459 -0.1234 0.9983
-0.3272 -0.2527 -0.1244 0.9983
-0.3261 -0.2595 -0.1254 0.9983
-0.3236 -0.2733 -0.1275 0.9982
-0.3209 -0.2875 -0.1297 0.9982
-0.3195 -0.2948 -0.1308 0.9982
-0.3148 -0.3171 -0.1345 0.9981
-0.3091 -0.3399 -0.1382 0.9981
-0.3018 -0.3627 -0.1420 0.9980
-0.2992 -0.3705 -0.1433 0.9980
-0.2938 -0.3863 -0.1461 0.9980
-0.2911 -0.3946 -0.1475 0.9980
-0.2883 -0.4029 -0.1491 0.9979
-0.2853 -0.4113 -0.1506 0.9979
-0.2758 -0.4375 -0.1556 0.9978
-0.2724 -0.4464 -0.1574 0.9978
-0.2617 -0.4743 -0.1630 0.9977
-0.2583 -0.4848 -0.1653 0.9977
-0.2547 -0.4955 -0.1676 0.9977
-0.2383 -0.6369 -0.2046 0.9972
-1.0513 -3.0815 -0.9797 0.9865
-1.0061 -3.0966 -0.9797 0.9865
-0.8235 -3.1500 -0.9797 0.9865
-0.7774 -3.1617 -0.9797 0.9865
-0.5914 -3.2016 -0.9796 0.9865
-0.4976 -3.2176 -0.9796 0.9865
-0.4505 -3.2245 -0.9796 0.9865
-0.3561 -3.2362 -0.9796 0.9865
-0.3088 -3.2411 -0.9796 0.9865
-0.2614 -3.2452 -0.9796 0.9865
-0.2139 -3.2487 -0.9796 0.9865
-0.1664 -3.2515 -0.9796 0.9865
-0.1189 -3.2536 -0.9796 0.9865
-0.0713 -3.2549 -0.9796 0.9865
-0.0238 -3.2557 -0.9796 0.9865
0.0238 -3.2556 -0.9796 0.9865
0.1189 -3.2535 -0.9796 0.9865
0.1664 -3.2514 -0.9796 0.9865
0.2139 -3.2487 -0.9796 0.9865
0.2614 -3.2452 -0.9796 0.9865
0.3088 -3.2410 -0.9796 0.9865
0.3561 -3.2361 -0.9796 0.9865
0.4033 -3.2305 -0.9796 0.9865
0.5913 -3.2014 -0.9796 0.9865
0.7773 -3.1614 -0.9796 0.9865
0.8694 -3.1373 -0.9796 0.9865
1.0512 -3.0812 -0.9796 0.9865
1.0961 -3.0655 -0.9796 0.9865
1.1852 -3.0321 -0.9795 0.9865
1.3602 -2.9577 -0.9795 0.9865
1.5307 -2.8731 -0.9795 0.9865
1.6551 -2.8033 -0.9795 0.9865
1.6959 -2.7787 -0.9795 0.9865
1.7363 -2.7537 -0.9795 0.9865
1.7764 -2.7280 -0.9795 0.9865
1.8942 -2.6476 -0.9795 0.9865
2.0084 -2.5620 -0.9795 0.9865
2.0456 -2.5323 -0.9795 0.9865
2.1545 -2.4403 -0.9795 0.9865
2.1900 -2.4085 -0.9795 0.9865
2.2250 -2.3763 -0.9795 0.9865
2.3155 -2.3326 -0.9890 0.9864
2.3632 -2.3118 -0.9947 0.9863
2.3966 -2.2771 -0.9947 0.9863
2.4297 -2.2419 -0.9947 0.9863
2.4621 -2.2061 -0.9947 0.9863
2.5255 -2.1332 -0.9947 0.9863
2.6166 -2.0205 -0.9947 0.9863
2.6458 -1.9820 -0.9947 0.9863
2.6745 -1.9431 -0.9947 0.9863
2.7301 -1.8641 -0.9947 0.9863
2.7571 -1.8240 -0.9947 0.9863
2.7834 -1.7836 -0.9947 0.9863
2.8092 -1.7427 -0.9947 0.9863
2.8344 -1.7015 -0.9947 0.9863
2.9062 -1.5756 -0.9947 0.9863
2.9510 -1.4900 -0.9947 0.9863
2.9724 -1.4467 -0.9947 0.9863
2.9932 -1.4032 -0.9947 0.9863
3.0329 -1.3151 -0.9947 0.9863
3.0519 -1.2706 -0.9947 0.9863
3.0701 -1.2259 -0.9947 0.9863
3.1046 -1.1357 -0.9947 0.9863
3.1364 -1.0445 -0.9947 0.9863
3.1921 -0.8595 -0.9947 0.9863
3.2043 -0.8127 -0.9947 0.9863
3.2158 -0.7659 -0.9947 0.9863
3.2463 -0.6242 -0.9947 0.9863
3.2551 -0.5767 -0.9947 0.9863
3.2632 -0.5290 -0.9947 0.9863
3.2832 -0.3855 -0.9947 0.9863
3.2885 -0.3375 -0.9947 0.9863
3.2931 -0.2895 -0.9947 0.9863
3.2969 -0.2413 -0.9947 0.9863
3.3001 -0.1931 -0.9947 0.9863
3.3043 -0.0966 -0.9947 0.9863
3.3058 0.0000 -0.9947 0.9863
3.3001 0.1931 -0.9947 0.9863
3.2970 0.2413 -0.9947 0.9863
3.2885 0.3376 -0.9947 0.9863
3.2832 0.3855 -0.9947 0.9863
3.2705 0.4813 -0.9947 0.9863
3.2632 0.5291 -0.9947 0.9863
3.2463 0.6242 -0.9947 0.9863
3.2267 0.7188 -0.9947 0.9863
3.2043 0.8127 -0.9947 0.9863
3.1514 0.9986 -0.9947 0.9863
3.1364 1.0445 -0.9947 0.9863
3.0701 1.2259 -0.9947 0.9863
3.0330 1.3151 -0.9947 0.9863
2.9724 1.4468 -0.9947 0.9863
2.9510 1.4900 -0.9947 0.9863
2.9289 1.5330 -0.9947 0.9863
2.9062 1.5757 -0.9947 0.9863
2.8589 1.6599 -0.9947 0.9863
2.8092 1.7427 -0.9947 0.9863
2.7834 1.7836 -0.9947 0.9863
2.7571 1.8241 -0.9947 0.9863
2.7301 1.8641 -0.9947 0.9863
2.6458 1.9820 -0.9947 0.9863
2.6166 2.0205 -0.9947 0.9863
2.5868 2.0585 -0.9947 0.9863
2.5564 2.0961 -0.9947 0.9863
2.4297 2.2419 -0.9947 0.9863
2.3967 2.2771 -0.9947 0.9863
2.3631 2.3119 -0.9947 0.9863
2.2946 2.3800 -0.9947 0.9863
2.2596 2.4132 -0.9947 0.9863
2.2240 2.4460 -0.9947 0.9863
2.1517 2.5100 -0.9947 0.9863
2.0774 2.5718 -0.9947 0.9863
2.0396 2.6019 -0.9947 0.9863
1.8443 2.7438 -0.9948 0.9863
1.8040 2.7705 -0.9948 0.9863
1.7633 2.7966 -0.9948 0.9863
1.6808 2.8469 -0.9948 0.9863
1.5545 2.9179 -0.9948 0.9863
1.3373 3.0236 -0.9948 0.9863
1.2930 3.0428 -0.9948 0.9863
1.2485 3.0614 -0.9948 0.9863
0.9756 3.1590 -0.9948 0.9863
0.9294 3.1729 -0.9948 0.9863
0.8829 3.1862 -0.9948 0.9863
0.7424 3.2218 -0.9948 0.9863
0.6480 3.2421 -0.9948 0.9863
0.6005 3.2513 -0.9948 0.9863
0.5530 3.2597 -0.9948 0.9863
0.4575 3.2745 -0.9948 0.9863
0.2654 3.2957 -0.9948 0.9863
0.1690 3.3020 -0.9948 0.9863
0.1208 3.3041 -0.9948 0.9863
0.0725 3.3056 -0.9949 0.9863
0.0242 3.3063 -0.9949 0.9863
-0.0241 3.3063 -0.9949 0.9863
-0.0725 3.3056 -0.9949 0.9863
-0.1207 3.3042 -0.9949 0.9863
-0.2654 3.2958 -0.9949 0.9863
-0.3616 3.2866 -0.9949 0.9863
-0.4575 3.2746 -0.9949 0.9863
-0.5053 3.2677 -0.9949 0.9863
-0.6006 3.2515 -0.9949 0.9863
-0.6480 3.2424 -0.9949 0.9863
-0.6953 3.2326 -0.9949 0.9863
-0.7895 3.2109 -0.9949 0.9863
-0.8830 3.1865 -0.9949 0.9863
-0.9295 3.1732 -0.9949 0.9863
-1.0218 3.1447 -0.9949 0.9863
-1.0676 3.1295 -0.9949 0.9863
-0.2451 0.6855 -0.2190 0.9970
-0.2322 0.5940 -0.1919 0.9973
-0.2304 0.5650 -0.1836 0.9975
-0.2349 0.5527 -0.1807 0.9975
-0.2392 0.5408 -0.1779 0.9975
-0.2473 0.5177 -0.1726 0.9976
-0.2547 0.4955 -0.1676 0.9977
-0.2616 0.4743 -0.1630 0.9977
-0.2654 0.4648 -0.1610 0.9978
-0.2758 0.4375 -0.1556 0.9978
-0.2791 0.4286 -0.1539 0.9979
-0.2822 0.4200 -0.1522 0.9979
-0.2853 0.4113 -0.1506 0.9979
-0.2882 0.4029 -0.1491 0.9979
-0.2911 0.3946 -0.1475 0.9980
-0.2992 0.3705 -0.1433 0.9980
-0.3018 0.3627 -0.1420 0.9980
-0.3091 0.3399 -0.1382 0.9981
-0.3113 0.3325 -0.1371 0.9981
-0.3148 0.3171 -0.1345 0.9981
-0.3209 0.2876 -0.1297 0.9982
-0.3236 0.2734 -0.1275 0.9982
-0.3248 0.2664 -0.1264 0.9982
-0.3272 0.2527 -0.1244 0.9983
-0.3283 0.2459 -0.1234 0.9983
-0.3303 0.2327 -0.1216 0.9983
-0.3321 0.2197 -0.1198 0.9983
-0.3329 0.2134 -0.1190 0.9983
-0.3337 0.2070 -0.1182 0.9984
-0.3352 0.1946 -0.1166 0.9984
-0.3362 0.1887 -0.1160 0.9984
-0.3372 0.1828 -0.1154 0.9984
-0.3391 0.1713 -0.1143 0.9984
-0.3400 0.1655 -0.1138 0.9984
-0.3415 0.1541 -0.1127 0.9984
-0.3433 0.1371 -0.1112 0.9985
-0.3438 0.1315 -0.1108 0.9985
-0.3443 0.1260 -0.1103 0.9985
-0.3447 0.1205 -0.1099 0.9985
-0.3456 0.1095 -0.1091 0.9985
-0.3459 0.1041 -0.1087 0.9985
-0.3462 0.0987 -0.1083 0.9985
-0.3465 0.0933 -0.1080 0.9985
-0.3469 0.0827 -0.1073 0.9985
-0.3471 0.0773 -0.1070 0.9985
-0.3473 0.0720 -0.1067 0.9985
-0.3474 0.0668 -0.1064 0.9985
-0.3474 0.0616 -0.1062 0.9985
-0.3475 0.0563 -0.1059 0.9985
-0.3475 0.0512 -0.1057 0.9985
-0.3475 0.0409 -0.1053 0.9985
-0.3474 0.0357 -0.1051 0.9985
-0.3468 0.0152 -0.1045 0.9986
-0.3409 -0.0100 -0.1068 0.9986
-0.3412 -0.0150 -0.1069 0.9986
-0.3413 -0.0200 -0.1070 0.9986
-0.3415 -0.0250 -0.1072 0.9986
-0.3418 -0.0452 -0.1079 0.9986
-0.3418 -0.0503 -0.1081 0.9986
-0.3416 -0.0657 -0.1089 0.9985
-0.3413 -0.0761 -0.1095 0.9985
-0.3411 -0.0812 -0.1098 0.9985
-0.3403 -0.0970 -0.1108 0.9985
-0.3397 -0.1077 -0.1115 0.9985
-0.3389 -0.1184 -0.1124 0.9985
-0.3374 -0.1347 -0.1137 0.9985
-0.3368 -0.1402 -0.1142 0.9985
-0.3362 -0.1457 -0.1147 0.9985
-0.3348 -0.1570 -0.1158 0.9985
-0.3340 -0.1625 -0.1163 0.9984
-0.3321 -0.1738 -0.1173 0.9984
-0.3273 -0.2031 -0.1206 0.9984
-0.3265 -0.2092 -0.1214 0.9984
-0.3256 -0.2155 -0.1222 0.9984
-0.3247 -0.2218 -0.1231 0.9984
-0.3238 -0.2281 -0.1240 0.9983
-0.3228 -0.2345 -0.1249 0.9983
-0.3194 -0.2542 -0.1278 0.9983
-0.3182 -0.2609 -0.1288 0.9983
-0.3127 -0.2886 -0.1332 0.9982
-0.3112 -0.2957 -0.1344 0.9982
-0.3096 -0.3029 -0.1356 0.9982
-0.3080 -0.3102 -0.1368 0.9982
-0.3063 -0.3177 -0.1381 0.9982
-0.3045 -0.3252 -0.1394 0.9981
-0.3000 -0.3398 -0.1419 0.9981
-0.2925 -0.3621 -0.1457 0.9981
-0.2898 -0.3697 -0.1471 0.9980
-0.2785 -0.4015 -0.1529 0.9980
-0.2621 -0.4441 -0.1614 0.9978
-0.2510 -0.4712 -0.1671 0.9978
-0.2471 -0.4805 -0.1691 0.9977
-0.2432 -0.4906 -0.1714 0.9977
-0.2395 -0.5012 -0.1739 0.9977
-0.2271 -0.5345 -0.1818 0.9976
-0.2180 -0.5577 -0.1875 0.9975
-0.2132 -0.5698 -0.1904 0.9975
-0.2176 -0.6084 -0.2023 0.9973
-0.2225 -0.6521 -0.2157 0.9971
-0.9671 -2.9766 -0.9797 0.9870
-0.9236 -2.9904 -0.9797 0.9870
-0.8798 -3.0036 -0.9797 0.9870
-0.7473 -3.0392 -0.9797 0.9870
-0.7028 -3.0498 -0.9797 0.9870
-0.4330 -3.0996 -0.9796 0.9870
-0.3877 -3.1056 -0.9796 0.9870
-0.3423 -3.1109 -0.9796 0.9870
-0.2968 -3.1155 -0.9796 0.9870
-0.2512 -3.1195 -0.9796 0.9870
-0.1143 -3.1275 -0.9796 0.9870
0.1143 -3.1275 -0.9796 0.9870
0.1600 -3.1255 -0.9796 0.9870
0.2057 -3.1228 -0.9796 0.9870
0.2512 -3.1195 -0.9796 0.9870
0.2968 -3.1154 -0.9796 0.9870
0.4330 -3.0994 -0.9796 0.9870
0.5234 -3.0854 -0.9796 0.9870
0.5684 -3.0774 -0.9796 0.9870
0.6133 -3.0688 -0.9796 0.9870
0.6581 -3.0595 -0.9796 0.9870
0.7916 -3.0277 -0.9796 0.9870
0.8797 -3.0032 -0.9796 0.9870
0.9670 -2.9762 -0.9796 0.9870
1.1393 -2.9146 -0.9796 0.9870
1.2239 -2.8801 -0.9795 0.9870
1.2659 -2.8619 -0.9795 0.9870
1.3076 -2.8431 -0.9795 0.9870
1.4714 -2.7618 -0.9795 0.9870
1.5116 -2.7400 -0.9795 0.9870
1.5515 -2.7177 -0.9795 0.9870
1.6691 -2.6470 -0.9795 0.9870
1.7834 -2.5713 -0.9795 0.9870
1.8208 -2.5450 -0.9795 0.9870
1.8944 -2.4907 -0.9795 0.9870
2.0737 -2.3486 -0.9807 0.9870
2.1720 -2.3198 -0.9947 0.9868
2.2389 -2.2553 -0.9947 0.9868
2.2716 -2.2223 -0.9947 0.9868
2.3038 -2.1889 -0.9947 0.9868
2.3355 -2.1550 -0.9947 0.9868
2.3668 -2.1206 -0.9947 0.9868
2.4277 -2.0506 -0.9947 0.9868
2.4574 -2.0149 -0.9947 0.9868
2.5434 -1.9052 -0.9947 0.9868
2.6244 -1.7920 -0.9947 0.9868
2.7246 -1.6356 -0.9947 0.9868
2.7482 -1.5956 -0.9947 0.9868
2.7936 -1.5146 -0.9947 0.9868
2.8573 -1.3907 -0.9947 0.9868
2.8773 -1.3488 -0.9947 0.9868
2.9337 -1.2214 -0.9947 0.9868
2.9512 -1.1784 -0.9947 0.9868
2.9681 -1.1352 -0.9947 0.9868
3.0150 -1.0040 -0.9947 0.9868
3.0293 -0.9598 -0.9947 0.9868
3.0561 -0.8709 -0.9947 0.9868
3.0685 -0.8262 -0.9947 0.9868
3.0802 -0.7812 -0.9947 0.9868
3.1017 -0.6909 -0.9947 0.9868
3.1561 -0.3706 -0.9947 0.9868
3.1611 -0.3245 -0.9947 0.9868
3.1655 -0.2782 -0.9947 0.9868
3.1693 -0.2320 -0.9947 0.9868
3.1764 -0.0929 -0.9947 0.9868
3.1774 -0.0464 -0.9947 0.9868
3.1764 0.0929 -0.9947 0.9868
3.1693 0.2320 -0.9947 0.9868
3.1611 0.3245 -0.9947 0.9868
3.1503 0.4167 -0.9947 0.9868
3.1367 0.5086 -0.9947 0.9868
3.1206 0.6000 -0.9947 0.9868
3.0802 0.7813 -0.9947 0.9868
3.0293 0.9599 -0.9947 0.9868
2.9844 1.0917 -0.9947 0.9868
2.9681 1.1352 -0.9947 0.9868
2.9155 1.2642 -0.9947 0.9868
2.8967 1.3066 -0.9947 0.9868
2.8573 1.3907 -0.9947 0.9868
2.7936 1.5146 -0.9947 0.9868
2.7246 1.6356 -0.9947 0.9868
2.6756 1.7145 -0.9947 0.9868
2.6244 1.7920 -0.9947 0.9868
2.5709 1.8679 -0.9947 0.9868
2.5434 1.9052 -0.9947 0.9868
2.4866 1.9788 -0.9947 0.9868
2.4574 2.0149 -0.9947 0.9868
2.3975 2.0859 -0.9947 0.9868
2.3668 2.1207 -0.9947 0.9868
2.3356 2.1550 -0.9947 0.9868
2.3038 2.1889 -0.9947 0.9868
2.2057 2.2878 -0.9947 0.9868
2.1720 2.3198 -0.9947 0.9868
2.1033 2.3823 -0.9947 0.9868
2.0328 2.4427 -0.9947 0.9868
1.8112 2.6113 -0.9948 0.9868
1.6950 2.6882 -0.9948 0.9868
1.5756 2.7600 -0.9948 0.9868
1.5351 2.7827 -0.9948 0.9868
1.4943 2.8048 -0.9948 0.9868
1.4531 2.8263 -0.9948 0.9868
1.3699 2.8677 -0.9948 0.9868
1.3279 2.8873 -0.9948 0.9868
1.1136 2.9766 -0.9948 0.9868
0.9379 3.0366 -0.9948 0.9868
0.8039 3.0748 -0.9948 0.9868
0.6229 3.1166 -0.9948 0.9868
0.5316 3.1334 -0.9948 0.9868
0.4857 3.1409 -0.9948 0.9868
0.4398 3.1476 -0.9948 0.9868
0.3937 3.1537 -0.9948 0.9868
0.3476 3.1592 -0.9948 0.9868
0.3014 3.1639 -0.9948 0.9868
0.1625 3.1741 -0.9948 0.9868
0.1161 3.1762 -0.9948 0.9868
0.0697 3.1775 -0.9949 0.9868
-0.0232 3.1782 -0.9949 0.9868
-0.0697 3.1775 -0.9949 0.9868
-0.1161 3.1762 -0.9949 0.9868
-0.2552 3.1681 -0.9949 0.9868
-0.3014 3.1641 -0.9949 0.9868
-0.4398 3.1479 -0.9949 0.9868
-0.5316 3.1336 -0.9949 0.9868
-0.5773 3.1255 -0.9949 0.9868
-0.6684 3.1073 -0.9949 0.9868
-0.7137 3.0972 -0.9949 0.9868
-0.7589 3.0865 -0.9949 0.9868
-0.8039 3.0751 -0.9949 0.9868
-0.8935 3.0503 -0.9949 0.9868
-0.9822 3.0229 -0.9949 0.9868
-0.2176 0.6084 -0.2023 0.9973
-0.2180 0.5577 -0.1875 0.9975
-0.2226 0.5460 -0.1846 0.9975
-0.2271 0.5345 -0.1818 0.9976
-0.2355 0.5121 -0.1764 0.9976
-0.2395 0.5012 -0.1739 0.9977
-0.2433 0.4907 -0.1714 0.9977
-0.2471 0.4805 -0.1691 0.9977
-0.2510 0.4712 -0.1671 0.9978
-0.2622 0.4441 -0.1614 0.9978
-0.2657 0.4353 -0.1596 0.9979
-0.2723 0.4182 -0.1562 0.9979
-0.2754 0.4098 -0.1545 0.9979
-0.2785 0.4015 -0.1529 0.9980
-0.2871 0.3775 -0.1484 0.9980
-0.3024 0.3325 -0.1407 0.9981
-0.3045 0.3252 -0.1394 0.9981
-0.3096 0.3030 -0.1356 0.9982
-0.3112 0.2957 -0.1344 0.9982
-0.3127 0.2886 -0.1332 0.9982
-0.3156 0.2746 -0.1309 0.9982
-0.3169 0.2677 -0.1299 0.9983
-0.3228 0.2345 -0.1249 0.9983
-0.3248 0.2218 -0.1231 0.9984
-0.3256 0.2155 -0.1222 0.9984
-0.3265 0.2093 -0.1214 0.9984
-0.3281 0.1970 -0.1198 0.9984
-0.3301 0.1853 -0.1185 0.9984
-0.3321 0.1738 -0.1173 0.9984
-0.3379 0.1293 -0.1132 0.9985
-0.3384 0.1238 -0.1128 0.9985
-0.3389 0.1184 -0.1124 0.9985
-0.3397 0.1076 -0.1115 0.9985
-0.3400 0.1023 -0.1112 0.9985
-0.3406 0.0917 -0.1104 0.9985
-0.3409 0.0865 -0.1101 0.9985
-0.3411 0.0812 -0.1098 0.9985
-0.3413 0.0761 -0.1095 0.9985
-0.3416 0.0657 -0.1089 0.9985
-0.3417 0.0605 -0.1086 0.9985
-0.3418 0.0452 -0.1079 0.9986
-0.3418 0.0402 -0.1077 0.9986
-0.3415 0.0250 -0.1072 0.9986
-0.3412 0.0150 -0.1069 0.9986
-0.3409 0.0100 -0.1068 0.9986
-0.3407 0.0050 -0.1067 0.9986
-0.3350 0.0000 -0.1089 0.9986
-0.3355 -0.0098 -0.1091 0.9986
-0.3356 -0.0147 -0.1093 0.9986
-0.3360 -0.0246 -0.1096 0.9986
-0.3361 -0.0345 -0.1099 0.9986
-0.3362 -0.0495 -0.1105 0.9986
-0.3362 -0.0545 -0.1108 0.9986
-0.3361 -0.0595 -0.1110 0.9986
-0.3359 -0.0696 -0.1116 0.9986
-0.3357 -0.0748 -0.1119 0.9986
-0.3352 -0.0850 -0.1125 0.9985
-0.3340 -0.1058 -0.1139 0.9985
-0.3336 -0.1111 -0.1143 0.9985
-0.3331 -0.1163 -0.1148 0.9985
-0.3326 -0.1217 -0.1152 0.9985
-0.3321 -0.1270 -0.1157 0.9985
-0.3297 -0.1487 -0.1176 0.9985
-0.3253 -0.1763 -0.1203 0.9984
-0.3242 -0.1820 -0.1209 0.9984
-0.3231 -0.1876 -0.1215 0.9984
-0.3211 -0.1992 -0.1229 0.9984
-0.3185 -0.2175 -0.1254 0.9984
-0.3175 -0.2236 -0.1263 0.9984
-0.3164 -0.2299 -0.1272 0.9984
-0.3118 -0.2556 -0.1311 0.9983
-0.3062 -0.2825 -0.1355 0.9982
-0.3047 -0.2895 -0.1367 0.9982
-0.3030 -0.2965 -0.1379 0.9982
-0.3014 -0.3036 -0.1391 0.9982
-0.2978 -0.3181 -0.1417 0.9982
-0.2959 -0.3254 -0.1430 0.9982
-0.2911 -0.3396 -0.1455 0.9981
-0.2834 -0.3615 -0.1494 0.9981
-0.2806 -0.3689 -0.1508 0.9981
-0.2778 -0.3765 -0.1522 0.9980
-0.2749 -0.3842 -0.1536 0.9980
-0.2719 -0.3920 -0.1552 0.9980
-0.2625 -0.4163 -0.1601 0.9979
-0.2557 -0.4330 -0.1636 0.9979
-0.2446 -0.4591 -0.1692 0.9978
-0.2407 -0.4681 -0.1712 0.9978
-0.2366 -0.4772 -0.1732 0.9978
-0.2240 -0.5065 -0.1801 0.9977
-0.2198 -0.5172 -0.1828 0.9976
-0.2154 -0.5281 -0.1855 0.9976
-0.2010 -0.5623 -0.1942 0.9975
-0.2019 -0.6213 -0.2125 0.9973
-0.2055 -0.6655 -0.2265 0.9971
-0.7619 -2.9143 -0.9797 0.9874
-0.7192 -2.9251 -0.9797 0.9874
-0.5471 -2.9620 -0.9796 0.9874
-0.5038 -2.9698 -0.9796 0.9874
-0.4603 -2.9768 -0.9796 0.9874
-0.1540 -3.0082 -0.9796 0.9874
-0.1100 -3.0101 -0.9796 0.9874
-0.0660 -3.0114 -0.9796 0.9874
0.0660 -3.0114 -0.9796 0.9874
0.1540 -3.0081 -0.9796 0.9874
0.1979 -3.0055 -0.9796 0.9874
0.2418 -3.0023 -0.9796 0.9874
0.2856 -2.9984 -0.9796 0.9874
0.3294 -2.9940 -0.9796 0.9874
0.5903 -2.9536 -0.9796 0.9874
0.6334 -2.9446 -0.9796 0.9874
0.6764 -2.9351 -0.9796 0.9874
0.7192 -2.9248 -0.9796 0.9874
0.8043 -2.9026 -0.9796 0.9874
0.9307 -2.8645 -0.9796 0.9874
1.0554 -2.8210 -0.9796 0.9874
1.2585 -2.7364 -0.9795 0.9874
1.2983 -2.7177 -0.9795 0.9874
1.4932 -2.6156 -0.9795 0.9874
1.5312 -2.5935 -0.9795 0.9874
1.5690 -2.5709 -0.9795 0.9874
1.6802 -2.4996 -0.9795 0.9874
1.7524 -2.4495 -0.9795 0.9874
1.7881 -2.4236 -0.9795 0.9874
1.8233 -2.3972 -0.9795 0.9874
1.8581 -2.3703 -0.9795 0.9874
1.8967 -2.3481 -0.9817 0.9874
1.9440 -2.3360 -0.9884 0.9873
2.0905 -2.2327 -0.9947 0.9872
2.1548 -2.1706 -0.9947 0.9872
2.2173 -2.1068 -0.9947 0.9872
2.2479 -2.0741 -0.9947 0.9872
2.3075 -2.0076 -0.9947 0.9872
2.3933 -1.9045 -0.9947 0.9872
2.4208 -1.8693 -0.9947 0.9872
2.4744 -1.7977 -0.9947 0.9872
2.5004 -1.7614 -0.9947 0.9872
2.5508 -1.6876 -0.9947 0.9872
2.5990 -1.6123 -0.9947 0.9872
2.6672 -1.4969 -0.9947 0.9872
2.7098 -1.4183 -0.9947 0.9872
2.7302 -1.3786 -0.9947 0.9872
2.7501 -1.3385 -0.9947 0.9872
2.7693 -1.2982 -0.9947 0.9872
2.8404 -1.1342 -0.9947 0.9872
2.8723 -1.0507 -0.9947 0.9872
2.9018 -0.9663 -0.9947 0.9872
2.9156 -0.9239 -0.9947 0.9872
2.9288 -0.8811 -0.9947 0.9872
2.9414 -0.8382 -0.9947 0.9872
2.9533 -0.7952 -0.9947 0.9872
2.9646 -0.7520 -0.9947 0.9872
3.0321 -0.4010 -0.9947 0.9872
3.0376 -0.3567 -0.9947 0.9872
3.0503 -0.2232 -0.9947 0.9872
3.0532 -0.1787 -0.9947 0.9872
3.0584 0.0000 -0.9947 0.9872
3.0581 0.0447 -0.9947 0.9872
3.0571 0.0894 -0.9947 0.9872
3.0555 0.1340 -0.9947 0.9872
3.0532 0.1787 -0.9947 0.9872
3.0503 0.2233 -0.9947 0.9872
3.0467 0.2678 -0.9947 0.9872
3.0376 0.3567 -0.9947 0.9872
3.0321 0.4011 -0.9947 0.9872
3.0190 0.4895 -0.9947 0.9872
3.0116 0.5336 -0.9947 0.9872
2.9752 0.7086 -0.9947 0.9872
2.9288 0.8811 -0.9947 0.9872
2.9156 0.9238 -0.9947 0.9872
2.9018 0.9663 -0.9947 0.9872
2.8874 1.0086 -0.9947 0.9872
2.8235 1.1756 -0.9947 0.9872
2.7880 1.2576 -0.9947 0.9872
2.7500 1.3386 -0.9947 0.9872
2.7302 1.3786 -0.9947 0.9872
2.7098 1.4183 -0.9947 0.9872
2.6223 1.5742 -0.9947 0.9872
2.5990 1.6123 -0.9947 0.9872
2.5259 1.7247 -0.9947 0.9872
2.4744 1.7978 -0.9947 0.9872
2.4208 1.8693 -0.9947 0.9872
2.3933 1.9045 -0.9947 0.9872
2.3652 1.9393 -0.9947 0.9872
2.3366 1.9736 -0.9947 0.9872
2.3075 2.0075 -0.9947 0.9872
2.2479 2.0741 -0.9947 0.9872
2.2173 2.1067 -0.9947 0.9872
2.1548 2.1707 -0.9947 0.9872
2.1229 2.2019 -0.9947 0.9872
2.0905 2.2327 -0.9947 0.9872
2.0577 2.2630 -0.9947 0.9872
1.9220 2.3794 -0.9947 0.9872
1.8517 2.4345 -0.9948 0.9872
1.8159 2.4613 -0.9948 0.9872
1.7797 2.4876 -0.9948 0.9872
1.6314 2.5873 -0.9948 0.9872
1.4775 2.6782 -0.9948 0.9872
1.4382 2.6995 -0.9948 0.9872
1.3986 2.7203 -0.9948 0.9872
1.1963 2.8151 -0.9948 0.9872
1.1550 2.8323 -0.9948 0.9872
1.0718 2.8649 -0.9948 0.9872
0.9876 2.8950 -0.9948 0.9872
0.9026 2.9226 -0.9948 0.9872
0.8598 2.9355 -0.9948 0.9872
0.7737 2.9594 -0.9948 0.9872
0.5995 2.9996 -0.9948 0.9872
0.4675 3.0230 -0.9948 0.9872
0.3346 3.0405 -0.9948 0.9872
0.2456 3.0491 -0.9948 0.9872
0.1564 3.0550 -0.9948 0.9872
-0.0223 3.0589 -0.9949 0.9872
-0.1117 3.0570 -0.9949 0.9872
-0.1564 3.0550 -0.9949 0.9872
-0.2010 3.0524 -0.9949 0.9872
-0.2901 3.0452 -0.9949 0.9872
-0.3346 3.0407 -0.9949 0.9872
-0.3790 3.0355 -0.9949 0.9872
-0.5116 3.0159 -0.9949 0.9872
-0.5996 2.9997 -0.9949 0.9872
-0.6433 2.9907 -0.9949 0.9872
-0.6869 2.9810 -0.9949 0.9872
-0.8169 2.9480 -0.9949 0.9872
-0.2019 0.6213 -0.2125 0.9973
-0.2060 0.5506 -0.1912 0.9975
-0.2108 0.5393 -0.1883 0.9976
-0.2198 0.5173 -0.1828 0.9976
-0.2240 0.5065 -0.1801 0.9977
-0.2281 0.4961 -0.1776 0.9977
-0.2406 0.4681 -0.1712 0.9978
-0.2446 0.4591 -0.1692 0.9978
-0.2484 0.4503 -0.1673 0.9978
-0.2521 0.4416 -0.1654 0.9979
-0.2591 0.4246 -0.1618 0.9979
-0.2625 0.4163 -0.1601 0.9979
-0.2657 0.4081 -0.1584 0.9980
-0.2689 0.4000 -0.1568 0.9980
-0.2719 0.3921 -0.1552 0.9980
-0.2749 0.3842 -0.1536 0.9980
-0.2778 0.3765 -0.1522 0.9980
-0.2806 0.3690 -0.1508 0.9981
-0.2886 0.3468 -0.1467 0.9981
-0.2911 0.3396 -0.1455 0.9981
-0.2978 0.3181 -0.1417 0.9982
-0.2996 0.3108 -0.1404 0.9982
-0.3014 0.3036 -0.1391 0.9982
-0.3047 0.2895 -0.1367 0.9982
-0.3062 0.2826 -0.1355 0.9982
-0.3091 0.2690 -0.1333 0.9983
-0.3105 0.2622 -0.1322 0.9983
-0.3118 0.2557 -0.1311 0.9983
-0.3142 0.2427 -0.1291 0.9983
-0.3154 0.2362 -0.1281 0.9983
-0.3185 0.2175 -0.1254 0.9984
-0.3194 0.2113 -0.1246 0.9984
-0.3203 0.2052 -0.1237 0.9984
-0.3242 0.1820 -0.1209 0.9984
-0.3272 0.1652 -0.1192 0.9985
-0.3281 0.1597 -0.1187 0.9985
-0.3290 0.1542 -0.1182 0.9985
-0.3297 0.1487 -0.1176 0.9985
-0.3304 0.1433 -0.1171 0.9985
-0.3310 0.1378 -0.1166 0.9985
-0.3321 0.1270 -0.1157 0.9985
-0.3326 0.1217 -0.1152 0.9985
-0.3336 0.1111 -0.1143 0.9985
-0.3340 0.1058 -0.1139 0.9985
-0.3343 0.1006 -0.1136 0.9985
-0.3352 0.0850 -0.1125 0.9985
-0.3355 0.0799 -0.1122 0.9986
-0.3357 0.0748 -0.1119 0.9986
-0.3360 0.0646 -0.1113 0.9986
-0.3361 0.0596 -0.1110 0.9986
-0.3362 0.0495 -0.1105 0.9986
-0.3362 0.0445 -0.1103 0.9986
-0.3362 0.0395 -0.1101 0.9986
-0.3361 0.0296 -0.1097 0.9986
-0.3358 0.0196 -0.1094 0.9986
-0.3354 0.0098 -0.1091 0.9986
-0.3352 0.0049 -0.1090 0.9986
-0.3303 -0.0145 -0.1116 0.9986
-0.3306 -0.0242 -0.1119 0.9986
-0.3307 -0.0291 -0.1120 0.9986
-0.3308 -0.0339 -0.1122 0.9986
-0.3308 -0.0388 -0.1124 0.9986
-0.3308 -0.0487 -0.1129 0.9986
-0.3307 -0.0536 -0.1131 0.9986
-0.3306 -0.0586 -0.1133 0.9986
-0.3302 -0.0736 -0.1142 0.9986
-0.3297 -0.0836 -0.1148 0.9986
-0.3294 -0.0887 -0.1152 0.9986
-0.3291 -0.0938 -0.1155 0.9986
-0.3284 -0.1040 -0.1163 0.9985
-0.3280 -0.1092 -0.1167 0.9985
-0.3271 -0.1196 -0.1175 0.9985
-0.3247 -0.1408 -0.1195 0.9985
-0.3240 -0.1462 -0.1200 0.9985
