ply
format ascii 1.0
element vertex 1585
property float32 x
property float32 y
property float32 z
property float32 I
end_header
15.2539 -3.1647 3.2618 0.9383
15.2939 -2.9406 3.2608 0.9383
15.2293 -2.6981 3.2383 0.9387
17.9690 8.4235 4.1551 0.9221
13.8724 8.6059 3.4180 0.9355
13.6893 8.7719 3.4041 0.9357
12.0415 9.2982 3.1853 0.9397
11.9439 9.5046 3.1959 0.9395
11.7850 9.6627 3.1908 0.9396
7.8759 7.9336 2.3406 0.9553
7.8830 8.1764 2.3780 0.9546
7.7081 8.2325 2.3613 0.9550
7.6944 8.4623 2.3947 0.9543
7.6803 8.6987 2.4296 0.9537
7.6658 8.9424 2.4661 0.9530
7.4134 9.1776 2.4701 0.9529
6.8767 9.6120 2.4745 0.9528
6.7416 9.7202 2.4767 0.9528
3.8817 9.5184 2.1522 0.9589
0.2946 8.0608 1.6888 0.9676
0.0614 8.4094 1.7607 0.9662
-0.0628 8.5952 1.7996 0.9655
-0.1927 8.7895 1.8407 0.9647
-0.4580 8.9471 1.8757 0.9640
-1.3927 9.0059 1.9080 0.9634
-4.3188 9.0404 2.0977 0.9599
-4.7137 9.1683 2.1584 0.9587
-5.3155 8.4303 2.0867 0.9601
-6.0075 8.9379 2.2548 0.9569
-6.1448 8.8597 2.2575 0.9569
-6.4429 8.7331 2.2722 0.9566
-7.0103 8.9428 2.3791 0.9546
-7.4316 9.2002 2.4762 0.9528
-10.1346 10.2090 3.0119 0.9429
-10.2422 10.0202 3.0000 0.9431
-10.3542 9.8378 2.9904 0.9433
-10.1414 9.0868 2.8510 0.9459
-10.8676 8.9105 2.9424 0.9442
-10.8610 8.6429 2.9062 0.9449
-15.8865 8.9159 3.8142 0.9283
-16.1721 8.4646 3.8218 0.9281
-16.8729 8.5197 3.9575 0.9257
-30.8882 6.4084 6.6049 0.8790
-1.8498 0.3278 0.3933 0.9924
-1.8138 0.2941 0.3847 0.9925
-1.7941 0.2641 0.3797 0.9926
-1.7760 0.2350 0.3751 0.9927
-1.7243 0.1262 0.3620 0.9930
-1.7074 0.0749 0.3578 0.9930
-1.7005 0.0498 0.3562 0.9931
-1.6948 0.0248 0.3549 0.9931
-1.6181 -0.0236 0.3201 0.9934
-1.6194 -0.0473 0.3205 0.9934
-1.6209 -0.0711 0.3210 0.9934
-1.6227 -0.0949 0.3216 0.9934
-1.6270 -0.1430 0.3231 0.9934
-1.6295 -0.1672 0.3241 0.9933
-1.6333 -0.1918 0.3253 0.9933
-1.6501 -0.2675 0.3307 0.9932
-1.6660 -0.3203 0.3356 0.9931
-1.6746 -0.3474 0.3383 0.9931
-1.6835 -0.3750 0.3412 0.9930
-1.6964 -0.4039 0.3450 0.9929
-75.3656 -31.3788 16.1505 0.7169
-72.2105 -31.3109 15.5707 0.7255
-66.5317 -31.1887 14.5366 0.7411
-61.3042 -29.8385 13.4883 0.7573
-56.8240 -29.7420 12.6884 0.7699
-54.7764 -29.6980 12.3268 0.7756
-52.8421 -29.6563 11.9877 0.7811
-51.0109 -29.6169 11.6692 0.7862
-47.6239 -29.5441 11.0873 0.7957
-46.0534 -29.5103 10.8209 0.8001
-43.5427 -29.7313 10.4307 0.8066
-40.7122 -29.5791 9.9555 0.8145
-39.5750 -29.6459 9.7823 0.8174
-38.3589 -29.6197 9.5877 0.8207
-37.1900 -29.5946 9.4026 0.8238
-34.6474 -29.2648 8.9723 0.8312
-13.9142 -12.1053 3.6486 0.9276
-29.8070 -29.1607 8.2494 0.8436
-28.9297 -29.1418 8.1236 0.8458
-26.4490 -29.0884 7.7778 0.8519
-24.9074 -29.0552 7.5710 0.8555
-9.0635 -11.2204 2.8535 0.9429
-8.9977 -11.4780 2.8853 0.9423
-8.3580 -11.3288 2.7852 0.9442
-8.2111 -11.4769 2.7918 0.9441
-8.0269 -11.5732 2.7863 0.9442
-7.4571 -12.6303 2.9017 0.9419
-16.4834 -28.8740 6.5775 0.8732
-13.7659 -28.8155 6.3177 0.8779
-12.7357 -28.7933 6.2286 0.8795
-11.2418 -28.7612 6.1091 0.8817
-4.6424 -12.4089 2.6211 0.9474
-4.2151 -12.3553 2.5826 0.9482
-4.0517 -12.4698 2.5939 0.9479
-3.5513 -11.4988 2.3809 0.9521
-3.4140 -11.6557 2.4028 0.9517
-3.2741 -11.8154 2.4256 0.9512
-3.0164 -11.5380 2.3593 0.9525
-2.9859 -12.1436 2.4740 0.9503
-2.4159 -12.0878 2.4387 0.9510
-1.8310 -11.8399 2.3702 0.9523
-1.6335 -11.6918 2.3355 0.9530
-3.5701 -28.5961 5.7012 0.8891
-3.1455 -28.5869 5.6896 0.8893
-2.7225 -28.5779 5.6792 0.8895
-2.3009 -28.5688 5.6701 0.8897
-1.8806 -28.5597 5.6623 0.8898
-1.4614 -28.5507 5.6557 0.8900
-1.0431 -28.5417 5.6503 0.8901
-0.6255 -28.5327 5.6461 0.8901
0.2083 -28.5148 5.6413 0.8902
0.6249 -28.5058 5.6407 0.8902
1.0415 -28.4968 5.6414 0.8902
0.6685 -13.0589 2.5869 0.9481
1.3192 -11.9895 2.3862 0.9520
1.4857 -11.9000 2.3725 0.9523
2.0304 -11.9689 2.4017 0.9517
2.1860 -11.8349 2.3810 0.9521
2.5993 -12.0838 2.4453 0.9508
2.7616 -11.9841 2.4330 0.9511
7.8560 -28.3502 5.8200 0.8870
8.7498 -28.3310 5.8660 0.8861
9.2022 -28.3212 5.8912 0.8857
10.1192 -28.3015 5.9461 0.8847
10.5843 -28.2915 5.9758 0.8841
11.0542 -28.2814 6.0072 0.8835
5.9021 -12.8334 2.7945 0.9440
6.0926 -12.2886 2.7135 0.9456
6.2494 -12.1552 2.7039 0.9458
6.5594 -11.8903 2.6865 0.9461
6.6839 -11.7082 2.6671 0.9465
6.6761 -11.3074 2.5978 0.9479
7.2190 -11.8287 2.7415 0.9451
7.7505 -11.9030 2.8100 0.9437
20.0944 -28.0868 6.8321 0.8686
20.7117 -28.0736 6.9018 0.8674
21.3418 -28.0600 6.9744 0.8661
24.0052 -28.0027 7.2968 0.8604
10.8988 -11.9864 3.2050 0.9361
12.9177 -11.9191 3.4772 0.9308
13.1336 -11.7677 3.4886 0.9306
13.3478 -11.6126 3.5001 0.9304
22.5547 -19.0508 5.8407 0.8866
22.6529 -18.5734 5.7953 0.8874
4.0720 -2.8685 0.9854 0.9799
4.3734 -2.7131 1.0182 0.9792
4.4522 -2.6727 1.0273 0.9790
4.5316 -2.6310 1.0366 0.9789
4.6121 -2.5884 1.0463 0.9787
4.3651 -2.2040 0.9674 0.9803
5.0113 -2.3492 1.0949 0.9777
5.0563 -2.2808 1.0974 0.9776
5.0441 -1.9292 1.0684 0.9782
5.3616 -1.9613 1.1295 0.9770
5.3124 -1.4304 1.0884 0.9778
15.4306 -3.4373 3.1275 0.9376
15.3706 -2.9554 3.0965 0.9382
15.6622 -2.5393 3.1390 0.9374
15.8918 -1.8662 3.1655 0.9368
18.0396 8.4566 3.9415 0.9220
13.3707 9.1296 3.2030 0.9361
12.2930 8.6599 2.9748 0.9405
12.2729 9.1937 3.0337 0.9394
12.0774 9.6108 3.0535 0.9390
11.7023 9.5950 2.9938 0.9402
11.8681 10.0244 3.0734 0.9386
12.8118 11.1463 3.3596 0.9331
9.4676 8.9955 2.5836 0.9481
7.8701 7.9278 2.2100 0.9555
7.8772 8.1704 2.2452 0.9548
7.6962 8.2197 2.2276 0.9551
7.6823 8.4489 2.2591 0.9545
7.6680 8.6849 2.2920 0.9539
7.5988 9.1309 2.3501 0.9527
7.4643 9.2407 2.3500 0.9527
7.1947 9.4596 2.3512 0.9527
7.0596 9.5689 2.3525 0.9527
6.7881 9.7871 2.3563 0.9526
3.8814 9.5177 2.0335 0.9590
-0.0628 8.5863 1.6987 0.9656
-0.7140 8.8659 1.7596 0.9644
-0.8234 8.6436 1.7177 0.9652
-1.9671 9.8427 1.9857 0.9599
-4.3135 9.0293 1.9796 0.9600
-4.7078 9.1567 2.0369 0.9589
-4.9137 9.2233 2.0675 0.9583
-5.1260 9.2920 2.0994 0.9577
-5.4457 9.2235 2.1190 0.9573
-5.3656 8.5098 1.9902 0.9598
-5.6225 8.6349 2.0385 0.9589
-6.1367 8.8480 2.1302 0.9570
-7.0387 8.9791 2.2571 0.9545
-10.5371 10.0116 2.8755 0.9425
-10.1035 9.3225 2.7197 0.9455
-10.3468 9.0018 2.7132 0.9456
-11.6566 8.7320 2.8813 0.9423
-16.2654 8.5135 3.6320 0.9279
-16.7926 8.4792 3.7216 0.9262
-1.6836 0.3750 0.3412 0.9930
-1.6746 0.3475 0.3383 0.9931
-1.6660 0.3204 0.3356 0.9931
-1.6578 0.2937 0.3331 0.9932
-1.6501 0.2676 0.3307 0.9932
-1.6427 0.2418 0.3285 0.9933
-1.6363 0.2165 0.3265 0.9933
-1.6333 0.1918 0.3253 0.9933
-1.6295 0.1673 0.3241 0.9933
-1.6270 0.1430 0.3231 0.9934
-1.6247 0.1189 0.3223 0.9934
-1.6210 0.0711 0.3210 0.9934
-1.6194 0.0474 0.3205 0.9934
-1.5558 0.0000 0.2899 0.9937
-1.5609 -0.0913 0.2914 0.9937
-1.5627 -0.1143 0.2920 0.9936
-1.5682 -0.1609 0.2938 0.9936
-1.5717 -0.1845 0.2949 0.9936
-1.5775 -0.2321 0.2971 0.9935
-1.5810 -0.2563 0.2985 0.9935
-1.5953 -0.3067 0.3027 0.9934
-1.6029 -0.3325 0.3051 0.9934
-72.2105 -31.3109 14.6664 0.7260
-69.2736 -31.2477 14.1611 0.7340
-61.3042 -29.8384 12.7048 0.7577
-56.8240 -29.7420 11.9514 0.7703
-54.7764 -29.6980 11.6108 0.7761
-47.6239 -29.5441 10.4433 0.7961
-46.0534 -29.5103 10.1924 0.8005
-43.5427 -29.7313 9.8249 0.8069
-40.7122 -29.5791 9.3773 0.8148
-36.8348 -29.3119 8.7719 0.8257
-35.7207 -29.2879 8.6076 0.8287
-14.1761 -11.9738 3.4578 0.9273
-14.0144 -12.5569 3.5064 0.9263
-30.7120 -29.1801 7.8942 0.8417
-28.0786 -29.1235 7.5384 0.8482
-27.2522 -29.1057 7.4299 0.8502
-26.4490 -29.0884 7.3261 0.8522
-10.1981 -12.2543 2.9708 0.9372
-9.2266 -11.4223 2.7361 0.9420
-8.6509 -11.3741 2.6629 0.9435
-8.4982 -11.5188 2.6674 0.9434
-8.0689 -11.6338 2.6383 0.9440
-7.7824 -11.9520 2.6577 0.9436
-7.5809 -12.0230 2.6486 0.9438
-7.3324 -12.0146 2.6228 0.9443
-16.4834 -28.8740 6.1954 0.8735
-15.3699 -28.8500 6.0913 0.8755
-14.8268 -28.8383 6.0424 0.8764
-13.2471 -28.8043 5.9079 0.8790
-12.7357 -28.7933 5.8668 0.8798
-12.2312 -28.7825 5.8276 0.8805
-11.7334 -28.7717 5.7901 0.8812
-4.6025 -12.3022 2.4476 0.9480
-4.2109 -12.3430 2.4302 0.9483
-4.0172 -12.3637 2.4224 0.9485
-3.5663 -11.5473 2.2520 0.9520
-3.4286 -11.7053 2.2728 0.9516
-2.9990 -12.1968 2.3405 0.9502
-2.8156 -12.2184 2.3365 0.9503
-2.3984 -12.0004 2.2804 0.9514
-1.8342 -11.8612 2.2365 0.9523
-3.5701 -28.5961 5.3700 0.8894
-3.1454 -28.5869 5.3591 0.8896
-1.4614 -28.5507 5.3272 0.8902
-1.0431 -28.5417 5.3221 0.8903
-0.6255 -28.5327 5.3181 0.8904
-0.2084 -28.5238 5.3153 0.8904
0.2083 -28.5148 5.3137 0.8905
0.6249 -28.5058 5.3131 0.8905
1.0415 -28.4968 5.3137 0.8905
0.6749 -13.1852 2.4602 0.9477
1.4938 -11.9654 2.2470 0.9521
1.6592 -11.8759 2.2345 0.9524
2.5882 -12.0321 2.2934 0.9512
2.9515 -12.8082 2.4493 0.9479
8.3012 -28.3406 5.5029 0.8868
9.2021 -28.3212 5.5490 0.8859
4.3913 -12.8719 2.5343 0.9462
10.1192 -28.3015 5.6007 0.8849
10.5843 -28.2915 5.6288 0.8843
6.1827 -12.9419 2.6727 0.9433
6.4224 -12.4917 2.6174 0.9445
6.5939 -11.9528 2.5437 0.9460
7.1817 -11.7676 2.5689 0.9455
7.5655 -11.9987 2.6432 0.9439
7.7192 -11.8550 2.6361 0.9441
20.7117 -28.0736 6.5009 0.8677
21.3418 -28.0600 6.5693 0.8664
21.9855 -28.0462 6.6406 0.8650
22.6434 -28.0320 6.7148 0.8636
24.0052 -28.0027 6.8730 0.8606
10.5635 -11.9643 2.9741 0.9371
10.9422 -12.0342 3.0309 0.9360
11.3356 -12.1066 3.0905 0.9347
12.1183 -11.8555 3.1591 0.9333
11.8130 -11.2238 3.0364 0.9358
12.8768 -11.8814 3.2649 0.9312
13.0887 -11.7275 3.2748 0.9310
23.3215 -18.0082 5.4906 0.8870
3.9238 -2.8507 0.9038 0.9805
4.1332 -2.9116 0.9421 0.9796
4.2089 -2.8738 0.9497 0.9795
4.3633 -2.7959 0.9657 0.9791
4.5221 -2.7146 0.9828 0.9788
4.3061 -2.3346 0.9128 0.9803
4.3871 -2.2962 0.9227 0.9801
4.3920 -2.2176 0.9168 0.9802
4.9756 -2.2443 1.0171 0.9780
5.0183 -2.1759 1.0192 0.9780
5.1455 -1.9680 1.0266 0.9778
5.1494 -1.7148 1.0114 0.9782
5.2774 -1.6722 1.0316 0.9777
5.3279 -1.4346 1.0282 0.9778
15.4995 -3.2157 2.9497 0.9376
15.6979 -2.0764 2.9507 0.9376
15.9611 -1.8743 2.9947 0.9367
16.8880 -1.7334 3.1635 0.9333
18.1402 8.1827 3.7083 0.9222
18.1105 8.4899 3.7272 0.9218
17.6071 10.2227 3.7938 0.9205
14.1510 8.4950 3.0756 0.9350
13.5968 8.9956 3.0380 0.9358
12.2916 8.6589 2.8017 0.9407
12.2674 8.9128 2.8256 0.9402
12.0316 9.5744 2.8652 0.9394
11.6212 9.5284 2.8004 0.9407
11.9992 10.1351 2.9268 0.9381
9.2781 9.0769 2.4187 0.9486
7.8714 8.1643 2.1133 0.9549
7.8861 8.6731 2.1844 0.9534
7.6411 8.9136 2.1877 0.9534
7.2046 8.9191 2.1365 0.9544
7.2354 9.5130 2.2271 0.9525
7.1083 9.6349 2.2311 0.9525
6.9883 10.0759 2.2850 0.9513
3.8811 9.5170 1.9152 0.9590
-0.2126 9.6981 1.8076 0.9613
-0.3544 9.6970 1.8082 0.9613
-0.4818 9.4118 1.7561 0.9624
-0.6034 9.1632 1.7112 0.9633
-0.7189 8.9267 1.6688 0.9642
-0.9944 9.0373 1.6942 0.9637
-1.1311 9.0604 1.7014 0.9635
-1.3983 10.0086 1.8831 0.9597
-1.6873 9.9467 1.8800 0.9598
-1.8315 9.9155 1.8789 0.9598
-4.3082 9.0183 1.8624 0.9601
-5.1194 9.2800 1.9749 0.9578
-5.2986 9.2816 1.9915 0.9574
-5.4374 9.2096 1.9929 0.9574
-5.5059 9.0218 1.9695 0.9579
-5.4164 8.5904 1.8924 0.9595
-5.9918 8.9144 2.0015 0.9572
-6.1286 8.8364 2.0039 0.9572
-6.2057 8.6740 1.9874 0.9575
-6.8082 8.9514 2.0957 0.9553
-7.1756 8.8832 2.1279 0.9546
-9.9114 10.2803 2.6610 0.9436
-9.9458 10.0188 2.6306 0.9442
-10.0643 9.5623 2.5869 0.9451
-10.2607 9.1937 2.5672 0.9455
-10.2437 8.9121 2.5301 0.9463
-10.7539 9.0833 2.6231 0.9443
-10.9254 8.9580 2.6327 0.9441
-11.2646 8.6983 2.6520 0.9437
-16.1451 9.0611 3.4499 0.9274
-16.3595 8.5628 3.4408 0.9276
-16.3598 8.2607 3.4151 0.9281
-16.1490 7.8602 3.3468 0.9295
-21.8339 9.0907 4.4071 0.9083
-21.5357 8.5996 4.3211 0.9100
-1.6658 0.4486 0.3215 0.9930
-1.6381 0.4155 0.3149 0.9931
-1.5953 0.3068 0.3027 0.9934
-1.5810 0.2564 0.2985 0.9935
-1.5775 0.2322 0.2971 0.9935
-1.5717 0.1846 0.2949 0.9936
-1.5682 0.1610 0.2938 0.9936
-1.5627 0.1144 0.2920 0.9936
-1.5593 0.0684 0.2908 0.9937
-1.4992 0.0000 0.2622 0.9939
-1.5001 -0.0219 0.2624 0.9939
-1.5011 -0.0439 0.2627 0.9939
-1.5024 -0.0659 0.2630 0.9939
-1.5059 -0.1102 0.2641 0.9939
-1.5117 -0.1552 0.2658 0.9938
-1.5182 -0.2008 0.2679 0.9938
-1.5306 -0.2943 0.2726 0.9937
-1.5446 -0.3441 0.2768 0.9936
-1.5521 -0.3696 0.2791 0.9935
-1.5599 -0.3956 0.2815 0.9935
-1.5839 -0.4264 0.2869 0.9934
-1.6100 -0.4588 0.2928 0.9932
-1.6374 -0.4926 0.2991 0.9931
-1.6664 -0.5280 0.3057 0.9929
-78.7653 -31.4520 14.8337 0.7086
-69.2736 -31.2477 13.2915 0.7345
-66.5317 -31.1887 12.8515 0.7420
-58.9956 -29.7887 11.5590 0.7646
-56.8239 -29.7420 11.2175 0.7707
-52.8420 -29.6564 10.5980 0.7819
-51.0109 -29.6169 10.3165 0.7870
-49.2740 -29.5796 10.0516 0.7919
-47.6239 -29.5441 9.8020 0.7965
-46.0534 -29.5103 9.5665 0.8008
-39.1969 -29.3627 8.5657 0.8197
-14.1742 -11.6216 3.2058 0.9283
-14.2001 -12.3541 3.2919 0.9264
-13.0692 -11.7100 3.0691 0.9312
-29.8069 -29.1607 7.2931 0.8442
-28.9297 -29.1418 7.1819 0.8464
-28.0786 -29.1235 7.0755 0.8485
-25.6678 -29.0716 6.7828 0.8543
-10.4378 -12.1759 2.8049 0.9370
-9.4473 -11.3520 2.5831 0.9418
-8.2534 -11.5361 2.4809 0.9440
-8.1113 -11.6949 2.4892 0.9438
-7.9680 -11.8545 2.4982 0.9436
-7.8235 -12.0151 2.5077 0.9434
-7.3759 -12.0857 2.4763 0.9441
-14.2923 -28.8268 5.6274 0.8775
-13.7658 -28.8155 5.5854 0.8784
-13.2471 -28.8043 5.5451 0.8792
-12.7357 -28.7933 5.5066 0.8800
-12.2312 -28.7825 5.4697 0.8807
-11.2418 -28.7612 5.4009 0.8821
-4.1754 -12.2389 2.2617 0.9488
-3.4431 -11.7552 2.1423 0.9515
-2.5953 -12.0652 2.1585 0.9511
-2.3813 -11.9147 2.1251 0.9519
-1.9725 -11.6279 2.0628 0.9532
-3.5980 -28.8196 5.0796 0.8888
-3.1765 -28.8690 5.0796 0.8888
-2.7543 -28.9123 5.0796 0.8888
-2.3316 -28.9495 5.0796 0.8888
-1.9083 -28.9804 5.0796 0.8888
0.2122 -29.0422 5.0796 0.8888
1.0607 -29.0236 5.0796 0.8888
0.6854 -13.3900 2.3450 0.9470
0.8418 -12.7842 2.2408 0.9493
1.1994 -12.5900 2.2120 0.9499
1.3884 -12.6182 2.2202 0.9498
1.5788 -12.6463 2.2290 0.9496
1.7679 -12.6536 2.2346 0.9494
2.1569 -11.6772 2.0769 0.9529
2.5553 -12.7854 2.2804 0.9484
2.5772 -11.9811 2.1434 0.9515
2.9590 -12.8405 2.3047 0.9479
6.9755 -28.3692 5.1095 0.8881
7.4142 -28.3597 5.1268 0.8878
7.8560 -28.3502 5.1453 0.8874
8.3011 -28.3407 5.1650 0.8870
9.2021 -28.3212 5.2083 0.8861
10.1191 -28.3015 5.2568 0.8851
11.0542 -28.2814 5.3108 0.8840
11.5292 -28.2712 5.3400 0.8834
6.0629 -13.7073 2.6214 0.9410
6.2401 -13.0622 2.5319 0.9429
6.3336 -12.7746 2.4938 0.9437
6.3577 -11.9336 2.3649 0.9466
7.6883 -11.8074 2.4643 0.9444
18.8959 -28.1127 5.9243 0.8715
19.4894 -28.0999 5.9810 0.8703
20.7117 -28.0736 6.1017 0.8679
21.3418 -28.0600 6.1659 0.8666
22.6434 -28.0320 6.3025 0.8639
23.3164 -28.0175 6.3752 0.8624
11.4701 -13.3802 3.0824 0.9309
10.9858 -12.0821 2.8561 0.9358
11.7934 -12.2323 2.9718 0.9333
12.1707 -11.9068 2.9779 0.9332
12.8333 -11.8413 3.0540 0.9315
13.2569 -11.5335 3.0733 0.9311
22.7302 -18.6368 5.1409 0.8875
4.1198 -2.9932 0.8906 0.9795
4.1170 -2.9002 0.8808 0.9798
4.2734 -2.9179 0.9050 0.9792
4.4313 -2.8395 0.9205 0.9789
4.3354 -2.4331 0.8695 0.9800
4.3368 -2.3512 0.8628 0.9802
4.4143 -2.3105 0.8714 0.9800
4.4191 -2.2313 0.8658 0.9801
4.4237 -2.1531 0.8605 0.9802
4.9735 -2.3314 0.9607 0.9779
5.1637 -2.1499 0.9783 0.9775
5.2072 -2.0793 0.9807 0.9775
5.2507 -2.0082 0.9832 0.9774
5.0786 -1.8578 0.9458 0.9783
5.2061 -1.8186 0.9645 0.9779
5.3280 -1.7743 0.9822 0.9775
5.3686 -1.7011 0.9850 0.9774
5.3224 -1.5168 0.9679 0.9778
5.3435 -1.4387 0.9679 0.9778
15.4521 -3.4421 2.7688 0.9377
15.4488 -2.7370 2.7441 0.9383
15.3638 -2.4909 2.7222 0.9388
16.0308 -1.8825 2.8230 0.9366
18.1817 8.5232 3.5120 0.9217
17.2467 10.0135 3.4880 0.9222
14.0113 8.6921 2.8838 0.9352
13.8258 8.8594 2.8720 0.9355
12.2454 8.8968 2.6473 0.9404
12.5483 9.4001 2.7422 0.9383
11.9472 9.5072 2.6704 0.9399
12.2621 10.3572 2.8073 0.9369
12.0836 10.8270 2.8377 0.9362
6.9555 8.6108 1.9360 0.9560
7.3586 9.3872 2.0861 0.9527
7.2331 9.5101 2.0897 0.9526
7.0088 9.5001 2.0648 0.9532
-0.2213 10.0971 1.7664 0.9598
-1.1302 9.0533 1.5957 0.9636
-5.1128 9.2680 1.8513 0.9579
-5.2906 9.2677 1.8664 0.9576
-5.4293 9.1958 1.8677 0.9576
-5.5605 9.1112 1.8669 0.9576
-5.9840 8.9027 1.8761 0.9574
-6.8720 9.3146 2.0245 0.9541
-6.9837 9.1821 2.0177 0.9542
-7.0945 9.0502 2.0113 0.9544
-7.2045 8.9191 2.0053 0.9545
-10.0446 10.1183 2.4936 0.9437
-10.1239 9.6190 2.4424 0.9449
-10.7642 9.0920 2.4643 0.9444
-10.9043 8.9406 2.4662 0.9443
-11.3854 9.0602 2.5448 0.9426
-17.0425 10.2308 3.4766 0.9225
-15.5469 9.0266 3.1442 0.9296
-16.2767 9.1350 3.2645 0.9270
-16.7866 9.1012 3.3397 0.9254
-16.4543 8.6124 3.2482 0.9274
-16.3757 8.2687 3.2085 0.9282
-16.1666 7.8688 3.1447 0.9296
-21.6359 8.6395 4.0746 0.9097
-1.6664 0.5280 0.3057 0.9929
-1.6375 0.4927 0.2991 0.9931
-1.5521 0.3697 0.2791 0.9935
-1.5375 0.3190 0.2746 0.9936
-1.5306 0.2943 0.2726 0.9937
-1.5255 0.2703 0.2710 0.9937
-1.5182 0.2009 0.2679 0.9938
-1.5087 0.1327 0.2649 0.9939
-1.5024 0.0659 0.2630 0.9939
-1.5012 0.0439 0.2627 0.9939
-1.4467 0.0000 0.2365 0.9942
-1.4497 -0.0636 0.2373 0.9941
-1.4516 -0.0849 0.2377 0.9941
-1.4540 -0.1064 0.2384 0.9941
-1.4592 -0.1498 0.2398 0.9941
-1.4679 -0.2160 0.2426 0.9940
-1.4700 -0.2383 0.2435 0.9940
-1.4746 -0.2835 0.2455 0.9939
-1.4773 -0.3065 0.2467 0.9939
-1.4905 -0.3549 0.2505 0.9938
-1.5809 -0.5009 0.2711 0.9933
-1.5868 -0.5284 0.2735 0.9932
-1.5931 -0.5565 0.2759 0.9932
-61.3042 -29.8384 11.1475 0.7586
-52.8420 -29.6564 9.9073 0.7822
-41.7601 -29.4179 8.3518 0.8130
-40.4515 -29.3897 8.1751 0.8166
-39.1969 -29.3627 8.0075 0.8200
-14.1854 -10.9536 2.9303 0.9299
-13.0030 -12.3545 2.9326 0.9299
-12.9936 -12.7118 2.9720 0.9290
-27.2521 -29.1057 6.5192 0.8508
-25.6678 -29.0716 6.3408 0.8545
-9.5770 -11.5079 2.4479 0.9411
-9.5688 -11.8459 2.4898 0.9401
-8.9060 -11.3611 2.3603 0.9432
-8.6173 -11.6803 2.3732 0.9429
-8.3220 -11.6320 2.3384 0.9437
-7.9259 -11.7919 2.3230 0.9440
-7.8370 -12.0357 2.3483 0.9434
-7.5962 -12.0474 2.3286 0.9439
-7.4196 -12.1575 2.3287 0.9439
-7.7931 -13.1993 2.5062 0.9398
-16.4834 -28.8740 5.4360 0.8739
-15.9219 -28.8619 5.3894 0.8749
-14.8268 -28.8383 5.3018 0.8768
-12.7357 -28.7933 5.1477 0.8802
-12.2312 -28.7825 5.1132 0.8809
-4.3398 -12.7210 2.1976 0.9470
-3.1251 -11.9535 2.0201 0.9512
-2.7956 -12.1316 2.0355 0.9508
-2.5766 -11.9786 2.0033 0.9516
-2.3645 -11.8305 1.9725 0.9523
-1.7650 -11.4133 1.8883 0.9543
-4.1700 -29.8468 4.9274 0.8850
-3.2820 -29.8276 4.9063 0.8855
-2.8406 -29.8182 4.8974 0.8857
-1.9623 -29.7993 4.8827 0.8860
-1.0884 -29.7805 4.8724 0.8862
-0.6527 -29.7711 4.8688 0.8863
0.2174 -29.7524 4.8647 0.8864
0.6520 -29.7430 4.8642 0.8864
0.8492 -12.8962 2.1131 0.9490
1.3993 -12.7173 2.0918 0.9495
1.5913 -12.7460 2.1002 0.9493
2.0248 -11.9357 1.9794 0.9521
2.2971 -12.4360 2.0677 0.9500
2.4364 -12.1904 2.0326 0.9509
2.7184 -12.6377 2.1135 0.9490
7.4179 -30.1687 5.0795 0.8817
8.2963 -29.9390 5.0795 0.8817
8.7329 -29.8145 5.0795 0.8817
9.1676 -29.6837 5.0795 0.8817
11.7314 -28.7668 5.0795 0.8817
12.1504 -28.5923 5.0795 0.8817
6.2984 -13.1842 2.3890 0.9425
6.8460 -12.8502 2.3806 0.9427
6.8888 -12.4873 2.3318 0.9438
6.8980 -12.0833 2.2749 0.9452
7.9061 -12.5389 2.4236 0.9417
18.3134 -28.1252 5.4874 0.8728
18.8959 -28.1126 5.5382 0.8717
19.4894 -28.0999 5.5912 0.8706
21.3418 -28.0600 5.7640 0.8669
21.9855 -28.0462 5.8266 0.8655
23.3164 -28.0176 5.9597 0.8627
11.2050 -12.6909 2.7680 0.9337
11.4279 -12.2052 2.7338 0.9345
11.8423 -12.2830 2.7897 0.9332
12.2233 -11.9583 2.7959 0.9330
11.9320 -11.3368 2.6910 0.9355
23.0607 -18.9078 4.8758 0.8862
4.0006 -2.8182 0.8001 0.9804
4.2574 -2.8166 0.8346 0.9795
4.4782 -2.7781 0.8616 0.9789
4.3641 -2.6198 0.8322 0.9796
4.3654 -2.5345 0.8253 0.9797
4.3666 -2.4506 0.8187 0.9799
4.3678 -2.3680 0.8123 0.9801
4.3688 -2.2866 0.8062 0.9802
5.1026 -2.2125 0.9093 0.9777
4.8776 -1.9477 0.8587 0.9789
5.0416 -1.7612 0.8731 0.9786
5.0961 -1.6970 0.8782 0.9785
5.3760 -1.6174 0.9179 0.9775
15.5644 -3.4671 2.6072 0.9374
15.4611 -3.2077 2.5817 0.9380
15.4341 -2.5023 2.5564 0.9386
15.5829 -2.2933 2.5753 0.9382
18.3109 7.9398 3.2632 0.9223
18.2822 8.2468 3.2792 0.9219
18.6795 9.7770 3.4472 0.9181
18.6879 10.1320 3.4757 0.9174
17.5380 10.1826 3.3157 0.9211
17.2822 10.3747 3.2957 0.9215
13.8716 8.8888 2.6937 0.9354
13.6866 9.0550 2.6832 0.9356
13.5029 9.2200 2.6733 0.9359
12.2888 8.6568 2.4577 0.9409
12.2234 8.8809 2.4703 0.9406
12.5251 9.3827 2.5587 0.9385
12.4382 10.1983 2.6298 0.9369
12.2618 10.6678 2.6573 0.9362
7.8599 8.1525 1.8515 0.9551
7.8669 8.4020 1.8819 0.9544
7.8742 8.6600 1.9137 0.9537
7.7203 9.0060 1.9395 0.9531
7.4175 8.9131 1.8959 0.9541
7.0275 8.6999 1.8285 0.9557
7.2811 9.2884 1.9296 0.9533
7.1997 9.4661 1.9445 0.9529
7.0687 9.8803 1.9863 0.9520
-5.8984 10.3323 1.9452 0.9529
-5.6989 9.0384 1.7470 0.9576
-5.8383 8.9664 1.7494 0.9576
-6.4988 9.3700 1.8644 0.9548
-6.7497 9.4345 1.8967 0.9541
-6.8983 9.3503 1.8998 0.9540
-7.0103 9.2171 1.8933 0.9541
-10.3239 10.7081 2.4320 0.9415
-10.1449 10.2193 2.3544 0.9433
-10.1840 9.6761 2.2968 0.9447
-10.2834 9.4886 2.2877 0.9449
-10.3819 9.3022 2.2791 0.9451
-10.3129 8.7109 2.2072 0.9468
-10.9899 9.0108 2.3236 0.9440
-11.4433 8.8363 2.3639 0.9431
-16.1102 9.6711 3.0722 0.9267
-16.4100 9.2097 3.0767 0.9266
-22.0138 9.5454 3.9231 0.9073
-21.4430 8.2013 3.7536 0.9111
-1.5579 0.4688 0.2660 0.9934
-1.5333 0.4370 0.2607 0.9936
-1.4975 0.3799 0.2526 0.9938
-1.4905 0.3550 0.2505 0.9938
-1.4773 0.3066 0.2467 0.9939
-1.4746 0.2836 0.2455 0.9939
-1.4679 0.2161 0.2426 0.9940
-1.4652 0.1938 0.2416 0.9940
-1.4565 0.1280 0.2391 0.9941
-1.4540 0.1065 0.2384 0.9941
-1.4516 0.0850 0.2377 0.9941
-1.3988 -0.0204 0.2128 0.9944
-1.4057 -0.1028 0.2144 0.9943
-1.4080 -0.1237 0.2151 0.9943
-1.4105 -0.1448 0.2157 0.9943
-1.4131 -0.1659 0.2165 0.9943
-1.4159 -0.1873 0.2173 0.9942
-1.4208 -0.2303 0.2190 0.9942
-1.4227 -0.2520 0.2198 0.9942
-1.4270 -0.2961 0.2217 0.9941
-1.4295 -0.3184 0.2228 0.9941
-1.4638 -0.4172 0.2316 0.9939
-1.4859 -0.4470 0.2361 0.9937
-1.5029 -0.4762 0.2399 0.9936
-1.5078 -0.5021 0.2418 0.9936
-1.5131 -0.5285 0.2438 0.9935
-1.5187 -0.5555 0.2460 0.9935
-78.7653 -31.4520 12.9036 0.7095
-66.5317 -31.1887 11.1793 0.7428
-61.3042 -29.8384 10.3731 0.7589
-56.8240 -29.7420 9.7580 0.7714
-54.7764 -29.6979 9.4799 0.7772
-51.0108 -29.6170 8.9742 0.7877
-43.1268 -29.4473 7.9451 0.8095
-40.4515 -29.3897 7.6073 0.8168
-14.7662 -11.0615 2.8070 0.9281
-13.9940 -11.1360 2.7209 0.9302
-13.8726 -11.3743 2.7294 0.9300
-13.2719 -11.2101 2.6431 0.9321
-13.3861 -11.6459 2.6995 0.9307
-12.6903 -12.0573 2.6632 0.9316
-12.8379 -12.5596 2.7325 0.9299
-28.0786 -29.1235 6.1549 0.8490
-27.2521 -29.1057 6.0663 0.8510
-25.6678 -29.0716 5.9003 0.8548
-10.3971 -12.1286 2.4305 0.9374
-9.6780 -11.6293 2.3019 0.9406
-9.0042 -11.8386 2.2629 0.9416
-8.7200 -11.8194 2.2347 0.9423
-7.7180 -12.2405 2.2016 0.9431
-7.6737 -12.5739 2.2411 0.9421
-14.8311 -29.9135 5.0798 0.8736
-14.3633 -30.0661 5.0695 0.8739
-13.8221 -30.0545 5.0330 0.8747
-13.2885 -30.0430 4.9980 0.8755
-11.7297 -30.0094 4.9021 0.8778
-11.2229 -29.9985 4.8730 0.8785
-3.8843 -12.5770 2.0027 0.9481
-3.4725 -11.8554 1.8795 0.9512
-3.1862 -12.1872 1.9165 0.9503
-2.9997 -12.2000 1.9114 0.9504
-2.7755 -12.0441 1.8805 0.9512
-2.3479 -11.7477 1.8227 0.9527
-2.1438 -11.6066 1.7957 0.9534
-5.0664 -29.8661 4.6088 0.8846
-4.6171 -29.8564 4.5964 0.8849
-3.7250 -29.8372 4.5748 0.8854
-1.9622 -29.7993 4.5436 0.8862
-1.5249 -29.7898 4.5382 0.8863
-0.2174 -29.7617 4.5282 0.8865
0.2174 -29.7523 4.5267 0.8866
0.6520 -29.7430 4.5263 0.8866
1.1058 -13.7294 2.0956 0.9458
1.6039 -12.8470 1.9698 0.9490
1.7200 -12.3113 1.8913 0.9509
1.8874 -12.2052 1.8790 0.9513
2.0112 -11.8560 1.8296 0.9525
2.3396 -12.6667 1.9597 0.9492
2.5167 -12.5923 1.9537 0.9494
7.9717 -32.4208 5.0795 0.8736
8.9156 -32.1739 5.0795 0.8736
9.8519 -31.8996 5.0795 0.8736
12.1540 -31.0952 5.0795 0.8736
12.6071 -30.9142 5.0795 0.8736
6.7081 -14.0418 2.3676 0.9390
6.8532 -13.8225 2.3473 0.9395
6.6702 -12.9735 2.2194 0.9427
6.8241 -12.3702 2.1494 0.9444
6.8349 -11.9727 2.0975 0.9457
7.8333 -12.4234 2.2345 0.9423
20.7117 -28.0736 5.3078 0.8684
21.3419 -28.0600 5.3636 0.8671
21.9855 -28.0462 5.4218 0.8657
11.2403 -12.7309 2.5838 0.9336
11.9081 -12.3512 2.6103 0.9329
11.9818 -11.3842 2.5146 0.9353
12.8494 -11.8561 2.6600 0.9317
22.4241 -18.9404 4.4658 0.8880
22.8619 -18.7448 4.4980 0.8873
4.1829 -3.3286 0.8133 0.9786
4.1734 -3.2225 0.8022 0.9789
4.1999 -2.8677 0.7737 0.9796
4.3390 -2.7804 0.7841 0.9794
4.3949 -2.7264 0.7869 0.9793
4.3961 -2.6390 0.7801 0.9795
4.3991 -2.3850 0.7613 0.9800
4.9851 -2.1616 0.8267 0.9783
4.9912 -2.0780 0.8226 0.9784
5.0510 -2.0169 0.8275 0.9782
4.9435 -1.8084 0.8009 0.9789
5.1457 -1.7136 0.8252 0.9783
5.3747 -1.4471 0.8469 0.9777
15.9329 -4.0412 2.5008 0.9357
15.5305 -3.6986 2.4289 0.9374
15.2105 -3.3883 2.3709 0.9389
15.4019 -3.1954 2.3932 0.9383
15.3147 -2.7132 2.3663 0.9390
15.1893 -2.4627 2.3411 0.9396
15.6440 -2.3023 2.4058 0.9380
16.4478 -1.9315 2.5196 0.9352
23.4288 9.3555 3.8382 0.9030
18.3537 8.2790 3.0633 0.9218
18.2954 8.9049 3.0957 0.9210
18.2654 9.2229 3.1131 0.9205
18.4177 9.9855 3.1875 0.9187
17.6975 9.9323 3.0876 0.9212
17.4978 10.1593 3.0783 0.9214
13.7317 9.0848 2.5050 0.9356
13.5473 9.2502 2.4958 0.9358
12.7015 9.2283 2.3886 0.9385
12.5021 9.3654 2.3766 0.9388
12.6145 10.0382 2.4527 0.9369
7.8475 7.9051 1.6947 0.9559
7.8611 8.3958 1.7499 0.9545
7.8683 8.6536 1.7794 0.9538
7.8357 8.8748 1.8012 0.9532
7.4977 9.0094 1.7833 0.9537
7.1008 8.7905 1.7192 0.9553
7.3542 9.3815 1.8136 0.9529
7.2288 9.5044 1.8167 0.9528
7.4277 10.3820 1.9422 0.9497
7.0831 10.5380 1.9318 0.9499
-0.3626 9.9209 1.5104 0.9606
-0.6163 9.3591 1.4270 0.9628
-0.9068 9.5188 1.4548 0.9621
-5.7872 9.8020 1.7318 0.9550
-5.9119 9.3762 1.6864 0.9561
-6.4589 9.3125 1.7243 0.9552
-6.8115 9.5208 1.7810 0.9537
-7.0283 9.5265 1.8011 0.9532
-10.4611 10.2343 2.2266 0.9425
-10.3444 9.5448 2.1414 0.9446
-10.4432 9.3571 2.1333 0.9448
-10.5021 9.1369 2.1179 0.9452
-10.4414 8.8193 2.0794 0.9462
-10.9392 8.9692 2.1522 0.9444
-11.4051 8.8068 2.1923 0.9434
-16.7424 10.0506 2.9710 0.9240
-16.6282 8.7034 2.8554 0.9269
-16.2027 7.8864 2.7416 0.9297
-21.7505 10.1962 3.6548 0.9074
-20.7043 8.6204 3.4121 0.9133
-21.8380 8.7202 3.5776 0.9092
-1.5078 0.5022 0.2418 0.9936
-1.5029 0.4762 0.2399 0.9936
-1.4859 0.4471 0.2361 0.9937
-1.4400 0.3653 0.2260 0.9940
-1.4248 0.2740 0.2207 0.9941
-1.4227 0.2521 0.2198 0.9942
-1.4131 0.1660 0.2165 0.9943
-1.4036 0.0821 0.2139 0.9943
-1.4015 0.0615 0.2134 0.9943
-1.3997 0.0410 0.2130 0.9944
-1.3988 0.0205 0.2128 0.9944
-1.3527 0.0001 0.1905 0.9946
-1.3535 -0.0198 0.1906 0.9945
-1.3568 -0.0595 0.1913 0.9945
-1.3587 -0.0795 0.1917 0.9945
-1.3607 -0.0996 0.1921 0.9945
-1.3651 -0.1401 0.1932 0.9945
-1.3700 -0.1812 0.1946 0.9944
-1.3748 -0.2229 0.1961 0.9944
-1.3766 -0.2439 0.1969 0.9944
-1.3825 -0.3080 0.1995 0.9943
-1.3847 -0.3297 0.2005 0.9943
-1.4205 -0.4273 0.2089 0.9940
-1.4323 -0.4538 0.2116 0.9939
-1.4366 -0.4784 0.2132 0.9939
-1.4410 -0.5034 0.2149 0.9939
-78.7654 -31.4519 11.9436 0.7099
-28.2231 -13.2304 4.3895 0.8817
-61.3042 -29.8384 9.6014 0.7593
-23.0491 -11.6382 3.6362 0.9010
-56.8239 -29.7420 9.0320 0.7718
-52.8420 -29.6563 8.5332 0.7829
-18.6534 -11.1978 3.0638 0.9159
-18.5147 -11.4858 3.0683 0.9157
-46.0533 -29.5102 7.7026 0.8018
-18.4280 -12.1918 3.1116 0.9146
-17.3337 -12.2107 2.9859 0.9179
-17.3382 -12.5970 3.0180 0.9171
-15.4056 -11.5405 2.7107 0.9252
-14.9554 -11.5482 2.6609 0.9265
-13.4707 -11.3780 2.4831 0.9313
-10.3771 -12.1051 2.2453 0.9376
-9.8459 -11.8311 2.1676 0.9397
-9.1464 -11.6678 2.0878 0.9419
-8.6556 -11.7322 2.0531 0.9428
-8.6066 -12.0298 2.0830 0.9420
-8.1436 -11.7415 2.0123 0.9439
-8.2672 -12.2995 2.0870 0.9419
-7.7767 -12.3337 2.0533 0.9428
-17.7951 -30.1400 4.9290 0.8682
-16.0370 -30.1021 4.8031 0.8713
-15.4703 -30.0899 4.7646 0.8723
-14.9126 -30.0779 4.7277 0.8732
-14.3633 -30.0661 4.6923 0.8741
-11.2230 -29.9986 4.5105 0.8786
-10.7221 -29.9878 4.4848 0.8793
-9.7367 -29.9665 4.4372 0.8805
-3.8839 -12.5757 1.8535 0.9482
-3.4873 -11.9060 1.7471 0.9511
-3.3451 -12.0715 1.7640 0.9507
-3.2000 -12.2402 1.7816 0.9502
-2.9780 -12.1114 1.7564 0.9509
-2.7556 -11.9582 1.7281 0.9516
-2.3317 -11.6665 1.6754 0.9531
-5.5184 -29.8758 4.2784 0.8845
-5.0664 -29.8661 4.2659 0.8848
-4.6171 -29.8564 4.2545 0.8851
-4.1700 -29.8468 4.2439 0.8854
-3.2820 -29.8277 4.2258 0.8858
-2.8407 -29.8182 4.2181 0.8860
-2.4008 -29.8087 4.2114 0.8862
-1.5248 -29.7898 4.2006 0.8865
-0.6526 -29.7711 4.1935 0.8867
1.0867 -29.7337 4.1900 0.8868
1.5215 -29.7243 4.1914 0.8867
0.9089 -13.8034 1.9480 0.9457
1.1158 -13.8541 1.9573 0.9454
1.3247 -13.9050 1.9670 0.9451
1.6167 -12.9493 1.8377 0.9487
1.8746 -12.1223 1.7274 0.9517
2.4139 -13.0689 1.8716 0.9477
7.0692 -35.3706 5.0795 0.8644
7.5853 -35.2635 5.0795 0.8644
8.0997 -35.1489 5.0795 0.8644
11.1462 -34.3044 5.0795 0.8644
12.6387 -33.7829 5.0795 0.8644
6.2654 -14.1649 2.1812 0.9394
6.5177 -14.1720 2.1967 0.9389
6.7609 -12.2556 1.9711 0.9450
19.6814 -30.2261 5.0794 0.8644
20.1210 -29.9353 5.0794 0.8644
20.5561 -29.6380 5.0794 0.8644
20.9870 -29.3345 5.0793 0.8644
22.2523 -28.3865 5.0793 0.8644
22.6434 -28.0320 5.0746 0.8645
8.9658 -10.7734 1.9738 0.9450
9.1370 -10.3487 1.9441 0.9458
9.7905 -10.7674 2.0494 0.9429
9.9231 -10.5980 2.0445 0.9430
11.9460 -12.3906 2.4238 0.9328
11.9032 -11.6451 2.3450 0.9349
12.6515 -12.0204 2.4576 0.9319
22.4201 -18.9371 4.1328 0.8882
22.8632 -18.7459 4.1636 0.8874
4.1741 -3.2231 0.7427 0.9789
4.2333 -3.1711 0.7449 0.9789
4.3054 -3.1280 0.7494 0.9787
4.3100 -3.0361 0.7424 0.9789
4.4164 -2.9218 0.7457 0.9788
4.3558 -2.7021 0.7219 0.9795
4.4301 -2.4862 0.7154 0.9797
4.3391 -2.1909 0.6845 0.9806
4.5061 -2.1932 0.7057 0.9800
5.0763 -2.2898 0.7842 0.9778
4.8573 -2.1061 0.7456 0.9788
4.9602 -2.0652 0.7566 0.9785
5.1759 -1.8934 0.7761 0.9780
5.3156 -1.8569 0.7929 0.9775
5.4078 -1.6270 0.7953 0.9774
5.3904 -1.4514 0.7861 0.9777
15.8222 -4.0132 2.2987 0.9362
16.3426 -1.9191 2.3172 0.9357
16.3666 -1.4386 2.3137 0.9358
23.7941 9.9068 3.6296 0.9011
18.4537 8.0016 2.8325 0.9220
18.3677 8.9401 2.8767 0.9208
19.1207 9.6547 3.0164 0.9171
18.5629 10.0643 2.9736 0.9182
18.1496 10.1861 2.9309 0.9194
13.7770 9.1148 2.3263 0.9354
12.2859 8.6548 2.1163 0.9411
12.7266 9.5336 2.2393 0.9378
12.0761 9.6097 2.1733 0.9396
12.5891 10.3220 2.2926 0.9364
7.8419 7.8995 1.5675 0.9560
7.8485 8.1406 1.5924 0.9553
7.8554 8.3897 1.6185 0.9546
7.5793 9.1076 1.6686 0.9533
7.2860 9.2946 1.6631 0.9534
3.8799 9.5140 1.4469 0.9593
-0.3654 9.9973 1.4088 0.9604
-0.4960 9.6889 1.3662 0.9616
-0.6207 9.4258 1.3302 0.9626
-5.9278 9.4013 1.5651 0.9561
-6.4197 9.2559 1.5863 0.9555
-10.3505 10.4264 2.0689 0.9424
-10.5760 10.0486 2.0544 0.9428
-10.7881 9.9541 2.0671 0.9424
-10.6033 9.2248 1.9792 0.9448
-10.8013 9.1233 1.9911 0.9445
-10.8891 8.9282 1.9830 0.9447
-11.9298 9.2119 2.1226 0.9409
-16.3032 10.4469 2.7268 0.9248
-16.5670 9.2979 2.6753 0.9261
-16.6518 9.0281 2.6674 0.9263
-16.6405 8.7098 2.6450 0.9269
-16.4297 8.2959 2.5919 0.9283
-17.8000 8.6638 2.7878 0.9231
-1.4506 0.5548 0.2187 0.9937
-1.4365 0.4784 0.2132 0.9939
-1.4205 0.4274 0.2089 0.9940
-1.3929 0.3751 0.2031 0.9942
-1.3871 0.3519 0.2015 0.9942
-1.3825 0.3080 0.1995 0.9943
-1.3784 0.2651 0.1977 0.9943
-1.3749 0.2229 0.1961 0.9944
-1.3651 0.1401 0.1932 0.9945
-1.3628 0.1198 0.1927 0.9945
-1.3607 0.0996 0.1921 0.9945
-1.3568 0.0595 0.1913 0.9945
-1.3535 0.0198 0.1906 0.9945
-1.3125 -0.0383 0.1701 0.9947
-1.3182 -0.0964 0.1712 0.9947
-1.3204 -0.1160 0.1717 0.9947
-1.3226 -0.1357 0.1722 0.9947
-1.3248 -0.1555 0.1728 0.9946
-1.3271 -0.1755 0.1734 0.9946
-1.3320 -0.2159 0.1748 0.9946
-1.3334 -0.2362 0.1754 0.9946
-1.3351 -0.2567 0.1761 0.9945
-1.3406 -0.3192 0.1785 0.9945
-1.3427 -0.3405 0.1794 0.9944
-1.3450 -0.3621 0.1804 0.9944
-1.3608 -0.4094 0.1841 0.9943
-1.3684 -0.4335 0.1859 0.9942
-1.3719 -0.4568 0.1873 0.9942
-1.3756 -0.4805 0.1888 0.9941
-1.3796 -0.5046 0.1903 0.9941
-1.3882 -0.5543 0.1936 0.9940
-29.8186 -12.4151 4.1841 0.8779
-28.8424 -13.0101 4.0987 0.8802
-23.1443 -11.6862 3.3586 0.9007
-23.7556 -12.4338 3.4733 0.8975
-18.8563 -10.9479 2.8245 0.9158
-18.7177 -11.2363 2.8280 0.9157
-18.5786 -11.5254 2.8321 0.9156
-18.4388 -11.8153 2.8369 0.9155
-18.6622 -12.3467 2.8987 0.9137
-17.5615 -11.9911 2.7546 0.9178
-14.9916 -11.5761 2.4536 0.9264
-14.4170 -11.8207 2.4151 0.9276
-13.6749 -11.5504 2.3188 0.9303
-12.5592 -12.2869 2.2760 0.9316
-25.9550 -29.3968 5.0799 0.8537
-9.5980 -12.2439 2.0153 0.9392
-9.3524 -12.2964 2.0012 0.9396
-8.4707 -12.2130 1.9254 0.9418
-7.9754 -12.2483 1.8934 0.9428
-7.8463 -12.4440 1.9057 0.9424
-17.1988 -30.1271 4.4938 0.8694
-16.6130 -30.1145 4.4552 0.8705
-16.0370 -30.1021 4.4183 0.8715
-12.7621 -30.0316 4.2270 0.8767
-11.7297 -30.0094 4.1738 0.8781
-10.7221 -29.9878 4.1254 0.8795
-10.2268 -29.9771 4.1030 0.8801
-9.7368 -29.9666 4.0816 0.8807
-3.5022 -11.9568 1.6139 0.9510
-3.1844 -12.1805 1.6309 0.9505
-2.7362 -11.8736 1.5784 0.9520
-5.9730 -29.8856 3.9479 0.8843
-5.5183 -29.8758 3.9356 0.8847
-5.0665 -29.8661 3.9241 0.8850
-4.1700 -29.8468 3.9039 0.8855
-3.7250 -29.8372 3.8951 0.8858
-3.2820 -29.8277 3.8872 0.8860
-2.8406 -29.8182 3.8801 0.8862
-1.5249 -29.7898 3.8640 0.8866
-1.0884 -29.7804 3.8603 0.8867
-0.6526 -29.7711 3.8575 0.8868
0.2174 -29.7524 3.8542 0.8869
1.0867 -29.7337 3.8542 0.8869
1.5215 -29.7243 3.8555 0.8869
1.1260 -13.9807 1.8169 0.9450
1.3230 -13.8881 1.8072 0.9453
1.6296 -13.0528 1.7040 0.9483
2.0280 -13.1141 1.7190 0.9479
2.2298 -13.1447 1.7271 0.9476
7.1224 -38.5599 5.0795 0.8537
7.6850 -38.4516 5.0795 0.8537
9.9180 -37.9369 5.0795 0.8537
11.0223 -37.6307 5.0795 0.8537
12.1171 -37.2926 5.0795 0.8537
4.3898 -12.8676 1.7612 0.9466
13.2016 -36.9225 5.0794 0.8537
14.2747 -36.5208 5.0794 0.8537
15.3357 -36.0880 5.0794 0.8537
6.7460 -14.1210 2.0272 0.9388
6.8162 -13.7480 1.9878 0.9400
6.8839 -13.3893 1.9502 0.9411
7.2631 -13.1658 1.9478 0.9412
20.4265 -33.4702 5.0794 0.8537
23.2786 -31.5529 5.0793 0.8537
8.8866 -10.6784 1.7996 0.9455
8.9362 -10.4243 1.7786 0.9461
9.5839 -10.2358 1.8164 0.9450
12.6964 -12.0631 2.2687 0.9318
13.4389 -11.6919 2.3075 0.9307
22.8645 -18.7469 3.8302 0.8876
4.1748 -3.2236 0.6833 0.9790
4.2837 -3.2089 0.6933 0.9786
4.3820 -3.1837 0.7016 0.9784
4.3611 -2.9777 0.6841 0.9789
4.2866 -2.8359 0.6658 0.9795
4.4619 -2.5906 0.6683 0.9794
4.4624 -2.5044 0.6629 0.9796
4.4632 -2.2536 0.6477 0.9800
4.4634 -2.1724 0.6430 0.9802
4.5379 -2.1273 0.6492 0.9800
4.5417 -2.0486 0.6454 0.9801
4.9986 -2.0811 0.7014 0.9784
5.3587 -1.9602 0.7391 0.9772
5.4237 -1.6317 0.7337 0.9774
15.2534 -3.8689 2.0385 0.9385
15.3328 -3.6514 2.0417 0.9384
15.4074 -3.4321 2.0448 0.9383
15.3497 -3.1846 2.0307 0.9387
25.3688 -2.2298 3.2989 0.9024
29.9562 9.9759 4.0900 0.8804
18.5256 8.0328 2.6157 0.9218
18.3648 9.2730 2.6650 0.9204
17.9229 9.7173 2.6410 0.9211
17.1653 10.3045 2.5935 0.9224
13.6364 9.3111 2.1390 0.9356
12.6985 9.2260 2.0333 0.9387
12.4710 9.6298 2.0411 0.9384
11.8043 9.6785 1.9774 0.9403
12.6219 10.6611 2.1402 0.9355
4.8936 4.2574 0.8402 0.9742
7.6625 9.2075 1.5517 0.9528
7.3488 9.3746 1.5430 0.9531
-0.4996 9.7601 1.2660 0.9613
-0.7650 9.4989 1.2345 0.9623
-10.6722 10.1400 1.9070 0.9424
-10.8868 10.0453 1.9189 0.9420
-11.1039 9.9492 1.9313 0.9416
-10.8360 9.4273 1.8606 0.9437
-16.6937 11.0445 2.5929 0.9224
-15.8237 9.8165 2.4122 0.9276
-16.0851 9.6560 2.4303 0.9271
-16.6195 9.3274 2.4688 0.9260
-16.8061 9.1117 2.4764 0.9258
-17.7237 8.6267 2.5534 0.9236
-22.0315 9.9379 3.1309 0.9071
-1.3882 0.5543 0.1936 0.9940
-1.3837 0.5293 0.1919 0.9940
-1.3796 0.5047 0.1903 0.9941
-1.3756 0.4805 0.1888 0.9941
-1.3719 0.4569 0.1873 0.9942
-1.3684 0.4336 0.1859 0.9942
-1.3608 0.4095 0.1841 0.9943
-1.3487 0.3844 0.1817 0.9944
-1.3427 0.3406 0.1794 0.9944
-1.3406 0.3193 0.1785 0.9945
-1.3295 0.1957 0.1741 0.9946
-1.3271 0.1755 0.1734 0.9946
-1.3226 0.1358 0.1722 0.9947
-1.3204 0.1161 0.1717 0.9947
-1.3162 0.0770 0.1708 0.9947
-1.3125 0.0384 0.1701 0.9947
-1.2685 -0.0370 0.1501 0.9949
-1.2713 -0.0557 0.1505 0.9949
-1.2730 -0.0745 0.1508 0.9949
-1.2857 -0.1892 0.1537 0.9948
-1.2882 -0.2088 0.1544 0.9948
-1.2900 -0.2285 0.1550 0.9947
-1.2917 -0.2484 0.1556 0.9947
-1.2976 -0.3090 0.1578 0.9946
-1.3022 -0.3506 0.1595 0.9946
-1.3046 -0.3718 0.1605 0.9946
-1.3130 -0.4372 0.1637 0.9944
-1.3161 -0.4597 0.1649 0.9944
-1.3229 -0.5059 0.1675 0.9943
-1.3305 -0.5539 0.1705 0.9942
-28.9207 -13.0454 3.7529 0.8800
-23.2057 -13.0236 3.1477 0.8984
-18.9213 -10.9857 2.5880 0.9156
-18.7822 -11.2751 2.5913 0.9155
-17.2653 -12.5440 2.5244 0.9176
-14.3528 -11.0828 2.1450 0.9296
-14.5165 -11.5518 2.1945 0.9280
-13.7566 -11.2792 2.1043 0.9309
-13.8847 -11.7277 2.1499 0.9294
-13.5368 -12.1290 2.1500 0.9294
-12.6377 -12.3637 2.0913 0.9313
-30.1853 -30.4066 5.0681 0.8415
-29.2973 -30.3875 4.9930 0.8436
-27.5970 -30.3509 4.8523 0.8477
-26.7819 -30.3333 4.7865 0.8496
-9.8287 -12.1677 1.8502 0.9389
-9.5800 -12.2209 1.8368 0.9394
-9.2687 -12.1864 1.8111 0.9402
-8.7329 -11.8369 1.7400 0.9425
-9.0165 -12.6028 1.8330 0.9395
-8.9908 -12.9630 1.8661 0.9384
-8.0470 -12.3584 1.7444 0.9423
-19.0207 -30.1663 4.2184 0.8662
-18.4021 -30.1531 4.1785 0.8674
-17.1988 -30.1271 4.1035 0.8696
-16.6130 -30.1145 4.0683 0.8706
-16.0370 -30.1021 4.0345 0.8716
-15.4704 -30.0900 4.0021 0.8726
-13.8221 -30.0545 3.9130 0.8753
-12.7621 -30.0317 3.8598 0.8768
-12.2426 -30.0205 3.8350 0.8776
-11.2229 -29.9986 3.7887 0.8790
-10.7221 -29.9878 3.7671 0.8796
-10.2268 -29.9771 3.7466 0.8802
-9.7367 -29.9666 3.7271 0.8808
-9.2517 -29.9561 3.7086 0.8814
-3.1614 -12.0925 1.4785 0.9509
-2.9356 -11.9390 1.4543 0.9517
-6.8914 -29.9053 3.6301 0.8837
-6.4306 -29.8954 3.6171 0.8841
-5.9730 -29.8856 3.6050 0.8845
-5.0664 -29.8661 3.5833 0.8851
-4.1700 -29.8468 3.5648 0.8857
-3.7250 -29.8372 3.5568 0.8859
-3.2820 -29.8277 3.5495 0.8862
-1.9623 -29.7993 3.5325 0.8867
-1.0884 -29.7805 3.5250 0.8869
-0.2174 -29.7617 3.5205 0.8870
0.2173 -29.7523 3.5194 0.8871
1.0867 -29.7337 3.5195 0.8871
1.9567 -29.7149 3.5225 0.8870
1.4792 -13.4433 1.5998 0.9470
3.7051 -29.6773 3.5377 0.8865
1.8427 -13.1890 1.5753 0.9478
2.0444 -13.2204 1.5824 0.9475
7.1820 -42.3373 5.0795 0.8412
9.6428 -41.8452 5.0795 0.8412
10.2532 -41.6997 5.0795 0.8412
10.8614 -41.5454 5.0795 0.8412
11.4673 -41.3822 5.0795 0.8412
13.2696 -40.8398 5.0794 0.8412
4.3895 -12.8667 1.6081 0.9467
14.4573 -40.4345 5.0794 0.8412
15.0465 -40.2188 5.0794 0.8412
15.6325 -39.9946 5.0794 0.8412
16.7944 -39.5207 5.0794 0.8412
17.3701 -39.2711 5.0794 0.8412
6.6458 -14.4505 1.8814 0.9379
6.7275 -14.0825 1.8461 0.9391
6.7980 -13.7112 1.8103 0.9402
21.8315 -36.9767 5.0793 0.8412
23.4309 -35.9843 5.0793 0.8412
23.9541 -35.6381 5.0793 0.8412
24.4723 -35.2842 5.0793 0.8412
24.9852 -34.9229 5.0793 0.8412
25.4927 -34.5540 5.0793 0.8412
23.5437 -30.0340 4.5141 0.8575
9.2296 -10.4535 1.6495 0.9454
9.4089 -10.3478 1.6544 0.9452
9.3521 -9.9881 1.6185 0.9464
11.9084 -11.9957 1.9994 0.9342
11.5904 -11.3391 1.9180 0.9368
12.7415 -12.1059 2.0790 0.9317
22.5160 -19.5889 3.5302 0.8867
22.5780 -19.0705 3.4959 0.8878
22.6388 -18.5619 3.4629 0.8888
4.2844 -3.2095 0.6332 0.9787
4.1738 -2.8500 0.5978 0.9798
4.3657 -2.7083 0.6077 0.9795
4.4952 -2.3528 0.6002 0.9798
4.4951 -2.1879 0.5913 0.9801
4.5660 -2.1404 0.5965 0.9799
4.9760 -2.1576 0.6416 0.9784
5.2358 -2.0907 0.6669 0.9775
5.3136 -2.0323 0.6729 0.9773
5.3312 -1.9502 0.6715 0.9774
5.4397 -1.6366 0.6719 0.9774
6.1105 -1.6452 0.7485 0.9748
15.3176 -3.8852 1.8693 0.9383
15.1123 -3.5989 1.8376 0.9393
15.4011 -2.9612 1.8551 0.9388
15.5175 -2.7491 1.8641 0.9385
15.6125 -2.2977 1.8667 0.9384
15.9994 -2.1163 1.9090 0.9371
25.6570 -2.2552 3.0466 0.9015
53.6260 -2.3523 6.3494 0.8056
30.2046 10.0587 3.7657 0.8797
23.5228 8.2173 2.9473 0.9045
23.5838 8.6273 2.9705 0.9038
23.7173 9.8748 3.0389 0.9017
18.5701 8.3766 2.4098 0.9212
18.5420 8.6921 2.4223 0.9208
18.4472 9.3146 2.4445 0.9201
18.0069 9.7628 2.4229 0.9208
17.7961 9.9877 2.4139 0.9211
12.2831 8.6529 1.7773 0.9413
5.6333 4.0929 0.8236 0.9723
5.2683 4.0681 0.7873 0.9735
4.7601 4.1413 0.7463 0.9749
4.8140 4.5739 0.7855 0.9736
7.7473 9.3094 1.4326 0.9524
7.7200 9.5572 1.4532 0.9517
-0.7664 9.5151 1.1292 0.9623
-5.8473 9.5812 1.3277 0.9558
-11.0814 11.1627 1.8605 0.9386
-11.3010 10.7373 1.8439 0.9391
-11.2068 10.0414 1.7799 0.9412
-11.6131 9.2414 1.7556 0.9420
-15.8728 9.8469 2.2095 0.9275
-16.1752 9.3914 2.2124 0.9274
-21.1455 10.2921 2.7818 0.9096
-1.3346 0.5787 0.1721 0.9942
-1.3305 0.5540 0.1705 0.9942
-1.3100 0.4151 0.1626 0.9945
-1.3072 0.3933 0.1615 0.9945
-1.3046 0.3719 0.1605 0.9946
-1.3022 0.3506 0.1595 0.9946
-1.2999 0.3297 0.1586 0.9946
-1.2936 0.2684 0.1563 0.9947
-1.2900 0.2286 0.1550 0.9947
-1.2857 0.1893 0.1537 0.9948
-1.2789 0.1313 0.1521 0.9948
-1.2749 0.0934 0.1512 0.9949
-1.2730 0.0745 0.1508 0.9949
-1.2713 0.0558 0.1505 0.9949
-1.2685 0.0371 0.1501 0.9949
-1.2647 0.0185 0.1496 0.9949
-1.2280 -0.0538 0.1316 0.9951
-1.2317 -0.0720 0.1321 0.9950
-1.2362 -0.1086 0.1329 0.9950
-1.2421 -0.1643 0.1341 0.9950
-1.2465 -0.2021 0.1352 0.9949
-1.2482 -0.2211 0.1357 0.9949
-1.2530 -0.2791 0.1374 0.9948
-1.2567 -0.3187 0.1388 0.9948
-1.2608 -0.3593 0.1404 0.9947
-1.2659 -0.4011 0.1422 0.9947
-1.2692 -0.4226 0.1432 0.9946
-1.2714 -0.4441 0.1442 0.9946
-1.2811 -0.5334 0.1486 0.9944
-1.2839 -0.5567 0.1498 0.9944
-28.5258 -13.3723 3.3730 0.8810
-23.2409 -11.3119 2.7674 0.9012
-23.3363 -11.7832 2.7990 0.9002
-23.7906 -12.8985 2.8974 0.8968
-18.9864 -11.0235 2.3506 0.9155
-18.8470 -11.3140 2.3535 0.9154
-18.5667 -11.8971 2.3609 0.9151
-18.1090 -12.7569 2.3716 0.9147
-17.2108 -12.5043 2.2777 0.9180
-14.6367 -11.6473 2.0027 0.9275
-13.9658 -11.4507 1.9336 0.9299
-13.7330 -11.5995 1.9246 0.9302
-13.5702 -11.8060 1.9258 0.9302
-28.4350 -30.3689 4.4543 0.8459
-27.5970 -30.3509 4.3920 0.8479
-10.2669 -11.9766 1.6889 0.9385
-23.0091 -30.2522 4.0693 0.8582
-8.7028 -11.7961 1.5695 0.9427
-20.9514 -30.2079 3.9360 0.8625
-19.6514 -30.1799 3.8558 0.8651
-18.4021 -30.1531 3.7821 0.8675
-17.1988 -30.1271 3.7142 0.8697
-16.0370 -30.1021 3.6517 0.8718
-15.4703 -30.0899 3.6224 0.8727
-14.9126 -30.0779 3.5944 0.8737
-14.3633 -30.0661 3.5675 0.8746
-13.8221 -30.0545 3.5418 0.8754
-13.2885 -30.0430 3.5172 0.8762
-12.7621 -30.0317 3.4936 0.8770
-11.2230 -29.9986 3.4292 0.8791
-10.7221 -29.9878 3.4097 0.8798
-9.7367 -29.9665 3.3735 0.8809
-9.2517 -29.9561 3.3567 0.8815
-6.8914 -29.9054 3.2857 0.8839
-6.4306 -29.8954 3.2740 0.8842
-4.6171 -29.8564 3.2346 0.8856
-3.7250 -29.8372 3.2193 0.8861
-2.8406 -29.8182 3.2069 0.8865
-2.4008 -29.8087 3.2018 0.8867
-1.9623 -29.7993 3.1974 0.8868
-1.0884 -29.7805 3.1906 0.8870
-0.6527 -29.7711 3.1882 0.8871
0.6520 -29.7430 3.1852 0.8872
1.9567 -29.7149 3.1883 0.8871
1.1439 -14.2031 1.5256 0.9443
3.2664 -29.6868 3.1976 0.8868
3.7050 -29.6773 3.2021 0.8866
4.5864 -29.6584 3.2131 0.8863
8.6174 -46.6539 5.0795 0.8263
9.2981 -46.5229 5.0795 0.8263
10.6535 -46.2312 5.0795 0.8263
11.3279 -46.0706 5.0795 0.8263
12.6692 -45.7196 5.0795 0.8263
13.3359 -45.5296 5.0795 0.8263
13.9997 -45.3298 5.0794 0.8263
15.9726 -44.6726 5.0794 0.8263
17.9148 -43.9296 5.0794 0.8263
19.1907 -43.3871 5.0794 0.8263
19.8226 -43.1020 5.0794 0.8263
20.4502 -42.8077 5.0794 0.8263
21.0735 -42.5043 5.0794 0.8263
22.3064 -41.8702 5.0793 0.8263
22.9158 -41.5398 5.0793 0.8263
23.5202 -41.2004 5.0793 0.8263
24.7140 -40.4955 5.0793 0.8263
25.8866 -39.7559 5.0793 0.8263
26.4647 -39.3733 5.0793 0.8263
27.0372 -38.9824 5.0793 0.8263
8.6883 -11.0834 1.5078 0.9449
9.0143 -10.5154 1.4829 0.9458
9.2999 -9.6459 1.4346 0.9475
12.5422 -12.2703 1.8786 0.9318
12.7868 -12.1490 1.8884 0.9315
23.3006 -21.4995 3.3944 0.8803
22.5824 -19.0742 3.1649 0.8879
22.6432 -18.5655 3.1350 0.8889
4.2726 -3.2991 0.5779 0.9785
4.2852 -3.2100 0.5732 0.9787
4.3396 -2.9630 0.5626 0.9791
4.3769 -2.8046 0.5566 0.9793
4.3929 -2.7252 0.5535 0.9794
4.4892 -2.6948 0.5606 0.9792
4.3410 -2.4362 0.5330 0.9802
4.5279 -2.4548 0.5514 0.9795
4.5277 -2.3698 0.5471 0.9797
4.5274 -2.2860 0.5430 0.9798
4.5271 -2.2034 0.5391 0.9799
4.5267 -2.1220 0.5353 0.9801
4.8452 -2.0173 0.5619 0.9791
4.8734 -1.9460 0.5618 0.9791
5.2357 -1.8289 0.5938 0.9779
5.3139 -1.7696 0.5996 0.9777
5.4467 -1.5522 0.6064 0.9775
15.3821 -3.9016 1.6990 0.9382
15.3260 -3.4140 1.6811 0.9388
15.5007 -3.2159 1.6949 0.9383
15.5990 -2.7636 1.6961 0.9383
15.5357 -2.5188 1.6851 0.9386
15.6767 -2.3071 1.6965 0.9382
29.7349 8.4741 3.3103 0.8830
28.4405 9.4712 3.2094 0.8864
28.2790 9.8787 3.2071 0.8865
23.6758 8.6609 2.6991 0.9036
23.5054 10.1921 2.7430 0.9021
18.5869 9.0468 2.2132 0.9202
18.0914 9.8086 2.2033 0.9205
17.6686 10.2584 2.1874 0.9211
17.4591 10.4809 2.1802 0.9213
5.9793 3.9559 0.7676 0.9716
5.5331 4.0201 0.7323 0.9729
5.1257 4.0789 0.7013 0.9740
4.9974 4.0974 0.6919 0.9743
4.8551 4.8907 0.7378 0.9727
4.9474 5.2839 0.7750 0.9713
8.3077 9.6912 1.3667 0.9499
0.9179 3.9831 0.4376 0.9837
0.7996 4.0009 0.4368 0.9837
0.7406 4.0097 0.4366 0.9837
0.6228 4.0273 0.4363 0.9837
0.4462 4.0549 0.4368 0.9837
0.3872 4.0643 0.4371 0.9837
0.3281 4.0737 0.4376 0.9837
0.2689 4.0831 0.4381 0.9837
-0.7670 9.5230 1.0229 0.9623
-11.2765 10.7141 1.6654 0.9393
-10.9640 9.8238 1.5761 0.9425
-16.4383 10.5335 2.0903 0.9245
-15.9220 9.8774 2.0061 0.9274
-16.3058 9.4672 2.0187 0.9270
-16.4636 8.9261 2.0051 0.9274
-16.2545 8.5078 1.9643 0.9289
-17.6250 8.8995 2.1139 0.9236
-21.4341 10.4327 2.5522 0.9086
-21.8079 10.2232 2.5787 0.9077
-1.2940 0.5837 0.1520 0.9943
-1.2785 0.5105 0.1474 0.9945
-1.2760 0.4881 0.1463 0.9945
-1.2714 0.4442 0.1442 0.9946
-1.2692 0.4227 0.1432 0.9946
-1.2631 0.3800 0.1412 0.9947
-1.2608 0.3594 0.1404 0.9947
-1.2567 0.3187 0.1388 0.9948
-1.2548 0.2988 0.1381 0.9948
-1.2530 0.2791 0.1374 0.9948
-1.2465 0.2021 0.1352 0.9949
-1.2442 0.1832 0.1346 0.9950
-1.2362 0.1087 0.1329 0.9950
-1.2317 0.0721 0.1321 0.9950
-1.2281 0.0539 0.1316 0.9951
-1.2210 0.0179 0.1307 0.9951
-1.1804 -0.0172 0.1132 0.9953
-1.1836 -0.0346 0.1135 0.9953
-1.1869 -0.0520 0.1139 0.9952
-1.1903 -0.0696 0.1143 0.9952
-1.1938 -0.0873 0.1148 0.9952
-1.1974 -0.1052 0.1152 0.9952
-1.1998 -0.1231 0.1156 0.9952
-1.2016 -0.1411 0.1160 0.9952
-1.2035 -0.1591 0.1164 0.9951
-1.2075 -0.1957 0.1173 0.9951
-1.2148 -0.2893 0.1197 0.9950
-1.2164 -0.3085 0.1203 0.9950
-1.2182 -0.3280 0.1209 0.9949
-1.2270 -0.4086 0.1240 0.9948
-1.2331 -0.4511 0.1259 0.9947
-1.2395 -0.5160 0.1287 0.9946
-1.2442 -0.5612 0.1309 0.9945
-23.2413 -10.8950 2.4608 0.9020
-23.3362 -11.3584 2.4882 0.9010
-23.4332 -11.8321 2.5167 0.8999
-23.7270 -12.8639 2.5875 0.8972
-18.9122 -11.3531 2.1147 0.9152
-18.7719 -11.6454 2.1178 0.9151
-18.6310 -11.9384 2.1214 0.9149
-18.3333 -12.1292 2.1074 0.9155
-18.0013 -12.2914 2.0897 0.9161
-18.2615 -12.8643 2.1415 0.9142
-3.6237 -2.6327 0.4294 0.9822
-15.3124 -11.4706 1.8342 0.9260
-14.7843 -11.7648 1.8114 0.9269
-3.5931 -3.0349 0.4509 0.9813
-13.5776 -12.1656 1.7478 0.9294
-13.3007 -12.2725 1.7350 0.9299
-30.1853 -30.4066 4.1076 0.8418
-29.2973 -30.3875 4.0467 0.8440
-26.7819 -30.3333 3.8793 0.8499
-25.9885 -30.3163 3.8282 0.8518
-25.2156 -30.2996 3.7791 0.8535
-23.7269 -30.2676 3.6871 0.8568
-23.0091 -30.2522 3.6438 0.8584
-9.2671 -12.5610 1.4965 0.9392
-8.4924 -12.2443 1.4286 0.9419
-20.2947 -30.1937 3.4878 0.8640
-19.6514 -30.1799 3.4526 0.8653
-13.8221 -30.0545 3.1714 0.8755
-12.7621 -30.0316 3.1283 0.8771
-11.7297 -30.0094 3.0890 0.8786
-9.7367 -29.9666 3.0207 0.8811
-9.2517 -29.9561 3.0057 0.8816
-8.7713 -29.9458 2.9915 0.8822
-3.2995 -12.6208 1.2506 0.9489
-7.3557 -29.9153 2.9534 0.8836
-6.8914 -29.9053 2.9422 0.8840
-6.4306 -29.8954 2.9316 0.8844
-6.0276 -30.1594 2.9486 0.8837
-5.5821 -30.2210 2.9463 0.8838
-5.1250 -30.2112 2.9377 0.8841
-4.6704 -30.2014 2.9298 0.8844
-3.3199 -30.1723 2.9101 0.8852
-2.8734 -30.1627 2.9048 0.8854
-2.4286 -30.1532 2.9001 0.8855
-1.9850 -30.1436 2.8961 0.8857
-1.5425 -30.1341 2.8927 0.8858
-0.6527 -29.7711 2.8548 0.8872
-0.2175 -29.7618 2.8533 0.8873
0.2174 -29.7523 2.8524 0.8873
0.6520 -29.7430 2.8521 0.8873
1.0867 -29.7337 2.8525 0.8873
1.9567 -29.7149 2.8549 0.8872
2.3925 -29.7055 2.8571 0.8871
3.7051 -29.6773 2.8672 0.8868
4.5864 -29.6584 2.8771 0.8864
8.1236 -47.8877 4.6566 0.8227
9.5647 -47.8567 4.6787 0.8219
10.2908 -47.8411 4.6914 0.8215
11.0209 -47.8254 4.7052 0.8210
11.7555 -47.8096 4.7200 0.8205
13.2395 -47.7776 4.7530 0.8194
13.9896 -47.7615 4.7713 0.8187
14.7457 -47.7452 4.7906 0.8181
4.3889 -12.8649 1.3032 0.9468
17.0535 -47.6956 4.8561 0.8158
19.4298 -47.6444 4.9329 0.8132
20.2393 -47.6270 4.9612 0.8123
23.5035 -47.4055 5.0727 0.8085
23.8977 -46.4813 5.0106 0.8106
24.3662 -45.7365 4.9682 0.8120
26.2668 -46.0116 5.0793 0.8082
8.0913 -10.6383 1.2814 0.9477
