ply
format ascii 1.0
element vertex 1597
property float32 x
property float32 y
property float32 z
property float32 I
end_header
-1.5649 -8.4723 -0.9949 0.9659
-1.3167 -8.5143 -0.9949 0.9659
-1.1921 -8.5326 -0.9949 0.9659
-1.0673 -8.5490 -0.9949 0.9659
-0.8170 -8.5764 -0.9949 0.9659
-0.6916 -8.5874 -0.9949 0.9659
-0.5661 -8.5965 -0.9949 0.9659
-0.1888 -8.6129 -0.9948 0.9659
0.1888 -8.6126 -0.9948 0.9659
0.3146 -8.6089 -0.9948 0.9659
0.4404 -8.6032 -0.9948 0.9659
0.5660 -8.5958 -0.9948 0.9659
0.6915 -8.5866 -0.9948 0.9659
0.8169 -8.5755 -0.9948 0.9659
0.9421 -8.5625 -0.9948 0.9659
1.3164 -8.5129 -0.9947 0.9659
1.4407 -8.4926 -0.9947 0.9659
1.6882 -8.4468 -0.9947 0.9659
2.0567 -8.3645 -0.9947 0.9659
2.3002 -8.3007 -0.9947 0.9659
2.5417 -8.2297 -0.9947 0.9659
2.6616 -8.1917 -0.9947 0.9659
2.8998 -8.1103 -0.9946 0.9659
3.0180 -8.0670 -0.9946 0.9659
3.3685 -7.9268 -0.9946 0.9659
3.9380 -7.6595 -0.9946 0.9659
4.1600 -7.5410 -0.9945 0.9659
4.3786 -7.4161 -0.9945 0.9659
4.4864 -7.3513 -0.9945 0.9659
2.3627 -3.5151 -0.4891 0.9831
4.9081 -7.0764 -0.9945 0.9659
2.3524 -3.2880 -0.4669 0.9839
2.3857 -3.2338 -0.4641 0.9839
2.2850 -3.0043 -0.4359 0.9849
5.3129 -6.7775 -0.9945 0.9659
5.4113 -6.6991 -0.9945 0.9659
3.6820 -4.0495 -0.6320 0.9782
3.7453 -4.0000 -0.6328 0.9782
3.8033 -3.9449 -0.6328 0.9782
3.0771 -3.0104 -0.4971 0.9828
3.3238 -2.9782 -0.5154 0.9822
3.4101 -2.9668 -0.5220 0.9820
3.4986 -2.9550 -0.5288 0.9817
3.7479 -2.8940 -0.5468 0.9811
3.8154 -2.8582 -0.5505 0.9810
3.8836 -2.8216 -0.5543 0.9809
4.3667 -2.8889 -0.6046 0.9791
7.3824 -4.4318 -0.9943 0.9659
7.4464 -4.3234 -0.9943 0.9659
7.5087 -4.2141 -0.9943 0.9659
6.9714 -3.7796 -0.9158 0.9686
7.0700 -3.7005 -0.9215 0.9684
5.1039 -2.5771 -0.6603 0.9772
5.0663 -2.4659 -0.6507 0.9776
4.9931 -2.2523 -0.6325 0.9782
7.8270 -3.2588 -0.9791 0.9664
7.8737 -3.1441 -0.9791 0.9664
7.9188 -3.0287 -0.9791 0.9664
7.9622 -2.9127 -0.9791 0.9664
8.0039 -2.7960 -0.9791 0.9664
8.0821 -2.5609 -0.9790 0.9664
8.1186 -2.4425 -0.9790 0.9664
8.1535 -2.3236 -0.9790 0.9664
8.3757 -1.9946 -0.9943 0.9659
8.4039 -1.8721 -0.9943 0.9659
8.5181 -1.2536 -0.9943 0.9659
8.5511 -1.0042 -0.9943 0.9659
8.5648 -0.8791 -0.9943 0.9659
8.5868 -0.6285 -0.9943 0.9659
8.6061 -0.2516 -0.9943 0.9659
8.6089 -0.1258 -0.9943 0.9659
8.6098 0.0000 -0.9943 0.9659
8.6089 0.1258 -0.9943 0.9659
8.6061 0.2516 -0.9943 0.9659
8.5951 0.5029 -0.9943 0.9659
8.5648 0.8791 -0.9943 0.9659
8.5181 1.2536 -0.9943 0.9659
8.4304 1.7490 -0.9943 0.9659
8.4039 1.8720 -0.9943 0.9659
8.3757 1.9946 -0.9943 0.9659
8.2079 2.6007 -0.9943 0.9659
8.1284 2.8395 -0.9943 0.9659
8.0861 2.9580 -0.9943 0.9659
7.8996 3.4253 -0.9943 0.9659
7.8487 3.5404 -0.9943 0.9659
7.1995 3.3750 -0.9182 0.9685
7.0796 3.4458 -0.9092 0.9688
7.0216 3.5454 -0.9084 0.9688
7.5695 4.1039 -0.9943 0.9659
7.4464 4.3234 -0.9943 0.9659
5.4295 3.9448 -0.7750 0.9733
6.8154 5.2627 -0.9944 0.9659
6.7379 5.3618 -0.9944 0.9659
4.3100 3.5338 -0.6436 0.9778
4.1963 3.5444 -0.6343 0.9781
4.0904 3.5586 -0.6261 0.9784
3.7884 3.5994 -0.6034 0.9792
3.6925 3.6124 -0.5965 0.9794
3.5988 3.6251 -0.5899 0.9796
3.3299 3.6621 -0.5716 0.9803
3.2493 3.6801 -0.5669 0.9804
3.1700 3.6979 -0.5625 0.9806
3.0356 3.7580 -0.5579 0.9807
2.9307 3.9725 -0.5701 0.9803
2.8180 4.0630 -0.5710 0.9803
3.1743 5.3764 -0.7210 0.9752
3.2606 5.9104 -0.7795 0.9732
3.5336 7.6831 -0.9766 0.9665
3.0788 7.8766 -0.9766 0.9665
2.7308 8.0042 -0.9766 0.9665
1.1563 3.9478 -0.4750 0.9836
1.0151 3.8830 -0.4635 0.9840
0.8408 3.6482 -0.4323 0.9850
0.7799 3.6252 -0.4282 0.9852
0.6713 3.6341 -0.4268 0.9852
0.5634 3.6429 -0.4257 0.9853
0.5097 3.6473 -0.4253 0.9853
0.4023 3.6561 -0.4248 0.9853
0.2417 3.6693 -0.4247 0.9853
-0.0817 3.7323 -0.4311 0.9851
-0.1368 3.7450 -0.4328 0.9850
-0.1923 3.7577 -0.4345 0.9850
-0.4191 3.8099 -0.4426 0.9847
-0.4802 3.8466 -0.4477 0.9845
-0.5475 3.9190 -0.4570 0.9842
-0.6423 4.1534 -0.4853 0.9832
-1.5365 8.3189 -0.9769 0.9665
-1.6579 8.2956 -0.9769 0.9665
-1.5015 6.1066 -0.7262 0.9750
-1.8105 5.5726 -0.6766 0.9767
-1.8655 5.2180 -0.6399 0.9779
-1.8908 5.0546 -0.6232 0.9785
-1.9149 4.8995 -0.6075 0.9790
-1.9379 4.7523 -0.5927 0.9795
-1.9604 4.6137 -0.5789 0.9800
-1.9820 4.4813 -0.5659 0.9805
-2.0025 4.3547 -0.5535 0.9809
-2.0223 4.2335 -0.5418 0.9813
-1.9090 3.7130 -0.4821 0.9833
-1.9445 3.6500 -0.4776 0.9835
-1.9869 3.6016 -0.4750 0.9836
-2.0347 3.5641 -0.4739 0.9836
-2.2321 3.4282 -0.4724 0.9837
-2.5020 3.3916 -0.4867 0.9832
-2.5893 3.4047 -0.4940 0.9829
-2.8680 3.4465 -0.5178 0.9821
-0.5206 0.5726 -0.0894 0.9969
-0.5136 0.5485 -0.0868 0.9970
-0.5149 0.5340 -0.0857 0.9970
-0.5175 0.4775 -0.0813 0.9972
-0.5177 0.4638 -0.0803 0.9972
-0.5178 0.4505 -0.0793 0.9972
-0.5179 0.4374 -0.0783 0.9973
-0.5179 0.4121 -0.0764 0.9973
-0.5174 0.3759 -0.0739 0.9974
-0.5173 0.3643 -0.0731 0.9975
-0.5171 0.3530 -0.0723 0.9975
-0.5168 0.3419 -0.0716 0.9975
-0.5165 0.3309 -0.0708 0.9975
-0.5162 0.3202 -0.0701 0.9976
-0.5159 0.3097 -0.0695 0.9976
-0.5159 0.2995 -0.0689 0.9976
-0.5158 0.2796 -0.0678 0.9976
-0.5157 0.2699 -0.0672 0.9977
-0.5156 0.2603 -0.0667 0.9977
-0.5154 0.2508 -0.0662 0.9977
-0.5138 0.2051 -0.0639 0.9978
-0.5134 0.1964 -0.0635 0.9978
-0.5130 0.1877 -0.0631 0.9978
-0.5122 0.1623 -0.0620 0.9978
-0.5111 0.1376 -0.0611 0.9979
-0.5107 0.1295 -0.0608 0.9979
-0.5098 0.1136 -0.0603 0.9979
-0.5095 0.1057 -0.0601 0.9979
-0.5083 0.0825 -0.0595 0.9979
-0.5067 0.0595 -0.0589 0.9979
-0.5061 0.0520 -0.0588 0.9980
-0.5042 0.0295 -0.0583 0.9980
-0.4854 0.0000 -0.0615 0.9980
-0.4862 -0.0071 -0.0616 0.9980
-0.4869 -0.0143 -0.0617 0.9980
-0.4876 -0.0214 -0.0619 0.9980
-0.4883 -0.0286 -0.0620 0.9980
-0.4919 -0.0798 -0.0631 0.9980
-0.4934 -0.1175 -0.0643 0.9980
-0.4939 -0.1330 -0.0648 0.9979
-0.4942 -0.1409 -0.0651 0.9979
-0.4944 -0.1488 -0.0654 0.9979
-0.4947 -0.1567 -0.0658 0.9979
-0.4951 -0.1811 -0.0668 0.9979
-0.4952 -0.1895 -0.0672 0.9979
-0.4955 -0.1979 -0.0676 0.9979
-0.4961 -0.2237 -0.0690 0.9978
-0.4963 -0.2326 -0.0695 0.9978
-0.4964 -0.2416 -0.0700 0.9978
-0.4962 -0.2881 -0.0727 0.9977
-0.4960 -0.2977 -0.0733 0.9977
-0.4952 -0.3276 -0.0752 0.9976
-0.4952 -0.3381 -0.0760 0.9976
-0.4951 -0.3597 -0.0775 0.9975
-0.4950 -0.3708 -0.0784 0.9975
-0.4948 -0.3821 -0.0792 0.9975
-0.4944 -0.4054 -0.0810 0.9974
-0.4941 -0.4174 -0.0820 0.9974
-0.4938 -0.4296 -0.0829 0.9974
-0.4934 -0.4421 -0.0839 0.9973
-0.4923 -0.4678 -0.0861 0.9973
-0.4917 -0.4811 -0.0872 0.9972
-0.4910 -0.4946 -0.0883 0.9972
-0.4902 -0.5085 -0.0895 0.9972
-0.4865 -0.5511 -0.0932 0.9970
-0.5821 -0.6994 -0.1153 0.9963
-2.5756 -3.1885 -0.5194 0.9836
-2.2071 -2.9019 -0.4620 0.9854
-2.4270 -3.2897 -0.5181 0.9837
-2.5566 -3.6862 -0.5685 0.9821
-2.5046 -3.7263 -0.5690 0.9821
-2.1743 -3.4484 -0.5166 0.9837
-2.1861 -3.5821 -0.5318 0.9832
-2.1422 -3.6283 -0.5339 0.9832
-1.9738 -3.4575 -0.5045 0.9841
-1.8328 -3.3223 -0.4808 0.9848
-1.7041 -3.1987 -0.4593 0.9855
-2.0801 -4.0459 -0.5765 0.9818
-3.1763 -7.1810 -0.9950 0.9688
-2.9650 -7.2706 -0.9950 0.9688
-2.4263 -7.4674 -0.9950 0.9688
-2.2071 -7.5350 -0.9950 0.9688
-2.0967 -7.5664 -0.9950 0.9688
-1.9859 -7.5961 -0.9950 0.9688
-1.7631 -7.6508 -0.9949 0.9688
-1.6511 -7.6757 -0.9949 0.9688
-1.5387 -7.6989 -0.9949 0.9688
-1.3131 -7.7405 -0.9949 0.9688
-1.1998 -7.7588 -0.9949 0.9688
-1.0863 -7.7755 -0.9949 0.9688
-0.8587 -7.8038 -0.9949 0.9688
-0.5158 -7.8337 -0.9949 0.9688
-0.2867 -7.8453 -0.9948 0.9688
-0.1721 -7.8486 -0.9948 0.9688
0.0573 -7.8502 -0.9948 0.9688
0.2867 -7.8450 -0.9948 0.9688
0.5158 -7.8332 -0.9948 0.9688
0.6302 -7.8247 -0.9948 0.9688
0.8585 -7.8029 -0.9948 0.9688
0.9724 -7.7894 -0.9948 0.9688
1.0862 -7.7743 -0.9948 0.9688
1.1996 -7.7575 -0.9947 0.9688
1.3128 -7.7391 -0.9947 0.9688
1.6507 -7.6740 -0.9947 0.9688
1.7626 -7.6490 -0.9947 0.9688
1.8742 -7.6224 -0.9947 0.9688
1.9853 -7.5941 -0.9947 0.9688
2.2064 -7.5327 -0.9947 0.9688
2.3162 -7.4996 -0.9947 0.9688
2.4255 -7.4650 -0.9947 0.9688
2.6425 -7.3908 -0.9947 0.9688
2.7502 -7.3514 -0.9946 0.9688
2.8573 -7.3103 -0.9946 0.9688
2.9638 -7.2677 -0.9946 0.9688
3.1749 -7.1779 -0.9946 0.9688
3.3832 -7.0820 -0.9946 0.9688
3.4863 -7.0317 -0.9946 0.9689
4.1859 -6.6388 -0.9945 0.9689
4.2824 -6.5768 -0.9945 0.9689
4.3780 -6.5134 -0.9945 0.9689
4.4727 -6.4488 -0.9945 0.9689
2.3527 -3.2885 -0.5124 0.9838
2.2903 -3.0113 -0.4794 0.9849
2.2935 -2.9258 -0.4711 0.9851
5.0200 -6.0321 -0.9945 0.9689
3.6911 -4.0594 -0.6953 0.9781
3.8065 -3.9482 -0.6950 0.9781
3.1310 -2.9749 -0.5473 0.9827
3.2123 -2.9639 -0.5539 0.9825
3.3806 -2.9411 -0.5678 0.9821
3.5198 -2.8860 -0.5768 0.9818
3.5837 -2.8518 -0.5804 0.9817
3.7788 -2.7454 -0.5919 0.9813
4.0330 -2.8411 -0.6252 0.9803
4.2203 -2.8816 -0.6476 0.9796
4.3893 -2.9039 -0.6669 0.9790
4.5228 -2.8981 -0.6807 0.9786
5.0002 -3.1020 -0.7457 0.9766
6.7277 -4.0387 -0.9944 0.9689
4.9537 -2.5013 -0.7032 0.9779
4.9192 -2.3944 -0.6933 0.9782
6.9959 -3.2796 -0.9791 0.9693
7.0887 -3.0737 -0.9791 0.9693
7.1328 -2.9698 -0.9791 0.9693
7.1754 -2.8652 -0.9791 0.9693
7.2165 -2.7601 -0.9791 0.9693
7.2560 -2.6543 -0.9791 0.9693
7.3986 -2.2260 -0.9791 0.9693
7.5020 -2.1380 -0.9885 0.9690
7.6055 -1.9291 -0.9943 0.9689
7.6329 -1.8178 -0.9943 0.9689
7.6587 -1.7061 -0.9943 0.9689
7.7260 -1.3688 -0.9943 0.9689
7.7452 -1.2557 -0.9943 0.9689
7.7627 -1.1425 -0.9943 0.9689
7.7928 -0.9152 -0.9943 0.9689
7.8053 -0.8011 -0.9943 0.9689
7.8161 -0.6870 -0.9943 0.9689
7.8387 -0.3439 -0.9943 0.9689
7.8463 -0.0000 -0.9943 0.9689
7.8454 0.1146 -0.9943 0.9689
7.8329 0.4583 -0.9943 0.9689
7.8053 0.8012 -0.9943 0.9689
7.7786 1.0289 -0.9943 0.9689
7.7627 1.1424 -0.9943 0.9689
7.7260 1.3688 -0.9943 0.9689
7.6827 1.5939 -0.9943 0.9689
7.6329 1.8177 -0.9943 0.9689
7.6056 1.9291 -0.9943 0.9689
7.5766 2.0400 -0.9943 0.9689
7.5460 2.1505 -0.9943 0.9689
7.5137 2.2605 -0.9943 0.9689
7.4800 2.3701 -0.9943 0.9689
7.4446 2.4791 -0.9943 0.9689
7.4076 2.5877 -0.9943 0.9689
7.3690 2.6957 -0.9943 0.9689
7.3288 2.8030 -0.9943 0.9689
7.2438 3.0160 -0.9943 0.9689
7.1990 3.1215 -0.9944 0.9689
7.1047 3.3306 -0.9944 0.9689
7.0554 3.4340 -0.9944 0.9689
7.0045 3.5368 -0.9944 0.9689
6.7860 3.9400 -0.9944 0.9689
6.7277 4.0387 -0.9944 0.9689
5.7205 3.5488 -0.8531 0.9732
5.6016 3.5894 -0.8431 0.9735
5.4743 3.7379 -0.8400 0.9736
5.4811 3.9822 -0.8585 0.9731
6.2804 4.7047 -0.9944 0.9689
6.1403 4.8862 -0.9944 0.9689
4.5465 3.7277 -0.7451 0.9766
4.4135 3.7278 -0.7321 0.9770
3.7057 3.6254 -0.6569 0.9793
3.3411 3.6745 -0.6293 0.9802
2.9884 3.8122 -0.6138 0.9807
2.9498 3.8783 -0.6175 0.9805
2.9248 3.9644 -0.6243 0.9803
2.8640 4.0031 -0.6237 0.9803
2.7703 4.1217 -0.6293 0.9802
3.1481 5.1584 -0.7658 0.9759
3.5068 6.5824 -0.9451 0.9704
3.3018 6.6595 -0.9419 0.9705
3.3833 7.0820 -0.9946 0.9688
3.2794 7.1307 -0.9946 0.9688
3.1749 7.1779 -0.9946 0.9688
3.0697 7.2236 -0.9946 0.9688
2.9639 7.2678 -0.9946 0.9688
2.7503 7.3514 -0.9947 0.9688
2.6426 7.3908 -0.9947 0.9688
2.5343 7.4287 -0.9947 0.9688
2.4255 7.4650 -0.9947 0.9688
1.2383 4.0094 -0.5318 0.9832
1.1446 3.9079 -0.5160 0.9837
1.0081 3.8561 -0.5051 0.9841
0.9069 3.6879 -0.4813 0.9848
0.8414 3.6509 -0.4748 0.9850
0.7261 3.6325 -0.4694 0.9852
0.6719 3.6370 -0.4687 0.9852
0.5100 3.6502 -0.4671 0.9852
0.4563 3.6546 -0.4667 0.9853
0.4027 3.6590 -0.4665 0.9853
0.2421 3.6746 -0.4667 0.9853
0.1886 3.6830 -0.4673 0.9852
0.0812 3.6999 -0.4690 0.9852
-0.0271 3.7228 -0.4718 0.9851
-0.1369 3.7480 -0.4753 0.9850
-0.1924 3.7608 -0.4772 0.9849
-0.2484 3.7737 -0.4792 0.9849
-0.4195 3.8131 -0.4861 0.9847
-0.5479 3.9226 -0.5019 0.9842
-1.4261 7.7206 -0.9949 0.9688
-1.7631 7.6509 -0.9950 0.9688
-1.5086 6.1354 -0.8007 0.9748
-1.7801 5.7643 -0.7645 0.9760
-1.8101 5.5713 -0.7423 0.9767
-1.8904 5.0535 -0.6837 0.9785
-1.9145 4.8985 -0.6665 0.9790
-1.9373 4.7511 -0.6502 0.9795
-1.9592 4.6108 -0.6349 0.9800
-1.9807 4.4786 -0.6206 0.9804
-2.0013 4.3521 -0.6070 0.9809
-1.8690 3.7698 -0.5332 0.9832
-1.9330 3.6284 -0.5210 0.9836
-1.9757 3.5814 -0.5183 0.9836
-2.0763 3.5168 -0.5175 0.9837
-2.1347 3.4979 -0.5193 0.9836
-2.2000 3.4892 -0.5227 0.9835
-2.2860 3.4014 -0.5193 0.9836
-2.4153 3.3762 -0.5261 0.9834
-2.5873 3.4020 -0.5416 0.9829
-0.5820 0.6995 -0.1153 0.9963
-0.4978 0.5806 -0.0969 0.9969
-0.4865 0.5510 -0.0932 0.9970
-0.4882 0.5370 -0.0920 0.9971
-0.4902 0.5084 -0.0895 0.9972
-0.4910 0.4946 -0.0883 0.9972
-0.4933 0.4420 -0.0839 0.9973
-0.4938 0.4296 -0.0829 0.9974
-0.4944 0.4054 -0.0810 0.9974
-0.4946 0.3936 -0.0801 0.9975
-0.4948 0.3821 -0.0792 0.9975
-0.4950 0.3707 -0.0784 0.9975
-0.4951 0.3597 -0.0775 0.9975
-0.4952 0.3488 -0.0768 0.9976
-0.4952 0.3381 -0.0760 0.9976
-0.4952 0.3276 -0.0752 0.9976
-0.4955 0.3175 -0.0746 0.9976
-0.4958 0.3075 -0.0739 0.9977
-0.4962 0.2880 -0.0727 0.9977
-0.4963 0.2785 -0.0721 0.9977
-0.4964 0.2691 -0.0716 0.9977
-0.4964 0.2507 -0.0705 0.9978
-0.4964 0.2416 -0.0700 0.9978
-0.4963 0.2326 -0.0695 0.9978
-0.4961 0.2238 -0.0690 0.9978
-0.4952 0.1894 -0.0672 0.9979
-0.4951 0.1811 -0.0668 0.9979
-0.4950 0.1729 -0.0664 0.9979
-0.4945 0.1487 -0.0654 0.9979
-0.4942 0.1408 -0.0651 0.9979
-0.4939 0.1330 -0.0648 0.9979
-0.4934 0.1175 -0.0643 0.9980
-0.4932 0.1098 -0.0640 0.9980
-0.4919 0.0797 -0.0631 0.9980
-0.4910 0.0650 -0.0628 0.9980
-0.4895 0.0430 -0.0623 0.9980
-0.4883 0.0286 -0.0620 0.9980
-0.4876 0.0214 -0.0619 0.9980
-0.4869 0.0143 -0.0617 0.9980
-0.4713 -0.0069 -0.0651 0.9981
-0.4727 -0.0207 -0.0653 0.9981
-0.4733 -0.0277 -0.0654 0.9981
-0.4739 -0.0347 -0.0656 0.9981
-0.4753 -0.0558 -0.0660 0.9981
-0.4758 -0.0629 -0.0662 0.9981
-0.4765 -0.0773 -0.0666 0.9981
-0.4777 -0.1138 -0.0678 0.9980
-0.4779 -0.1287 -0.0683 0.9980
-0.4781 -0.1438 -0.0689 0.9980
-0.4783 -0.1515 -0.0692 0.9980
-0.4783 -0.1593 -0.0696 0.9980
-0.4784 -0.1671 -0.0699 0.9980
-0.4784 -0.1830 -0.0707 0.9979
-0.4784 -0.1910 -0.0711 0.9979
-0.4785 -0.1992 -0.0715 0.9979
-0.4786 -0.2075 -0.0720 0.9979
-0.4787 -0.2159 -0.0725 0.9979
-0.4787 -0.2330 -0.0735 0.9979
-0.4784 -0.2504 -0.0745 0.9978
-0.4783 -0.2593 -0.0751 0.9978
-0.4780 -0.2683 -0.0757 0.9978
-0.4778 -0.2774 -0.0762 0.9978
-0.4775 -0.2866 -0.0769 0.9978
-0.4767 -0.3055 -0.0781 0.9977
-0.4757 -0.3248 -0.0795 0.9977
-0.4746 -0.3448 -0.0809 0.9976
-0.4742 -0.3552 -0.0818 0.9976
-0.4734 -0.3767 -0.0835 0.9976
-0.4729 -0.3878 -0.0844 0.9975
-0.4724 -0.3991 -0.0853 0.9975
-0.4718 -0.4105 -0.0863 0.9975
-0.4705 -0.4341 -0.0883 0.9974
-0.4697 -0.4462 -0.0894 0.9974
-0.4657 -0.4973 -0.0940 0.9973
-0.4632 -0.5246 -0.0966 0.9972
-0.4734 -0.5861 -0.1040 0.9970
-0.5517 -0.7038 -0.1234 0.9964
-2.2237 -2.9237 -0.5069 0.9853
-2.4270 -3.2897 -0.5641 0.9836
-2.3776 -3.3232 -0.5639 0.9836
-2.4711 -3.6764 -0.6113 0.9823
-2.1513 -3.4118 -0.5566 0.9838
-1.7366 -3.1480 -0.4961 0.9856
-2.0520 -3.9911 -0.6193 0.9820
-1.9983 -4.0305 -0.6208 0.9820
-2.8200 -6.6360 -0.9950 0.9713
-2.6249 -6.7155 -0.9950 0.9713
-2.5264 -6.7531 -0.9950 0.9713
-2.4275 -6.7892 -0.9950 0.9713
-2.3280 -6.8239 -0.9950 0.9713
-2.2280 -6.8571 -0.9950 0.9713
-1.8236 -6.9754 -0.9950 0.9713
-1.2058 -7.1080 -0.9949 0.9713
-1.1018 -7.1248 -0.9949 0.9713
-0.8932 -7.1539 -0.9949 0.9713
-0.7885 -7.1661 -0.9949 0.9713
-0.6837 -7.1768 -0.9949 0.9713
-0.4737 -7.1936 -0.9949 0.9713
-0.1580 -7.2073 -0.9948 0.9713
0.0527 -7.2087 -0.9948 0.9713
0.1580 -7.2071 -0.9948 0.9713
0.3685 -7.1993 -0.9948 0.9713
0.4736 -7.1931 -0.9948 0.9713
0.6836 -7.1761 -0.9948 0.9713
0.7884 -7.1653 -0.9948 0.9713
0.9974 -7.1391 -0.9948 0.9713
1.3093 -7.0884 -0.9947 0.9713
1.8231 -6.9737 -0.9947 0.9713
2.0261 -6.9174 -0.9947 0.9713
2.2273 -6.8551 -0.9947 0.9713
2.3273 -6.8218 -0.9947 0.9713
2.4267 -6.7870 -0.9947 0.9713
2.5256 -6.7507 -0.9947 0.9713
2.6239 -6.7131 -0.9947 0.9713
2.7217 -6.6739 -0.9946 0.9713
2.8189 -6.6334 -0.9946 0.9713
2.9155 -6.5915 -0.9946 0.9713
3.0115 -6.5482 -0.9946 0.9713
3.1068 -6.5034 -0.9946 0.9713
3.3888 -6.3609 -0.9946 0.9713
3.5731 -6.2591 -0.9946 0.9713
3.6642 -6.2062 -0.9946 0.9713
3.8440 -6.0964 -0.9946 0.9713
3.9326 -6.0396 -0.9946 0.9713
2.3677 -3.4137 -0.5733 0.9834
4.5285 -5.6062 -0.9945 0.9713
4.6099 -5.5394 -0.9945 0.9713
2.5748 -3.0036 -0.5459 0.9842
3.0266 -2.9610 -0.5843 0.9830
3.1825 -2.9364 -0.5976 0.9827
3.3076 -2.8776 -0.6050 0.9825
3.3682 -2.8450 -0.6084 0.9824
3.4911 -2.7781 -0.6157 0.9821
3.6160 -2.7088 -0.6235 0.9819
3.6792 -2.6732 -0.6276 0.9818
4.2610 -2.9094 -0.7120 0.9794
4.4123 -2.9191 -0.7301 0.9789
6.0836 -3.6520 -0.9792 0.9718
6.1877 -3.4727 -0.9792 0.9718
4.8764 -2.6438 -0.7655 0.9779
6.3338 -3.1982 -0.9792 0.9718
6.4245 -3.0117 -0.9792 0.9718
6.5894 -2.6312 -0.9791 0.9718
6.6983 -2.3399 -0.9791 0.9718
6.7920 -2.1521 -0.9832 0.9716
6.9001 -2.0760 -0.9944 0.9713
6.9844 -1.7716 -0.9944 0.9713
7.0095 -1.6693 -0.9944 0.9713
7.0332 -1.5667 -0.9944 0.9713
7.0553 -1.4638 -0.9944 0.9713
7.0759 -1.3605 -0.9944 0.9713
7.0950 -1.2570 -0.9944 0.9713
7.1287 -1.0491 -0.9944 0.9713
7.1433 -0.9449 -0.9944 0.9713
7.1563 -0.8404 -0.9944 0.9713
7.1778 -0.6309 -0.9944 0.9713
7.1862 -0.5259 -0.9944 0.9713
7.1986 -0.3158 -0.9943 0.9713
7.2055 -0.0000 -0.9943 0.9713
7.2047 0.1052 -0.9943 0.9713
7.1863 0.5260 -0.9944 0.9713
7.1778 0.6309 -0.9944 0.9713
7.1678 0.7357 -0.9944 0.9713
7.1433 0.9448 -0.9944 0.9713
7.1287 1.0491 -0.9944 0.9713
7.1127 1.1532 -0.9944 0.9713
7.0759 1.3605 -0.9944 0.9713
7.0332 1.5667 -0.9944 0.9713
7.0096 1.6693 -0.9944 0.9713
6.9578 1.8734 -0.9944 0.9713
6.9001 2.0759 -0.9944 0.9713
6.8365 2.2767 -0.9944 0.9713
6.7303 2.5741 -0.9944 0.9713
6.6920 2.6722 -0.9944 0.9713
6.6522 2.7696 -0.9944 0.9713
6.6110 2.8666 -0.9944 0.9713
6.5684 2.9629 -0.9944 0.9713
6.4791 3.1536 -0.9944 0.9713
6.4324 3.2479 -0.9944 0.9713
6.2317 3.6182 -0.9944 0.9713
6.1782 3.7088 -0.9944 0.9713
6.1234 3.7987 -0.9944 0.9713
5.5756 3.6888 -0.9226 0.9734
5.5191 3.8879 -0.9316 0.9731
5.7674 4.3204 -0.9944 0.9713
4.4375 3.7481 -0.8016 0.9768
4.2025 4.1114 -0.8113 0.9765
4.9256 5.2606 -0.9945 0.9713
3.0974 3.7219 -0.6682 0.9806
2.9243 3.9638 -0.6798 0.9803
2.8119 4.0543 -0.6809 0.9803
2.7439 4.2140 -0.6940 0.9799
3.7545 6.1520 -0.9946 0.9713
3.6642 6.2062 -0.9946 0.9713
3.4813 6.3107 -0.9946 0.9713
3.2955 6.4098 -0.9946 0.9713
3.2015 6.4573 -0.9946 0.9713
3.0115 6.5482 -0.9946 0.9713
2.9155 6.5916 -0.9946 0.9713
2.7217 6.6740 -0.9947 0.9713
2.6240 6.7132 -0.9947 0.9713
2.5256 6.7507 -0.9947 0.9713
2.3273 6.8218 -0.9947 0.9713
1.2225 3.9584 -0.5717 0.9834
1.0671 3.8507 -0.5514 0.9840
1.0032 3.8371 -0.5473 0.9841
0.9075 3.6906 -0.5245 0.9848
0.8420 3.6535 -0.5174 0.9850
0.6724 3.6398 -0.5108 0.9852
0.5105 3.6530 -0.5090 0.9852
0.4567 3.6574 -0.5086 0.9852
0.3496 3.6684 -0.5085 0.9852
0.1891 3.6935 -0.5104 0.9852
0.1354 3.7020 -0.5112 0.9852
0.0272 3.7191 -0.5132 0.9851
-0.0272 3.7278 -0.5144 0.9851
-0.0819 3.7384 -0.5160 0.9850
-0.1370 3.7511 -0.5180 0.9850
-0.1926 3.7638 -0.5201 0.9849
-0.3051 3.7898 -0.5247 0.9848
-0.4810 3.8537 -0.5359 0.9844
-0.6341 4.1007 -0.5726 0.9834
-0.7063 4.1638 -0.5828 0.9831
-1.4130 7.0699 -0.9949 0.9713
-1.5162 7.0485 -0.9949 0.9713
-1.6190 7.0257 -0.9949 0.9713
-1.5255 6.2042 -0.8817 0.9745
-1.7478 5.9678 -0.8581 0.9752
-1.7796 5.7629 -0.8323 0.9759
-1.8096 5.5699 -0.8082 0.9766
-1.8900 5.0523 -0.7444 0.9785
-1.9140 4.8974 -0.7256 0.9790
-1.9369 4.7500 -0.7079 0.9795
-1.9587 4.6096 -0.6912 0.9800
-1.9795 4.4757 -0.6754 0.9804
-2.0001 4.3494 -0.6606 0.9809
-1.8514 3.8754 -0.5927 0.9828
-2.0683 3.5031 -0.5614 0.9837
-2.1262 3.4839 -0.5632 0.9837
-2.1906 3.4743 -0.5668 0.9836
-2.3414 3.3762 -0.5670 0.9835
-2.4134 3.3736 -0.5724 0.9834
-0.5517 0.7038 -0.1234 0.9964
-0.4603 0.5530 -0.0993 0.9971
-0.4618 0.5386 -0.0979 0.9971
-0.4645 0.5108 -0.0953 0.9972
-0.4697 0.4462 -0.0894 0.9974
-0.4704 0.4341 -0.0883 0.9974
-0.4712 0.4222 -0.0873 0.9974
-0.4724 0.3990 -0.0853 0.9975
-0.4729 0.3877 -0.0844 0.9975
-0.4757 0.3248 -0.0795 0.9977
-0.4767 0.3054 -0.0781 0.9977
-0.4771 0.2960 -0.0775 0.9977
-0.4775 0.2866 -0.0769 0.9978
-0.4778 0.2774 -0.0762 0.9978
-0.4783 0.2593 -0.0751 0.9978
-0.4786 0.2416 -0.0740 0.9978
-0.4787 0.2244 -0.0730 0.9979
-0.4786 0.2075 -0.0720 0.9979
-0.4785 0.1992 -0.0715 0.9979
-0.4783 0.1593 -0.0696 0.9980
-0.4780 0.1362 -0.0686 0.9980
-0.4779 0.1287 -0.0683 0.9980
-0.4779 0.1212 -0.0680 0.9980
-0.4774 0.0990 -0.0673 0.9980
-0.4765 0.0773 -0.0666 0.9981
-0.4762 0.0701 -0.0664 0.9981
-0.4753 0.0558 -0.0660 0.9981
-0.4744 0.0417 -0.0657 0.9981
-0.4739 0.0346 -0.0656 0.9981
-0.4727 0.0207 -0.0653 0.9981
-0.4720 0.0138 -0.0652 0.9981
-0.4713 0.0069 -0.0651 0.9981
-0.4580 -0.0134 -0.0684 0.9981
-0.4591 -0.0269 -0.0687 0.9981
-0.4597 -0.0336 -0.0688 0.9981
-0.4601 -0.0405 -0.0690 0.9981
-0.4610 -0.0542 -0.0693 0.9981
-0.4614 -0.0610 -0.0695 0.9981
-0.4620 -0.0749 -0.0699 0.9981
-0.4623 -0.0819 -0.0701 0.9981
-0.4629 -0.1103 -0.0711 0.9981
-0.4631 -0.1247 -0.0716 0.9981
-0.4630 -0.1393 -0.0722 0.9980
-0.4629 -0.1467 -0.0725 0.9980
-0.4629 -0.1541 -0.0728 0.9980
-0.4625 -0.1847 -0.0744 0.9980
-0.4624 -0.2005 -0.0752 0.9980
-0.4622 -0.2167 -0.0762 0.9979
-0.4621 -0.2249 -0.0767 0.9979
-0.4617 -0.2416 -0.0778 0.9979
-0.4614 -0.2502 -0.0784 0.9979
-0.4607 -0.2675 -0.0795 0.9978
-0.4603 -0.2763 -0.0801 0.9978
-0.4598 -0.2852 -0.0808 0.9978
-0.4592 -0.2943 -0.0814 0.9978
-0.4586 -0.3034 -0.0821 0.9978
-0.4564 -0.3316 -0.0842 0.9977
-0.4556 -0.3413 -0.0850 0.9977
-0.4547 -0.3511 -0.0858 0.9977
-0.4517 -0.3930 -0.0894 0.9976
-0.4509 -0.4039 -0.0904 0.9976
-0.4500 -0.4152 -0.0914 0.9975
-0.4489 -0.4265 -0.0925 0.9975
-0.4479 -0.4382 -0.0935 0.9975
-0.4454 -0.4621 -0.0958 0.9974
-0.4441 -0.4743 -0.0970 0.9974
-0.4412 -0.4997 -0.0995 0.9973
-0.4390 -0.5275 -0.1025 0.9972
-0.4385 -0.5429 -0.1042 0.9972
-0.4379 -0.5586 -0.1060 0.9971
-0.5187 -0.7030 -0.1304 0.9965
-2.3776 -3.3232 -0.6101 0.9836
-2.4892 -3.5889 -0.6521 0.9825
-2.3875 -3.6666 -0.6533 0.9825
-2.1287 -3.3761 -0.5959 0.9840
-1.8970 -3.2130 -0.5571 0.9850
-1.7680 -3.0971 -0.5325 0.9857
-2.0245 -3.9377 -0.6611 0.9823
-2.7845 -6.0545 -0.9950 0.9734
-2.6957 -6.0945 -0.9950 0.9734
-2.4260 -6.2067 -0.9950 0.9734
-2.3350 -6.2414 -0.9950 0.9734
-2.2436 -6.2748 -0.9950 0.9734
-1.9664 -6.3670 -0.9950 0.9734
-1.8731 -6.3950 -0.9950 0.9734
-1.7795 -6.4217 -0.9949 0.9734
-1.4963 -6.4934 -0.9949 0.9734
-1.3060 -6.5343 -0.9949 0.9734
-1.1145 -6.5695 -0.9949 0.9734
-0.7288 -6.6232 -0.9949 0.9734
-0.6319 -6.6331 -0.9949 0.9734
-0.5349 -6.6416 -0.9949 0.9734
-0.4378 -6.6487 -0.9949 0.9734
-0.3406 -6.6543 -0.9949 0.9734
-0.0487 -6.6627 -0.9948 0.9734
0.1460 -6.6612 -0.9948 0.9734
0.3406 -6.6540 -0.9948 0.9734
0.5349 -6.6411 -0.9948 0.9734
0.7287 -6.6226 -0.9948 0.9734
0.8254 -6.6112 -0.9948 0.9734
0.9219 -6.5984 -0.9948 0.9734
1.0182 -6.5842 -0.9948 0.9734
1.1143 -6.5685 -0.9948 0.9734
1.2101 -6.5515 -0.9947 0.9734
1.3057 -6.5331 -0.9947 0.9734
1.4010 -6.5133 -0.9947 0.9734
1.7791 -6.4201 -0.9947 0.9734
1.8727 -6.3934 -0.9947 0.9734
2.1510 -6.3051 -0.9947 0.9734
2.4252 -6.2046 -0.9947 0.9734
2.6054 -6.1311 -0.9947 0.9734
2.7834 -6.0522 -0.9946 0.9734
2.8715 -6.0109 -0.9946 0.9734
3.0459 -5.9244 -0.9946 0.9734
3.3025 -5.7851 -0.9946 0.9734
3.4701 -5.6861 -0.9946 0.9734
3.5528 -5.6347 -0.9946 0.9734
3.7159 -5.5285 -0.9946 0.9734
2.3677 -3.4137 -0.6203 0.9833
2.3791 -3.2246 -0.5983 0.9839
2.3012 -3.0256 -0.5676 0.9847
2.3043 -2.9395 -0.5577 0.9850
4.1856 -5.1817 -0.9945 0.9734
2.5815 -3.0114 -0.5922 0.9841
4.4086 -4.9932 -0.9945 0.9734
4.4810 -4.9282 -0.9945 0.9734
3.8128 -3.9547 -0.8202 0.9780
2.9945 -2.9296 -0.6255 0.9832
3.0516 -2.8995 -0.6285 0.9831
3.1092 -2.8689 -0.6317 0.9830
3.1671 -2.8377 -0.6349 0.9829
3.2254 -2.8061 -0.6383 0.9829
3.4029 -2.7079 -0.6493 0.9826
3.5845 -2.6043 -0.6616 0.9822
3.7989 -2.6761 -0.6938 0.9814
3.9060 -2.6671 -0.7062 0.9811
4.4347 -2.9340 -0.7939 0.9787
4.7971 -2.7853 -0.8282 0.9778
4.7664 -2.6751 -0.8161 0.9781
5.8104 -3.0412 -0.9792 0.9738
5.8542 -2.9560 -0.9792 0.9738
5.8968 -2.8702 -0.9792 0.9738
5.9381 -2.7837 -0.9792 0.9738
6.0168 -2.6089 -0.9792 0.9738
6.1589 -2.2530 -0.9792 0.9738
6.1944 -2.1640 -0.9797 0.9738
6.4050 -1.8254 -0.9944 0.9734
6.4788 -1.5429 -0.9944 0.9734
6.5211 -1.3529 -0.9944 0.9734
6.5578 -1.1618 -0.9944 0.9734
6.5890 -0.9697 -0.9944 0.9734
6.6024 -0.8733 -0.9944 0.9734
6.6145 -0.7768 -0.9944 0.9734
6.6251 -0.6800 -0.9944 0.9734
6.6421 -0.4862 -0.9944 0.9734
6.6535 -0.2918 -0.9944 0.9734
6.6571 -0.1946 -0.9944 0.9734
6.6592 -0.0973 -0.9944 0.9734
6.6599 0.0000 -0.9944 0.9734
6.6571 0.1946 -0.9944 0.9734
6.6485 0.3890 -0.9944 0.9734
6.6024 0.8733 -0.9944 0.9734
6.5741 1.0659 -0.9944 0.9734
6.4556 1.6374 -0.9944 0.9734
6.4050 1.8254 -0.9944 0.9734
6.3776 1.9187 -0.9944 0.9734
6.3489 2.0117 -0.9944 0.9734
6.2875 2.1964 -0.9944 0.9734
6.2207 2.3792 -0.9944 0.9734
6.1852 2.4698 -0.9944 0.9734
6.1485 2.5600 -0.9944 0.9734
6.1105 2.6495 -0.9944 0.9734
6.0711 2.7386 -0.9944 0.9734
6.0305 2.8270 -0.9944 0.9734
5.9885 2.9148 -0.9944 0.9734
5.9453 3.0020 -0.9944 0.9734
5.9008 3.0886 -0.9944 0.9734
5.7599 3.3442 -0.9944 0.9734
5.7104 3.4280 -0.9945 0.9734
5.6597 3.5111 -0.9945 0.9734
5.6079 3.5935 -0.9945 0.9734
5.4450 3.8357 -0.9945 0.9734
5.2718 4.0707 -0.9945 0.9734
4.4934 3.7953 -0.8782 0.9765
4.3054 3.8577 -0.8631 0.9769
4.2366 4.0252 -0.8725 0.9766
4.7612 4.6579 -0.9945 0.9734
4.6926 4.7271 -0.9945 0.9734
4.6231 4.7952 -0.9945 0.9734
4.4086 4.9932 -0.9945 0.9734
3.2178 3.9836 -0.7646 0.9795
3.0904 3.9423 -0.7479 0.9799
3.0021 3.9471 -0.7404 0.9801
2.9298 3.9712 -0.7368 0.9802
2.8687 4.0097 -0.7361 0.9803
2.8174 4.0622 -0.7381 0.9802
3.4702 5.6861 -0.9946 0.9734
3.2177 5.8328 -0.9946 0.9734
3.1322 5.8792 -0.9946 0.9734
2.7834 6.0523 -0.9946 0.9734
2.6947 6.0923 -0.9947 0.9734
2.5156 6.1686 -0.9947 0.9734
1.2156 3.9360 -0.6151 0.9835
1.0000 3.8249 -0.5903 0.9841
0.9082 3.6934 -0.5679 0.9847
0.8426 3.6562 -0.5602 0.9849
0.7817 3.6338 -0.5550 0.9851
0.7272 3.6383 -0.5540 0.9851
0.6729 3.6427 -0.5531 0.9851
0.5647 3.6515 -0.5517 0.9852
0.4573 3.6624 -0.5511 0.9852
0.3506 3.6790 -0.5518 0.9852
0.2971 3.6873 -0.5523 0.9852
0.2435 3.6957 -0.5530 0.9851
0.1897 3.7042 -0.5538 0.9851
0.1358 3.7127 -0.5547 0.9851
0.0817 3.7213 -0.5558 0.9851
0.0273 3.7299 -0.5569 0.9850
-0.0272 3.7386 -0.5582 0.9850
-0.0821 3.7474 -0.5597 0.9850
-0.2488 3.7798 -0.5656 0.9848
-0.3054 3.7929 -0.5681 0.9847
-0.3625 3.8061 -0.5709 0.9847
-0.4202 3.8194 -0.5737 0.9846
-0.4815 3.8573 -0.5804 0.9844
-0.7040 4.1499 -0.6285 0.9831
-1.4013 6.5146 -0.9949 0.9734
-1.6133 6.1708 -0.9523 0.9745
-1.6864 6.0857 -0.9429 0.9748
-1.7724 6.0512 -0.9415 0.9748
-1.8642 5.2143 -0.8268 0.9779
-1.8896 5.0512 -0.8052 0.9784
-1.9583 4.6087 -0.7477 0.9800
-1.9791 4.4748 -0.7306 0.9804
-1.9990 4.3469 -0.7144 0.9808
-1.8434 3.8588 -0.6385 0.9829
-1.8535 3.7385 -0.6230 0.9833
-1.8828 3.6621 -0.6148 0.9835
-1.9202 3.6043 -0.6098 0.9836
-2.1209 3.4752 -0.6079 0.9837
-2.3403 3.3746 -0.6132 0.9835
-2.4116 3.3710 -0.6189 0.9834
-0.5187 0.7030 -0.1304 0.9965
-0.4379 0.5586 -0.1060 0.9971
-0.4390 0.5276 -0.1025 0.9972
-0.4396 0.5127 -0.1008 0.9973
-0.4427 0.4869 -0.0983 0.9973
-0.4455 0.4620 -0.0958 0.9974
-0.4467 0.4500 -0.0947 0.9974
-0.4479 0.4382 -0.0935 0.9975
-0.4500 0.4152 -0.0914 0.9975
-0.4517 0.3930 -0.0894 0.9976
-0.4525 0.3821 -0.0884 0.9976
-0.4539 0.3612 -0.0866 0.9977
-0.4547 0.3511 -0.0858 0.9977
-0.4556 0.3413 -0.0850 0.9977
-0.4564 0.3316 -0.0842 0.9977
-0.4572 0.3221 -0.0835 0.9977
-0.4586 0.3034 -0.0821 0.9978
-0.4592 0.2943 -0.0814 0.9978
-0.4602 0.2763 -0.0801 0.9978
-0.4611 0.2588 -0.0789 0.9979
-0.4614 0.2502 -0.0784 0.9979
-0.4622 0.2167 -0.0762 0.9979
-0.4624 0.2086 -0.0757 0.9980
-0.4624 0.2005 -0.0752 0.9980
-0.4628 0.1693 -0.0736 0.9980
-0.4629 0.1616 -0.0732 0.9980
-0.4629 0.1541 -0.0728 0.9980
-0.4629 0.1467 -0.0725 0.9980
-0.4630 0.1320 -0.0719 0.9981
-0.4631 0.1247 -0.0716 0.9981
-0.4630 0.1174 -0.0713 0.9981
-0.4623 0.0819 -0.0701 0.9981
-0.4617 0.0679 -0.0697 0.9981
-0.4614 0.0610 -0.0695 0.9981
-0.4610 0.0541 -0.0693 0.9981
-0.4606 0.0472 -0.0691 0.9981
-0.4591 0.0268 -0.0687 0.9981
-0.4586 0.0201 -0.0685 0.9981
-0.4580 0.0134 -0.0684 0.9981
-0.4435 0.0000 -0.0712 0.9982
-0.4453 -0.0196 -0.0716 0.9982
-0.4458 -0.0261 -0.0717 0.9982
-0.4467 -0.0393 -0.0720 0.9982
-0.4478 -0.0593 -0.0726 0.9982
-0.4481 -0.0659 -0.0728 0.9982
-0.4483 -0.0727 -0.0730 0.9982
-0.4486 -0.0795 -0.0732 0.9982
-0.4487 -0.0863 -0.0734 0.9982
-0.4490 -0.1139 -0.0744 0.9981
-0.4490 -0.1209 -0.0747 0.9981
-0.4489 -0.1280 -0.0750 0.9981
-0.4482 -0.1566 -0.0763 0.9981
-0.4477 -0.1788 -0.0774 0.9980
-0.4474 -0.1863 -0.0779 0.9980
-0.4466 -0.2174 -0.0798 0.9980
-0.4452 -0.2499 -0.0820 0.9979
-0.4447 -0.2582 -0.0826 0.9979
-0.4406 -0.3104 -0.0866 0.9978
-0.4397 -0.3195 -0.0873 0.9978
-0.4377 -0.3380 -0.0888 0.9978
-0.4366 -0.3474 -0.0896 0.9977
-0.4342 -0.3668 -0.0913 0.9977
-0.4299 -0.4085 -0.0953 0.9976
-0.4264 -0.4423 -0.0987 0.9975
-0.4260 -0.4549 -0.1001 0.9975
-0.4243 -0.4949 -0.1047 0.9974
-0.4228 -0.5234 -0.1081 0.9973
-0.4220 -0.5383 -0.1099 0.9972
-2.4566 -3.5420 -0.6925 0.9827
-2.4065 -3.5803 -0.6931 0.9827
-1.9274 -3.1582 -0.5944 0.9851
-2.7511 -5.5489 -0.9950 0.9752
-2.5878 -5.6268 -0.9950 0.9752
-2.5053 -5.6640 -0.9950 0.9752
-2.2546 -5.7682 -0.9950 0.9752
-2.1701 -5.8005 -0.9950 0.9752
-2.0851 -5.8316 -0.9950 0.9752
-1.9996 -5.8614 -0.9950 0.9752
-1.9138 -5.8900 -0.9950 0.9752
-1.8275 -5.9173 -0.9950 0.9752
-1.4787 -6.0138 -0.9949 0.9752
-1.3907 -6.0347 -0.9949 0.9752
-1.2137 -6.0727 -0.9949 0.9752
-1.1248 -6.0897 -0.9949 0.9752
-1.0357 -6.1054 -0.9949 0.9752
-0.5873 -6.1646 -0.9949 0.9752
-0.4069 -6.1791 -0.9949 0.9752
-0.2262 -6.1882 -0.9948 0.9752
-0.1357 -6.1908 -0.9948 0.9752
-0.0453 -6.1921 -0.9948 0.9752
0.1357 -6.1907 -0.9948 0.9752
0.3165 -6.1840 -0.9948 0.9752
0.4069 -6.1787 -0.9948 0.9752
0.5872 -6.1641 -0.9948 0.9752
0.6772 -6.1548 -0.9948 0.9752
0.8568 -6.1323 -0.9948 0.9752
1.1247 -6.0888 -0.9948 0.9752
1.2135 -6.0717 -0.9947 0.9752
1.3021 -6.0532 -0.9947 0.9752
1.3904 -6.0336 -0.9947 0.9752
1.6534 -5.9668 -0.9947 0.9752
1.7404 -5.9419 -0.9947 0.9752
2.0845 -5.8299 -0.9947 0.9752
2.1694 -5.7989 -0.9947 0.9752
2.3379 -5.7329 -0.9947 0.9752
2.5044 -5.6621 -0.9947 0.9752
2.7501 -5.5468 -0.9946 0.9752
3.1476 -5.3311 -0.9946 0.9752
3.2251 -5.2846 -0.9946 0.9752
3.3019 -5.2368 -0.9946 0.9752
3.3781 -5.1880 -0.9946 0.9752
2.3677 -3.4137 -0.6674 0.9833
2.3538 -3.2900 -0.6499 0.9837
2.2006 -2.9828 -0.5955 0.9851
2.3096 -2.9464 -0.6015 0.9849
2.5884 -3.0194 -0.6389 0.9840
4.0973 -4.6406 -0.9946 0.9752
3.7583 -4.0139 -0.8834 0.9780
3.8160 -3.9580 -0.8833 0.9780
3.8738 -3.9022 -0.8834 0.9780
3.0482 -2.9821 -0.6851 0.9829
3.1537 -2.9964 -0.6989 0.9825
3.0343 -2.7998 -0.6633 0.9834
3.2038 -2.7061 -0.6738 0.9832
3.4353 -2.5734 -0.6896 0.9828
4.2435 -2.9893 -0.8339 0.9792
4.3259 -2.9538 -0.8415 0.9790
4.6871 -2.8137 -0.8783 0.9781
5.2712 -3.0604 -0.9792 0.9756
5.3153 -2.9831 -0.9792 0.9756
5.3583 -2.9051 -0.9792 0.9756
5.4002 -2.8265 -0.9792 0.9756
5.5188 -2.5871 -0.9792 0.9756
5.6268 -2.3427 -0.9792 0.9756
5.6928 -2.1774 -0.9792 0.9756
5.8727 -1.9557 -0.9944 0.9752
5.9273 -1.7833 -0.9944 0.9752
5.9769 -1.6093 -0.9944 0.9752
5.9997 -1.5218 -0.9944 0.9752
6.0214 -1.4340 -0.9944 0.9752
6.0417 -1.3458 -0.9944 0.9752
6.1099 -0.9906 -0.9944 0.9752
6.1237 -0.9013 -0.9944 0.9752
6.1363 -0.8116 -0.9944 0.9752
6.1475 -0.7219 -0.9944 0.9752
6.1573 -0.6320 -0.9944 0.9752
6.1659 -0.5420 -0.9944 0.9752
6.1732 -0.4518 -0.9944 0.9752
6.1791 -0.3615 -0.9944 0.9752
6.1890 -0.0905 -0.9944 0.9752
6.1897 -0.0000 -0.9944 0.9752
6.1890 0.0904 -0.9944 0.9752
6.1871 0.1809 -0.9944 0.9752
6.1659 0.5420 -0.9944 0.9752
6.1475 0.7219 -0.9944 0.9752
6.0784 1.1687 -0.9944 0.9752
6.0417 1.3458 -0.9944 0.9752
6.0214 1.4339 -0.9944 0.9752
5.9998 1.5218 -0.9944 0.9752
5.9528 1.6964 -0.9944 0.9752
5.9007 1.8697 -0.9944 0.9752
5.8435 2.0413 -0.9944 0.9752
5.7814 2.2112 -0.9944 0.9752
5.7485 2.2954 -0.9944 0.9752
5.7144 2.3792 -0.9945 0.9752
5.6790 2.4625 -0.9945 0.9752
5.6047 2.6273 -0.9945 0.9752
5.5657 2.7090 -0.9945 0.9752
5.4842 2.8704 -0.9945 0.9752
5.3532 3.1080 -0.9945 0.9752
5.2601 3.2632 -0.9945 0.9752
5.2119 3.3397 -0.9945 0.9752
5.1121 3.4906 -0.9945 0.9752
5.0606 3.5649 -0.9945 0.9752
5.0080 3.6385 -0.9945 0.9752
4.9543 3.7113 -0.9945 0.9752
4.8995 3.7833 -0.9945 0.9752
4.8438 3.8545 -0.9945 0.9752
4.7869 3.9249 -0.9945 0.9752
4.3341 3.9991 -0.9474 0.9764
4.4878 4.2639 -0.9945 0.9752
4.4250 4.3291 -0.9945 0.9752
4.2311 4.5189 -0.9946 0.9752
4.1646 4.5802 -0.9946 0.9752
4.0973 4.6407 -0.9946 0.9752
4.0291 4.7000 -0.9946 0.9752
3.9600 4.7584 -0.9946 0.9752
3.8901 4.8158 -0.9946 0.9752
3.1118 3.9696 -0.8103 0.9798
3.0170 3.9667 -0.8007 0.9800
2.9425 3.9884 -0.7963 0.9801
2.8302 4.0806 -0.7978 0.9801
2.7927 4.1550 -0.8043 0.9799
3.2251 5.2846 -0.9946 0.9752
3.1476 5.3311 -0.9946 0.9752
3.0693 5.3766 -0.9946 0.9752
2.9905 5.4209 -0.9946 0.9752
2.9110 5.4640 -0.9946 0.9752
2.8308 5.5060 -0.9946 0.9752
2.7501 5.5468 -0.9947 0.9752
2.6688 5.5864 -0.9947 0.9752
2.5044 5.6621 -0.9947 0.9752
2.4214 5.6981 -0.9947 0.9752
2.1695 5.7989 -0.9947 0.9752
2.0845 5.8300 -0.9947 0.9752
1.9133 5.8885 -0.9947 0.9752
1.1311 3.8617 -0.6465 0.9838
0.8432 3.6589 -0.6032 0.9849
0.7823 3.6367 -0.5976 0.9850
0.7278 3.6411 -0.5965 0.9851
0.6193 3.6500 -0.5948 0.9851
0.5121 3.6648 -0.5945 0.9851
0.4587 3.6730 -0.5947 0.9851
0.4051 3.6813 -0.5950 0.9851
0.3516 3.6896 -0.5955 0.9851
0.2979 3.6980 -0.5960 0.9851
0.0819 3.7321 -0.5997 0.9850
0.0274 3.7408 -0.6010 0.9850
-0.1376 3.7673 -0.6056 0.9848
-0.3057 3.7961 -0.6118 0.9847
-0.3628 3.8092 -0.6147 0.9846
-0.4819 3.8608 -0.6251 0.9844
-0.5495 3.9337 -0.6381 0.9840
-0.6319 4.0865 -0.6643 0.9834
-1.1248 6.0897 -0.9949 0.9752
-1.2137 6.0727 -0.9949 0.9752
-1.3906 6.0347 -0.9949 0.9752
-1.4787 6.0138 -0.9949 0.9752
-1.6538 5.9681 -0.9949 0.9752
-1.8275 5.9173 -0.9950 0.9752
-1.9138 5.8900 -0.9950 0.9752
-1.9997 5.8614 -0.9950 0.9752
-2.0851 5.8316 -0.9950 0.9752
-1.9361 4.7480 -0.8238 0.9794
-1.9787 4.4739 -0.7859 0.9804
-1.9986 4.3461 -0.7685 0.9808
-1.8811 3.6587 -0.6609 0.9835
-1.9183 3.6007 -0.6555 0.9836
-1.9611 3.5549 -0.6523 0.9837
-2.0087 3.5186 -0.6509 0.9837
-2.1187 3.4717 -0.6534 0.9837
-2.2248 3.4171 -0.6551 0.9836
-2.2804 3.3930 -0.6568 0.9836
-2.3392 3.3730 -0.6595 0.9835
-0.4648 0.6497 -0.1283 0.9968
-0.4220 0.5383 -0.1099 0.9972
-0.4236 0.5089 -0.1064 0.9973
-0.4249 0.4812 -0.1031 0.9974
-0.4259 0.4549 -0.1001 0.9975
-0.4264 0.4423 -0.0987 0.9975
-0.4273 0.4304 -0.0974 0.9975
-0.4287 0.4193 -0.0963 0.9976
-0.4299 0.4084 -0.0953 0.9976
-0.4311 0.3977 -0.0942 0.9976
-0.4322 0.3872 -0.0932 0.9977
-0.4332 0.3768 -0.0922 0.9977
-0.4342 0.3668 -0.0913 0.9977
-0.4355 0.3570 -0.0905 0.9977
-0.4366 0.3475 -0.0896 0.9977
-0.4414 0.3014 -0.0859 0.9978
-0.4422 0.2925 -0.0852 0.9979
-0.4436 0.2752 -0.0839 0.9979
-0.4447 0.2582 -0.0826 0.9979
-0.4456 0.2416 -0.0814 0.9979
-0.4460 0.2334 -0.0809 0.9980
-0.4463 0.2254 -0.0803 0.9980
-0.4469 0.2095 -0.0793 0.9980
-0.4471 0.2016 -0.0788 0.9980
-0.4472 0.1939 -0.0783 0.9980
-0.4477 0.1787 -0.0774 0.9980
-0.4479 0.1713 -0.0770 0.9981
-0.4481 0.1639 -0.0766 0.9981
-0.4483 0.1566 -0.0763 0.9981
-0.4485 0.1493 -0.0759 0.9981
-0.4490 0.1209 -0.0747 0.9981
-0.4490 0.1139 -0.0744 0.9981
-0.4490 0.1000 -0.0739 0.9981
-0.4485 0.0795 -0.0732 0.9982
-0.4484 0.0727 -0.0730 0.9982
-0.4481 0.0659 -0.0728 0.9982
-0.4471 0.0459 -0.0722 0.9982
-0.4462 0.0326 -0.0719 0.9982
-0.4447 0.0130 -0.0715 0.9982
-0.4316 -0.0063 -0.0743 0.9982
-0.4321 -0.0127 -0.0744 0.9982
-0.4339 -0.0382 -0.0749 0.9982
-0.4352 -0.0641 -0.0757 0.9982
-0.4356 -0.0772 -0.0761 0.9982
-0.4357 -0.0838 -0.0763 0.9982
-0.4358 -0.0904 -0.0766 0.9982
-0.4359 -0.1038 -0.0771 0.9982
-0.4358 -0.1105 -0.0774 0.9982
-0.4358 -0.1173 -0.0776 0.9982
-0.4353 -0.1379 -0.0786 0.9981
-0.4350 -0.1449 -0.0789 0.9981
-0.4348 -0.1519 -0.0792 0.9981
-0.4344 -0.1589 -0.0796 0.9981
-0.4337 -0.1732 -0.0803 0.9981
-0.4330 -0.1878 -0.0812 0.9981
-0.4324 -0.2027 -0.0822 0.9981
-0.4321 -0.2103 -0.0827 0.9981
-0.4317 -0.2180 -0.0832 0.9980
-0.4313 -0.2258 -0.0838 0.9980
-0.4298 -0.2495 -0.0855 0.9980
-0.4284 -0.2658 -0.0867 0.9980
-0.4260 -0.2909 -0.0887 0.9979
-0.4251 -0.2995 -0.0895 0.9979
-0.4241 -0.3082 -0.0902 0.9979
-0.4230 -0.3169 -0.0909 0.9979
-0.4219 -0.3258 -0.0917 0.9978
-0.4207 -0.3348 -0.0925 0.9978
-0.4195 -0.3439 -0.0933 0.9978
-0.4181 -0.3532 -0.0942 0.9978
-0.4156 -0.3724 -0.0960 0.9977
-0.4139 -0.4049 -0.0996 0.9977
-0.4134 -0.4164 -0.1010 0.9976
-0.4129 -0.4282 -0.1023 0.9976
-0.4122 -0.4402 -0.1038 0.9976
-0.4108 -0.4653 -0.1068 0.9975
-0.4081 -0.5052 -0.1117 0.9974
-0.4671 -0.6950 -0.1441 0.9966
-1.7093 -2.8952 -0.5784 0.9864
-2.4930 -5.2184 -0.9950 0.9768
-2.4164 -5.2543 -0.9950 0.9768
-2.2619 -5.3225 -0.9950 0.9768
-2.0264 -5.4165 -0.9950 0.9768
-1.9470 -5.4455 -0.9950 0.9768
-1.7871 -5.5000 -0.9950 0.9768
-1.7065 -5.5255 -0.9949 0.9768
-1.4627 -5.5949 -0.9949 0.9768
-1.3808 -5.6157 -0.9949 0.9768
-1.2986 -5.6352 -0.9949 0.9768
-1.1333 -5.6707 -0.9949 0.9768
-0.9672 -5.7013 -0.9949 0.9768
-0.8002 -5.7271 -0.9949 0.9768
-0.6325 -5.7479 -0.9949 0.9768
-0.5484 -5.7565 -0.9949 0.9768
-0.4642 -5.7639 -0.9949 0.9768
-0.3800 -5.7700 -0.9949 0.9768
-0.2956 -5.7750 -0.9948 0.9768
-0.0423 -5.7823 -0.9948 0.9768
0.0423 -5.7822 -0.9948 0.9768
0.1267 -5.7810 -0.9948 0.9768
0.4642 -5.7636 -0.9948 0.9768
0.8000 -5.7264 -0.9948 0.9768
0.9670 -5.7005 -0.9948 0.9768
1.2983 -5.6342 -0.9947 0.9768
1.3805 -5.6146 -0.9947 0.9768
1.5440 -5.5718 -0.9947 0.9768
1.7061 -5.5243 -0.9947 0.9768
1.7866 -5.4987 -0.9947 0.9768
1.8668 -5.4720 -0.9947 0.9768
1.9465 -5.4441 -0.9947 0.9768
2.0258 -5.4151 -0.9947 0.9768
2.1832 -5.3535 -0.9947 0.9768
2.2612 -5.3210 -0.9947 0.9768
2.4156 -5.2526 -0.9947 0.9768
2.6435 -5.1416 -0.9947 0.9768
2.7925 -5.0621 -0.9946 0.9768
2.9392 -4.9783 -0.9946 0.9768
3.0117 -4.9348 -0.9946 0.9768
3.1545 -4.8446 -0.9946 0.9768
3.2250 -4.7980 -0.9946 0.9768
2.3725 -3.3161 -0.7015 0.9836
2.2121 -2.9983 -0.6410 0.9850
3.6326 -4.4971 -0.9946 0.9768
2.5318 -3.0423 -0.6809 0.9841
4.0123 -4.1616 -0.9946 0.9768
3.1825 -2.6094 -0.7081 0.9834
3.2946 -2.5440 -0.7161 0.9832
3.3511 -2.5104 -0.7204 0.9831
4.4039 -3.1023 -0.9268 0.9784
4.3486 -2.9693 -0.9059 0.9789
4.8368 -3.0005 -0.9793 0.9772
4.8801 -2.9296 -0.9793 0.9772
4.9224 -2.8579 -0.9793 0.9772
4.9636 -2.7857 -0.9793 0.9772
5.0037 -2.7129 -0.9793 0.9772
5.0428 -2.6394 -0.9793 0.9772
5.1883 -2.3404 -0.9792 0.9772
5.2545 -2.1877 -0.9792 0.9772
5.3661 -2.1427 -0.9941 0.9768
5.4569 -1.9063 -0.9945 0.9768
5.5351 -1.6653 -0.9945 0.9768
5.5588 -1.5842 -0.9945 0.9768
5.6028 -1.4211 -0.9945 0.9768
5.6229 -1.3391 -0.9945 0.9768
5.6596 -1.1742 -0.9945 0.9768
5.6762 -1.0914 -0.9945 0.9768
5.7186 -0.8416 -0.9944 0.9768
5.7303 -0.7579 -0.9944 0.9768
5.7407 -0.6741 -0.9944 0.9768
5.7647 -0.4219 -0.9944 0.9768
5.7746 -0.2533 -0.9944 0.9768
5.7777 -0.1689 -0.9944 0.9768
5.7795 -0.0845 -0.9944 0.9768
5.7801 -0.0000 -0.9944 0.9768
5.7746 0.2533 -0.9944 0.9768
5.7703 0.3376 -0.9944 0.9768
5.7647 0.4219 -0.9944 0.9768
5.7579 0.5061 -0.9944 0.9768
5.7499 0.5902 -0.9944 0.9768
5.7407 0.6741 -0.9944 0.9768
5.6419 1.2568 -0.9945 0.9768
5.6229 1.3391 -0.9945 0.9768
5.6028 1.4211 -0.9945 0.9768
5.5814 1.5028 -0.9945 0.9768
5.5589 1.5842 -0.9945 0.9768
5.5351 1.6652 -0.9945 0.9768
5.5102 1.7460 -0.9945 0.9768
5.4842 1.8263 -0.9945 0.9768
5.4569 1.9062 -0.9945 0.9768
5.3681 2.1436 -0.9945 0.9768
5.3363 2.2218 -0.9945 0.9768
5.3032 2.2995 -0.9945 0.9768
5.2338 2.4535 -0.9945 0.9768
5.1974 2.5297 -0.9945 0.9768
4.9989 2.9024 -0.9945 0.9768
4.8670 3.1187 -0.9945 0.9768
4.8209 3.1895 -0.9945 0.9768
4.7738 3.2596 -0.9945 0.9768
4.6766 3.3978 -0.9945 0.9768
4.4702 3.6652 -0.9945 0.9768
4.4162 3.7301 -0.9945 0.9768
4.0123 4.1616 -0.9946 0.9768
3.6326 4.4971 -0.9946 0.9768
2.9029 4.0575 -0.8583 0.9800
2.8241 4.2016 -0.8710 0.9797
3.1546 4.8446 -0.9946 0.9768
3.0834 4.8903 -0.9946 0.9768
2.7183 5.1024 -0.9947 0.9768
2.6435 5.1416 -0.9947 0.9768
2.5681 5.1797 -0.9947 0.9768
2.3387 5.2874 -0.9947 0.9768
2.2612 5.3210 -0.9947 0.9768
2.1048 5.3849 -0.9947 0.9768
2.0259 5.4150 -0.9947 0.9768
1.9465 5.4441 -0.9947 0.9768
1.8668 5.4720 -0.9947 0.9768
1.2169 3.9401 -0.7095 0.9834
1.0620 3.8323 -0.6842 0.9840
0.8439 3.6616 -0.6465 0.9849
0.5136 3.6755 -0.6385 0.9851
0.2449 3.7173 -0.6409 0.9850
0.1908 3.7259 -0.6419 0.9850
0.0821 3.7431 -0.6441 0.9849
0.0275 3.7518 -0.6455 0.9849
-0.0274 3.7606 -0.6470 0.9849
-0.1380 3.7785 -0.6505 0.9848
-0.1938 3.7875 -0.6525 0.9847
-0.2499 3.7967 -0.6546 0.9847
-0.3064 3.8060 -0.6569 0.9846
-0.5670 4.0582 -0.7050 0.9835
-0.7060 4.1619 -0.7263 0.9830
-1.1334 5.6707 -0.9949 0.9768
-1.2161 5.6536 -0.9949 0.9768
-1.3808 5.6157 -0.9949 0.9768
-1.4627 5.5949 -0.9949 0.9768
-1.6256 5.5498 -0.9949 0.9768
-1.7065 5.5255 -0.9950 0.9768
-1.7871 5.5000 -0.9950 0.9768
-2.0264 5.4165 -0.9950 0.9768
-1.9982 4.3452 -0.8228 0.9808
-1.8541 3.8811 -0.7400 0.9827
-1.8828 3.6620 -0.7084 0.9834
-1.9194 3.6028 -0.7023 0.9836
-2.0095 3.5200 -0.6973 0.9837
-2.0619 3.4923 -0.6977 0.9837
-2.1845 3.4644 -0.7046 0.9835
-2.2230 3.4143 -0.7009 0.9836
-0.4671 0.6950 -0.1441 0.9966
-0.4060 0.5337 -0.1154 0.9973
-0.4071 0.5193 -0.1135 0.9973
-0.4091 0.4915 -0.1100 0.9974
-0.4108 0.4653 -0.1068 0.9975
-0.4115 0.4526 -0.1052 0.9975
-0.4122 0.4403 -0.1038 0.9976
-0.4144 0.3937 -0.0983 0.9977
-0.4148 0.3827 -0.0971 0.9977
-0.4157 0.3724 -0.0960 0.9977
-0.4181 0.3532 -0.0942 0.9978
-0.4195 0.3439 -0.0933 0.9978
-0.4231 0.3169 -0.0909 0.9979
-0.4269 0.2824 -0.0881 0.9979
-0.4277 0.2740 -0.0874 0.9979
-0.4284 0.2658 -0.0867 0.9980
-0.4298 0.2495 -0.0855 0.9980
-0.4308 0.2336 -0.0843 0.9980
-0.4313 0.2257 -0.0838 0.9980
-0.4317 0.2180 -0.0832 0.9980
-0.4321 0.2103 -0.0827 0.9981
-0.4324 0.2027 -0.0822 0.9981
-0.4327 0.1952 -0.0817 0.9981
-0.4337 0.1732 -0.0803 0.9981
-0.4340 0.1660 -0.0799 0.9981
-0.4347 0.1518 -0.0792 0.9981
-0.4358 0.1173 -0.0776 0.9982
-0.4358 0.0971 -0.0768 0.9982
-0.4358 0.0904 -0.0766 0.9982
-0.4354 0.0706 -0.0759 0.9982
-0.4352 0.0640 -0.0757 0.9982
-0.4343 0.0446 -0.0751 0.9982
-0.4340 0.0381 -0.0749 0.9982
-0.4331 0.0253 -0.0746 0.9982
-0.4326 0.0189 -0.0745 0.9982
-0.4321 0.0126 -0.0744 0.9982
-0.4196 -0.0061 -0.0770 0.9983
-0.4202 -0.0123 -0.0771 0.9983
-0.4211 -0.0247 -0.0774 0.9983
-0.4219 -0.0371 -0.0777 0.9983
-0.4225 -0.0496 -0.0781 0.9983
-0.4231 -0.0686 -0.0786 0.9983
-0.4233 -0.0750 -0.0789 0.9983
-0.4234 -0.0943 -0.0796 0.9982
-0.4234 -0.1009 -0.0799 0.9982
-0.4233 -0.1074 -0.0801 0.9982
-0.4232 -0.1139 -0.0804 0.9982
-0.4229 -0.1272 -0.0810 0.9982
-0.4226 -0.1339 -0.0813 0.9982
-0.4223 -0.1407 -0.0817 0.9982
-0.4220 -0.1474 -0.0820 0.9982
-0.4216 -0.1542 -0.0824 0.9982
-0.4207 -0.1680 -0.0831 0.9982
-0.4202 -0.1750 -0.0835 0.9982
-0.4197 -0.1820 -0.0839 0.9981
-0.4180 -0.2111 -0.0859 0.9981
-0.4175 -0.2186 -0.0865 0.9981
-0.4170 -0.2261 -0.0870 0.9981
-0.4164 -0.2337 -0.0876 0.9981
-0.4157 -0.2414 -0.0882 0.9980
-0.4142 -0.2570 -0.0894 0.9980
-0.4125 -0.2729 -0.0908 0.9980
-0.4106 -0.2892 -0.0921 0.9980
-0.4092 -0.3065 -0.0938 0.9979
-0.4086 -0.3155 -0.0947 0.9979
-0.4080 -0.3246 -0.0957 0.9979
-0.4059 -0.3531 -0.0987 0.9978
-0.4042 -0.3729 -0.1009 0.9978
-0.4027 -0.3826 -0.1019 0.9977
-0.4014 -0.3927 -0.1030 0.9977
-0.4008 -0.4037 -0.1044 0.9977
-0.4001 -0.4150 -0.1058 0.9977
-0.3993 -0.4264 -0.1072 0.9976
-0.3985 -0.4382 -0.1087 0.9976
-0.3975 -0.4502 -0.1102 0.9976
-0.3965 -0.4626 -0.1118 0.9975
-0.3944 -0.4882 -0.1151 0.9975
-0.3931 -0.5015 -0.1169 0.9974
-0.3904 -0.5293 -0.1207 0.9973
-0.3971 -0.5907 -0.1306 0.9971
-0.4219 -0.6479 -0.1419 0.9969
-0.4679 -0.7421 -0.1610 0.9964
-1.6283 -2.7580 -0.5876 0.9871
-2.0886 -3.6586 -0.7730 0.9830
-2.5498 -4.7862 -0.9950 0.9782
-2.4796 -4.8229 -0.9950 0.9782
-2.1209 -4.9909 -0.9950 0.9782
-1.9741 -5.0507 -0.9950 0.9782
-1.7509 -5.1323 -0.9949 0.9782
-1.6757 -5.1573 -0.9949 0.9782
-1.6002 -5.1812 -0.9949 0.9782
-1.5243 -5.2040 -0.9949 0.9782
-1.0627 -5.3173 -0.9949 0.9782
-0.9849 -5.3323 -0.9949 0.9782
-0.9069 -5.3461 -0.9949 0.9782
-0.8287 -5.3587 -0.9949 0.9782
-0.7503 -5.3702 -0.9949 0.9782
-0.4353 -5.4048 -0.9949 0.9782
-0.3563 -5.4105 -0.9949 0.9782
-0.2772 -5.4151 -0.9948 0.9782
-0.1188 -5.4209 -0.9948 0.9782
-0.0396 -5.4220 -0.9948 0.9782
0.1188 -5.4207 -0.9948 0.9782
0.1980 -5.4184 -0.9948 0.9782
0.3563 -5.4103 -0.9948 0.9782
0.4353 -5.4044 -0.9948 0.9782
0.5930 -5.3893 -0.9948 0.9782
0.6717 -5.3801 -0.9948 0.9782
0.7502 -5.3696 -0.9948 0.9782
0.9848 -5.3316 -0.9948 0.9782
1.1401 -5.3004 -0.9948 0.9782
1.2175 -5.2832 -0.9947 0.9782
1.2945 -5.2648 -0.9947 0.9782
1.3713 -5.2453 -0.9947 0.9782
1.4478 -5.2247 -0.9947 0.9782
1.5239 -5.2030 -0.9947 0.9782
1.5998 -5.1801 -0.9947 0.9782
1.6753 -5.1561 -0.9947 0.9782
1.8253 -5.1049 -0.9947 0.9782
1.8996 -5.0777 -0.9947 0.9782
2.0472 -5.0200 -0.9947 0.9782
2.1930 -4.9580 -0.9947 0.9782
2.2652 -4.9254 -0.9947 0.9782
2.3369 -4.8917 -0.9947 0.9782
2.4081 -4.8570 -0.9947 0.9782
2.4788 -4.8213 -0.9947 0.9782
2.5490 -4.7846 -0.9947 0.9782
2.7561 -4.6682 -0.9946 0.9782
2.8240 -4.6274 -0.9946 0.9782
3.0241 -4.4991 -0.9946 0.9782
2.2309 -3.2166 -0.7182 0.9842
2.2871 -3.1968 -0.7212 0.9841
2.3232 -3.0545 -0.7041 0.9845
2.3260 -2.9672 -0.6917 0.9848
3.4063 -4.2169 -0.9946 0.9782
2.5385 -3.0504 -0.7281 0.9840
3.5909 -3.9493 -0.9794 0.9785
3.6482 -3.8964 -0.9793 0.9785
3.7605 -3.7881 -0.9793 0.9785
3.3373 -3.2650 -0.8566 0.9812
3.3499 -3.0909 -0.8363 0.9816
3.5952 -3.1279 -0.8743 0.9808
3.7268 -3.1478 -0.8950 0.9804
3.8033 -3.1183 -0.9024 0.9802
3.9407 -3.1359 -0.9240 0.9797
3.2160 -2.4833 -0.7455 0.9836
3.2707 -2.4502 -0.7498 0.9835
4.4939 -2.8797 -0.9793 0.9785
4.6158 -2.6799 -0.9793 0.9785
4.6544 -2.6122 -0.9793 0.9785
4.6921 -2.5439 -0.9793 0.9785
4.7287 -2.4750 -0.9793 0.9785
4.7644 -2.4057 -0.9793 0.9785
4.7990 -2.3358 -0.9793 0.9785
4.8652 -2.1946 -0.9793 0.9785
5.1426 -1.7126 -0.9945 0.9782
5.2127 -1.4855 -0.9945 0.9782
5.2338 -1.4093 -0.9945 0.9782
5.2727 -1.2557 -0.9945 0.9782
5.2905 -1.1785 -0.9945 0.9782
5.3071 -1.1011 -0.9945 0.9782
5.3227 -1.0234 -0.9945 0.9782
5.3733 -0.7107 -0.9945 0.9782
5.3832 -0.6321 -0.9945 0.9782
5.3918 -0.5534 -0.9945 0.9782
5.3993 -0.4746 -0.9945 0.9782
5.4057 -0.3957 -0.9945 0.9782
5.4109 -0.3166 -0.9945 0.9782
5.4149 -0.2375 -0.9945 0.9782
5.4178 -0.1584 -0.9945 0.9782
5.4196 -0.0792 -0.9945 0.9782
5.4201 -0.0000 -0.9945 0.9782
5.4195 0.0792 -0.9945 0.9782
5.4149 0.2375 -0.9945 0.9782
5.4109 0.3166 -0.9945 0.9782
5.3993 0.4746 -0.9945 0.9782
5.3832 0.6321 -0.9945 0.9782
5.3733 0.7107 -0.9945 0.9782
5.3503 0.8674 -0.9945 0.9782
5.3370 0.9455 -0.9945 0.9782
5.3227 1.0234 -0.9945 0.9782
5.3072 1.1011 -0.9945 0.9782
5.2905 1.1785 -0.9945 0.9782
5.2338 1.4092 -0.9945 0.9782
5.2126 1.4855 -0.9945 0.9782
5.1426 1.7125 -0.9945 0.9782
5.1170 1.7875 -0.9945 0.9782
5.0626 1.9363 -0.9945 0.9782
4.9729 2.1563 -0.9945 0.9782
4.9409 2.2287 -0.9945 0.9782
4.6876 2.7216 -0.9945 0.9782
4.6473 2.7898 -0.9945 0.9782
4.6061 2.8575 -0.9945 0.9782
4.2903 3.3129 -0.9945 0.9782
4.2415 3.3752 -0.9946 0.9782
4.1918 3.4369 -0.9946 0.9782
4.0896 3.5579 -0.9946 0.9782
3.9839 3.6759 -0.9946 0.9782
3.9297 3.7337 -0.9946 0.9782
3.8190 3.8470 -0.9946 0.9782
3.5878 4.0636 -0.9946 0.9782
3.3444 4.2663 -0.9946 0.9782
3.1279 4.1125 -0.9480 0.9792
2.9460 4.1177 -0.9290 0.9796
2.9580 4.5429 -0.9946 0.9782
2.8914 4.5856 -0.9946 0.9782
2.8241 4.6274 -0.9946 0.9782
2.7562 4.6682 -0.9947 0.9782
2.6877 4.7080 -0.9947 0.9782
2.6186 4.7468 -0.9947 0.9782
2.5490 4.7846 -0.9947 0.9782
2.4081 4.8571 -0.9947 0.9782
2.3369 4.8918 -0.9947 0.9782
2.0472 5.0200 -0.9947 0.9782
1.9736 5.0494 -0.9947 0.9782
1.7505 5.1311 -0.9947 0.9782
1.6753 5.1561 -0.9947 0.9782
1.2296 3.9812 -0.7645 0.9832
1.1357 3.8771 -0.7413 0.9837
1.0643 3.8407 -0.7312 0.9839
1.0001 3.8254 -0.7255 0.9840
0.8832 3.8327 -0.7216 0.9841
0.8286 3.8521 -0.7229 0.9841
0.7761 3.8831 -0.7266 0.9840
0.7258 3.9293 -0.7331 0.9839
0.6788 4.0015 -0.7447 0.9836
0.6717 5.3801 -0.9948 0.9782
0.5142 5.3975 -0.9948 0.9782
0.3563 5.4103 -0.9948 0.9782
0.2772 5.4149 -0.9948 0.9782
0.1980 5.4184 -0.9948 0.9782
0.0396 5.4219 -0.9948 0.9782
-0.0396 5.4220 -0.9948 0.9782
-0.2132 4.1655 -0.7653 0.9832
-0.3281 4.0740 -0.7499 0.9835
-0.3863 4.0546 -0.7473 0.9836
-0.4454 4.0474 -0.7471 0.9836
-0.5687 4.0708 -0.7542 0.9834
-0.6356 4.1098 -0.7630 0.9832
-0.7124 4.1995 -0.7815 0.9828
-0.9849 5.3323 -0.9949 0.9782
-1.0627 5.3174 -0.9949 0.9782
-1.5243 5.2040 -0.9949 0.9782
-1.6757 5.1573 -0.9949 0.9782
-1.7509 5.1323 -0.9950 0.9782
-2.0478 5.0214 -0.9950 0.9782
-2.1936 4.9595 -0.9950 0.9782
