ply
format ascii 1.0
element vertex 1595
property float32 x
property float32 y
property float32 z
property float32 I
end_header
-0.1937 2.9416 -0.9950 0.9876
-0.2367 2.9385 -0.9950 0.9876
-0.3652 2.9252 -0.9950 0.9876
-0.4930 2.9064 -0.9950 0.9876
-0.5778 2.8908 -0.9950 0.9876
-0.7872 2.8409 -0.9950 0.9876
-0.1830 0.5927 -0.2094 0.9974
-0.1893 0.5547 -0.1978 0.9975
-0.1944 0.5435 -0.1948 0.9976
-0.2176 0.4920 -0.1816 0.9977
-0.2305 0.4649 -0.1751 0.9978
-0.2385 0.4476 -0.1712 0.9979
-0.2529 0.4144 -0.1639 0.9980
-0.2595 0.3985 -0.1605 0.9980
-0.2716 0.3681 -0.1544 0.9981
-0.2744 0.3608 -0.1530 0.9981
-0.2798 0.3464 -0.1503 0.9981
-0.2824 0.3393 -0.1490 0.9981
-0.2849 0.3323 -0.1477 0.9982
-0.2895 0.3184 -0.1453 0.9982
-0.2914 0.3113 -0.1439 0.9982
-0.2933 0.3042 -0.1426 0.9982
-0.2950 0.2972 -0.1413 0.9982
-0.2983 0.2834 -0.1389 0.9983
-0.3014 0.2701 -0.1366 0.9983
-0.3042 0.2570 -0.1344 0.9983
-0.3069 0.2442 -0.1324 0.9983
-0.3103 0.2255 -0.1295 0.9984
-0.3124 0.2133 -0.1277 0.9984
-0.3163 0.1898 -0.1245 0.9984
-0.3174 0.1843 -0.1239 0.9985
-0.3233 0.1516 -0.1205 0.9985
-0.3260 0.1302 -0.1185 0.9985
-0.3275 0.1144 -0.1171 0.9985
-0.3288 0.0989 -0.1159 0.9986
-0.3292 0.0938 -0.1155 0.9986
-0.3295 0.0887 -0.1152 0.9986
-0.3300 0.0786 -0.1145 0.9986
-0.3302 0.0736 -0.1142 0.9986
-0.3306 0.0635 -0.1136 0.9986
-0.3307 0.0586 -0.1133 0.9986
-0.3308 0.0536 -0.1131 0.9986
-0.3308 0.0487 -0.1129 0.9986
-0.3308 0.0437 -0.1126 0.9986
-0.3308 0.0388 -0.1124 0.9986
-0.3308 0.0339 -0.1122 0.9986
-0.3307 0.0291 -0.1120 0.9986
-0.3306 0.0242 -0.1119 0.9986
-0.3305 0.0193 -0.1117 0.9986
-0.3299 0.0048 -0.1114 0.9986
-0.3249 -0.0095 -0.1137 0.9986
-0.3251 -0.0143 -0.1139 0.9986
-0.3255 -0.0334 -0.1145 0.9986
-0.3255 -0.0382 -0.1147 0.9986
-0.3255 -0.0479 -0.1151 0.9986
-0.3254 -0.0528 -0.1154 0.9986
-0.3252 -0.0625 -0.1159 0.9986
-0.3251 -0.0674 -0.1162 0.9986
-0.3249 -0.0724 -0.1165 0.9986
-0.3238 -0.0923 -0.1178 0.9986
-0.3234 -0.0973 -0.1182 0.9986
-0.3226 -0.1074 -0.1190 0.9986
-0.3221 -0.1125 -0.1194 0.9986
-0.3216 -0.1177 -0.1198 0.9985
-0.3211 -0.1228 -0.1203 0.9985
-0.3205 -0.1280 -0.1208 0.9985
-0.3199 -0.1332 -0.1212 0.9985
-0.3186 -0.1437 -0.1223 0.9985
-0.3169 -0.1543 -0.1233 0.9985
-0.3150 -0.1649 -0.1244 0.9985
-0.3140 -0.1702 -0.1250 0.9985
-0.3129 -0.1756 -0.1256 0.9985
-0.3118 -0.1810 -0.1262 0.9985
-0.3107 -0.1865 -0.1268 0.9985
-0.3095 -0.1920 -0.1274 0.9985
-0.3084 -0.1977 -0.1282 0.9984
-0.3065 -0.2093 -0.1299 0.9984
-0.3055 -0.2152 -0.1307 0.9984
-0.3044 -0.2212 -0.1317 0.9984
-0.3033 -0.2271 -0.1326 0.9984
-0.2982 -0.2519 -0.1366 0.9983
-0.2954 -0.2646 -0.1388 0.9983
-0.2938 -0.2711 -0.1399 0.9983
-0.2923 -0.2777 -0.1410 0.9983
-0.2906 -0.2843 -0.1422 0.9983
-0.2889 -0.2910 -0.1435 0.9983
-0.2853 -0.3046 -0.1460 0.9982
-0.2834 -0.3116 -0.1474 0.9982
-0.2789 -0.3253 -0.1499 0.9982
-0.2738 -0.3389 -0.1525 0.9982
-0.2712 -0.3459 -0.1538 0.9981
-0.2684 -0.3529 -0.1551 0.9981
-0.2627 -0.3671 -0.1580 0.9981
-0.2502 -0.3969 -0.1642 0.9980
-0.2469 -0.4046 -0.1658 0.9980
-0.2400 -0.4203 -0.1694 0.9980
-0.2363 -0.4284 -0.1712 0.9979
-0.2326 -0.4365 -0.1731 0.9979
-0.2287 -0.4448 -0.1750 0.9979
-0.2247 -0.4531 -0.1770 0.9979
-0.2027 -0.4970 -0.1878 0.9977
-0.1979 -0.5061 -0.1902 0.9977
-0.1880 -0.5259 -0.1954 0.9976
-0.1830 -0.5364 -0.1983 0.9976
-0.1778 -0.5472 -0.2013 0.9976
-0.1668 -0.5694 -0.2076 0.9975
-0.1667 -0.6015 -0.2184 0.9974
-0.7082 -2.7090 -0.9798 0.9882
-0.6288 -2.7285 -0.9798 0.9882
-0.4582 -2.1301 -0.7624 0.9908
-0.3768 -2.2211 -0.7883 0.9905
-0.3484 -2.2529 -0.7977 0.9904
-0.3194 -2.2856 -0.8075 0.9903
-0.2590 -2.3539 -0.8286 0.9900
-0.1954 -2.4261 -0.8517 0.9897
-0.0755 -2.0645 -0.7229 0.9913
-0.0538 -2.4551 -0.8593 0.9896
0.0373 -1.7009 -0.5953 0.9928
0.1154 -1.7533 -0.6148 0.9926
0.1421 -1.7637 -0.6192 0.9925
0.1690 -1.7742 -0.6236 0.9925
0.2241 -1.7949 -0.6329 0.9924
0.2807 -1.8152 -0.6427 0.9922
0.3390 -1.8351 -0.6530 0.9921
0.3687 -1.8449 -0.6583 0.9921
0.3989 -1.8547 -0.6638 0.9920
0.4923 -1.8832 -0.6811 0.9918
0.5244 -1.8925 -0.6872 0.9917
0.5570 -1.9017 -0.6934 0.9916
0.5901 -1.9107 -0.6998 0.9916
0.8653 -2.6631 -0.9798 0.9882
0.9427 -2.6367 -0.9798 0.9882
1.0194 -2.6080 -0.9798 0.9882
1.0574 -2.5929 -0.9798 0.9882
1.0952 -2.5771 -0.9798 0.9882
1.1327 -2.5609 -0.9798 0.9882
1.2070 -2.5267 -0.9798 0.9882
1.2803 -2.4903 -0.9798 0.9882
1.3166 -2.4714 -0.9798 0.9882
1.3526 -2.4518 -0.9798 0.9882
1.4237 -2.4113 -0.9798 0.9882
1.4587 -2.3902 -0.9798 0.9882
1.4935 -2.3687 -0.9798 0.9882
1.5621 -2.3241 -0.9798 0.9882
1.7275 -2.2038 -0.9798 0.9882
1.9437 -2.0759 -0.9951 0.9880
1.9738 -2.0473 -0.9951 0.9880
2.0035 -2.0182 -0.9951 0.9880
2.0328 -1.9887 -0.9951 0.9880
2.0616 -1.9588 -0.9951 0.9880
2.1726 -1.8350 -0.9951 0.9880
2.1991 -1.8031 -0.9951 0.9880
2.2253 -1.7707 -0.9951 0.9880
2.2509 -1.7381 -0.9951 0.9880
2.2761 -1.7050 -0.9951 0.9880
2.3007 -1.6716 -0.9951 0.9880
2.3249 -1.6378 -0.9951 0.9880
2.3718 -1.5691 -0.9951 0.9880
2.4166 -1.4992 -0.9951 0.9880
2.4382 -1.4637 -0.9951 0.9880
2.4800 -1.3918 -0.9951 0.9880
2.5001 -1.3555 -0.9951 0.9880
2.5196 -1.3188 -0.9951 0.9880
2.5386 -1.2818 -0.9951 0.9880
2.5924 -1.1694 -0.9951 0.9880
2.6411 -1.0546 -0.9951 0.9880
2.6562 -1.0159 -0.9951 0.9880
2.6708 -0.9770 -0.9951 0.9880
2.7110 -0.8591 -0.9951 0.9880
2.7350 -0.7795 -0.9951 0.9880
2.7461 -0.7394 -0.9951 0.9880
2.7566 -0.6992 -0.9951 0.9880
2.7665 -0.6588 -0.9951 0.9880
2.7759 -0.6184 -0.9951 0.9880
2.7927 -0.5370 -0.9951 0.9880
2.8072 -0.4552 -0.9951 0.9880
2.8136 -0.4141 -0.9951 0.9880
2.8194 -0.3729 -0.9951 0.9880
2.8245 -0.3317 -0.9951 0.9880
2.8290 -0.2904 -0.9951 0.9880
2.8412 -0.1246 -0.9951 0.9880
2.8436 -0.0416 -0.9951 0.9880
2.8427 0.0830 -0.9951 0.9880
2.8412 0.1246 -0.9951 0.9880
2.8363 0.2076 -0.9951 0.9880
2.8330 0.2490 -0.9951 0.9880
2.8193 0.3729 -0.9951 0.9880
2.8073 0.4552 -0.9951 0.9880
2.8003 0.4961 -0.9951 0.9880
2.7928 0.5370 -0.9951 0.9880
2.7846 0.5777 -0.9951 0.9880
2.7758 0.6184 -0.9951 0.9880
2.7665 0.6588 -0.9951 0.9880
2.7566 0.6992 -0.9951 0.9880
2.7461 0.7394 -0.9951 0.9880
2.7350 0.7795 -0.9951 0.9880
2.6848 0.9379 -0.9951 0.9880
2.6562 1.0159 -0.9951 0.9880
2.6092 1.1314 -0.9951 0.9880
2.5571 1.2446 -0.9951 0.9880
2.5386 1.2818 -0.9951 0.9880
2.5196 1.3188 -0.9951 0.9880
2.4800 1.3918 -0.9951 0.9880
2.4383 1.4638 -0.9951 0.9880
2.4166 1.4992 -0.9951 0.9880
2.3944 1.5343 -0.9951 0.9880
2.3718 1.5691 -0.9951 0.9880
2.3486 1.6036 -0.9951 0.9880
2.3249 1.6378 -0.9951 0.9880
2.3007 1.6716 -0.9951 0.9880
2.2761 1.7050 -0.9951 0.9880
2.2509 1.7381 -0.9951 0.9880
2.2253 1.7708 -0.9951 0.9880
2.1726 1.8351 -0.9951 0.9880
2.1180 1.8977 -0.9951 0.9880
2.0901 1.9285 -0.9951 0.9880
2.0617 1.9588 -0.9951 0.9880
2.0035 2.0182 -0.9951 0.9880
1.9738 2.0473 -0.9951 0.9880
1.9131 2.1041 -0.9951 0.9880
1.8822 2.1318 -0.9951 0.9880
1.8191 2.1859 -0.9951 0.9880
1.7216 2.2635 -0.9951 0.9880
1.6547 2.3129 -0.9951 0.9880
1.5864 2.3602 -0.9951 0.9880
1.4814 2.4274 -0.9951 0.9880
1.3736 2.4900 -0.9951 0.9880
1.3371 2.5098 -0.9951 0.9880
1.2258 2.5660 -0.9951 0.9880
1.1882 2.5837 -0.9951 0.9880
1.1503 2.6007 -0.9951 0.9880
0.9574 2.6777 -0.9951 0.9880
0.9182 2.6914 -0.9951 0.9880
0.8787 2.7045 -0.9951 0.9880
0.7993 2.7290 -0.9951 0.9880
0.7594 2.7405 -0.9951 0.9880
0.5573 2.7885 -0.9951 0.9880
0.5165 2.7964 -0.9951 0.9880
0.4346 2.8103 -0.9950 0.9880
0.3935 2.8163 -0.9950 0.9880
0.3523 2.8218 -0.9950 0.9880
0.1869 2.8375 -0.9950 0.9880
0.1454 2.8400 -0.9950 0.9880
0.1039 2.8418 -0.9950 0.9880
0.0623 2.8430 -0.9950 0.9880
0.0208 2.8436 -0.9950 0.9880
-0.1039 2.8417 -0.9950 0.9880
-0.1454 2.8399 -0.9950 0.9880
-0.2697 2.8308 -0.9950 0.9880
-0.4346 2.8102 -0.9950 0.9880
-0.5573 2.7884 -0.9950 0.9880
-0.5980 2.7800 -0.9950 0.9880
-0.1668 0.5694 -0.2076 0.9975
-0.1724 0.5582 -0.2044 0.9975
-0.1778 0.5472 -0.2013 0.9976
-0.1830 0.5364 -0.1983 0.9976
-0.1929 0.5155 -0.1926 0.9977
-0.2287 0.4448 -0.1750 0.9979
-0.2325 0.4365 -0.1731 0.9979
-0.2400 0.4203 -0.1694 0.9980
-0.2435 0.4124 -0.1676 0.9980
-0.2503 0.3969 -0.1642 0.9980
-0.2535 0.3892 -0.1625 0.9980
-0.2597 0.3744 -0.1594 0.9981
-0.2627 0.3671 -0.1580 0.9981
-0.2656 0.3600 -0.1565 0.9981
-0.2684 0.3529 -0.1551 0.9981
-0.2764 0.3321 -0.1512 0.9982
-0.2813 0.3186 -0.1487 0.9982
-0.2853 0.3046 -0.1460 0.9982
-0.2906 0.2843 -0.1422 0.9983
-0.2938 0.2711 -0.1399 0.9983
-0.2968 0.2582 -0.1377 0.9983
-0.2982 0.2518 -0.1366 0.9983
-0.3009 0.2394 -0.1345 0.9984
-0.3033 0.2271 -0.1326 0.9984
-0.3055 0.2152 -0.1307 0.9984
-0.3095 0.1920 -0.1274 0.9985
-0.3107 0.1865 -0.1268 0.9985
-0.3118 0.1811 -0.1262 0.9985
-0.3129 0.1756 -0.1256 0.9985
-0.3140 0.1702 -0.1250 0.9985
-0.3160 0.1595 -0.1238 0.9985
-0.3186 0.1437 -0.1223 0.9985
-0.3192 0.1384 -0.1217 0.9985
-0.3211 0.1228 -0.1203 0.9985
-0.3216 0.1177 -0.1198 0.9985
-0.3221 0.1125 -0.1194 0.9986
-0.3226 0.1074 -0.1190 0.9986
-0.3230 0.1023 -0.1186 0.9986
-0.3234 0.0973 -0.1182 0.9986
-0.3241 0.0873 -0.1174 0.9986
-0.3246 0.0773 -0.1168 0.9986
-0.3249 0.0724 -0.1165 0.9986
-0.3254 0.0577 -0.1156 0.9986
-0.3255 0.0528 -0.1154 0.9986
-0.3255 0.0479 -0.1151 0.9986
-0.3255 0.0430 -0.1149 0.9986
-0.3255 0.0382 -0.1147 0.9986
-0.3255 0.0334 -0.1145 0.9986
-0.3254 0.0238 -0.1141 0.9986
-0.3253 0.0191 -0.1140 0.9986
-0.3251 0.0143 -0.1139 0.9986
-0.3249 0.0095 -0.1137 0.9986
-0.3247 0.0047 -0.1136 0.9986
-0.3198 -0.0094 -0.1159 0.9986
-0.3201 -0.0187 -0.1162 0.9986
-0.3202 -0.0234 -0.1164 0.9986
-0.3204 -0.0329 -0.1167 0.9986
-0.3204 -0.0376 -0.1169 0.9986
-0.3203 -0.0471 -0.1173 0.9986
-0.3203 -0.0519 -0.1176 0.9986
-0.3202 -0.0567 -0.1178 0.9986
-0.3200 -0.0615 -0.1181 0.9986
-0.3198 -0.0663 -0.1184 0.9986
-0.3194 -0.0761 -0.1190 0.9986
-0.3191 -0.0809 -0.1193 0.9986
-0.3168 -0.1107 -0.1216 0.9986
-0.3152 -0.1258 -0.1230 0.9986
-0.3146 -0.1309 -0.1235 0.9986
-0.3139 -0.1361 -0.1240 0.9985
-0.3132 -0.1412 -0.1245 0.9985
-0.3124 -0.1464 -0.1250 0.9985
-0.3115 -0.1516 -0.1255 0.9985
-0.3106 -0.1568 -0.1261 0.9985
-0.3096 -0.1620 -0.1266 0.9985
-0.3040 -0.1886 -0.1297 0.9985
-0.3028 -0.1940 -0.1303 0.9985
-0.3018 -0.1996 -0.1311 0.9985
-0.3008 -0.2054 -0.1320 0.9985
-0.2997 -0.2112 -0.1329 0.9984
-0.2987 -0.2169 -0.1338 0.9984
-0.2975 -0.2229 -0.1347 0.9984
-0.2963 -0.2288 -0.1357 0.9984
-0.2937 -0.2409 -0.1376 0.9984
-0.2924 -0.2469 -0.1387 0.9984
-0.2829 -0.2850 -0.1455 0.9983
-0.2812 -0.2916 -0.1468 0.9983
-0.2774 -0.3050 -0.1494 0.9982
-0.2754 -0.3118 -0.1508 0.9982
-0.2731 -0.3185 -0.1520 0.9982
-0.2598 -0.3521 -0.1586 0.9981
-0.2477 -0.3804 -0.1645 0.9981
-0.2412 -0.3951 -0.1678 0.9980
-0.2378 -0.4027 -0.1695 0.9980
-0.2230 -0.4338 -0.1768 0.9979
-0.2191 -0.4419 -0.1787 0.9979
-0.2150 -0.4500 -0.1808 0.9979
-0.2020 -0.4752 -0.1871 0.9978
-0.1974 -0.4839 -0.1894 0.9978
-0.1926 -0.4927 -0.1917 0.9978
-0.1826 -0.5106 -0.1965 0.9977
-0.1774 -0.5198 -0.1991 0.9977
-0.1720 -0.5293 -0.2017 0.9976
-0.1667 -0.5396 -0.2047 0.9976
-0.1555 -0.5610 -0.2110 0.9975
-0.6071 -2.6345 -0.9798 0.9886
-0.5685 -2.6431 -0.9798 0.9886
-0.4067 -2.2020 -0.8115 0.9905
-0.3789 -2.2334 -0.8210 0.9904
-0.3212 -2.2987 -0.8411 0.9902
-0.2912 -2.3327 -0.8519 0.9900
-0.2605 -2.3676 -0.8632 0.9899
-0.2290 -2.4036 -0.8750 0.9898
-0.1966 -2.4407 -0.8874 0.9896
-0.1545 -2.3461 -0.8521 0.9900
-0.0888 -2.4281 -0.8805 0.9897
-0.0542 -2.4714 -0.8958 0.9895
0.0121 -1.6491 -0.5976 0.9930
0.0620 -1.6952 -0.6148 0.9928
0.0873 -1.7054 -0.6189 0.9928
0.1130 -1.7156 -0.6231 0.9927
0.1654 -1.7355 -0.6318 0.9926
0.1921 -1.7454 -0.6364 0.9926
0.2191 -1.7552 -0.6410 0.9925
0.2466 -1.7649 -0.6458 0.9924
0.2744 -1.7745 -0.6507 0.9924
0.3026 -1.7839 -0.6557 0.9923
0.3602 -1.8026 -0.6662 0.9922
0.4499 -1.8297 -0.6828 0.9920
0.4806 -1.8385 -0.6887 0.9919
0.5118 -1.8472 -0.6947 0.9919
0.5436 -1.8557 -0.7008 0.9918
0.5757 -1.8642 -0.7071 0.9917
0.9473 -2.5323 -0.9798 0.9886
0.9843 -2.5181 -0.9798 0.9886
1.0574 -2.4883 -0.9798 0.9886
1.0936 -2.4726 -0.9798 0.9886
1.2010 -2.4223 -0.9798 0.9886
1.2362 -2.4045 -0.9798 0.9886
1.2713 -2.3862 -0.9798 0.9886
1.3060 -2.3674 -0.9798 0.9886
1.3404 -2.3480 -0.9798 0.9886
1.4420 -2.2871 -0.9798 0.9886
1.4753 -2.2657 -0.9798 0.9886
1.5409 -2.2217 -0.9798 0.9886
1.6051 -2.1757 -0.9798 0.9886
1.6846 -2.1490 -0.9896 0.9884
1.8173 -2.0584 -0.9951 0.9884
1.8767 -2.0044 -0.9951 0.9884
1.9058 -1.9767 -0.9951 0.9884
1.9628 -1.9202 -0.9951 0.9884
1.9906 -1.8913 -0.9951 0.9884
2.0180 -1.8620 -0.9951 0.9884
2.0450 -1.8323 -0.9951 0.9884
2.1233 -1.7410 -0.9951 0.9884
2.1733 -1.6782 -0.9951 0.9884
2.2677 -1.5484 -0.9951 0.9884
2.2900 -1.5151 -0.9951 0.9884
2.3120 -1.4814 -0.9951 0.9884
2.3945 -1.3439 -0.9951 0.9884
2.4511 -1.2377 -0.9951 0.9884
2.4689 -1.2017 -0.9951 0.9884
2.4862 -1.1655 -0.9951 0.9884
2.5030 -1.1291 -0.9951 0.9884
2.5350 -1.0554 -0.9951 0.9884
2.5647 -0.9809 -0.9951 0.9884
2.5788 -0.9434 -0.9951 0.9884
2.6052 -0.8676 -0.9951 0.9884
2.6176 -0.8295 -0.9951 0.9884
2.6295 -0.7911 -0.9951 0.9884
2.6407 -0.7526 -0.9951 0.9884
2.6616 -0.6751 -0.9951 0.9884
2.6712 -0.6361 -0.9951 0.9884
2.6886 -0.5578 -0.9951 0.9884
2.7038 -0.4790 -0.9951 0.9884
2.7105 -0.4395 -0.9951 0.9884
2.7166 -0.3998 -0.9951 0.9884
2.7315 -0.2804 -0.9951 0.9884
2.7354 -0.2404 -0.9951 0.9884
2.7386 -0.2004 -0.9951 0.9884
2.7412 -0.1604 -0.9951 0.9884
2.7433 -0.1203 -0.9951 0.9884
2.7459 0.0000 -0.9951 0.9884
2.7433 0.1203 -0.9951 0.9884
2.7412 0.1604 -0.9951 0.9884
2.7354 0.2404 -0.9951 0.9884
2.7272 0.3202 -0.9951 0.9884
2.7222 0.3600 -0.9951 0.9884
2.7167 0.3998 -0.9951 0.9884
2.7105 0.4394 -0.9951 0.9884
2.6802 0.5970 -0.9951 0.9884
2.6616 0.6752 -0.9951 0.9884
2.6515 0.7139 -0.9951 0.9884
2.6295 0.7911 -0.9951 0.9884
2.6052 0.8676 -0.9951 0.9884
2.5922 0.9055 -0.9951 0.9884
2.5647 0.9809 -0.9951 0.9884
2.5192 1.0923 -0.9951 0.9884
2.5030 1.1291 -0.9951 0.9884
2.4862 1.1655 -0.9951 0.9884
2.4689 1.2017 -0.9951 0.9884
2.4511 1.2377 -0.9951 0.9884
2.4328 1.2734 -0.9951 0.9884
2.4139 1.3087 -0.9951 0.9884
2.3746 1.3787 -0.9951 0.9884
2.3119 1.4815 -0.9951 0.9884
2.2900 1.5151 -0.9951 0.9884
2.2677 1.5484 -0.9951 0.9884
2.2448 1.5813 -0.9951 0.9884
2.2214 1.6140 -0.9951 0.9884
2.1976 1.6463 -0.9951 0.9884
2.0450 1.8324 -0.9951 0.9884
1.9906 1.8913 -0.9951 0.9884
1.9345 1.9487 -0.9951 0.9884
1.8472 2.0316 -0.9951 0.9884
1.8173 2.0583 -0.9951 0.9884
1.6940 2.1609 -0.9951 0.9884
1.6302 2.2095 -0.9951 0.9884
1.5977 2.2331 -0.9951 0.9884
1.5649 2.2562 -0.9951 0.9884
1.5317 2.2789 -0.9951 0.9884
1.3960 2.3645 -0.9951 0.9884
1.3613 2.3845 -0.9951 0.9884
1.3263 2.4042 -0.9951 0.9884
1.2910 2.4234 -0.9951 0.9884
1.2555 2.4420 -0.9951 0.9884
1.2196 2.4600 -0.9951 0.9884
1.1836 2.4776 -0.9951 0.9884
0.9996 2.5573 -0.9951 0.9884
0.9621 2.5717 -0.9951 0.9884
0.8866 2.5987 -0.9951 0.9884
0.8102 2.6235 -0.9951 0.9884
0.7718 2.6350 -0.9951 0.9884
0.7332 2.6460 -0.9951 0.9884
0.6556 2.6663 -0.9951 0.9884
0.5774 2.6843 -0.9951 0.9884
0.5381 2.6925 -0.9951 0.9884
0.4987 2.7000 -0.9950 0.9884
0.4592 2.7070 -0.9950 0.9884
0.3799 2.7193 -0.9950 0.9884
0.3401 2.7245 -0.9950 0.9884
0.1804 2.7398 -0.9950 0.9884
0.1403 2.7421 -0.9950 0.9884
0.0602 2.7450 -0.9950 0.9884
0.0201 2.7456 -0.9950 0.9884
-0.0602 2.7450 -0.9950 0.9884
-0.1804 2.7397 -0.9950 0.9884
-0.2204 2.7368 -0.9950 0.9884
-0.3401 2.7245 -0.9950 0.9884
-0.4196 2.7134 -0.9950 0.9884
-0.4592 2.7070 -0.9950 0.9884
-0.5774 2.6842 -0.9950 0.9884
-0.1496 0.6083 -0.2270 0.9973
-0.1498 0.5730 -0.2146 0.9975
-0.1555 0.5610 -0.2110 0.9975
-0.1667 0.5397 -0.2047 0.9976
-0.1774 0.5199 -0.1991 0.9977
-0.1826 0.5106 -0.1965 0.9977
-0.1877 0.5016 -0.1941 0.9977
-0.1974 0.4839 -0.1894 0.9978
-0.2108 0.4583 -0.1828 0.9979
-0.2150 0.4500 -0.1808 0.9979
-0.2231 0.4338 -0.1768 0.9979
-0.2269 0.4259 -0.1749 0.9979
-0.2412 0.3952 -0.1678 0.9980
-0.2445 0.3877 -0.1661 0.9981
-0.2508 0.3732 -0.1630 0.9981
-0.2539 0.3661 -0.1615 0.9981
-0.2569 0.3591 -0.1600 0.9981
-0.2598 0.3521 -0.1586 0.9981
-0.2626 0.3453 -0.1572 0.9982
-0.2654 0.3385 -0.1559 0.9982
-0.2680 0.3318 -0.1546 0.9982
-0.2731 0.3185 -0.1520 0.9982
-0.2754 0.3119 -0.1508 0.9982
-0.2774 0.3050 -0.1494 0.9982
-0.2812 0.2916 -0.1468 0.9983
-0.2829 0.2850 -0.1455 0.9983
-0.2847 0.2785 -0.1443 0.9983
-0.2863 0.2720 -0.1431 0.9983
-0.2895 0.2593 -0.1408 0.9983
-0.2909 0.2531 -0.1397 0.9984
-0.2937 0.2408 -0.1376 0.9984
-0.2950 0.2348 -0.1366 0.9984
-0.2963 0.2287 -0.1357 0.9984
-0.2975 0.2228 -0.1347 0.9984
-0.2986 0.2170 -0.1338 0.9984
-0.3008 0.2054 -0.1320 0.9985
-0.3028 0.1940 -0.1303 0.9985
-0.3040 0.1886 -0.1297 0.9985
-0.3053 0.1832 -0.1290 0.9985
-0.3064 0.1779 -0.1284 0.9985
-0.3086 0.1673 -0.1272 0.9985
-0.3106 0.1568 -0.1261 0.9985
-0.3115 0.1516 -0.1255 0.9985
-0.3124 0.1464 -0.1250 0.9985
-0.3132 0.1412 -0.1245 0.9985
-0.3152 0.1258 -0.1230 0.9986
-0.3158 0.1207 -0.1225 0.9986
-0.3163 0.1157 -0.1220 0.9986
-0.3168 0.1107 -0.1216 0.9986
-0.3173 0.1057 -0.1212 0.9986
-0.3177 0.1007 -0.1208 0.9986
-0.3185 0.0907 -0.1200 0.9986
-0.3188 0.0859 -0.1197 0.9986
-0.3194 0.0761 -0.1190 0.9986
-0.3198 0.0663 -0.1184 0.9986
-0.3200 0.0615 -0.1181 0.9986
-0.3201 0.0567 -0.1178 0.9986
-0.3203 0.0519 -0.1176 0.9986
-0.3204 0.0424 -0.1171 0.9986
-0.3204 0.0376 -0.1169 0.9986
-0.3203 0.0282 -0.1165 0.9986
-0.3201 0.0187 -0.1162 0.9986
-0.3198 0.0094 -0.1159 0.9986
-0.3152 -0.0230 -0.1185 0.9987
-0.3153 -0.0277 -0.1187 0.9986
-0.3153 -0.0323 -0.1189 0.9986
-0.3153 -0.0464 -0.1195 0.9986
-0.3148 -0.0653 -0.1205 0.9986
-0.3143 -0.0748 -0.1211 0.9986
-0.3140 -0.0796 -0.1215 0.9986
-0.3137 -0.0845 -0.1218 0.9986
-0.3130 -0.0941 -0.1226 0.9986
-0.3116 -0.1089 -0.1238 0.9986
-0.3111 -0.1138 -0.1242 0.9986
-0.3071 -0.1440 -0.1272 0.9986
-0.3053 -0.1541 -0.1282 0.9985
-0.3043 -0.1593 -0.1288 0.9985
-0.3022 -0.1696 -0.1299 0.9985
-0.3011 -0.1748 -0.1306 0.9985
-0.3000 -0.1800 -0.1312 0.9985
-0.2987 -0.1853 -0.1318 0.9985
-0.2953 -0.2016 -0.1341 0.9985
-0.2942 -0.2072 -0.1349 0.9985
-0.2931 -0.2129 -0.1358 0.9985
-0.2919 -0.2186 -0.1368 0.9984
-0.2894 -0.2303 -0.1387 0.9984
-0.2867 -0.2421 -0.1407 0.9984
-0.2822 -0.2604 -0.1440 0.9984
-0.2806 -0.2666 -0.1451 0.9983
-0.2772 -0.2792 -0.1475 0.9983
-0.2696 -0.3053 -0.1527 0.9983
-0.2674 -0.3120 -0.1541 0.9982
-0.2597 -0.3313 -0.1579 0.9982
-0.2542 -0.3446 -0.1606 0.9982
-0.2514 -0.3513 -0.1620 0.9982
-0.2356 -0.3860 -0.1696 0.9981
-0.2322 -0.3933 -0.1713 0.9981
-0.2287 -0.4007 -0.1730 0.9980
-0.2097 -0.4389 -0.1824 0.9979
-0.2055 -0.4469 -0.1844 0.9979
-0.1968 -0.4631 -0.1887 0.9979
-0.1876 -0.4798 -0.1932 0.9978
-0.1777 -0.4970 -0.1979 0.9977
-0.1618 -0.5237 -0.2055 0.9977
-0.1561 -0.5329 -0.2082 0.9976
-0.1503 -0.5423 -0.2110 0.9976
-0.1445 -0.5527 -0.2142 0.9976
-0.1385 -0.5632 -0.2175 0.9975
-0.1332 -0.5781 -0.2225 0.9975
-0.5495 -2.5543 -0.9798 0.9889
-0.4608 -2.3056 -0.8817 0.9900
-0.3810 -2.2460 -0.8543 0.9903
-0.2930 -2.3463 -0.8867 0.9899
-0.2304 -2.4181 -0.9109 0.9897
-0.1555 -2.3611 -0.8873 0.9899
-0.1018 -1.9887 -0.7467 0.9915
0.0119 -1.6305 -0.6114 0.9931
0.0362 -1.6499 -0.6188 0.9930
0.2144 -1.7170 -0.6489 0.9926
0.2683 -1.7352 -0.6584 0.9925
0.3521 -1.7618 -0.6737 0.9924
0.4099 -1.7789 -0.6846 0.9922
0.4394 -1.7873 -0.6902 0.9922
0.4694 -1.7955 -0.6959 0.9921
0.4998 -1.8037 -0.7018 0.9920
0.5306 -1.8116 -0.7079 0.9920
0.9512 -2.4336 -0.9798 0.9889
0.9867 -2.4195 -0.9798 0.9889
1.0219 -2.4048 -0.9798 0.9889
1.0917 -2.3739 -0.9798 0.9889
1.1606 -2.3410 -0.9798 0.9889
1.2621 -2.2879 -0.9798 0.9889
1.2954 -2.2692 -0.9798 0.9889
1.3284 -2.2501 -0.9798 0.9889
1.4258 -2.1897 -0.9798 0.9889
1.4583 -2.1696 -0.9803 0.9889
1.4969 -2.1584 -0.9850 0.9888
1.6675 -2.0643 -0.9951 0.9887
1.6974 -2.0398 -0.9951 0.9887
1.7563 -1.9892 -0.9951 0.9887
1.8137 -1.9370 -0.9951 0.9887
1.8418 -1.9103 -0.9951 0.9887
1.8695 -1.8833 -0.9951 0.9887
1.9238 -1.8279 -0.9951 0.9887
2.0273 -1.7123 -0.9951 0.9887
2.0765 -1.6524 -0.9951 0.9887
2.1238 -1.5910 -0.9951 0.9887
2.1694 -1.5282 -0.9951 0.9887
2.1915 -1.4964 -0.9951 0.9887
2.2343 -1.4317 -0.9951 0.9887
2.2550 -1.3989 -0.9951 0.9887
2.2752 -1.3658 -0.9951 0.9887
2.3141 -1.2987 -0.9951 0.9887
2.3511 -1.2306 -0.9951 0.9887
2.4028 -1.1264 -0.9951 0.9887
2.4347 -1.0557 -0.9951 0.9887
2.4498 -1.0200 -0.9951 0.9887
2.4645 -0.9841 -0.9951 0.9887
2.5178 -0.8385 -0.9951 0.9887
2.5297 -0.8016 -0.9951 0.9887
2.5412 -0.7645 -0.9951 0.9887
2.5722 -0.6524 -0.9951 0.9887
2.5815 -0.6148 -0.9951 0.9887
2.6130 -0.4630 -0.9951 0.9887
2.6195 -0.4247 -0.9951 0.9887
2.6254 -0.3864 -0.9951 0.9887
2.6399 -0.2709 -0.9951 0.9887
2.6466 -0.1937 -0.9951 0.9887
2.6512 -0.1163 -0.9951 0.9887
2.6526 -0.0775 -0.9951 0.9887
2.6534 -0.0388 -0.9951 0.9887
2.6526 0.0775 -0.9951 0.9887
2.6512 0.1163 -0.9951 0.9887
2.6492 0.1550 -0.9951 0.9887
2.6466 0.1937 -0.9951 0.9887
2.6398 0.2709 -0.9951 0.9887
2.6254 0.3864 -0.9951 0.9887
2.6195 0.4247 -0.9951 0.9887
2.6060 0.5011 -0.9951 0.9887
2.5984 0.5391 -0.9951 0.9887
2.5902 0.5770 -0.9951 0.9887
2.5412 0.7645 -0.9951 0.9887
2.5178 0.8384 -0.9951 0.9887
2.5052 0.8752 -0.9951 0.9887
2.4922 0.9117 -0.9951 0.9887
2.4786 0.9480 -0.9951 0.9887
2.4645 0.9841 -0.9951 0.9887
2.4498 1.0200 -0.9951 0.9887
2.4028 1.1264 -0.9951 0.9887
2.3861 1.1614 -0.9951 0.9887
2.3688 1.1961 -0.9951 0.9887
2.3511 1.2306 -0.9951 0.9887
2.3329 1.2648 -0.9951 0.9887
2.3142 1.2987 -0.9951 0.9887
2.2752 1.3659 -0.9951 0.9887
2.2550 1.3989 -0.9951 0.9887
2.2343 1.4317 -0.9951 0.9887
2.1695 1.5283 -0.9951 0.9887
2.1469 1.5598 -0.9951 0.9887
2.1004 1.6219 -0.9951 0.9887
2.0521 1.6825 -0.9951 0.9887
2.0021 1.7418 -0.9951 0.9887
1.9764 1.7708 -0.9951 0.9887
1.9503 1.7995 -0.9951 0.9887
1.8418 1.9104 -0.9951 0.9887
1.7852 1.9634 -0.9951 0.9887
1.7563 1.9893 -0.9951 0.9887
1.6974 2.0397 -0.9951 0.9887
1.6371 2.0885 -0.9951 0.9887
1.6064 2.1121 -0.9951 0.9887
1.5754 2.1354 -0.9951 0.9887
1.5123 2.1805 -0.9951 0.9887
1.4153 2.2447 -0.9951 0.9887
1.3824 2.2651 -0.9951 0.9887
1.3156 2.3045 -0.9951 0.9887
1.2133 2.3600 -0.9951 0.9887
1.0734 2.4268 -0.9951 0.9887
0.9660 2.4715 -0.9951 0.9887
0.8568 2.5114 -0.9951 0.9887
0.7830 2.5354 -0.9951 0.9887
0.7459 2.5466 -0.9951 0.9887
0.7086 2.5572 -0.9951 0.9887
0.6712 2.5673 -0.9951 0.9887
0.6336 2.5768 -0.9951 0.9887
0.5959 2.5858 -0.9951 0.9887
0.5580 2.5942 -0.9951 0.9887
0.5201 2.6021 -0.9951 0.9887
0.4820 2.6094 -0.9950 0.9887
0.3671 2.6280 -0.9950 0.9887
0.2516 2.6416 -0.9950 0.9887
0.2130 2.6450 -0.9950 0.9887
-0.0194 2.6534 -0.9950 0.9887
-0.1357 2.6500 -0.9950 0.9887
-0.2130 2.6449 -0.9950 0.9887
-0.2902 2.6375 -0.9950 0.9887
-0.4055 2.6223 -0.9950 0.9887
-0.5201 2.6020 -0.9950 0.9887
-0.1385 0.5632 -0.2175 0.9975
-0.1445 0.5527 -0.2142 0.9976
-0.1503 0.5423 -0.2110 0.9976
-0.1618 0.5237 -0.2055 0.9977
-0.1875 0.4798 -0.1932 0.9978
-0.2097 0.4389 -0.1824 0.9979
-0.2138 0.4311 -0.1804 0.9979
-0.2215 0.4157 -0.1766 0.9980
-0.2252 0.4081 -0.1748 0.9980
-0.2287 0.4007 -0.1730 0.9980
-0.2356 0.3860 -0.1696 0.9981
-0.2453 0.3650 -0.1649 0.9981
-0.2484 0.3581 -0.1634 0.9981
-0.2513 0.3513 -0.1620 0.9982
-0.2570 0.3379 -0.1592 0.9982
-0.2597 0.3313 -0.1579 0.9982
-0.2650 0.3184 -0.1553 0.9982
-0.2696 0.3053 -0.1527 0.9983
-0.2735 0.2921 -0.1501 0.9983
-0.2806 0.2666 -0.1451 0.9983
-0.2822 0.2604 -0.1440 0.9984
-0.2853 0.2482 -0.1418 0.9984
-0.2867 0.2421 -0.1407 0.9984
-0.2907 0.2245 -0.1377 0.9984
-0.2931 0.2129 -0.1358 0.9985
-0.2952 0.2016 -0.1341 0.9985
-0.2963 0.1960 -0.1332 0.9985
-0.2987 0.1853 -0.1318 0.9985
-0.3000 0.1801 -0.1312 0.9985
-0.3011 0.1748 -0.1306 0.9985
-0.3043 0.1593 -0.1288 0.9985
-0.3093 0.1288 -0.1256 0.9986
-0.3100 0.1238 -0.1251 0.9986
-0.3106 0.1188 -0.1247 0.9986
-0.3126 0.0990 -0.1229 0.9986
-0.3130 0.0941 -0.1226 0.9986
-0.3137 0.0845 -0.1218 0.9986
-0.3149 0.0605 -0.1203 0.9986
-0.3152 0.0511 -0.1197 0.9986
-0.3154 0.0370 -0.1191 0.9986
-0.3152 0.0231 -0.1185 0.9987
-0.3151 0.0184 -0.1184 0.9987
-0.3148 0.0092 -0.1181 0.9987
-0.3095 0.0000 -0.1200 0.9987
-0.3097 -0.0045 -0.1201 0.9987
-0.3100 -0.0091 -0.1202 0.9987
-0.3103 -0.0182 -0.1205 0.9987
-0.3104 -0.0411 -0.1214 0.9987
-0.3103 -0.0503 -0.1218 0.9987
-0.3101 -0.0549 -0.1221 0.9986
-0.3096 -0.0689 -0.1229 0.9986
-0.3093 -0.0737 -0.1233 0.9986
-0.3083 -0.0879 -0.1243 0.9986
-0.3080 -0.0926 -0.1247 0.9986
-0.3071 -0.1023 -0.1255 0.9986
-0.3049 -0.1217 -0.1273 0.9986
-0.3042 -0.1266 -0.1278 0.9986
-0.3036 -0.1316 -0.1283 0.9986
-0.3020 -0.1416 -0.1293 0.9986
-0.2948 -0.1770 -0.1333 0.9985
-0.2936 -0.1821 -0.1339 0.9985
-0.2923 -0.1873 -0.1346 0.9985
-0.2911 -0.1926 -0.1353 0.9985
-0.2839 -0.2259 -0.1407 0.9984
-0.2826 -0.2317 -0.1417 0.9984
-0.2812 -0.2375 -0.1427 0.9984
-0.2798 -0.2434 -0.1437 0.9984
-0.2782 -0.2493 -0.1448 0.9984
-0.2767 -0.2553 -0.1459 0.9984
-0.2751 -0.2613 -0.1471 0.9984
-0.2716 -0.2736 -0.1495 0.9983
-0.2679 -0.2861 -0.1520 0.9983
-0.2660 -0.2925 -0.1533 0.9983
-0.2619 -0.3055 -0.1560 0.9983
-0.2595 -0.3118 -0.1573 0.9983
-0.2543 -0.3245 -0.1598 0.9982
-0.2516 -0.3308 -0.1611 0.9982
-0.2488 -0.3373 -0.1625 0.9982
-0.2460 -0.3438 -0.1639 0.9982
-0.2400 -0.3571 -0.1668 0.9982
-0.2337 -0.3705 -0.1698 0.9981
-0.2199 -0.3986 -0.1765 0.9980
-0.2163 -0.4059 -0.1783 0.9980
-0.2125 -0.4133 -0.1801 0.9980
-0.1962 -0.4436 -0.1881 0.9979
-0.1919 -0.4514 -0.1902 0.9979
-0.1827 -0.4674 -0.1946 0.9978
-0.1779 -0.4756 -0.1969 0.9978
-0.1730 -0.4838 -0.1992 0.9978
-0.1627 -0.5007 -0.2041 0.9977
-0.1573 -0.5094 -0.2067 0.9977
-0.1518 -0.5182 -0.2093 0.9977
-0.4590 -2.4852 -0.9798 0.9892
-0.3249 -2.3255 -0.9103 0.9900
-0.2318 -2.4329 -0.9474 0.9896
-0.1990 -2.4709 -0.9610 0.9894
-0.1565 -2.3764 -0.9233 0.9898
-0.1238 -2.4177 -0.9385 0.9897
-0.0549 -2.5050 -0.9714 0.9893
0.0354 -1.6160 -0.6267 0.9931
0.0594 -1.6255 -0.6306 0.9930
0.1584 -1.6623 -0.6474 0.9929
0.2359 -1.6888 -0.6611 0.9927
0.2894 -1.7059 -0.6708 0.9926
0.3166 -1.7143 -0.6758 0.9925
0.3443 -1.7225 -0.6810 0.9925
0.4006 -1.7386 -0.6917 0.9924
0.4294 -1.7465 -0.6972 0.9923
0.4586 -1.7542 -0.7029 0.9923
0.5487 -1.7766 -0.7208 0.9921
0.8509 -2.3798 -0.9798 0.9892
0.9544 -2.3402 -0.9798 0.9892
0.9884 -2.3261 -0.9798 0.9892
1.0223 -2.3114 -0.9798 0.9892
1.0894 -2.2805 -0.9798 0.9892
1.1883 -2.2306 -0.9798 0.9892
1.3971 -2.1456 -0.9926 0.9891
1.4318 -2.1303 -0.9951 0.9890
1.4628 -2.1091 -0.9951 0.9890
1.4935 -2.0875 -0.9951 0.9890
1.5238 -2.0654 -0.9951 0.9890
1.5538 -2.0430 -0.9951 0.9890
1.6129 -1.9967 -0.9951 0.9890
1.6705 -1.9487 -0.9951 0.9890
1.7543 -1.8737 -0.9951 0.9890
1.8864 -1.7406 -0.9951 0.9890
1.9116 -1.7129 -0.9951 0.9890
1.9365 -1.6847 -0.9951 0.9890
1.9609 -1.6562 -0.9951 0.9890
1.9849 -1.6274 -0.9951 0.9890
2.0085 -1.5983 -0.9951 0.9890
2.0316 -1.5688 -0.9951 0.9890
2.0543 -1.5389 -0.9951 0.9890
2.1407 -1.4163 -0.9951 0.9890
2.2007 -1.3211 -0.9951 0.9890
2.2384 -1.2563 -0.9951 0.9890
2.2741 -1.1903 -0.9951 0.9890
2.3398 -1.0554 -0.9951 0.9890
2.3838 -0.9519 -0.9951 0.9890
2.3974 -0.9170 -0.9951 0.9890
2.4232 -0.8465 -0.9951 0.9890
2.4469 -0.7754 -0.9951 0.9890
2.4580 -0.7395 -0.9951 0.9890
2.4880 -0.6311 -0.9951 0.9890
2.4970 -0.5947 -0.9951 0.9890
2.5206 -0.4846 -0.9951 0.9890
2.5395 -0.3738 -0.9951 0.9890
2.5447 -0.3366 -0.9951 0.9890
2.5493 -0.2993 -0.9951 0.9890
2.5570 -0.2248 -0.9951 0.9890
2.5657 -0.0750 -0.9951 0.9890
2.5665 -0.0375 -0.9951 0.9890
2.5668 0.0000 -0.9951 0.9890
2.5666 0.0375 -0.9951 0.9890
2.5657 0.0750 -0.9951 0.9890
2.5624 0.1499 -0.9951 0.9890
2.5534 0.2620 -0.9951 0.9890
2.5493 0.2993 -0.9951 0.9890
2.5447 0.3366 -0.9951 0.9890
2.5338 0.4108 -0.9951 0.9890
2.5275 0.4477 -0.9951 0.9890
2.5206 0.4846 -0.9951 0.9890
2.5133 0.5214 -0.9951 0.9890
2.5054 0.5581 -0.9951 0.9890
2.4970 0.5947 -0.9951 0.9890
2.4685 0.7035 -0.9951 0.9890
2.4580 0.7395 -0.9951 0.9890
2.4354 0.8110 -0.9951 0.9890
2.4106 0.8818 -0.9951 0.9890
2.3975 0.9170 -0.9951 0.9890
2.3838 0.9519 -0.9951 0.9890
2.3241 1.0895 -0.9951 0.9890
2.3079 1.1234 -0.9951 0.9890
2.2913 1.1570 -0.9951 0.9890
2.2741 1.1903 -0.9951 0.9890
2.2565 1.2234 -0.9951 0.9890
2.2007 1.3211 -0.9951 0.9890
2.1612 1.3848 -0.9951 0.9890
2.1198 1.4474 -0.9951 0.9890
2.0984 1.4783 -0.9951 0.9890
2.0085 1.5982 -0.9951 0.9890
1.9849 1.6274 -0.9951 0.9890
1.9609 1.6563 -0.9951 0.9890
1.8864 1.7406 -0.9951 0.9890
1.7815 1.8478 -0.9951 0.9890
1.7543 1.8737 -0.9951 0.9890
1.7268 1.8991 -0.9951 0.9890
1.6705 1.9487 -0.9951 0.9890
1.5238 2.0655 -0.9951 0.9890
1.4935 2.0875 -0.9951 0.9890
1.4318 2.1302 -0.9951 0.9890
1.3690 2.1712 -0.9951 0.9890
1.3371 2.1909 -0.9951 0.9890
1.1401 2.2995 -0.9951 0.9890
1.1064 2.3160 -0.9951 0.9890
1.0724 2.3319 -0.9951 0.9890
0.7215 2.4632 -0.9951 0.9890
0.6492 2.4832 -0.9951 0.9890
0.6128 2.4924 -0.9951 0.9890
0.5763 2.5011 -0.9951 0.9890
0.4662 2.5240 -0.9950 0.9890
0.4292 2.5305 -0.9950 0.9890
0.3922 2.5365 -0.9950 0.9890
0.3551 2.5420 -0.9950 0.9890
0.3180 2.5469 -0.9950 0.9890
0.2807 2.5512 -0.9950 0.9890
0.2434 2.5551 -0.9950 0.9890
0.2060 2.5584 -0.9950 0.9890
0.1686 2.5611 -0.9950 0.9890
0.0937 2.5649 -0.9950 0.9890
-0.0562 2.5660 -0.9950 0.9890
-0.1312 2.5632 -0.9950 0.9890
-0.2807 2.5512 -0.9950 0.9890
-0.3551 2.5419 -0.9950 0.9890
-0.3922 2.5364 -0.9950 0.9890
-0.4293 2.5304 -0.9950 0.9890
-0.4662 2.5239 -0.9950 0.9890
-0.1215 0.5648 -0.2239 0.9975
-0.1278 0.5545 -0.2206 0.9976
-0.1730 0.4839 -0.1992 0.9978
-0.1779 0.4756 -0.1969 0.9978
-0.1827 0.4674 -0.1946 0.9978
-0.1874 0.4594 -0.1923 0.9979
-0.1919 0.4514 -0.1902 0.9979
-0.1962 0.4436 -0.1881 0.9979
-0.2086 0.4207 -0.1820 0.9980
-0.2125 0.4132 -0.1801 0.9980
-0.2163 0.4059 -0.1783 0.9980
-0.2235 0.3914 -0.1747 0.9981
-0.2269 0.3844 -0.1730 0.9981
-0.2304 0.3774 -0.1714 0.9981
-0.2336 0.3705 -0.1698 0.9981
-0.2369 0.3637 -0.1683 0.9981
-0.2400 0.3570 -0.1668 0.9982
-0.2489 0.3373 -0.1625 0.9982
-0.2517 0.3309 -0.1611 0.9982
-0.2544 0.3245 -0.1598 0.9982
-0.2570 0.3181 -0.1585 0.9982
-0.2595 0.3118 -0.1573 0.9983
-0.2619 0.3055 -0.1560 0.9983
-0.2660 0.2925 -0.1533 0.9983
-0.2679 0.2862 -0.1520 0.9983
-0.2734 0.2675 -0.1483 0.9984
-0.2751 0.2613 -0.1471 0.9984
-0.2798 0.2434 -0.1437 0.9984
-0.2826 0.2317 -0.1417 0.9984
-0.2839 0.2259 -0.1407 0.9984
-0.2852 0.2202 -0.1397 0.9985
-0.2888 0.2034 -0.1369 0.9985
-0.2911 0.1926 -0.1353 0.9985
-0.2924 0.1873 -0.1346 0.9985
-0.2960 0.1718 -0.1327 0.9985
-0.2971 0.1667 -0.1321 0.9985
-0.2981 0.1616 -0.1315 0.9985
-0.3002 0.1516 -0.1303 0.9986
-0.3011 0.1466 -0.1298 0.9986
-0.3020 0.1416 -0.1293 0.9986
-0.3036 0.1316 -0.1283 0.9986
-0.3042 0.1267 -0.1278 0.9986
-0.3049 0.1217 -0.1273 0.9986
-0.3060 0.1119 -0.1263 0.9986
-0.3066 0.1071 -0.1259 0.9986
-0.3075 0.0975 -0.1251 0.9986
-0.3093 0.0737 -0.1233 0.9986
-0.3096 0.0689 -0.1229 0.9986
-0.3098 0.0643 -0.1227 0.9986
-0.3100 0.0596 -0.1224 0.9986
-0.3101 0.0549 -0.1221 0.9986
-0.3103 0.0503 -0.1218 0.9987
-0.3104 0.0457 -0.1216 0.9987
-0.3104 0.0364 -0.1212 0.9987
-0.3101 0.0136 -0.1203 0.9987
-0.3098 0.0045 -0.1201 0.9987
-0.3054 -0.0179 -0.1225 0.9987
-0.3055 -0.0223 -0.1227 0.9987
-0.3056 -0.0359 -0.1232 0.9987
-0.3056 -0.0404 -0.1234 0.9987
-0.3053 -0.0541 -0.1242 0.9987
-0.3051 -0.0586 -0.1244 0.9987
-0.3047 -0.0679 -0.1250 0.9987
-0.3044 -0.0725 -0.1253 0.9987
-0.3038 -0.0818 -0.1260 0.9986
-0.3034 -0.0865 -0.1264 0.9986
-0.3031 -0.0912 -0.1267 0.9986
-0.3026 -0.0959 -0.1271 0.9986
-0.2993 -0.1246 -0.1298 0.9986
-0.2961 -0.1441 -0.1319 0.9986
-0.2942 -0.1539 -0.1330 0.9986
-0.2835 -0.1997 -0.1389 0.9985
-0.2759 -0.2330 -0.1446 0.9984
-0.2713 -0.2504 -0.1478 0.9984
-0.2680 -0.2622 -0.1501 0.9984
-0.2662 -0.2682 -0.1513 0.9984
-0.2625 -0.2804 -0.1538 0.9983
-0.2565 -0.2991 -0.1578 0.9983
-0.2491 -0.3178 -0.1617 0.9983
-0.2464 -0.3240 -0.1630 0.9982
-0.2437 -0.3302 -0.1643 0.9982
-0.2408 -0.3365 -0.1657 0.9982
-0.2317 -0.3559 -0.1701 0.9982
-0.2286 -0.3624 -0.1716 0.9982
-0.2253 -0.3691 -0.1732 0.9981
-0.2184 -0.3825 -0.1764 0.9981
-0.2149 -0.3895 -0.1781 0.9981
-0.2112 -0.3965 -0.1799 0.9981
-0.1871 -0.4403 -0.1916 0.9979
-0.1734 -0.4634 -0.1982 0.9979
-0.1686 -0.4713 -0.2005 0.9978
-0.1584 -0.4875 -0.2053 0.9978
-0.1477 -0.5041 -0.2104 0.9977
-0.1303 -0.5298 -0.2185 0.9977
-0.1242 -0.5387 -0.2214 0.9976
-0.1178 -0.5477 -0.2243 0.9976
-0.1046 -0.5660 -0.2305 0.9975
-0.4092 -2.4120 -0.9798 0.9895
-0.3565 -2.3052 -0.9342 0.9900
-0.3269 -2.3394 -0.9460 0.9899
-0.2653 -2.4107 -0.9713 0.9896
-0.2320 -2.4354 -0.9798 0.9895
-0.1964 -2.4386 -0.9798 0.9895
-0.1575 -2.3921 -0.9601 0.9897
-0.1246 -2.4340 -0.9760 0.9896
-0.0894 -2.4448 -0.9798 0.9895
-0.0114 -1.5648 -0.6267 0.9933
0.0582 -1.5923 -0.6381 0.9932
0.1550 -1.6275 -0.6547 0.9930
0.1800 -1.6360 -0.6592 0.9929
0.2053 -1.6444 -0.6637 0.9929
0.2568 -1.6609 -0.6731 0.9928
0.2831 -1.6689 -0.6779 0.9927
0.3097 -1.6768 -0.6829 0.9927
0.3640 -1.6923 -0.6932 0.9926
0.4770 -1.7215 -0.7154 0.9923
0.5062 -1.7284 -0.7213 0.9923
0.5359 -1.7353 -0.7273 0.9922
0.5659 -1.7419 -0.7335 0.9921
0.5965 -1.7484 -0.7398 0.9921
0.6274 -1.7546 -0.7463 0.9920
0.8906 -2.2787 -0.9798 0.9895
0.9569 -2.2517 -0.9798 0.9895
0.9896 -2.2375 -0.9798 0.9895
1.0546 -2.2076 -0.9798 0.9895
1.1901 -2.1573 -0.9867 0.9894
1.2632 -2.1396 -0.9951 0.9894
1.2943 -2.1209 -0.9951 0.9894
1.3252 -2.1018 -0.9951 0.9894
1.3558 -2.0822 -0.9951 0.9894
1.4457 -2.0208 -0.9951 0.9894
1.4751 -1.9995 -0.9951 0.9894
1.5613 -1.9329 -0.9951 0.9894
1.5894 -1.9098 -0.9951 0.9894
1.6445 -1.8626 -0.9951 0.9894
1.6715 -1.8384 -0.9951 0.9894
1.6982 -1.8138 -0.9951 0.9894
1.7505 -1.7634 -0.9951 0.9894
1.7761 -1.7376 -0.9951 0.9894
1.8746 -1.6309 -0.9951 0.9894
1.9214 -1.5754 -0.9951 0.9894
2.0313 -1.4310 -0.9951 0.9894
2.0921 -1.3406 -0.9951 0.9894
2.1304 -1.2789 -0.9951 0.9894
2.1668 -1.2161 -0.9951 0.9894
2.2180 -1.1199 -0.9951 0.9894
2.2342 -1.0874 -0.9951 0.9894
2.2938 -0.9550 -0.9951 0.9894
2.3575 -0.7851 -0.9951 0.9894
2.3687 -0.7506 -0.9951 0.9894
2.3896 -0.6810 -0.9951 0.9894
2.3993 -0.6460 -0.9951 0.9894
2.4253 -0.5403 -0.9951 0.9894
2.4329 -0.5048 -0.9951 0.9894
2.4401 -0.4692 -0.9951 0.9894
2.4467 -0.4335 -0.9951 0.9894
2.4527 -0.3977 -0.9951 0.9894
2.4678 -0.2898 -0.9951 0.9894
2.4805 -0.1452 -0.9951 0.9894
2.4824 -0.1089 -0.9951 0.9894
2.4837 -0.0726 -0.9951 0.9894
2.4845 -0.0363 -0.9951 0.9894
2.4845 0.0363 -0.9951 0.9894
2.4781 0.1814 -0.9951 0.9894
2.4718 0.2537 -0.9951 0.9894
2.4633 0.3258 -0.9951 0.9894
2.4583 0.3618 -0.9951 0.9894
2.4527 0.3976 -0.9951 0.9894
2.4467 0.4334 -0.9951 0.9894
2.4400 0.4691 -0.9951 0.9894
2.4253 0.5403 -0.9951 0.9894
2.4172 0.5757 -0.9951 0.9894
2.4085 0.6109 -0.9951 0.9894
2.3993 0.6460 -0.9951 0.9894
2.3687 0.7505 -0.9951 0.9894
2.3575 0.7851 -0.9951 0.9894
2.3457 0.8195 -0.9951 0.9894
2.3208 0.8877 -0.9951 0.9894
2.3076 0.9214 -0.9951 0.9894
2.2939 0.9551 -0.9951 0.9894
2.2797 0.9885 -0.9951 0.9894
2.2498 1.0547 -0.9951 0.9894
2.2342 1.0874 -0.9951 0.9894
2.2180 1.1200 -0.9951 0.9894
2.2014 1.1522 -0.9951 0.9894
2.1843 1.1843 -0.9951 0.9894
2.1488 1.2476 -0.9951 0.9894
2.0313 1.4309 -0.9951 0.9894
1.9886 1.4897 -0.9951 0.9894
1.9667 1.5187 -0.9951 0.9894
1.9443 1.5472 -0.9951 0.9894
1.9214 1.5754 -0.9951 0.9894
1.8982 1.6034 -0.9951 0.9894
1.8746 1.6309 -0.9951 0.9894
1.8505 1.6581 -0.9951 0.9894
1.8261 1.6849 -0.9951 0.9894
1.8013 1.7115 -0.9951 0.9894
1.7761 1.7376 -0.9951 0.9894
1.7246 1.7887 -0.9951 0.9894
1.6445 1.8626 -0.9951 0.9894
1.5613 1.9329 -0.9951 0.9894
1.5042 1.9777 -0.9951 0.9894
1.4751 1.9995 -0.9951 0.9894
1.4160 2.0417 -0.9951 0.9894
1.3860 2.0621 -0.9951 0.9894
1.2944 2.1209 -0.9951 0.9894
1.1682 2.1929 -0.9951 0.9894
1.1037 2.2261 -0.9951 0.9894
1.0710 2.2420 -0.9951 0.9894
1.0050 2.2723 -0.9951 0.9894
0.9717 2.2868 -0.9951 0.9894
0.9382 2.3007 -0.9951 0.9894
0.9045 2.3141 -0.9951 0.9894
0.8022 2.3516 -0.9951 0.9894
0.7678 2.3630 -0.9951 0.9894
0.7332 2.3740 -0.9951 0.9894
0.6984 2.3845 -0.9951 0.9894
0.6635 2.3945 -0.9951 0.9894
0.5225 2.4291 -0.9951 0.9894
0.4869 2.4364 -0.9950 0.9894
0.4513 2.4433 -0.9950 0.9894
0.4155 2.4496 -0.9950 0.9894
0.3438 2.4607 -0.9950 0.9894
0.2717 2.4697 -0.9950 0.9894
0.2356 2.4734 -0.9950 0.9894
0.1632 2.4792 -0.9950 0.9894
0.1270 2.4813 -0.9950 0.9894
0.0907 2.4829 -0.9950 0.9894
0.0181 2.4845 -0.9950 0.9894
-0.0908 2.4829 -0.9950 0.9894
-0.2356 2.4734 -0.9950 0.9894
-0.2717 2.4696 -0.9950 0.9894
-0.3438 2.4606 -0.9950 0.9894
-0.4156 2.4496 -0.9950 0.9894
-0.1046 0.5660 -0.2305 0.9975
-0.1113 0.5568 -0.2274 0.9976
-0.1178 0.5477 -0.2243 0.9976
-0.1303 0.5298 -0.2185 0.9977
-0.1363 0.5211 -0.2157 0.9977
-0.1531 0.4957 -0.2078 0.9978
-0.1584 0.4875 -0.2053 0.9978
-0.1686 0.4714 -0.2005 0.9978
-0.1734 0.4634 -0.1982 0.9979
-0.1781 0.4556 -0.1959 0.9979
-0.1871 0.4403 -0.1916 0.9979
-0.1956 0.4253 -0.1875 0.9980
-0.2037 0.4107 -0.1836 0.9980
-0.2286 0.3624 -0.1716 0.9982
-0.2408 0.3365 -0.1657 0.9982
-0.2464 0.3240 -0.1630 0.9982
-0.2491 0.3178 -0.1617 0.9983
-0.2517 0.3116 -0.1604 0.9983
-0.2542 0.3055 -0.1592 0.9983
-0.2606 0.2866 -0.1551 0.9983
-0.2662 0.2682 -0.1513 0.9984
-0.2680 0.2622 -0.1501 0.9984
-0.2713 0.2503 -0.1478 0.9984
-0.2799 0.2161 -0.1416 0.9985
-0.2812 0.2106 -0.1407 0.9985
-0.2835 0.1997 -0.1389 0.9985
-0.2847 0.1943 -0.1380 0.9985
-0.2860 0.1892 -0.1373 0.9985
-0.2873 0.1841 -0.1367 0.9985
-0.2886 0.1790 -0.1360 0.9985
-0.2931 0.1589 -0.1335 0.9986
-0.2942 0.1539 -0.1330 0.9986
-0.2970 0.1392 -0.1314 0.9986
-0.2979 0.1343 -0.1309 0.9986
-0.2986 0.1295 -0.1303 0.9986
-0.2993 0.1246 -0.1298 0.9986
-0.3021 0.1006 -0.1275 0.9986
-0.3031 0.0912 -0.1267 0.9986
-0.3035 0.0865 -0.1264 0.9986
-0.3045 0.0725 -0.1253 0.9987
-0.3054 0.0495 -0.1239 0.9987
-0.3056 0.0314 -0.1230 0.9987
-0.3056 0.0269 -0.1229 0.9987
-0.3054 0.0179 -0.1225 0.9987
-0.3053 0.0134 -0.1224 0.9987
-0.3050 0.0045 -0.1222 0.9987
-0.3001 0.0000 -0.1241 0.9987
-0.3004 -0.0044 -0.1242 0.9987
-0.3005 -0.0088 -0.1243 0.9987
-0.3008 -0.0176 -0.1245 0.9987
-0.3009 -0.0220 -0.1247 0.9987
-0.3009 -0.0264 -0.1249 0.9987
-0.3010 -0.0309 -0.1251 0.9987
-0.3009 -0.0398 -0.1255 0.9987
-0.2999 -0.0668 -0.1270 0.9987
-0.2994 -0.0759 -0.1277 0.9987
-0.2990 -0.0805 -0.1280 0.9987
-0.2987 -0.0851 -0.1284 0.9987
-0.2983 -0.0898 -0.1288 0.9987
-0.2978 -0.0944 -0.1291 0.9986
-0.2973 -0.0990 -0.1296 0.9986
-0.2969 -0.1037 -0.1300 0.9986
-0.2963 -0.1084 -0.1304 0.9986
-0.2957 -0.1131 -0.1309 0.9986
-0.2951 -0.1178 -0.1313 0.9986
-0.2921 -0.1370 -0.1334 0.9986
-0.2912 -0.1418 -0.1339 0.9986
-0.2903 -0.1466 -0.1344 0.9986
-0.2893 -0.1514 -0.1350 0.9986
-0.2871 -0.1612 -0.1361 0.9986
-0.2849 -0.1710 -0.1373 0.9986
-0.2837 -0.1759 -0.1380 0.9986
-0.2824 -0.1810 -0.1387 0.9985
-0.2784 -0.1961 -0.1408 0.9985
-0.2772 -0.2014 -0.1417 0.9985
-0.2735 -0.2176 -0.1445 0.9985
-0.2721 -0.2231 -0.1455 0.9985
-0.2692 -0.2342 -0.1475 0.9985
-0.2645 -0.2512 -0.1508 0.9984
-0.2628 -0.2571 -0.1520 0.9984
-0.2592 -0.2688 -0.1544 0.9984
-0.2573 -0.2748 -0.1556 0.9984
-0.2533 -0.2869 -0.1582 0.9983
-0.2491 -0.2992 -0.1609 0.9983
-0.2414 -0.3173 -0.1648 0.9983
-0.2386 -0.3234 -0.1661 0.9983
-0.2299 -0.3420 -0.1703 0.9982
-0.2236 -0.3546 -0.1733 0.9982
-0.2204 -0.3610 -0.1749 0.9982
-0.2136 -0.3741 -0.1781 0.9981
-0.2100 -0.3807 -0.1797 0.9981
-0.1950 -0.4081 -0.1870 0.9980
-0.1910 -0.4152 -0.1889 0.9980
-0.1826 -0.4296 -0.1930 0.9980
-0.1737 -0.4443 -0.1972 0.9979
-0.1643 -0.4594 -0.2017 0.9979
-0.1207 -0.5236 -0.2221 0.9977
-0.1145 -0.5321 -0.2250 0.9976
-0.1081 -0.5408 -0.2280 0.9976
-0.1015 -0.5495 -0.2310 0.9976
-0.0947 -0.5584 -0.2341 0.9976
-0.3279 -2.3472 -0.9798 0.9898
-0.2936 -2.3518 -0.9798 0.9898
-0.2592 -2.3559 -0.9798 0.9898
-0.1903 -2.3623 -0.9798 0.9898
-0.1212 -2.3670 -0.9798 0.9898
-0.0866 -2.3684 -0.9798 0.9898
-0.0112 -1.5338 -0.6341 0.9934
0.0113 -1.5427 -0.6378 0.9933
0.0570 -1.5602 -0.6454 0.9933
0.0803 -1.5688 -0.6494 0.9932
0.2010 -1.6100 -0.6707 0.9930
0.2514 -1.6256 -0.6800 0.9929
0.2770 -1.6332 -0.6848 0.9929
0.3030 -1.6407 -0.6897 0.9928
0.3560 -1.6553 -0.6999 0.9927
0.3830 -1.6623 -0.7052 0.9926
0.4104 -1.6692 -0.7106 0.9926
0.4663 -1.6827 -0.7218 0.9925
0.5236 -1.6955 -0.7336 0.9923
0.5529 -1.7016 -0.7396 0.9923
0.6126 -1.7134 -0.7522 0.9922
0.8628 -2.2075 -0.9798 0.9898
0.9948 -2.1630 -0.9842 0.9897
1.0301 -2.1562 -0.9879 0.9897
1.0656 -2.1493 -0.9917 0.9897
1.2237 -2.0727 -0.9951 0.9896
1.4290 -1.9370 -0.9951 0.9896
1.4572 -1.9159 -0.9951 0.9896
1.5125 -1.8725 -0.9951 0.9896
1.5397 -1.8502 -0.9951 0.9896
1.5666 -1.8275 -0.9951 0.9896
1.6193 -1.7809 -0.9951 0.9896
1.6452 -1.7571 -0.9951 0.9896
1.7690 -1.6323 -0.9951 0.9896
1.8389 -1.5532 -0.9951 0.9896
1.8614 -1.5262 -0.9951 0.9896
1.8835 -1.4989 -0.9951 0.9896
1.9265 -1.4431 -0.9951 0.9896
1.9678 -1.3863 -0.9951 0.9896
2.0267 -1.2987 -0.9951 0.9896
2.0638 -1.2389 -0.9951 0.9896
2.0817 -1.2086 -0.9951 0.9896
2.1795 -1.0217 -0.9951 0.9896
2.2084 -0.9576 -0.9951 0.9896
2.2606 -0.8270 -0.9951 0.9896
2.3332 -0.5918 -0.9951 0.9896
2.3495 -0.5234 -0.9951 0.9896
2.3638 -0.4545 -0.9951 0.9896
2.3702 -0.4199 -0.9951 0.9896
2.3815 -0.3505 -0.9951 0.9896
2.3907 -0.2807 -0.9951 0.9896
2.3979 -0.2107 -0.9951 0.9896
2.4048 -0.1055 -0.9951 0.9896
2.4069 -0.0352 -0.9951 0.9896
2.4069 0.0352 -0.9951 0.9896
2.4061 0.0703 -0.9951 0.9896
2.4048 0.1055 -0.9951 0.9896
2.4007 0.1757 -0.9951 0.9896
2.3979 0.2107 -0.9951 0.9896
2.3945 0.2458 -0.9951 0.9896
2.3907 0.2807 -0.9951 0.9896
2.3702 0.4199 -0.9951 0.9896
2.3638 0.4545 -0.9951 0.9896
2.3569 0.4890 -0.9951 0.9896
2.3332 0.5918 -0.9951 0.9896
2.3243 0.6259 -0.9951 0.9896
2.3150 0.6597 -0.9951 0.9896
2.3050 0.6935 -0.9951 0.9896
2.2947 0.7271 -0.9951 0.9896
2.2724 0.7938 -0.9951 0.9896
2.2606 0.8270 -0.9951 0.9896
2.2483 0.8599 -0.9951 0.9896
2.2222 0.9252 -0.9951 0.9896
2.1942 0.9898 -0.9951 0.9896
2.1795 1.0217 -0.9951 0.9896
2.1643 1.0534 -0.9951 0.9896
2.1487 1.0849 -0.9951 0.9896
2.1327 1.1162 -0.9951 0.9896
2.0991 1.1781 -0.9951 0.9896
2.0816 1.2086 -0.9951 0.9896
2.0267 1.2987 -0.9951 0.9896
1.9265 1.4432 -0.9951 0.9896
1.9052 1.4711 -0.9951 0.9896
1.8835 1.4989 -0.9951 0.9896
1.8614 1.5262 -0.9951 0.9896
1.8389 1.5532 -0.9951 0.9896
1.7690 1.6323 -0.9951 0.9896
1.7450 1.6580 -0.9951 0.9896
1.7206 1.6833 -0.9951 0.9896
1.6958 1.7083 -0.9951 0.9896
1.6452 1.7571 -0.9951 0.9896
1.6193 1.7809 -0.9951 0.9896
1.5666 1.8275 -0.9951 0.9896
1.5397 1.8502 -0.9951 0.9896
1.5125 1.8725 -0.9951 0.9896
1.4850 1.8944 -0.9951 0.9896
1.4572 1.9159 -0.9951 0.9896
1.4006 1.9576 -0.9951 0.9896
1.3718 1.9779 -0.9951 0.9896
1.3427 1.9977 -0.9951 0.9896
1.2838 2.0361 -0.9951 0.9896
1.2539 2.0546 -0.9951 0.9896
1.1933 2.0904 -0.9951 0.9896
1.0057 2.1868 -0.9951 0.9896
0.9737 2.2013 -0.9951 0.9896
0.9414 2.2153 -0.9951 0.9896
0.9089 2.2288 -0.9951 0.9896
0.8762 2.2419 -0.9951 0.9896
0.8434 2.2544 -0.9951 0.9896
0.8104 2.2665 -0.9951 0.9896
0.7771 2.2781 -0.9951 0.9896
0.7103 2.2998 -0.9951 0.9896
0.6766 2.3099 -0.9951 0.9896
0.5747 2.3373 -0.9951 0.9896
0.5405 2.3455 -0.9951 0.9896
0.4717 2.3603 -0.9950 0.9896
0.4026 2.3730 -0.9950 0.9896
0.3678 2.3787 -0.9950 0.9896
0.2982 2.3884 -0.9950 0.9896
0.2633 2.3925 -0.9950 0.9896
0.1932 2.3992 -0.9950 0.9896
0.0879 2.4053 -0.9950 0.9896
0.0528 2.4064 -0.9950 0.9896
-0.0176 2.4069 -0.9950 0.9896
-0.0528 2.4064 -0.9950 0.9896
-0.1230 2.4037 -0.9950 0.9896
-0.1582 2.4017 -0.9950 0.9896
-0.3679 2.3787 -0.9950 0.9896
-0.0947 0.5584 -0.2341 0.9976
-0.1081 0.5408 -0.2280 0.9976
-0.1145 0.5321 -0.2250 0.9976
-0.1382 0.4988 -0.2139 0.9978
-0.1437 0.4907 -0.2114 0.9978
-0.1594 0.4670 -0.2040 0.9979
-0.1643 0.4594 -0.2017 0.9979
-0.1690 0.4518 -0.1994 0.9979
-0.1737 0.4443 -0.1972 0.9979
-0.1826 0.4296 -0.1930 0.9980
-0.1868 0.4223 -0.1909 0.9980
-0.1989 0.4012 -0.1851 0.9981
-0.2027 0.3942 -0.1833 0.9981
-0.2100 0.3807 -0.1797 0.9981
-0.2136 0.3741 -0.1781 0.9981
-0.2170 0.3675 -0.1764 0.9982
-0.2236 0.3546 -0.1733 0.9982
-0.2268 0.3483 -0.1718 0.9982
-0.2299 0.3420 -0.1703 0.9982
-0.2358 0.3295 -0.1675 0.9982
-0.2386 0.3234 -0.1661 0.9983
-0.2414 0.3173 -0.1648 0.9983
-0.2440 0.3113 -0.1635 0.9983
-0.2466 0.3053 -0.1623 0.9983
-0.2512 0.2930 -0.1596 0.9983
-0.2533 0.2869 -0.1582 0.9983
-0.2554 0.2808 -0.1569 0.9984
-0.2573 0.2748 -0.1556 0.9984
-0.2592 0.2688 -0.1544 0.9984
-0.2628 0.2571 -0.1520 0.9984
-0.2677 0.2398 -0.1486 0.9984
-0.2692 0.2342 -0.1475 0.9985
-0.2734 0.2176 -0.1445 0.9985
-0.2760 0.2068 -0.1426 0.9985
-0.2772 0.2014 -0.1417 0.9985
-0.2798 0.1910 -0.1400 0.9985
-0.2824 0.1809 -0.1387 0.9985
-0.2837 0.1760 -0.1380 0.9986
-0.2849 0.1710 -0.1373 0.9986
-0.2861 0.1661 -0.1367 0.9986
-0.2882 0.1562 -0.1355 0.9986
-0.2893 0.1514 -0.1350 0.9986
-0.2903 0.1466 -0.1344 0.9986
-0.2912 0.1418 -0.1339 0.9986
-0.2930 0.1322 -0.1329 0.9986
-0.2968 0.1037 -0.1300 0.9986
-0.2973 0.0990 -0.1296 0.9986
-0.2978 0.0944 -0.1291 0.9986
-0.2990 0.0805 -0.1280 0.9987
-0.2994 0.0759 -0.1277 0.9987
-0.2997 0.0714 -0.1273 0.9987
-0.3002 0.0623 -0.1267 0.9987
-0.3004 0.0578 -0.1264 0.9987
-0.3006 0.0532 -0.1262 0.9987
-0.3007 0.0487 -0.1259 0.9987
-0.3009 0.0353 -0.1252 0.9987
-0.3009 0.0220 -0.1247 0.9987
-0.3008 0.0176 -0.1245 0.9987
-0.3004 0.0044 -0.1242 0.9987
-0.2958 -0.0043 -0.1261 0.9987
-0.2963 -0.0261 -0.1268 0.9987
-0.2963 -0.0304 -0.1270 0.9987
-0.2963 -0.0392 -0.1274 0.9987
-0.2962 -0.0436 -0.1277 0.9987
-0.2961 -0.0480 -0.1279 0.9987
-0.2959 -0.0524 -0.1282 0.9987
-0.2955 -0.0613 -0.1287 0.9987
-0.2953 -0.0658 -0.1290 0.9987
-0.2947 -0.0747 -0.1296 0.9987
-0.2940 -0.0837 -0.1304 0.9987
-0.2890 -0.1253 -0.1343 0.9986
-0.2883 -0.1300 -0.1348 0.9986
-0.2874 -0.1347 -0.1353 0.9986
-0.2865 -0.1394 -0.1359 0.9986
-0.2845 -0.1489 -0.1369 0.9986
-0.2824 -0.1584 -0.1381 0.9986
-0.2813 -0.1633 -0.1387 0.9986
-0.2789 -0.1730 -0.1399 0.9986
-0.2763 -0.1828 -0.1413 0.9986
-0.2750 -0.1877 -0.1420 0.9986
-0.2736 -0.1927 -0.1427 0.9985
-0.2710 -0.2030 -0.1444 0.9985
-0.2698 -0.2083 -0.1453 0.9985
-0.2594 -0.2464 -0.1526 0.9984
-0.2577 -0.2521 -0.1537 0.9984
-0.2502 -0.2752 -0.1586 0.9984
-0.2461 -0.2871 -0.1613 0.9984
-0.2440 -0.2931 -0.1626 0.9983
-0.2391 -0.3050 -0.1653 0.9983
-0.2337 -0.3168 -0.1679 0.9983
-0.2309 -0.3227 -0.1692 0.9983
-0.2251 -0.3348 -0.1720 0.9982
-0.2220 -0.3409 -0.1735 0.9982
-0.2189 -0.3471 -0.1750 0.9982
-0.2156 -0.3533 -0.1765 0.9982
-0.2089 -0.3659 -0.1797 0.9982
-0.1981 -0.3853 -0.1847 0.9981
-0.1824 -0.4123 -0.1923 0.9980
-0.1782 -0.4193 -0.1943 0.9980
-0.1649 -0.4406 -0.2006 0.9980
-0.1553 -0.4552 -0.2051 0.9979
-0.1504 -0.4627 -0.2074 0.9979
-0.1452 -0.4702 -0.2098 0.9979
-0.1400 -0.4777 -0.2123 0.9978
-0.1290 -0.4933 -0.2174 0.9978
-0.1113 -0.5173 -0.2256 0.9977
-0.1050 -0.5255 -0.2285 0.9977
-0.3512 -2.2706 -0.9798 0.9901
-0.2513 -2.2838 -0.9798 0.9901
-0.2179 -2.2873 -0.9798 0.9901
-0.1845 -2.2902 -0.9798 0.9901
-0.1510 -2.2926 -0.9798 0.9901
-0.0839 -2.2961 -0.9798 0.9901
-0.0137 -1.8785 -0.8011 0.9919
0.0504 -2.2970 -0.9798 0.9901
0.0839 -2.2961 -0.9798 0.9901
0.1174 -2.2946 -0.9798 0.9901
0.1251 -1.5534 -0.6646 0.9932
0.1968 -1.5766 -0.6775 0.9931
0.2461 -1.5915 -0.6867 0.9930
0.2966 -1.6058 -0.6963 0.9929
0.3747 -1.6261 -0.7116 0.9928
0.4014 -1.6326 -0.7170 0.9927
0.4285 -1.6390 -0.7224 0.9927
0.4558 -1.6452 -0.7280 0.9926
0.4837 -1.6513 -0.7337 0.9925
0.6281 -1.6788 -0.7644 0.9922
0.8433 -2.1576 -0.9879 0.9900
0.9119 -2.1459 -0.9943 0.9899
0.9439 -2.1340 -0.9951 0.9899
1.0058 -2.1055 -0.9951 0.9899
1.0365 -2.0906 -0.9951 0.9899
1.1569 -2.0264 -0.9951 0.9899
1.2156 -1.9918 -0.9951 0.9899
1.2733 -1.9555 -0.9951 0.9899
1.3577 -1.8978 -0.9951 0.9899
1.4126 -1.8573 -0.9951 0.9899
1.4396 -1.8365 -0.9951 0.9899
1.5444 -1.7493 -0.9951 0.9899
1.5949 -1.7034 -0.9951 0.9899
1.6440 -1.6561 -0.9951 0.9899
1.6680 -1.6319 -0.9951 0.9899
1.6917 -1.6073 -0.9951 0.9899
1.7150 -1.5824 -0.9951 0.9899
1.7379 -1.5572 -0.9951 0.9899
1.7605 -1.5316 -0.9951 0.9899
1.8676 -1.3990 -0.9951 0.9899
1.9829 -1.2302 -0.9951 0.9899
2.0349 -1.1420 -0.9951 0.9899
2.0514 -1.1122 -0.9951 0.9899
2.1129 -0.9905 -0.9951 0.9899
2.1271 -0.9595 -0.9951 0.9899
2.1542 -0.8970 -0.9951 0.9899
2.2030 -0.7695 -0.9951 0.9899
2.2140 -0.7373 -0.9951 0.9899
2.2346 -0.6723 -0.9951 0.9899
2.2532 -0.6067 -0.9951 0.9899
2.2619 -0.5737 -0.9951 0.9899
2.2777 -0.5074 -0.9951 0.9899
2.2849 -0.4740 -0.9951 0.9899
2.2916 -0.4406 -0.9951 0.9899
2.3134 -0.3060 -0.9951 0.9899
2.3176 -0.2722 -0.9951 0.9899
2.3213 -0.2383 -0.9951 0.9899
2.3313 -0.1023 -0.9951 0.9899
2.3325 -0.0682 -0.9951 0.9899
2.3335 0.0000 -0.9951 0.9899
2.3325 0.0682 -0.9951 0.9899
2.3295 0.1363 -0.9951 0.9899
2.3087 0.3398 -0.9951 0.9899
2.2977 0.4070 -0.9951 0.9899
2.2915 0.4406 -0.9951 0.9899
2.2442 0.6395 -0.9951 0.9899
2.2346 0.6723 -0.9951 0.9899
2.2245 0.7048 -0.9951 0.9899
