ply
format ascii 1.0
element vertex 1594
property float32 x
property float32 y
property float32 z
property float32 I
end_header
-2.8165 4.9337 -0.6560 0.9774
-2.8598 4.6860 -0.6339 0.9781
-2.8805 4.5685 -0.6237 0.9785
-2.9006 4.4548 -0.6139 0.9788
-2.9201 4.3446 -0.6045 0.9791
-2.9390 4.2376 -0.5955 0.9794
-2.9574 4.1337 -0.5870 0.9797
-2.9926 3.9347 -0.5709 0.9803
-3.0259 3.7461 -0.5561 0.9808
-2.8636 3.4410 -0.5170 0.9821
-0.6077 0.6883 -0.1060 0.9963
-0.5206 0.5726 -0.0894 0.9969
-0.5136 0.5486 -0.0868 0.9970
-0.5149 0.5340 -0.0857 0.9970
-0.5175 0.4775 -0.0813 0.9972
-0.5177 0.4639 -0.0803 0.9972
-0.5178 0.4505 -0.0793 0.9972
-0.5179 0.4246 -0.0773 0.9973
-0.5178 0.4121 -0.0764 0.9973
-0.5178 0.3998 -0.0755 0.9974
-0.5174 0.3759 -0.0739 0.9974
-0.5168 0.3420 -0.0716 0.9975
-0.5165 0.3310 -0.0708 0.9975
-0.5161 0.3202 -0.0701 0.9976
-0.5160 0.2996 -0.0689 0.9976
-0.5158 0.2797 -0.0678 0.9976
-0.5156 0.2604 -0.0667 0.9977
-0.5142 0.2141 -0.0643 0.9978
-0.5128 0.1791 -0.0627 0.9978
-0.5122 0.1623 -0.0620 0.9978
-0.5119 0.1540 -0.0617 0.9978
-0.5099 0.1136 -0.0603 0.9979
-0.5095 0.1057 -0.0601 0.9979
-0.5091 0.0979 -0.0599 0.9979
-0.5087 0.0902 -0.0597 0.9979
-0.5083 0.0824 -0.0595 0.9979
-0.5078 0.0748 -0.0593 0.9979
-0.5073 0.0671 -0.0591 0.9979
-0.5062 0.0520 -0.0588 0.9980
-0.5028 0.0147 -0.0581 0.9980
-0.5020 0.0073 -0.0580 0.9980
-0.4854 0.0000 -0.0615 0.9980
-0.4869 -0.0142 -0.0617 0.9980
-0.4883 -0.0285 -0.0620 0.9980
-0.4889 -0.0357 -0.0621 0.9980
-0.4895 -0.0430 -0.0623 0.9980
-0.4901 -0.0503 -0.0624 0.9980
-0.4906 -0.0576 -0.0626 0.9980
-0.4923 -0.0872 -0.0634 0.9980
-0.4926 -0.0947 -0.0636 0.9980
-0.4929 -0.1023 -0.0638 0.9980
-0.4942 -0.1408 -0.0651 0.9979
-0.4944 -0.1487 -0.0654 0.9979
-0.4947 -0.1567 -0.0658 0.9979
-0.4955 -0.1979 -0.0676 0.9979
-0.4957 -0.2064 -0.0680 0.9978
-0.4959 -0.2150 -0.0685 0.9978
-0.4961 -0.2237 -0.0690 0.9978
-0.4963 -0.2416 -0.0700 0.9978
-0.4964 -0.2598 -0.0710 0.9977
-0.4963 -0.2785 -0.0721 0.9977
-0.4962 -0.2880 -0.0727 0.9977
-0.4955 -0.3175 -0.0746 0.9976
-0.4952 -0.3488 -0.0768 0.9976
-0.4951 -0.3596 -0.0775 0.9975
-0.4950 -0.3708 -0.0784 0.9975
-0.4946 -0.3936 -0.0801 0.9975
-0.4944 -0.4054 -0.0810 0.9974
-0.4941 -0.4173 -0.0820 0.9974
-0.4923 -0.4678 -0.0861 0.9973
-0.4917 -0.4810 -0.0872 0.9972
-0.4910 -0.4946 -0.0883 0.9972
-0.4894 -0.5226 -0.0907 0.9971
-0.4882 -0.5369 -0.0920 0.9971
-0.4865 -0.5511 -0.0932 0.9970
-0.4977 -0.5806 -0.0969 0.9969
-4.9315 -6.1051 -0.9945 0.9689
-4.7512 -6.2468 -0.9946 0.9689
-4.5667 -6.3831 -0.9946 0.9689
-4.3783 -6.5139 -0.9946 0.9688
-4.2828 -6.5774 -0.9946 0.9688
-3.8915 -6.8166 -0.9947 0.9688
-3.7915 -6.8729 -0.9947 0.9688
-3.6907 -6.9276 -0.9947 0.9688
-3.4868 -7.0327 -0.9947 0.9688
-1.3663 -2.8602 -0.4017 0.9873
-3.1754 -7.1791 -0.9948 0.9688
-3.0702 -7.2248 -0.9948 0.9688
-2.9644 -7.2690 -0.9948 0.9688
-2.8579 -7.3117 -0.9948 0.9688
-2.7508 -7.3528 -0.9948 0.9688
-2.3167 -7.5014 -0.9949 0.9688
-2.2069 -7.5345 -0.9949 0.9688
-0.6461 -2.4712 -0.3237 0.9898
-0.5646 -2.4498 -0.3186 0.9899
-0.4856 -2.4296 -0.3140 0.9901
-0.4089 -2.4106 -0.3098 0.9902
-0.3343 -2.3925 -0.3061 0.9903
-0.2905 -2.3268 -0.2971 0.9906
-0.2284 -2.3976 -0.3052 0.9903
-0.1629 -2.4729 -0.3140 0.9901
-0.1283 -2.5058 -0.3180 0.9899
-0.0933 -2.5530 -0.3237 0.9898
-0.0185 -2.5314 -0.3208 0.9898
0.0181 -2.4736 -0.3135 0.9901
0.1241 -2.4256 -0.3078 0.9903
0.1512 -2.2960 -0.2916 0.9908
0.2716 -2.4688 -0.3147 0.9900
0.3338 -2.3893 -0.3057 0.9903
0.4515 -2.6618 -0.3421 0.9892
0.6267 -3.1359 -0.4053 0.9872
0.7002 -3.2553 -0.4220 0.9867
0.7704 -3.3433 -0.4348 0.9863
0.8093 -3.2914 -0.4295 0.9864
1.9870 -7.6004 -0.9955 0.9688
2.0979 -7.5706 -0.9955 0.9688
2.2083 -7.5393 -0.9955 0.9688
2.3182 -7.5063 -0.9956 0.9688
2.4277 -7.4717 -0.9956 0.9688
2.5366 -7.4356 -0.9956 0.9688
2.6451 -7.3979 -0.9956 0.9688
2.7529 -7.3586 -0.9956 0.9688
2.8602 -7.3176 -0.9956 0.9688
3.0729 -7.2311 -0.9957 0.9688
3.4903 -7.0397 -0.9957 0.9688
3.5928 -6.9881 -0.9957 0.9688
3.7956 -6.8803 -0.9958 0.9688
3.9951 -6.7667 -0.9958 0.9688
4.1913 -6.6472 -0.9958 0.9688
4.3838 -6.5221 -0.9959 0.9688
4.4787 -6.4574 -0.9959 0.9688
4.6656 -6.3239 -0.9959 0.9688
4.8485 -6.1851 -0.9959 0.9688
5.0273 -6.0410 -0.9959 0.9688
5.2018 -5.8916 -0.9960 0.9688
5.2874 -5.8150 -0.9960 0.9688
5.3719 -5.7372 -0.9960 0.9688
5.4552 -5.6582 -0.9960 0.9688
5.5373 -5.5780 -0.9960 0.9688
5.6183 -5.4965 -0.9960 0.9688
5.6981 -5.4139 -0.9960 0.9688
3.8730 -3.5736 -0.6678 0.9790
3.9350 -3.5258 -0.6695 0.9789
5.9301 -5.1591 -0.9961 0.9688
6.0049 -5.0720 -0.9961 0.9688
6.1506 -4.8945 -0.9961 0.9688
4.2694 -3.1019 -0.6688 0.9789
4.3281 -3.0489 -0.6709 0.9789
4.3871 -2.9955 -0.6732 0.9788
6.5778 -4.0806 -0.9809 0.9693
6.8051 -3.6895 -0.9810 0.9693
6.8583 -3.5897 -0.9810 0.9693
6.9101 -3.4891 -0.9810 0.9693
6.9604 -3.3878 -0.9810 0.9693
7.0565 -3.1830 -0.9810 0.9693
7.1023 -3.0796 -0.9810 0.9693
7.1894 -2.8708 -0.9810 0.9693
7.2306 -2.7654 -0.9810 0.9693
7.2703 -2.6596 -0.9810 0.9693
7.3084 -2.5530 -0.9810 0.9693
7.3450 -2.4460 -0.9810 0.9693
7.3800 -2.3384 -0.9810 0.9693
7.5610 -2.1548 -0.9963 0.9688
7.6208 -1.9329 -0.9963 0.9688
7.6482 -1.8214 -0.9963 0.9688
7.6741 -1.7095 -0.9963 0.9688
7.7417 -1.3715 -0.9963 0.9688
7.7944 -1.0310 -0.9963 0.9688
7.8212 -0.8028 -0.9963 0.9688
7.8414 -0.5739 -0.9963 0.9688
7.8548 -0.3445 -0.9963 0.9688
7.8590 -0.2297 -0.9963 0.9688
7.8624 0.0000 -0.9963 0.9688
7.8548 0.3446 -0.9963 0.9688
7.8321 0.6885 -0.9963 0.9688
7.8212 0.8028 -0.9963 0.9688
7.7944 1.0310 -0.9963 0.9688
7.7785 1.1448 -0.9963 0.9688
7.7208 1.4846 -0.9963 0.9688
7.6983 1.5971 -0.9963 0.9688
7.6741 1.7095 -0.9963 0.9688
7.6483 1.8214 -0.9963 0.9688
7.6208 1.9330 -0.9963 0.9688
7.5610 2.1548 -0.9963 0.9688
7.5287 2.2650 -0.9963 0.9688
7.4221 2.5928 -0.9963 0.9688
7.3833 2.7009 -0.9963 0.9688
7.3012 2.9155 -0.9963 0.9688
7.2578 3.0218 -0.9963 0.9688
7.1663 3.2326 -0.9963 0.9688
7.1182 3.3369 -0.9962 0.9688
7.0687 3.4405 -0.9962 0.9688
6.7984 3.9472 -0.9962 0.9688
6.6801 4.1441 -0.9962 0.9688
6.3595 4.6204 -0.9961 0.9688
6.2912 4.7129 -0.9961 0.9688
6.2216 4.8042 -0.9961 0.9688
6.1507 4.8945 -0.9961 0.9688
6.0785 4.9838 -0.9961 0.9688
5.7767 5.3302 -0.9961 0.9688
5.6981 5.4139 -0.9960 0.9688
5.6184 5.4966 -0.9960 0.9688
5.3719 5.7373 -0.9960 0.9688
5.2874 5.8151 -0.9960 0.9688
5.2018 5.8917 -0.9960 0.9688
5.1152 5.9670 -0.9960 0.9688
5.0273 6.0410 -0.9960 0.9688
4.9385 6.1137 -0.9959 0.9688
4.8485 6.1851 -0.9959 0.9688
4.7576 6.2553 -0.9959 0.9688
4.6656 6.3240 -0.9959 0.9688
4.5727 6.3914 -0.9959 0.9688
4.1913 6.6473 -0.9958 0.9688
4.0936 6.7077 -0.9958 0.9688
3.8958 6.8243 -0.9958 0.9688
3.7956 6.8804 -0.9958 0.9688
3.6946 6.9350 -0.9958 0.9688
3.5928 6.9882 -0.9957 0.9688
3.3870 7.0899 -0.9957 0.9688
3.1783 7.1857 -0.9957 0.9688
1.5893 3.7399 -0.5150 0.9837
1.2971 3.4671 -0.4691 0.9852
1.1093 3.4140 -0.4549 0.9856
1.0025 3.4226 -0.4519 0.9857
0.8447 3.4354 -0.4483 0.9858
0.7927 3.4396 -0.4473 0.9859
0.7408 3.4438 -0.4464 0.9859
0.6892 3.4480 -0.4456 0.9859
0.6377 3.4522 -0.4449 0.9859
0.5360 3.4659 -0.4444 0.9860
0.4856 3.4754 -0.4447 0.9860
0.3850 3.4984 -0.4460 0.9859
0.3344 3.5100 -0.4468 0.9859
0.2836 3.5215 -0.4477 0.9859
0.2327 3.5332 -0.4487 0.9858
0.0783 3.5686 -0.4523 0.9857
-0.0262 3.5926 -0.4553 0.9856
-0.0793 3.6212 -0.4590 0.9855
-0.1994 3.8945 -0.4942 0.9844
-0.2590 3.9336 -0.4996 0.9842
-0.3228 4.0076 -0.5095 0.9839
-1.1783 7.6195 -0.9771 0.9694
-1.2894 7.6014 -0.9770 0.9694
-1.4004 7.5816 -0.9770 0.9694
-1.7312 7.5126 -0.9770 0.9694
-1.9499 7.4586 -0.9770 0.9694
-2.0586 7.4291 -0.9769 0.9694
-2.2069 7.5346 -0.9949 0.9688
-2.4261 7.4667 -0.9949 0.9688
-2.5349 7.4304 -0.9949 0.9688
-2.3891 6.1125 -0.8317 0.9739
-2.4314 5.9621 -0.8159 0.9744
-2.6680 5.8014 -0.8092 0.9746
-2.7276 5.5015 -0.7781 0.9755
-2.7519 5.3526 -0.7627 0.9760
-2.7978 5.0717 -0.7340 0.9769
-2.8606 4.6875 -0.6959 0.9781
-2.8805 4.5686 -0.6844 0.9785
-2.9202 4.3446 -0.6634 0.9791
-2.9574 4.1339 -0.6441 0.9797
-2.9753 4.0329 -0.6351 0.9800
-2.9926 3.9348 -0.6265 0.9803
-3.0095 3.8393 -0.6182 0.9805
-3.0260 3.7462 -0.6103 0.9808
-0.4865 0.5511 -0.0932 0.9970
-0.4894 0.5227 -0.0907 0.9971
-0.4902 0.5085 -0.0895 0.9972
-0.4910 0.4946 -0.0883 0.9972
-0.4929 0.4548 -0.0850 0.9973
-0.4941 0.4174 -0.0820 0.9974
-0.4952 0.3381 -0.0760 0.9976
-0.4952 0.3276 -0.0752 0.9976
-0.4962 0.2881 -0.0727 0.9977
-0.4963 0.2786 -0.0721 0.9977
-0.4964 0.2599 -0.0710 0.9977
-0.4964 0.2507 -0.0705 0.9978
-0.4963 0.2416 -0.0700 0.9978
-0.4961 0.2238 -0.0690 0.9978
-0.4959 0.2150 -0.0685 0.9978
-0.4957 0.2064 -0.0680 0.9978
-0.4950 0.1729 -0.0664 0.9979
-0.4942 0.1409 -0.0651 0.9979
-0.4938 0.1330 -0.0648 0.9979
-0.4934 0.1175 -0.0643 0.9980
-0.4932 0.1099 -0.0640 0.9980
-0.4930 0.1023 -0.0638 0.9980
-0.4926 0.0947 -0.0636 0.9980
-0.4923 0.0872 -0.0634 0.9980
-0.4919 0.0798 -0.0631 0.9980
-0.4915 0.0724 -0.0630 0.9980
-0.4910 0.0650 -0.0628 0.9980
-0.4906 0.0576 -0.0626 0.9980
-0.4900 0.0503 -0.0624 0.9980
-0.4889 0.0358 -0.0621 0.9980
-0.4707 0.0000 -0.0649 0.9981
-0.4720 -0.0138 -0.0652 0.9981
-0.4727 -0.0207 -0.0653 0.9981
-0.4744 -0.0417 -0.0657 0.9981
-0.4749 -0.0487 -0.0659 0.9981
-0.4765 -0.0772 -0.0666 0.9981
-0.4768 -0.0845 -0.0668 0.9980
-0.4777 -0.1138 -0.0678 0.9980
-0.4779 -0.1212 -0.0680 0.9980
-0.4779 -0.1287 -0.0683 0.9980
-0.4780 -0.1362 -0.0686 0.9980
-0.4783 -0.1593 -0.0696 0.9980
-0.4784 -0.1671 -0.0699 0.9980
-0.4785 -0.1750 -0.0703 0.9979
-0.4784 -0.1829 -0.0707 0.9979
-0.4783 -0.1910 -0.0711 0.9979
-0.4785 -0.1992 -0.0715 0.9979
-0.4786 -0.2075 -0.0720 0.9979
-0.4787 -0.2244 -0.0730 0.9979
-0.4786 -0.2416 -0.0740 0.9978
-0.4771 -0.2959 -0.0775 0.9977
-0.4767 -0.3054 -0.0781 0.9977
-0.4751 -0.3346 -0.0802 0.9977
-0.4742 -0.3552 -0.0818 0.9976
-0.4734 -0.3767 -0.0835 0.9976
-0.4718 -0.4105 -0.0863 0.9975
-0.4712 -0.4221 -0.0873 0.9974
-0.4668 -0.4842 -0.0928 0.9973
-0.4657 -0.4973 -0.0940 0.9973
-0.4645 -0.5108 -0.0953 0.9972
-0.4632 -0.5246 -0.0966 0.9972
-0.4603 -0.5531 -0.0993 0.9971
-0.4734 -0.5861 -0.1040 0.9970
-0.5517 -0.7038 -0.1234 0.9964
-4.2789 -5.7998 -0.9946 0.9713
-4.1938 -5.8618 -0.9946 0.9713
-4.1078 -5.9226 -0.9947 0.9713
-4.0208 -5.9820 -0.9947 0.9713
-3.9330 -6.0402 -0.9947 0.9713
-3.6647 -6.2070 -0.9947 0.9713
-3.4819 -6.3116 -0.9947 0.9713
-3.2960 -6.4108 -0.9948 0.9713
-3.2020 -6.4584 -0.9948 0.9713
-1.3669 -2.8613 -0.4376 0.9873
-2.8195 -6.6347 -0.9948 0.9713
-2.7223 -6.6753 -0.9948 0.9713
-2.6245 -6.7145 -0.9949 0.9713
-2.5261 -6.7522 -0.9949 0.9713
-2.4272 -6.7885 -0.9949 0.9713
-0.5372 -2.4974 -0.3525 0.9897
-0.4574 -2.4765 -0.3475 0.9899
-0.4184 -2.4664 -0.3452 0.9899
-0.3794 -2.4532 -0.3426 0.9900
-0.3251 -2.3269 -0.3242 0.9906
-0.2638 -2.3977 -0.3329 0.9903
-0.1654 -2.5122 -0.3474 0.9899
-0.1202 -2.3481 -0.3245 0.9906
-0.0890 -2.4345 -0.3362 0.9902
-0.0186 -2.5482 -0.3517 0.9898
0.0177 -2.4274 -0.3350 0.9902
0.0878 -2.4016 -0.3316 0.9903
0.1205 -2.3543 -0.3253 0.9905
0.1589 -2.4137 -0.3338 0.9903
0.1914 -2.3767 -0.3290 0.9904
0.3330 -2.6676 -0.3710 0.9892
0.4154 -2.6860 -0.3751 0.9891
0.4572 -2.6954 -0.3773 0.9890
0.6882 -3.1993 -0.4516 0.9869
0.7531 -3.2679 -0.4628 0.9866
0.7912 -3.2180 -0.4573 0.9867
0.8285 -3.1691 -0.4520 0.9869
1.9264 -6.9519 -0.9955 0.9713
2.0278 -6.9231 -0.9955 0.9713
2.2293 -6.8611 -0.9955 0.9713
2.3293 -6.8279 -0.9956 0.9713
2.4289 -6.7932 -0.9956 0.9713
2.6264 -6.7195 -0.9956 0.9713
2.7244 -6.6805 -0.9956 0.9713
2.8217 -6.6400 -0.9956 0.9713
2.9185 -6.5982 -0.9956 0.9713
3.1101 -6.5103 -0.9957 0.9713
3.2050 -6.4643 -0.9957 0.9713
3.3926 -6.3680 -0.9957 0.9713
3.4853 -6.3179 -0.9957 0.9713
3.5773 -6.2663 -0.9957 0.9713
3.6685 -6.2134 -0.9958 0.9713
3.7589 -6.1593 -0.9958 0.9713
3.8486 -6.1038 -0.9958 0.9713
3.9374 -6.0470 -0.9958 0.9713
4.2841 -5.8069 -0.9958 0.9713
4.3686 -5.7438 -0.9959 0.9713
4.4521 -5.6794 -0.9959 0.9713
4.6163 -5.5471 -0.9959 0.9713
4.8551 -5.3396 -0.9959 0.9713
4.9326 -5.2681 -0.9959 0.9713
5.0846 -5.1218 -0.9960 0.9713
5.1589 -5.0470 -0.9960 0.9713
5.3753 -4.8163 -0.9960 0.9713
5.4452 -4.7373 -0.9960 0.9713
5.5814 -4.5762 -0.9960 0.9713
5.7128 -4.4113 -0.9960 0.9713
4.2110 -3.1545 -0.7261 0.9790
4.3280 -3.0489 -0.7306 0.9788
4.3871 -2.9955 -0.7331 0.9788
4.4466 -2.9418 -0.7358 0.9787
6.0398 -3.7469 -0.9808 0.9717
6.2974 -3.2961 -0.9809 0.9717
6.3450 -3.2037 -0.9809 0.9717
6.3912 -3.1107 -0.9809 0.9717
6.4794 -2.9227 -0.9809 0.9717
6.6014 -2.6360 -0.9809 0.9717
6.7106 -2.3443 -0.9809 0.9717
6.8817 -2.1805 -0.9962 0.9713
6.9426 -1.9785 -0.9962 0.9713
6.9708 -1.8769 -0.9962 0.9713
6.9975 -1.7748 -0.9962 0.9713
7.0227 -1.6725 -0.9962 0.9713
7.0686 -1.4665 -0.9962 0.9713
7.0893 -1.3631 -0.9962 0.9713
7.1085 -1.2593 -0.9962 0.9713
7.1423 -1.0511 -0.9962 0.9713
7.1569 -0.9466 -0.9962 0.9713
7.1815 -0.7371 -0.9963 0.9713
7.2000 -0.5270 -0.9963 0.9713
7.2123 -0.3164 -0.9963 0.9713
7.2185 -0.1055 -0.9963 0.9713
7.2162 0.2110 -0.9963 0.9713
7.2124 0.3164 -0.9963 0.9713
7.2070 0.4218 -0.9963 0.9713
7.1700 0.8420 -0.9963 0.9713
7.1085 1.2594 -0.9962 0.9713
7.0686 1.4665 -0.9962 0.9713
7.0464 1.5696 -0.9962 0.9713
6.9975 1.7749 -0.9962 0.9713
6.9708 1.8770 -0.9962 0.9713
6.8491 2.2809 -0.9962 0.9713
6.8150 2.3807 -0.9962 0.9713
6.7795 2.4800 -0.9962 0.9713
6.7425 2.5788 -0.9962 0.9713
6.7040 2.6771 -0.9962 0.9713
6.6642 2.7747 -0.9962 0.9713
6.5802 2.9682 -0.9962 0.9713
6.5361 3.0640 -0.9962 0.9713
6.3458 3.4405 -0.9961 0.9713
6.2948 3.5328 -0.9961 0.9713
5.9008 4.1569 -0.9961 0.9713
5.8394 4.2426 -0.9961 0.9713
5.7128 4.4113 -0.9960 0.9713
5.5138 4.6573 -0.9960 0.9713
5.3754 4.8163 -0.9960 0.9713
5.3043 4.8943 -0.9960 0.9713
5.1590 5.0471 -0.9960 0.9713
5.0846 5.1219 -0.9960 0.9713
5.0092 5.1956 -0.9959 0.9713
4.8551 5.3396 -0.9959 0.9713
4.7765 5.4100 -0.9959 0.9713
4.6969 5.4791 -0.9959 0.9713
4.5347 5.6139 -0.9959 0.9713
4.3686 5.7439 -0.9959 0.9713
4.2842 5.8070 -0.9958 0.9713
4.1988 5.8689 -0.9958 0.9713
4.1126 5.9295 -0.9958 0.9713
3.9375 6.0470 -0.9958 0.9713
3.8486 6.1039 -0.9958 0.9713
3.7590 6.1593 -0.9958 0.9713
3.5773 6.2664 -0.9957 0.9713
3.2991 6.4169 -0.9957 0.9713
3.2050 6.4643 -0.9957 0.9713
3.1102 6.5104 -0.9957 0.9713
2.9185 6.5983 -0.9957 0.9713
1.4173 3.6262 -0.5373 0.9844
1.1642 3.4124 -0.4976 0.9855
1.0566 3.4211 -0.4941 0.9856
0.9504 3.4296 -0.4911 0.9857
0.8977 3.4339 -0.4898 0.9858
0.8454 3.4381 -0.4886 0.9858
0.7414 3.4465 -0.4865 0.9859
0.6392 3.4603 -0.4856 0.9859
0.5883 3.4680 -0.4854 0.9859
0.5375 3.4758 -0.4854 0.9859
0.4867 3.4836 -0.4854 0.9859
0.4359 3.4914 -0.4856 0.9859
0.2329 3.5360 -0.4890 0.9858
0.0262 3.5834 -0.4945 0.9856
-0.0262 3.5955 -0.4962 0.9856
-0.2573 3.9076 -0.5404 0.9843
-0.3198 3.9706 -0.5497 0.9840
-0.6839 7.1788 -0.9951 0.9713
-0.9978 7.1416 -0.9951 0.9713
-1.4132 7.0707 -0.9950 0.9713
-1.5163 7.0491 -0.9950 0.9713
-1.6191 7.0262 -0.9950 0.9713
-1.7216 7.0016 -0.9950 0.9713
-1.9254 6.9481 -0.9950 0.9713
-2.1275 6.8887 -0.9949 0.9713
-2.2279 6.8568 -0.9949 0.9713
-2.3279 6.8234 -0.9949 0.9713
-2.5261 6.7523 -0.9949 0.9713
-2.5958 5.8688 -0.8856 0.9744
-2.7991 5.8593 -0.8961 0.9741
-3.2021 6.4584 -0.9948 0.9713
-2.7784 5.2154 -0.8155 0.9764
-2.8226 4.9444 -0.7857 0.9773
-2.8636 4.6924 -0.7586 0.9780
-2.9204 4.3450 -0.7225 0.9791
-2.9391 4.2378 -0.7117 0.9794
-2.9575 4.1339 -0.7014 0.9797
-0.4603 0.5531 -0.0993 0.9971
-0.4632 0.5246 -0.0966 0.9972
-0.4645 0.5109 -0.0953 0.9972
-0.4668 0.4842 -0.0928 0.9973
-0.4679 0.4713 -0.0916 0.9973
-0.4688 0.4587 -0.0905 0.9974
-0.4718 0.4105 -0.0863 0.9975
-0.4724 0.3990 -0.0853 0.9975
-0.4729 0.3878 -0.0844 0.9975
-0.4734 0.3767 -0.0835 0.9976
-0.4738 0.3659 -0.0826 0.9976
-0.4746 0.3448 -0.0809 0.9976
-0.4751 0.3347 -0.0802 0.9977
-0.4767 0.3054 -0.0781 0.9977
-0.4771 0.2960 -0.0775 0.9977
-0.4783 0.2593 -0.0751 0.9978
-0.4785 0.2504 -0.0745 0.9978
-0.4786 0.2159 -0.0725 0.9979
-0.4784 0.1830 -0.0707 0.9979
-0.4784 0.1750 -0.0703 0.9979
-0.4784 0.1593 -0.0696 0.9980
-0.4780 0.1362 -0.0686 0.9980
-0.4780 0.1287 -0.0683 0.9980
-0.4777 0.1138 -0.0678 0.9980
-0.4776 0.1064 -0.0675 0.9980
-0.4774 0.0991 -0.0673 0.9980
-0.4771 0.0918 -0.0670 0.9980
-0.4768 0.0845 -0.0668 0.9980
-0.4765 0.0773 -0.0666 0.9981
-0.4758 0.0629 -0.0662 0.9981
-0.4749 0.0488 -0.0659 0.9981
-0.4738 0.0347 -0.0656 0.9981
-0.4727 0.0208 -0.0653 0.9981
-0.4720 0.0138 -0.0652 0.9981
-0.4567 0.0000 -0.0682 0.9982
-0.4573 -0.0067 -0.0683 0.9982
-0.4580 -0.0134 -0.0684 0.9981
-0.4601 -0.0404 -0.0690 0.9981
-0.4606 -0.0472 -0.0691 0.9981
-0.4617 -0.0679 -0.0697 0.9981
-0.4625 -0.0889 -0.0703 0.9981
-0.4627 -0.0960 -0.0706 0.9981
-0.4628 -0.1031 -0.0708 0.9981
-0.4630 -0.1103 -0.0711 0.9981
-0.4630 -0.1174 -0.0713 0.9981
-0.4630 -0.1246 -0.0716 0.9981
-0.4630 -0.1320 -0.0719 0.9981
-0.4630 -0.1393 -0.0722 0.9980
-0.4629 -0.1466 -0.0725 0.9980
-0.4627 -0.1770 -0.0740 0.9980
-0.4625 -0.1846 -0.0744 0.9980
-0.4624 -0.2005 -0.0752 0.9980
-0.4622 -0.2167 -0.0762 0.9979
-0.4621 -0.2249 -0.0767 0.9979
-0.4619 -0.2332 -0.0773 0.9979
-0.4614 -0.2501 -0.0784 0.9979
-0.4611 -0.2587 -0.0789 0.9979
-0.4607 -0.2675 -0.0795 0.9978
-0.4603 -0.2763 -0.0801 0.9978
-0.4598 -0.2852 -0.0808 0.9978
-0.4592 -0.2942 -0.0814 0.9978
-0.4572 -0.3221 -0.0835 0.9977
-0.4564 -0.3316 -0.0842 0.9977
-0.4532 -0.3716 -0.0875 0.9976
-0.4525 -0.3821 -0.0884 0.9976
-0.4517 -0.3930 -0.0894 0.9976
-0.4509 -0.4039 -0.0904 0.9976
-0.4489 -0.4265 -0.0925 0.9975
-0.4467 -0.4500 -0.0947 0.9974
-0.4455 -0.4620 -0.0958 0.9974
-0.4441 -0.4743 -0.0970 0.9974
-0.4412 -0.4996 -0.0995 0.9973
-0.4395 -0.5127 -0.1008 0.9973
-0.4391 -0.5275 -0.1025 0.9972
-0.4379 -0.5586 -0.1060 0.9971
-0.4613 -0.6065 -0.1138 0.9969
-0.5187 -0.7030 -0.1304 0.9965
-3.8763 -5.4180 -0.9947 0.9734
-3.7968 -5.4742 -0.9947 0.9734
-3.7164 -5.5291 -0.9947 0.9734
-3.6353 -5.5829 -0.9947 0.9734
-3.3031 -5.7860 -0.9948 0.9734
-3.2183 -5.8337 -0.9948 0.9734
-3.1327 -5.8802 -0.9948 0.9734
-1.3675 -2.8625 -0.4737 0.9873
-1.3274 -2.8863 -0.4743 0.9872
-2.4258 -6.2061 -0.9949 0.9734
-2.3348 -6.2409 -0.9949 0.9734
-2.2434 -6.2744 -0.9949 0.9734
-2.0592 -6.3375 -0.9949 0.9734
-1.9664 -6.3670 -0.9950 0.9734
-1.8732 -6.3951 -0.9950 0.9734
-0.5922 -2.5698 -0.3938 0.9894
-0.4676 -2.5314 -0.3844 0.9896
-0.3300 -2.3621 -0.3561 0.9904
-0.2994 -2.3980 -0.3608 0.9903
-0.1527 -2.3180 -0.3469 0.9906
-0.0484 -2.2069 -0.3296 0.9911
-0.0159 -2.1704 -0.3241 0.9913
0.0174 -2.3916 -0.3571 0.9904
0.1646 -2.4990 -0.3739 0.9899
0.1969 -2.4450 -0.3662 0.9901
0.2851 -2.5915 -0.3893 0.9895
0.3273 -2.6220 -0.3945 0.9894
0.3787 -2.7106 -0.4087 0.9890
0.5837 -3.1600 -0.4798 0.9871
0.6717 -3.1228 -0.4769 0.9872
0.8661 -3.3130 -0.5113 0.9862
1.8742 -6.3985 -0.9955 0.9734
1.9675 -6.3705 -0.9955 0.9734
2.1528 -6.3104 -0.9955 0.9734
2.3363 -6.2450 -0.9956 0.9734
2.4274 -6.2103 -0.9956 0.9734
2.6079 -6.1369 -0.9956 0.9734
2.8744 -6.0169 -0.9956 0.9734
3.1355 -5.8854 -0.9957 0.9734
3.3062 -5.7914 -0.9957 0.9734
3.3905 -5.7426 -0.9957 0.9734
3.4741 -5.6925 -0.9957 0.9734
3.5569 -5.6412 -0.9957 0.9734
3.6390 -5.5887 -0.9957 0.9734
3.8805 -5.4240 -0.9958 0.9734
4.1146 -5.2489 -0.9958 0.9734
4.3409 -5.0637 -0.9958 0.9734
4.4144 -4.9998 -0.9959 0.9734
4.6294 -4.8018 -0.9959 0.9734
4.9679 -4.4512 -0.9959 0.9734
5.0959 -4.3042 -0.9960 0.9734
5.1989 -4.0145 -0.9807 0.9738
4.3870 -2.9955 -0.7932 0.9787
4.4465 -2.9418 -0.7961 0.9787
5.5819 -3.4628 -0.9808 0.9738
5.6808 -3.2983 -0.9808 0.9738
5.7284 -3.2149 -0.9808 0.9738
5.7748 -3.1309 -0.9808 0.9738
5.8639 -2.9609 -0.9808 0.9738
5.9066 -2.8749 -0.9808 0.9738
5.9480 -2.7883 -0.9808 0.9738
5.9881 -2.7011 -0.9808 0.9738
6.0646 -2.5250 -0.9809 0.9738
6.1009 -2.4361 -0.9809 0.9738
6.2983 -2.2002 -0.9961 0.9734
6.3298 -2.1079 -0.9961 0.9734
6.3600 -2.0152 -0.9961 0.9734
6.3888 -1.9221 -0.9961 0.9734
6.4162 -1.8286 -0.9961 0.9734
6.4423 -1.7346 -0.9961 0.9734
6.4902 -1.5457 -0.9962 0.9734
6.5121 -1.4507 -0.9962 0.9734
6.5327 -1.3553 -0.9962 0.9734
6.6007 -0.9714 -0.9962 0.9734
6.6370 -0.6812 -0.9962 0.9734
6.6462 -0.5842 -0.9962 0.9734
6.6655 -0.2924 -0.9962 0.9734
6.6719 0.0000 -0.9962 0.9734
6.6712 0.0975 -0.9962 0.9734
6.6691 0.1950 -0.9962 0.9734
6.6655 0.2924 -0.9962 0.9734
6.6605 0.3897 -0.9962 0.9734
6.6462 0.5842 -0.9962 0.9734
6.6370 0.6813 -0.9962 0.9734
6.6143 0.8749 -0.9962 0.9734
6.5695 1.1639 -0.9962 0.9734
6.5518 1.2597 -0.9962 0.9734
6.5121 1.4507 -0.9962 0.9734
6.4162 1.8286 -0.9961 0.9734
6.3600 2.0153 -0.9961 0.9734
6.2983 2.2002 -0.9961 0.9734
6.2655 2.2920 -0.9961 0.9734
6.2313 2.3833 -0.9961 0.9734
5.9552 3.0070 -0.9961 0.9734
5.9105 3.0936 -0.9961 0.9734
5.8646 3.1796 -0.9961 0.9734
5.8175 3.2650 -0.9961 0.9734
5.6687 3.5167 -0.9960 0.9734
5.6167 3.5991 -0.9960 0.9734
5.5635 3.6808 -0.9960 0.9734
5.5091 3.7616 -0.9960 0.9734
5.4535 3.8417 -0.9960 0.9734
5.2797 4.0769 -0.9960 0.9734
5.2196 4.1536 -0.9960 0.9734
5.1583 4.2294 -0.9960 0.9734
5.0959 4.3043 -0.9960 0.9734
4.7679 4.6646 -0.9959 0.9734
4.4871 4.9349 -0.9959 0.9734
4.4145 4.9999 -0.9959 0.9734
4.2664 5.1266 -0.9958 0.9734
4.1147 5.2490 -0.9958 0.9734
4.0375 5.3085 -0.9958 0.9734
3.8806 5.4241 -0.9958 0.9734
3.8009 5.4801 -0.9958 0.9734
3.7203 5.5350 -0.9958 0.9734
3.6390 5.5887 -0.9958 0.9734
3.5569 5.6412 -0.9957 0.9734
3.4741 5.6925 -0.9957 0.9734
3.3905 5.7426 -0.9957 0.9734
3.3062 5.7915 -0.9957 0.9734
3.2212 5.8391 -0.9957 0.9734
3.0491 5.9306 -0.9957 0.9734
2.7862 6.0583 -0.9956 0.9734
1.5621 3.6759 -0.5963 0.9840
1.1651 3.4152 -0.5388 0.9855
1.0574 3.4238 -0.5350 0.9856
0.8985 3.4366 -0.5304 0.9857
0.7944 3.4470 -0.5281 0.9858
0.7431 3.4547 -0.5276 0.9858
0.6920 3.4624 -0.5272 0.9858
0.6410 3.4702 -0.5269 0.9858
0.5391 3.4858 -0.5266 0.9858
0.4881 3.4936 -0.5267 0.9858
0.3862 3.5094 -0.5271 0.9858
0.2841 3.5271 -0.5283 0.9858
0.2331 3.5388 -0.5295 0.9858
0.1302 3.5624 -0.5323 0.9857
0.0784 3.5743 -0.5338 0.9856
0.0262 3.5863 -0.5355 0.9856
-0.0263 3.5984 -0.5373 0.9856
-0.0795 3.6271 -0.5417 0.9854
-0.1974 3.8567 -0.5766 0.9845
-0.2562 3.8907 -0.5822 0.9844
-0.3181 3.9491 -0.5915 0.9841
-0.6321 6.6350 -0.9951 0.9734
-0.7290 6.6250 -0.9951 0.9734
-0.8256 6.6136 -0.9951 0.9734
-0.9222 6.6007 -0.9951 0.9734
-1.2105 6.5536 -0.9951 0.9734
-1.6856 6.4473 -0.9950 0.9734
-1.7795 6.4219 -0.9950 0.9734
-1.8732 6.3952 -0.9950 0.9734
-1.9664 6.3671 -0.9950 0.9734
-2.0592 6.3375 -0.9949 0.9734
-2.1515 6.3067 -0.9949 0.9734
-2.2434 6.2745 -0.9949 0.9734
-2.3349 6.2410 -0.9949 0.9734
-2.4258 6.2061 -0.9949 0.9734
-2.5162 6.1699 -0.9949 0.9734
-2.5586 6.0209 -0.9768 0.9739
-2.8721 6.0121 -0.9948 0.9734
-2.9596 5.9694 -0.9948 0.9734
-3.3872 5.7371 -0.9948 0.9734
-3.4707 5.6869 -0.9947 0.9734
-2.9583 4.1350 -0.7591 0.9796
-0.4613 0.6066 -0.1138 0.9969
-0.4379 0.5587 -0.1060 0.9971
-0.4396 0.5128 -0.1008 0.9973
-0.4441 0.4743 -0.0970 0.9974
-0.4479 0.4382 -0.0935 0.9975
-0.4489 0.4266 -0.0925 0.9975
-0.4499 0.4152 -0.0914 0.9975
-0.4517 0.3930 -0.0894 0.9976
-0.4525 0.3822 -0.0884 0.9976
-0.4532 0.3716 -0.0875 0.9976
-0.4564 0.3316 -0.0842 0.9977
-0.4572 0.3221 -0.0835 0.9977
-0.4592 0.2943 -0.0814 0.9978
-0.4603 0.2763 -0.0801 0.9978
-0.4614 0.2502 -0.0784 0.9979
-0.4617 0.2417 -0.0778 0.9979
-0.4619 0.2332 -0.0773 0.9979
-0.4623 0.2086 -0.0757 0.9980
-0.4624 0.2005 -0.0752 0.9980
-0.4626 0.1847 -0.0744 0.9980
-0.4627 0.1770 -0.0740 0.9980
-0.4629 0.1541 -0.0728 0.9980
-0.4629 0.1467 -0.0725 0.9980
-0.4630 0.1247 -0.0716 0.9981
-0.4630 0.1175 -0.0713 0.9981
-0.4627 0.0961 -0.0706 0.9981
-0.4623 0.0820 -0.0701 0.9981
-0.4620 0.0749 -0.0699 0.9981
-0.4617 0.0680 -0.0697 0.9981
-0.4602 0.0405 -0.0690 0.9981
-0.4596 0.0337 -0.0688 0.9981
-0.4586 0.0202 -0.0685 0.9981
-0.4573 0.0067 -0.0683 0.9982
-0.4452 -0.0195 -0.0716 0.9982
-0.4467 -0.0393 -0.0720 0.9982
-0.4478 -0.0592 -0.0726 0.9982
-0.4483 -0.0727 -0.0730 0.9982
-0.4487 -0.0862 -0.0734 0.9982
-0.4489 -0.0931 -0.0736 0.9981
-0.4490 -0.1000 -0.0739 0.9981
-0.4490 -0.1209 -0.0747 0.9981
-0.4487 -0.1421 -0.0756 0.9981
-0.4485 -0.1493 -0.0759 0.9981
-0.4483 -0.1565 -0.0763 0.9981
-0.4479 -0.1713 -0.0770 0.9981
-0.4477 -0.1787 -0.0774 0.9980
-0.4474 -0.1863 -0.0779 0.9980
-0.4472 -0.1939 -0.0783 0.9980
-0.4470 -0.2016 -0.0788 0.9980
-0.4466 -0.2173 -0.0798 0.9980
-0.4460 -0.2334 -0.0809 0.9980
-0.4429 -0.2838 -0.0845 0.9979
-0.4422 -0.2925 -0.0852 0.9979
-0.4406 -0.3104 -0.0866 0.9978
-0.4397 -0.3195 -0.0873 0.9978
-0.4387 -0.3286 -0.0881 0.9978
-0.4377 -0.3379 -0.0888 0.9978
-0.4366 -0.3474 -0.0896 0.9977
-0.4332 -0.3768 -0.0922 0.9977
-0.4321 -0.3872 -0.0932 0.9977
-0.4311 -0.3977 -0.0942 0.9976
-0.4273 -0.4304 -0.0974 0.9975
-0.4264 -0.4423 -0.0987 0.9975
-0.4260 -0.4549 -0.1001 0.9975
-0.4249 -0.4812 -0.1031 0.9974
-0.4236 -0.5089 -0.1064 0.9973
-0.4228 -0.5234 -0.1081 0.9973
-0.4211 -0.5536 -0.1117 0.9972
-0.4267 -0.5784 -0.1155 0.9971
-0.4648 -0.6496 -0.1283 0.9968
-3.3786 -5.1887 -0.9948 0.9752
-3.3025 -5.2376 -0.9948 0.9752
-3.2256 -5.2854 -0.9948 0.9752
-1.5435 -2.8971 -0.5274 0.9868
-2.8314 -5.5070 -0.9948 0.9752
-2.7506 -5.5479 -0.9948 0.9752
-1.3681 -2.8637 -0.5099 0.9872
-1.3280 -2.8875 -0.5106 0.9872
-2.3385 -5.7342 -0.9949 0.9752
-2.2545 -5.7678 -0.9949 0.9752
-2.1700 -5.8002 -0.9949 0.9752
-2.0850 -5.8314 -0.9949 0.9752
-1.9996 -5.8613 -0.9949 0.9752
-1.9138 -5.8900 -0.9950 0.9752
-1.8275 -5.9174 -0.9950 0.9752
-0.6220 -2.5297 -0.4185 0.9895
-0.5849 -2.5380 -0.4184 0.9895
-0.5477 -2.5459 -0.4184 0.9895
-0.5103 -2.5533 -0.4183 0.9895
-0.4729 -2.5601 -0.4183 0.9895
-0.3938 -2.5465 -0.4140 0.9896
-0.3041 -2.4355 -0.3943 0.9901
-0.2220 -2.3304 -0.3761 0.9906
-0.0503 -2.2936 -0.3686 0.9907
-0.0186 -2.5501 -0.4097 0.9897
0.0183 -2.5029 -0.4021 0.9899
0.0539 -2.4573 -0.3949 0.9901
0.0907 -2.4815 -0.3989 0.9900
0.1675 -2.5433 -0.4095 0.9897
0.3000 -2.7264 -0.4407 0.9889
0.3416 -2.7359 -0.4430 0.9889
0.3803 -2.7221 -0.4416 0.9889
0.4229 -2.7350 -0.4446 0.9889
0.6220 -3.1123 -0.5099 0.9872
0.7722 -3.3509 -0.5525 0.9862
1.6546 -5.9712 -0.9955 0.9752
1.8285 -5.9204 -0.9955 0.9752
1.9148 -5.8932 -0.9955 0.9752
2.0862 -5.8348 -0.9955 0.9752
2.1713 -5.8038 -0.9955 0.9752
2.2559 -5.7715 -0.9956 0.9752
2.4236 -5.7032 -0.9956 0.9752
2.5067 -5.6673 -0.9956 0.9752
2.5893 -5.6302 -0.9956 0.9752
2.7528 -5.5522 -0.9956 0.9752
2.9139 -5.4696 -0.9956 0.9752
3.1509 -5.3368 -0.9957 0.9752
3.2286 -5.2902 -0.9957 0.9752
3.3055 -5.2425 -0.9957 0.9752
3.4574 -5.1438 -0.9957 0.9752
3.7521 -4.9333 -0.9958 0.9752
3.8239 -4.8780 -0.9958 0.9752
3.8948 -4.8216 -0.9958 0.9752
3.9648 -4.7643 -0.9958 0.9752
4.1024 -4.6464 -0.9958 0.9752
4.2365 -4.5247 -0.9958 0.9752
4.4938 -4.2696 -0.9959 0.9752
4.5460 -4.0732 -0.9806 0.9756
4.6051 -4.0064 -0.9806 0.9756
4.7763 -3.8009 -0.9807 0.9756
4.2109 -3.1545 -0.8453 0.9789
4.3279 -3.0488 -0.8505 0.9788
4.3870 -2.9955 -0.8534 0.9787
4.4465 -2.9418 -0.8566 0.9786
5.1873 -3.2180 -0.9807 0.9756
5.3235 -2.9877 -0.9807 0.9756
5.3666 -2.9096 -0.9808 0.9756
5.4086 -2.8309 -0.9808 0.9756
5.4494 -2.7516 -0.9808 0.9756
5.4891 -2.6717 -0.9808 0.9756
5.5276 -2.5912 -0.9808 0.9756
5.5649 -2.5102 -0.9808 0.9756
5.6010 -2.4286 -0.9808 0.9756
5.8225 -2.1300 -0.9961 0.9752
5.9104 -1.8727 -0.9961 0.9752
5.9868 -1.6120 -0.9961 0.9752
6.0097 -1.5243 -0.9961 0.9752
6.0314 -1.4363 -0.9961 0.9752
6.0518 -1.3481 -0.9961 0.9752
6.0708 -1.2595 -0.9961 0.9752
6.0886 -1.1707 -0.9961 0.9752
6.1051 -1.0816 -0.9961 0.9752
6.1203 -0.9923 -0.9961 0.9752
6.1341 -0.9027 -0.9961 0.9752
6.1466 -0.8130 -0.9961 0.9752
6.1764 -0.5429 -0.9961 0.9752
6.1837 -0.4526 -0.9961 0.9752
6.1896 -0.3622 -0.9961 0.9752
6.1943 -0.2717 -0.9961 0.9752
6.1976 -0.1811 -0.9961 0.9752
6.1996 -0.0905 -0.9961 0.9752
6.2002 0.0000 -0.9961 0.9752
6.1996 0.0906 -0.9961 0.9752
6.1976 0.1811 -0.9961 0.9752
6.1943 0.2717 -0.9961 0.9752
6.1837 0.4526 -0.9961 0.9752
6.1678 0.6331 -0.9961 0.9752
6.1579 0.7232 -0.9961 0.9752
6.1467 0.8130 -0.9961 0.9752
6.1341 0.9028 -0.9961 0.9752
6.1051 1.0816 -0.9961 0.9752
6.0886 1.1707 -0.9961 0.9752
6.0708 1.2595 -0.9961 0.9752
6.0098 1.5243 -0.9961 0.9752
5.9868 1.6120 -0.9961 0.9752
5.9104 1.8728 -0.9961 0.9752
5.8823 1.9589 -0.9961 0.9752
5.6881 2.4664 -0.9960 0.9752
5.6514 2.5493 -0.9960 0.9752
5.6135 2.6315 -0.9960 0.9752
5.5745 2.7133 -0.9960 0.9752
5.4927 2.8750 -0.9960 0.9752
5.4501 2.9549 -0.9960 0.9752
5.4063 3.0342 -0.9960 0.9752
5.3614 3.1128 -0.9960 0.9752
5.2681 3.2681 -0.9960 0.9752
5.2197 3.3447 -0.9960 0.9752
5.1197 3.4957 -0.9960 0.9752
5.0680 3.5702 -0.9960 0.9752
5.0153 3.6438 -0.9959 0.9752
4.9066 3.7887 -0.9959 0.9752
4.7937 3.9304 -0.9959 0.9752
4.6767 4.0687 -0.9959 0.9752
4.6168 4.1366 -0.9959 0.9752
4.5558 4.2036 -0.9959 0.9752
4.4938 4.2697 -0.9959 0.9752
4.2366 4.5247 -0.9958 0.9752
4.1025 4.6465 -0.9958 0.9752
4.0341 4.7059 -0.9958 0.9752
3.9649 4.7643 -0.9958 0.9752
3.8239 4.8780 -0.9958 0.9752
3.7522 4.9334 -0.9958 0.9752
3.6796 4.9876 -0.9958 0.9752
3.4574 5.1439 -0.9957 0.9752
3.3819 5.1938 -0.9957 0.9752
3.2286 5.2903 -0.9957 0.9752
3.1509 5.3368 -0.9957 0.9752
2.8337 5.5116 -0.9956 0.9752
2.7528 5.5523 -0.9956 0.9752
2.5893 5.6302 -0.9956 0.9752
1.5579 3.6661 -0.6400 0.9840
1.4769 3.6216 -0.6284 0.9843
1.2281 3.4348 -0.5860 0.9853
1.1661 3.4179 -0.5802 0.9855
1.1120 3.4223 -0.5781 0.9855
1.0050 3.4309 -0.5743 0.9856
0.9519 3.4351 -0.5727 0.9857
0.8997 3.4415 -0.5715 0.9857
0.8482 3.4492 -0.5706 0.9857
0.7453 3.4647 -0.5694 0.9857
0.6940 3.4725 -0.5689 0.9858
0.5917 3.4880 -0.5684 0.9858
0.5407 3.4959 -0.5683 0.9858
0.4896 3.5037 -0.5684 0.9858
0.4384 3.5116 -0.5685 0.9858
0.3873 3.5196 -0.5689 0.9858
0.3361 3.5275 -0.5693 0.9857
0.1820 3.5534 -0.5716 0.9857
0.1303 3.5652 -0.5732 0.9857
0.0262 3.5892 -0.5766 0.9856
-0.2556 3.8815 -0.6249 0.9844
-0.3173 3.9388 -0.6348 0.9841
-0.5875 6.1664 -0.9952 0.9752
-0.6775 6.1570 -0.9951 0.9752
-0.7673 6.1464 -0.9951 0.9752
-0.8571 6.1345 -0.9951 0.9752
-0.9466 6.1212 -0.9951 0.9752
-1.4788 6.0144 -0.9950 0.9752
-1.5665 5.9921 -0.9950 0.9752
-1.6539 5.9684 -0.9950 0.9752
-1.8276 5.9174 -0.9950 0.9752
-1.9996 5.8614 -0.9950 0.9752
-2.0850 5.8314 -0.9949 0.9752
-2.1700 5.8003 -0.9949 0.9752
-2.2545 5.7679 -0.9949 0.9752
-2.3385 5.7343 -0.9949 0.9752
-2.4220 5.6994 -0.9949 0.9752
-2.5874 5.6261 -0.9949 0.9752
-2.7507 5.5479 -0.9948 0.9752
-2.8314 5.5071 -0.9948 0.9752
-2.9115 5.4651 -0.9948 0.9752
-2.9910 5.4219 -0.9948 0.9752
-3.3025 5.2377 -0.9948 0.9752
-3.3786 5.1888 -0.9948 0.9752
-3.4541 5.1388 -0.9947 0.9752
-3.5287 5.0878 -0.9947 0.9752
-0.4648 0.6497 -0.1283 0.9968
-0.4220 0.5383 -0.1099 0.9972
-0.4228 0.5234 -0.1081 0.9973
-0.4260 0.4550 -0.1001 0.9975
-0.4273 0.4305 -0.0974 0.9975
-0.4287 0.4194 -0.0963 0.9976
-0.4332 0.3769 -0.0922 0.9977
-0.4342 0.3668 -0.0913 0.9977
-0.4354 0.3570 -0.0905 0.9977
-0.4377 0.3380 -0.0888 0.9978
-0.4387 0.3287 -0.0881 0.9978
-0.4414 0.3014 -0.0859 0.9978
-0.4422 0.2926 -0.0852 0.9979
-0.4429 0.2839 -0.0845 0.9979
-0.4442 0.2666 -0.0832 0.9979
-0.4447 0.2582 -0.0826 0.9979
-0.4452 0.2499 -0.0820 0.9979
-0.4456 0.2416 -0.0814 0.9979
-0.4460 0.2335 -0.0809 0.9980
-0.4463 0.2254 -0.0803 0.9980
-0.4466 0.2174 -0.0798 0.9980
-0.4469 0.2095 -0.0793 0.9980
-0.4471 0.2017 -0.0788 0.9980
-0.4481 0.1639 -0.0766 0.9981
-0.4482 0.1566 -0.0763 0.9981
-0.4487 0.1422 -0.0756 0.9981
-0.4490 0.1279 -0.0750 0.9981
-0.4490 0.1139 -0.0744 0.9981
-0.4490 0.1070 -0.0742 0.9981
-0.4490 0.1000 -0.0739 0.9981
-0.4489 0.0931 -0.0736 0.9981
-0.4487 0.0863 -0.0734 0.9982
-0.4486 0.0795 -0.0732 0.9982
-0.4483 0.0727 -0.0730 0.9982
-0.4481 0.0660 -0.0728 0.9982
-0.4471 0.0459 -0.0722 0.9982
-0.4310 0.0000 -0.0741 0.9983
-0.4321 -0.0126 -0.0744 0.9982
-0.4331 -0.0254 -0.0746 0.9982
-0.4336 -0.0317 -0.0748 0.9982
-0.4340 -0.0381 -0.0749 0.9982
-0.4343 -0.0446 -0.0751 0.9982
-0.4347 -0.0511 -0.0753 0.9982
-0.4354 -0.0706 -0.0759 0.9982
-0.4356 -0.0771 -0.0761 0.9982
-0.4358 -0.1173 -0.0776 0.9982
-0.4356 -0.1241 -0.0779 0.9982
-0.4355 -0.1310 -0.0782 0.9982
-0.4353 -0.1379 -0.0786 0.9981
-0.4341 -0.1660 -0.0799 0.9981
-0.4337 -0.1732 -0.0803 0.9981
-0.4330 -0.1877 -0.0812 0.9981
-0.4327 -0.1952 -0.0817 0.9981
-0.4324 -0.2027 -0.0822 0.9981
-0.4321 -0.2103 -0.0827 0.9981
-0.4309 -0.2336 -0.0843 0.9980
-0.4303 -0.2415 -0.0849 0.9980
-0.4297 -0.2495 -0.0855 0.9980
-0.4284 -0.2658 -0.0867 0.9980
-0.4269 -0.2824 -0.0881 0.9979
-0.4251 -0.2995 -0.0895 0.9979
-0.4241 -0.3081 -0.0902 0.9979
-0.4230 -0.3169 -0.0909 0.9979
-0.4195 -0.3439 -0.0933 0.9978
-0.4181 -0.3532 -0.0942 0.9978
-0.4167 -0.3625 -0.0950 0.9978
-0.4148 -0.3827 -0.0971 0.9977
-0.4139 -0.4049 -0.0996 0.9977
-0.4128 -0.4282 -0.1023 0.9976
-0.4115 -0.4525 -0.1052 0.9975
-0.4108 -0.4652 -0.1068 0.9975
-0.4071 -0.5193 -0.1135 0.9973
-0.4034 -0.5639 -0.1193 0.9972
-0.4236 -0.6108 -0.1279 0.9970
-3.0840 -4.8911 -0.9948 0.9768
-3.0122 -4.9357 -0.9948 0.9768
-2.9398 -4.9792 -0.9948 0.9768
-2.8668 -5.0217 -0.9948 0.9768
-2.7931 -5.0631 -0.9948 0.9768
-2.5686 -5.1808 -0.9949 0.9768
-1.3285 -2.8887 -0.5470 0.9872
-2.2617 -5.3222 -0.9949 0.9768
-2.1837 -5.3547 -0.9949 0.9768
-2.1053 -5.3861 -0.9949 0.9768
-1.7871 -5.5002 -0.9950 0.9768
-1.7066 -5.5258 -0.9950 0.9768
-0.6877 -2.3479 -0.4209 0.9901
-0.6532 -2.3571 -0.4208 0.9901
-0.5490 -2.3822 -0.4206 0.9901
-0.4086 -2.4089 -0.4204 0.9901
-0.3026 -2.4239 -0.4203 0.9901
-0.2398 -2.5171 -0.4350 0.9898
-0.2068 -2.5672 -0.4431 0.9896
-0.1692 -2.5690 -0.4429 0.9896
-0.1316 -2.5708 -0.4429 0.9896
-0.0567 -2.5868 -0.4451 0.9896
-0.0185 -2.5382 -0.4367 0.9898
0.0536 -2.4462 -0.4210 0.9901
0.2046 -2.5407 -0.4385 0.9897
0.2617 -2.7473 -0.4748 0.9889
0.2993 -2.7198 -0.4708 0.9890
0.3767 -2.6959 -0.4683 0.9890
0.4136 -2.4384 -0.4255 0.9900
0.4578 -2.4783 -0.4336 0.9898
0.5986 -2.9951 -0.5255 0.9877
0.6435 -2.9916 -0.5265 0.9877
0.7703 -3.3427 -0.5902 0.9862
0.8619 -3.2970 -0.5863 0.9863
1.6264 -5.5528 -0.9955 0.9768
1.7880 -5.5030 -0.9955 0.9768
1.8683 -5.4763 -0.9955 0.9768
1.9481 -5.4485 -0.9955 0.9768
2.1065 -5.3894 -0.9955 0.9768
2.1851 -5.3581 -0.9955 0.9768
2.2631 -5.3257 -0.9956 0.9768
2.4178 -5.2573 -0.9956 0.9768
2.4944 -5.2215 -0.9956 0.9768
2.5705 -5.1846 -0.9956 0.9768
2.6460 -5.1465 -0.9956 0.9768
2.8691 -5.0257 -0.9956 0.9768
3.2284 -4.8032 -0.9957 0.9768
3.2983 -4.7555 -0.9957 0.9768
3.3675 -4.7069 -0.9957 0.9768
3.5706 -4.5549 -0.9957 0.9768
3.8937 -4.2823 -0.9958 0.9768
3.9558 -4.1030 -0.9806 0.9771
4.0741 -3.9857 -0.9806 0.9771
4.1319 -3.9258 -0.9806 0.9771
4.3543 -3.6779 -0.9806 0.9771
4.5114 -3.4836 -0.9806 0.9771
4.2109 -3.1544 -0.9052 0.9789
4.2692 -3.1018 -0.9079 0.9788
4.3870 -2.9955 -0.9139 0.9787
4.4464 -2.9417 -0.9173 0.9786
4.7993 -3.0753 -0.9807 0.9771
4.8438 -3.0049 -0.9807 0.9771
4.8872 -2.9338 -0.9807 0.9771
4.9295 -2.8621 -0.9807 0.9771
5.0111 -2.7169 -0.9807 0.9771
5.0503 -2.6434 -0.9807 0.9771
5.1255 -2.4947 -0.9807 0.9771
5.1614 -2.4195 -0.9807 0.9771
5.1992 -2.3454 -0.9814 0.9771
5.4368 -1.9888 -0.9960 0.9768
5.4654 -1.9092 -0.9960 0.9768
5.5188 -1.7487 -0.9960 0.9768
5.5438 -1.6679 -0.9960 0.9768
5.5676 -1.5867 -0.9960 0.9768
5.6687 -1.1761 -0.9960 0.9768
5.6853 -1.0931 -0.9960 0.9768
5.7148 -0.9265 -0.9960 0.9768
5.7278 -0.8429 -0.9960 0.9768
5.7592 -0.5911 -0.9961 0.9768
5.7672 -0.5069 -0.9961 0.9768
5.7740 -0.4226 -0.9961 0.9768
5.7796 -0.3382 -0.9961 0.9768
5.7889 0.0846 -0.9961 0.9768
5.7870 0.1692 -0.9961 0.9768
5.7740 0.4226 -0.9961 0.9768
5.7395 0.7592 -0.9960 0.9768
5.7278 0.8430 -0.9960 0.9768
5.6853 1.0932 -0.9960 0.9768
5.6509 1.2587 -0.9960 0.9768
5.6116 1.4234 -0.9960 0.9768
5.5438 1.6679 -0.9960 0.9768
5.5189 1.7487 -0.9960 0.9768
5.4927 1.8292 -0.9960 0.9768
5.4369 1.9889 -0.9960 0.9768
5.4072 2.0681 -0.9960 0.9768
5.3763 2.1469 -0.9960 0.9768
5.2770 2.3804 -0.9960 0.9768
5.2052 2.5335 -0.9960 0.9768
5.1676 2.6093 -0.9960 0.9768
5.0482 2.8332 -0.9960 0.9768
5.0062 2.9066 -0.9959 0.9768
4.9191 3.0516 -0.9959 0.9768
4.8740 3.1232 -0.9959 0.9768
4.8278 3.1941 -0.9959 0.9768
4.7805 3.2642 -0.9959 0.9768
4.6831 3.4025 -0.9959 0.9768
4.6328 3.4705 -0.9959 0.9768
4.5816 3.5378 -0.9959 0.9768
4.5294 3.6043 -0.9959 0.9768
4.4762 3.6701 -0.9959 0.9768
4.3670 3.7993 -0.9959 0.9768
4.3110 3.8627 -0.9958 0.9768
4.1962 3.9869 -0.9958 0.9768
4.1374 4.0478 -0.9958 0.9768
4.0173 4.1669 -0.9958 0.9768
3.9560 4.2250 -0.9958 0.9768
3.8307 4.3387 -0.9958 0.9768
3.5707 4.5550 -0.9957 0.9768
3.5036 4.6066 -0.9957 0.9768
3.3675 4.7069 -0.9957 0.9768
3.2285 4.8032 -0.9957 0.9768
3.0148 4.9400 -0.9957 0.9768
2.8691 5.0258 -0.9956 0.9768
2.7953 5.0671 -0.9956 0.9768
2.5705 5.1846 -0.9956 0.9768
2.4945 5.2216 -0.9956 0.9768
1.5585 3.6675 -0.6856 0.9840
1.0591 3.4293 -0.6175 0.9855
0.9543 3.4439 -0.6148 0.9856
0.9024 3.4516 -0.6138 0.9856
0.8506 3.4593 -0.6129 0.9856
0.7990 3.4670 -0.6121 0.9857
0.7475 3.4748 -0.6115 0.9857
0.5935 3.4982 -0.6104 0.9857
0.5422 3.5061 -0.6104 0.9857
0.4910 3.5139 -0.6104 0.9857
0.3884 3.5298 -0.6110 0.9857
0.1824 3.5621 -0.6137 0.9856
-0.0263 3.6042 -0.6201 0.9855
-0.2555 3.8798 -0.6690 0.9843
-0.3172 3.9389 -0.6799 0.9841
-0.8003 5.7285 -0.9951 0.9768
-0.8840 5.7161 -0.9951 0.9768
-1.0506 5.6877 -0.9951 0.9768
-1.1336 5.6717 -0.9951 0.9768
-1.5444 5.5735 -0.9950 0.9768
-1.6257 5.5503 -0.9950 0.9768
-1.7066 5.5258 -0.9950 0.9768
-1.7871 5.5002 -0.9950 0.9768
-1.8673 5.4735 -0.9950 0.9768
-1.9470 5.4455 -0.9950 0.9768
-2.0264 5.4164 -0.9950 0.9768
-2.7189 5.1034 -0.9949 0.9768
-2.9398 4.9793 -0.9948 0.9768
-3.0840 4.8911 -0.9948 0.9768
-0.4671 0.6950 -0.1441 0.9966
-0.4237 0.6108 -0.1279 0.9970
-0.4035 0.5639 -0.1193 0.9972
-0.4048 0.5486 -0.1173 0.9972
-0.4081 0.5053 -0.1117 0.9974
-0.4091 0.4916 -0.1100 0.9974
-0.4100 0.4782 -0.1084 0.9974
-0.4115 0.4526 -0.1052 0.9975
-0.4144 0.3937 -0.0983 0.9977
-0.4148 0.3827 -0.0971 0.9977
-0.4156 0.3725 -0.0960 0.9977
-0.4167 0.3626 -0.0950 0.9978
-0.4195 0.3439 -0.0933 0.9978
-0.4219 0.3258 -0.0917 0.9978
-0.4230 0.3170 -0.0909 0.9979
-0.4241 0.3082 -0.0902 0.9979
-0.4260 0.2909 -0.0887 0.9979
-0.4291 0.2576 -0.0861 0.9980
-0.4298 0.2495 -0.0855 0.9980
-0.4313 0.2258 -0.0838 0.9980
-0.4317 0.2180 -0.0832 0.9980
-0.4321 0.2104 -0.0827 0.9981
-0.4324 0.2027 -0.0822 0.9981
-0.4327 0.1952 -0.0817 0.9981
-0.4334 0.1804 -0.0808 0.9981
-0.4337 0.1732 -0.0803 0.9981
-0.4340 0.1661 -0.0799 0.9981
-0.4344 0.1589 -0.0796 0.9981
-0.4355 0.1311 -0.0782 0.9982
-0.4356 0.1242 -0.0779 0.9982
-0.4358 0.1173 -0.0776 0.9982
-0.4358 0.1106 -0.0774 0.9982
-0.4359 0.1038 -0.0771 0.9982
-0.4359 0.0971 -0.0768 0.9982
-0.4358 0.0904 -0.0766 0.9982
-0.4357 0.0838 -0.0763 0.9982
-0.4356 0.0772 -0.0761 0.9982
-0.4354 0.0706 -0.0759 0.9982
-0.4321 0.0127 -0.0744 0.9982
-0.4315 0.0063 -0.0743 0.9982
-0.4202 -0.0123 -0.0771 0.9983
-0.4207 -0.0184 -0.0773 0.9983
-0.4219 -0.0371 -0.0777 0.9983
-0.4222 -0.0433 -0.0779 0.9983
-0.4225 -0.0496 -0.0781 0.9983
-0.4228 -0.0559 -0.0782 0.9983
-0.4230 -0.0622 -0.0784 0.9983
-0.4233 -0.0750 -0.0789 0.9983
-0.4234 -0.1073 -0.0801 0.9982
-0.4232 -0.1139 -0.0804 0.9982
-0.4231 -0.1205 -0.0807 0.9982
-0.4226 -0.1339 -0.0813 0.9982
-0.4223 -0.1406 -0.0817 0.9982
-0.4220 -0.1474 -0.0820 0.9982
-0.4216 -0.1542 -0.0824 0.9982
-0.4207 -0.1680 -0.0831 0.9982
-0.4188 -0.1963 -0.0849 0.9981
-0.4157 -0.2414 -0.0882 0.9980
-0.4150 -0.2491 -0.0888 0.9980
-0.4143 -0.2570 -0.0894 0.9980
-0.4116 -0.2810 -0.0914 0.9980
-0.4106 -0.2892 -0.0921 0.9980
-0.4097 -0.2976 -0.0929 0.9979
-0.4091 -0.3065 -0.0938 0.9979
-0.4086 -0.3155 -0.0947 0.9979
-0.4073 -0.3339 -0.0966 0.9979
-0.4050 -0.3629 -0.0998 0.9978
-0.4042 -0.3729 -0.1009 0.9978
-0.4027 -0.3826 -0.1019 0.9977
-0.4001 -0.4149 -0.1058 0.9977
-0.3966 -0.4626 -0.1118 0.9975
-0.3955 -0.4752 -0.1134 0.9975
-0.3944 -0.4882 -0.1151 0.9975
-0.3931 -0.5015 -0.1169 0.9974
-0.3919 -0.5152 -0.1188 0.9974
-0.4219 -0.6479 -0.1419 0.9969
-2.6882 -4.7089 -0.9949 0.9782
-2.6191 -4.7477 -0.9949 0.9782
-2.4086 -4.8581 -0.9949 0.9782
-1.2889 -2.9139 -0.5846 0.9871
-2.1208 -4.9907 -0.9949 0.9782
-1.9742 -5.0507 -0.9950 0.9782
-1.9002 -5.0790 -0.9950 0.9782
-1.8257 -5.1063 -0.9950 0.9782
-1.7510 -5.1325 -0.9950 0.9782
-0.5826 -2.2285 -0.4226 0.9907
-0.5499 -2.2364 -0.4226 0.9907
-0.4512 -2.2573 -0.4224 0.9907
-0.3849 -2.2691 -0.4223 0.9907
-0.3517 -2.2743 -0.4222 0.9907
-0.2516 -2.2871 -0.4222 0.9907
-0.2078 -2.5795 -0.4748 0.9895
-0.1700 -2.5812 -0.4746 0.9895
-0.1322 -2.5831 -0.4746 0.9895
0.0553 -2.5235 -0.4631 0.9898
0.0938 -2.5659 -0.4711 0.9896
0.1283 -2.5069 -0.4606 0.9898
0.1614 -2.4506 -0.4506 0.9901
0.2418 -2.5380 -0.4678 0.9897
0.2944 -2.6755 -0.4939 0.9891
0.3307 -2.6492 -0.4898 0.9892
0.3868 -2.5013 -0.4644 0.9898
0.4778 -2.5868 -0.4827 0.9894
0.5900 -2.7428 -0.5148 0.9887
0.7684 -3.3345 -0.6278 0.9862
1.5251 -5.2067 -0.9954 0.9782
1.6766 -5.1600 -0.9955 0.9782
1.7518 -5.1350 -0.9955 0.9782
2.2671 -4.9297 -0.9956 0.9782
2.4103 -4.8614 -0.9956 0.9782
2.5514 -4.7890 -0.9956 0.9782
2.6211 -4.7513 -0.9956 0.9782
2.6903 -4.7125 -0.9956 0.9782
2.8268 -4.6320 -0.9956 0.9782
2.8943 -4.5902 -0.9956 0.9782
2.9610 -4.5475 -0.9957 0.9782
3.0927 -4.4591 -0.9957 0.9782
3.1576 -4.4135 -0.9957 0.9782
3.3480 -4.2710 -0.9957 0.9782
3.3579 -4.1570 -0.9805 0.9785
3.4780 -4.0572 -0.9805 0.9785
3.5369 -4.0060 -0.9805 0.9785
3.5951 -3.9539 -0.9805 0.9785
3.7092 -3.8472 -0.9805 0.9785
3.8200 -3.7373 -0.9805 0.9785
3.9277 -3.6241 -0.9806 0.9785
3.9803 -3.5663 -0.9806 0.9785
4.0829 -3.4486 -0.9806 0.9785
4.1328 -3.3886 -0.9806 0.9785
4.1819 -3.3278 -0.9806 0.9785
4.2301 -3.2664 -0.9806 0.9785
4.2692 -3.1017 -0.9682 0.9788
4.3869 -2.9954 -0.9746 0.9786
4.4574 -2.9489 -0.9806 0.9785
4.5418 -2.8176 -0.9806 0.9785
4.5825 -2.7509 -0.9806 0.9785
4.6222 -2.6837 -0.9806 0.9785
4.6610 -2.6158 -0.9807 0.9785
4.6987 -2.5475 -0.9807 0.9785
4.7354 -2.4786 -0.9807 0.9785
4.9480 -2.2319 -0.9959 0.9782
4.9801 -2.1594 -0.9959 0.9782
5.0112 -2.0864 -0.9959 0.9782
5.1502 -1.7151 -0.9960 0.9782
5.2417 -1.4113 -0.9960 0.9782
5.2617 -1.3346 -0.9960 0.9782
5.2807 -1.2575 -0.9960 0.9782
5.2985 -1.1803 -0.9960 0.9782
5.3152 -1.1027 -0.9960 0.9782
5.3308 -1.0250 -0.9960 0.9782
5.3452 -0.9470 -0.9960 0.9782
5.3585 -0.8688 -0.9960 0.9782
5.3914 -0.6331 -0.9960 0.9782
5.4233 -0.2379 -0.9960 0.9782
5.4279 -0.0793 -0.9960 0.9782
5.4279 0.0793 -0.9960 0.9782
5.4233 0.2379 -0.9960 0.9782
5.4192 0.3171 -0.9960 0.9782
5.4076 0.4753 -0.9960 0.9782
5.4001 0.5543 -0.9960 0.9782
5.3816 0.7118 -0.9960 0.9782
5.3706 0.7904 -0.9960 0.9782
5.3585 0.8688 -0.9960 0.9782
5.3308 1.0250 -0.9960 0.9782
5.3152 1.1028 -0.9960 0.9782
5.2985 1.1804 -0.9960 0.9782
5.2617 1.3346 -0.9960 0.9782
5.2417 1.4114 -0.9960 0.9782
5.2205 1.4878 -0.9960 0.9782
5.1982 1.5639 -0.9960 0.9782
5.1502 1.7151 -0.9960 0.9782
4.9801 2.1594 -0.9959 0.9782
4.9148 2.3040 -0.9959 0.9782
4.8806 2.3756 -0.9959 0.9782
4.8454 2.4466 -0.9959 0.9782
4.7718 2.5871 -0.9959 0.9782
4.6538 2.7937 -0.9959 0.9782
4.6124 2.8614 -0.9959 0.9782
4.5701 2.9284 -0.9959 0.9782
4.5268 2.9949 -0.9959 0.9782
4.4373 3.1259 -0.9959 0.9782
4.2960 3.3173 -0.9958 0.9782
4.2470 3.3796 -0.9958 0.9782
4.1464 3.5022 -0.9958 0.9782
4.0947 3.5624 -0.9958 0.9782
3.9888 3.6805 -0.9958 0.9782
3.8795 3.7954 -0.9958 0.9782
3.8236 3.8517 -0.9958 0.9782
3.7094 3.9617 -0.9958 0.9782
3.6510 4.0154 -0.9958 0.9782
3.5321 4.1203 -0.9957 0.9782
3.4715 4.1714 -0.9957 0.9782
3.4101 4.2217 -0.9957 0.9782
3.2853 4.3195 -0.9957 0.9782
3.2218 4.3670 -0.9957 0.9782
3.1576 4.4136 -0.9957 0.9782
3.0272 4.5039 -0.9957 0.9782
2.8943 4.5904 -0.9956 0.9782
2.8269 4.6320 -0.9956 0.9782
2.7589 4.6728 -0.9956 0.9782
2.6903 4.7125 -0.9956 0.9782
2.5513 4.7891 -0.9956 0.9782
2.4103 4.8615 -0.9956 0.9782
2.3390 4.8961 -0.9956 0.9782
2.2672 4.9298 -0.9956 0.9782
2.1949 4.9623 -0.9955 0.9782
1.5650 3.6827 -0.7342 0.9839
1.4096 3.6064 -0.7104 0.9844
1.3474 3.6015 -0.7055 0.9845
1.0620 3.4386 -0.6603 0.9855
0.9572 3.4540 -0.6576 0.9855
0.8531 3.4695 -0.6555 0.9856
0.8013 3.4772 -0.6547 0.9856
0.3380 3.5482 -0.6540 0.9856
0.2864 3.5563 -0.6546 0.9856
0.2347 3.5645 -0.6554 0.9856
0.1829 3.5727 -0.6564 0.9856
0.1309 3.5809 -0.6575 0.9855
0.0787 3.5893 -0.6587 0.9855
-0.0263 3.6071 -0.6618 0.9854
-0.1971 3.8499 -0.7073 0.9844
-0.2559 3.8861 -0.7145 0.9843
-0.3182 3.9509 -0.7272 0.9840
-0.5144 5.3995 -0.9952 0.9782
-0.6720 5.3820 -0.9951 0.9782
-1.6003 5.1816 -0.9950 0.9782
-1.9741 5.0507 -0.9950 0.9782
-2.0477 5.0213 -0.9949 0.9782
-2.2657 4.9266 -0.9949 0.9782
-2.3374 4.8929 -0.9949 0.9782
-2.5495 4.7856 -0.9949 0.9782
-2.6192 4.7478 -0.9949 0.9782
-2.6882 4.7090 -0.9949 0.9782
-2.7567 4.6691 -0.9948 0.9782
-2.8246 4.6283 -0.9948 0.9782
-0.3971 0.5907 -0.1306 0.9971
-0.3890 0.5437 -0.1227 0.9973
-0.3918 0.5152 -0.1188 0.9974
-0.3931 0.5015 -0.1169 0.9974
-0.3944 0.4882 -0.1151 0.9975
-0.3975 0.4502 -0.1102 0.9976
-0.4001 0.4150 -0.1058 0.9977
-0.4027 0.3826 -0.1019 0.9977
-0.4042 0.3729 -0.1009 0.9978
-0.4050 0.3629 -0.0998 0.9978
-0.4080 0.3246 -0.0957 0.9979
-0.4091 0.3065 -0.0938 0.9979
-0.4106 0.2893 -0.0921 0.9980
-0.4134 0.2649 -0.0901 0.9980
-0.4142 0.2570 -0.0894 0.9980
-0.4150 0.2491 -0.0888 0.9980
-0.4157 0.2414 -0.0882 0.9980
-0.4164 0.2337 -0.0876 0.9981
-0.4180 0.2111 -0.0859 0.9981
-0.4184 0.2037 -0.0854 0.9981
-0.4207 0.1680 -0.0831 0.9982
-0.4216 0.1543 -0.0824 0.9982
-0.4220 0.1474 -0.0820 0.9982
-0.4226 0.1339 -0.0813 0.9982
-0.4229 0.1272 -0.0810 0.9982
-0.4230 0.1206 -0.0807 0.9982
-0.4233 0.1074 -0.0801 0.9982
-0.4234 0.0943 -0.0796 0.9982
-0.4233 0.0750 -0.0789 0.9983
-0.4232 0.0686 -0.0786 0.9983
-0.4230 0.0623 -0.0784 0.9983
-0.4228 0.0559 -0.0782 0.9983
-0.4225 0.0496 -0.0781 0.9983
-0.4222 0.0434 -0.0779 0.9983
-0.4215 0.0309 -0.0775 0.9983
-0.4197 0.0062 -0.0770 0.9983
-0.4093 -0.0179 -0.0799 0.9983
-0.4101 -0.0300 -0.0802 0.9983
-0.4116 -0.0729 -0.0815 0.9983
-0.4116 -0.0917 -0.0822 0.9983
-0.4116 -0.0980 -0.0825 0.9983
-0.4115 -0.1043 -0.0828 0.9983
-0.4113 -0.1107 -0.0830 0.9983
-0.4111 -0.1171 -0.0833 0.9983
-0.4109 -0.1236 -0.0837 0.9983
-0.4106 -0.1301 -0.0840 0.9982
-0.4103 -0.1366 -0.0843 0.9982
-0.4095 -0.1498 -0.0850 0.9982
-0.4090 -0.1564 -0.0854 0.9982
-0.4079 -0.1698 -0.0861 0.9982
-0.4067 -0.1834 -0.0870 0.9982
-0.4060 -0.1903 -0.0874 0.9982
-0.4045 -0.2117 -0.0890 0.9981
-0.4039 -0.2189 -0.0896 0.9981
-0.4031 -0.2340 -0.0909 0.9981
-0.4025 -0.2497 -0.0923 0.9981
-0.3989 -0.3080 -0.0982 0.9979
-0.3982 -0.3168 -0.0992 0.9979
-0.3967 -0.3350 -0.1012 0.9979
-0.3958 -0.3443 -0.1023 0.9979
-0.3949 -0.3538 -0.1034 0.9978
-0.3940 -0.3636 -0.1045 0.9978
-0.3927 -0.3731 -0.1056 0.9978
-0.3910 -0.3825 -0.1066 0.9978
-0.3880 -0.4024 -0.1090 0.9977
-0.3871 -0.4134 -0.1104 0.9977
-0.3861 -0.4246 -0.1119 0.9977
-0.3851 -0.4361 -0.1134 0.9976
-0.3839 -0.4479 -0.1150 0.9976
-0.3771 -0.5111 -0.1238 0.9974
-0.4197 -0.6877 -0.1571 0.9967
-2.5945 -4.3943 -0.9949 0.9794
-2.5300 -4.4318 -0.9949 0.9794
-1.5355 -2.8821 -0.6367 0.9868
-1.4965 -2.9106 -0.6380 0.9868
-1.2905 -2.9175 -0.6219 0.9871
-1.9272 -4.7257 -0.9950 0.9794
-1.2910 -4.9380 -0.9951 0.9794
-0.8236 -3.3495 -0.6725 0.9860
-0.5841 -2.7155 -0.5415 0.9887
-0.5178 -2.5907 -0.5151 0.9893
-0.3830 -2.4768 -0.4886 0.9898
-0.3192 -2.5564 -0.5023 0.9896
-0.2087 -2.5919 -0.5070 0.9895
-0.1329 -2.5956 -0.5067 0.9895
-0.0561 -2.5599 -0.4992 0.9896
0.0954 -2.6094 -0.5091 0.9894
0.1340 -2.6186 -0.5112 0.9894
0.1641 -2.4913 -0.4868 0.9899
0.2736 -2.4866 -0.4877 0.9899
0.3588 -2.5681 -0.5055 0.9895
0.4039 -2.6118 -0.5152 0.9893
0.4508 -2.6576 -0.5255 0.9891
0.4998 -2.7057 -0.5364 0.9888
0.5724 -2.6612 -0.5307 0.9890
0.6042 -2.6219 -0.5246 0.9891
0.6352 -2.5832 -0.5186 0.9892
1.4353 -4.9001 -0.9954 0.9794
1.5067 -4.8786 -0.9954 0.9794
1.5778 -4.8561 -0.9955 0.9794
1.6487 -4.8327 -0.9955 0.9794
1.8589 -4.7559 -0.9955 0.9794
1.9282 -4.7282 -0.9955 0.9794
1.9971 -4.6996 -0.9955 0.9794
2.0656 -4.6700 -0.9955 0.9794
2.2012 -4.6077 -0.9955 0.9794
2.2683 -4.5751 -0.9956 0.9794
2.3349 -4.5415 -0.9956 0.9794
2.5318 -4.4350 -0.9956 0.9794
2.5964 -4.3975 -0.9956 0.9794
2.6604 -4.3592 -0.9956 0.9794
2.7238 -4.3198 -0.9956 0.9794
2.7867 -4.2796 -0.9956 0.9794
2.8660 -4.1322 -0.9804 0.9797
2.9261 -4.0899 -0.9804 0.9797
3.3286 -3.7700 -0.9805 0.9797
3.3834 -3.7210 -0.9805 0.9797
3.5433 -3.5693 -0.9805 0.9797
3.6963 -3.4106 -0.9805 0.9797
3.7458 -3.3562 -0.9805 0.9797
3.7945 -3.3012 -0.9805 0.9797
3.8894 -3.1889 -0.9805 0.9797
3.9810 -3.0740 -0.9806 0.9797
4.0691 -2.9564 -0.9806 0.9797
4.1119 -2.8966 -0.9806 0.9797
4.1948 -2.7753 -0.9806 0.9797
4.2350 -2.7137 -0.9806 0.9797
4.2742 -2.6515 -0.9806 0.9797
4.3499 -2.5255 -0.9806 0.9797
4.4219 -2.3974 -0.9806 0.9797
4.6253 -2.1682 -0.9959 0.9794
