ply
format ascii 1.0
element vertex 1591
property float32 x
property float32 y
property float32 z
property float32 I
end_header
15.7089 -12.1300 3.2450 0.9227
15.7000 -11.7611 3.2073 0.9236
15.4260 -11.2077 3.1176 0.9256
27.5515 -17.6546 5.3502 0.8758
26.3221 -16.3293 5.0645 0.8820
21.4384 -12.4472 4.0532 0.9044
29.0500 -16.3036 5.4466 0.8737
8.8641 -2.8087 1.5203 0.9630
8.7724 -2.6393 1.4978 0.9636
8.8525 -2.5229 1.5050 0.9634
9.1234 -2.4565 1.5448 0.9624
18.9840 -3.3633 3.1522 0.9248
18.8155 -3.0506 3.1165 0.9257
19.2710 -2.5490 3.1783 0.9242
19.3093 -2.2675 3.1788 0.9242
19.5556 -1.7189 3.2097 0.9235
21.7333 8.3123 3.8044 0.9100
21.7011 8.6655 3.8206 0.9096
21.7699 9.8199 3.9047 0.9077
17.4035 8.7876 3.1876 0.9240
15.8998 8.6204 2.9571 0.9293
15.9192 9.2427 3.0097 0.9281
11.5069 7.8570 2.2781 0.9451
11.5138 8.1108 2.3027 0.9445
11.3365 8.2364 2.2911 0.9448
11.3205 8.4803 2.3127 0.9443
11.1785 9.1654 2.3635 0.9431
11.0151 9.3039 2.3574 0.9432
10.8524 9.4416 2.3519 0.9434
10.5490 10.0228 2.3791 0.9427
10.7643 10.8432 2.4981 0.9400
7.4709 9.5304 1.9799 0.9521
2.9602 9.1105 1.5662 0.9619
2.6432 9.0239 1.5374 0.9626
-2.3008 9.3574 1.5755 0.9617
-2.7049 9.2346 1.5733 0.9617
-6.7927 10.4320 2.0353 0.9508
-6.9669 10.3651 2.0419 0.9506
-6.9869 10.0738 2.0045 0.9515
-7.1558 10.0020 2.0108 0.9514
-7.3256 9.9294 2.0175 0.9512
-7.2855 9.5790 1.9677 0.9524
-7.1080 9.0674 1.8837 0.9544
-7.2333 8.9547 1.8821 0.9544
-7.6739 9.2212 1.9615 0.9525
-8.0713 9.4154 2.0276 0.9510
-8.1765 9.2609 2.0199 0.9512
-12.0355 9.8681 2.5447 0.9389
-12.2419 9.7417 2.5579 0.9386
-11.9240 9.2075 2.4632 0.9408
-12.3858 9.2784 2.5303 0.9392
-12.8734 9.3530 2.6017 0.9375
-13.0352 9.1826 2.6070 0.9374
-14.2677 8.5650 2.7208 0.9348
-17.7469 9.6218 3.3007 0.9214
-17.8725 9.3546 3.2982 0.9215
-17.9022 7.7625 3.1903 0.9240
-1.5868 0.5285 0.2735 0.9932
-1.5333 0.4370 0.2607 0.9936
-1.4975 0.3798 0.2526 0.9938
-1.4773 0.3065 0.2467 0.9939
-1.4746 0.2836 0.2455 0.9939
-1.4722 0.2608 0.2445 0.9940
-1.4700 0.2383 0.2435 0.9940
-1.4679 0.2161 0.2426 0.9940
-1.4652 0.1938 0.2416 0.9940
-1.4565 0.1280 0.2391 0.9941
-1.4540 0.1064 0.2384 0.9941
-1.4516 0.0850 0.2377 0.9941
-1.4497 0.0636 0.2373 0.9941
-1.4476 0.0211 0.2367 0.9941
-1.4015 -0.0615 0.2134 0.9943
-1.4057 -0.1029 0.2144 0.9943
-1.4105 -0.1447 0.2157 0.9943
-1.4159 -0.1873 0.2173 0.9942
-1.4188 -0.2088 0.2182 0.9942
-1.4208 -0.2303 0.2190 0.9942
-1.4248 -0.2739 0.2207 0.9941
-1.4271 -0.2961 0.2217 0.9941
-1.4294 -0.3184 0.2228 0.9941
-1.4400 -0.3653 0.2260 0.9940
-1.4859 -0.4470 0.2361 0.9937
-1.5029 -0.4762 0.2399 0.9936
-1.5078 -0.5021 0.2418 0.9936
-75.5641 -31.4615 12.4532 0.7181
-72.4007 -31.3934 12.0062 0.7267
-69.4560 -31.3301 11.5925 0.7347
-25.4233 -12.8370 4.3331 0.8912
-19.4804 -11.6943 3.4568 0.9122
-20.2008 -12.5318 3.6168 0.9083
-19.7455 -12.6527 3.5680 0.9095
-41.8748 -29.4987 7.7930 0.8128
-15.1739 -11.0245 2.8536 0.9269
-14.9287 -11.5275 2.8696 0.9265
-14.8846 -12.5723 2.9643 0.9242
-30.7963 -29.2603 6.4631 0.8421
-11.3813 -11.1345 2.4224 0.9376
-10.8957 -11.3012 2.3884 0.9385
-10.5447 -11.2619 2.3472 0.9395
-9.9645 -11.2858 2.2905 0.9409
-9.8942 -11.5418 2.3129 0.9403
-9.5914 -11.5253 2.2813 0.9411
-9.4901 -11.7486 2.2978 0.9407
-20.1350 -29.0308 5.3752 0.8668
-19.5039 -29.0172 5.3193 0.8681
-18.8856 -29.0039 5.2657 0.8693
-18.2795 -28.9909 5.2143 0.8705
-17.1016 -28.9655 5.1177 0.8728
-16.5286 -28.9532 5.0723 0.8738
-6.2657 -12.1869 2.0849 0.9461
-6.0639 -12.2307 2.0770 0.9463
-5.8636 -12.2741 2.0696 0.9465
-5.0160 -11.8036 1.9512 0.9494
-5.1888 -12.7236 2.0906 0.9459
-4.7877 -12.2489 2.0009 0.9482
-4.1869 -12.2729 1.9729 0.9489
-8.7943 -30.0245 4.7599 0.8811
-6.4475 -29.9740 4.6646 0.8833
-5.0798 -29.9446 4.6209 0.8844
-4.6292 -29.9349 4.6085 0.8847
-4.1810 -29.9253 4.5971 0.8849
-2.4071 -29.8870 4.5618 0.8858
-1.5288 -29.8682 4.5502 0.8860
-0.4623 -12.6486 1.9257 0.9501
-0.2759 -12.5855 1.9153 0.9503
0.4463 -12.2132 1.8594 0.9518
0.6235 -12.1807 1.8556 0.9518
0.9626 -11.9526 1.8244 0.9526
1.1281 -11.8416 1.8098 0.9530
1.2910 -11.7326 1.7958 0.9534
1.6095 -11.5200 1.7697 0.9540
5.9374 -29.7075 4.6092 0.8846
6.8413 -29.6880 4.6352 0.8840
7.7563 -29.6683 4.6655 0.8833
8.2185 -29.6584 4.6823 0.8829
9.8532 -31.9038 5.0801 0.8736
4.4088 -13.5688 2.1706 0.9439
4.8569 -12.9821 2.1088 0.9455
5.1977 -12.7455 2.0942 0.9458
5.3541 -12.5993 2.0828 0.9461
5.6836 -11.8972 2.0060 0.9481
15.2683 -29.6971 5.0804 0.8736
16.1297 -29.2386 5.0804 0.8736
16.9773 -28.7550 5.0805 0.8736
17.3957 -28.5039 5.0805 0.8736
17.7901 -28.2146 5.0747 0.8738
9.6680 -13.1045 2.4776 0.9362
9.9556 -13.0895 2.5020 0.9356
10.0261 -12.7900 2.4725 0.9364
10.2960 -12.7462 2.4929 0.9359
9.9312 -11.5850 2.3216 0.9401
10.6171 -11.6766 2.4011 0.9381
11.3617 -11.7845 2.4905 0.9359
14.2042 -11.9975 2.8288 0.9275
15.7089 -12.1300 3.0196 0.9228
16.6447 -11.7254 3.0976 0.9209
27.1453 -17.9591 4.9520 0.8766
20.9620 -12.5837 3.7197 0.9058
8.4470 -3.2307 1.3759 0.9641
8.2357 -3.0127 1.3342 0.9651
8.0366 -2.8074 1.2952 0.9661
8.5379 -2.5686 1.3565 0.9646
8.6931 -2.4775 1.3753 0.9641
9.0035 -2.4242 1.4186 0.9630
8.8971 -2.2567 1.3965 0.9635
9.2113 -2.1937 1.4406 0.9624
9.6111 -1.9941 1.4934 0.9611
19.1508 -3.3929 2.9590 0.9243
18.9352 -3.0700 2.9185 0.9253
18.8270 -2.7708 2.8952 0.9259
19.5566 -2.0073 2.9910 0.9235
20.0484 -1.7622 3.0620 0.9218
21.7848 8.6989 3.5689 0.9095
22.4437 10.1238 3.7460 0.9052
20.7278 9.7168 3.4829 0.9115
17.4631 8.8177 2.9764 0.9239
15.8985 8.6196 2.7515 0.9294
15.9082 8.9281 2.7754 0.9288
16.1917 9.4009 2.8486 0.9270
15.9616 9.5819 2.8324 0.9274
15.7532 10.0944 2.8466 0.9271
15.6344 10.3436 2.8521 0.9270
11.4999 7.8522 2.1186 0.9452
11.5137 8.3652 2.1652 0.9440
11.5282 8.9018 2.2160 0.9428
11.2027 9.1853 2.2041 0.9431
10.9002 9.4832 2.1982 0.9432
10.6022 9.7826 2.1948 0.9433
10.6296 10.0995 2.2308 0.9424
10.6354 10.4048 2.2637 0.9416
10.8374 10.9168 2.3404 0.9397
7.4704 9.5298 1.8423 0.9522
-2.3055 9.3767 1.4691 0.9617
-7.0328 10.4631 1.9181 0.9503
-7.2164 10.0867 1.8869 0.9511
-7.3445 9.9551 1.8822 0.9512
-7.1842 9.4457 1.8055 0.9531
-7.1871 8.8974 1.7401 0.9548
-8.0027 9.3354 1.8708 0.9515
-12.5112 10.5676 2.4916 0.9359
-12.0708 9.8970 2.3749 0.9388
-12.2779 9.7704 2.3873 0.9385
-13.0145 9.1681 2.4220 0.9376
-13.0356 8.9008 2.4015 0.9381
-12.7449 8.1668 2.3030 0.9406
-14.2084 8.5294 2.5213 0.9351
-17.4594 10.1370 3.0716 0.9216
-18.7550 10.1684 3.2458 0.9173
-18.7662 9.8224 3.2226 0.9179
-18.2213 8.8688 3.0832 0.9213
-18.2286 8.5452 3.0630 0.9218
-17.9304 7.7747 2.9734 0.9240
-23.2519 9.2848 3.8092 0.9037
-1.5187 0.5555 0.2460 0.9935
-1.5131 0.5286 0.2438 0.9935
-1.5078 0.5021 0.2418 0.9936
-1.4859 0.4470 0.2361 0.9937
-1.4638 0.4172 0.2316 0.9939
-1.4466 0.3895 0.2279 0.9940
-1.4400 0.3653 0.2260 0.9940
-1.4270 0.2961 0.2217 0.9941
-1.4208 0.2304 0.2190 0.9942
-1.4159 0.1873 0.2173 0.9942
-1.4057 0.1029 0.2144 0.9943
-1.4036 0.0821 0.2139 0.9943
-1.3997 0.0409 0.2130 0.9944
-1.3988 0.0204 0.2128 0.9944
-1.3526 0.0000 0.1905 0.9946
-1.3551 -0.0396 0.1909 0.9945
-1.3568 -0.0595 0.1913 0.9945
-1.3607 -0.0996 0.1921 0.9945
-1.3766 -0.2439 0.1969 0.9944
-1.3784 -0.2650 0.1977 0.9943
-1.3803 -0.2864 0.1985 0.9943
-1.3847 -0.3298 0.2005 0.9943
-1.3871 -0.3518 0.2015 0.9942
-1.4366 -0.4784 0.2132 0.9939
-72.4007 -31.3934 11.1129 0.7270
-26.0633 -12.2180 4.0536 0.8902
-25.5475 -12.8997 4.0303 0.8908
-25.0583 -13.1157 3.9829 0.8920
-19.9175 -12.3561 3.3007 0.9097
-19.4723 -12.4776 3.2568 0.9108
-19.6329 -12.9890 3.3151 0.9093
-19.4390 -13.2731 3.3147 0.9093
-19.2438 -13.5563 3.3149 0.9093
-4.0542 -3.1305 0.7213 0.9795
-3.9771 -3.2609 0.7243 0.9794
-14.0875 -12.2561 2.6296 0.9273
-13.9268 -12.4784 2.6333 0.9272
-29.8888 -29.2407 5.8883 0.8446
-10.7012 -11.0994 2.1712 0.9396
-10.8651 -11.6041 2.2386 0.9378
-10.7373 -11.8088 2.2476 0.9376
-10.1555 -11.5022 2.1608 0.9399
-10.0166 -11.6847 2.1673 0.9397
-9.5450 -11.8164 2.1391 0.9405
-9.0834 -12.3121 2.1546 0.9401
-20.9847 -29.3312 5.0788 0.8644
-20.5540 -29.6348 5.0788 0.8644
-20.1188 -29.9321 5.0788 0.8644
-19.6794 -30.2230 5.0788 0.8644
-17.8418 -30.2193 4.9419 0.8678
-17.2440 -30.2064 4.8981 0.8689
-6.4377 -12.0838 1.9281 0.9462
-6.2547 -12.1655 1.9263 0.9462
-6.0533 -12.2092 1.9191 0.9464
-5.2789 -12.9444 1.9686 0.9451
-4.7631 -12.1860 1.8425 0.9485
-4.5650 -12.2021 1.8347 0.9487
-4.2379 -12.4223 1.8483 0.9484
-9.2760 -30.0349 4.4267 0.8808
-8.7943 -30.0245 4.4058 0.8813
-8.3171 -30.0143 4.3860 0.8818
-7.8441 -30.0041 4.3673 0.8823
-7.3750 -29.9940 4.3497 0.8827
-6.4475 -29.9740 4.3176 0.8835
-5.5329 -29.9543 4.2896 0.8842
-4.6292 -29.9349 4.2656 0.8848
-3.7348 -29.9156 4.2455 0.8853
-2.4071 -29.8871 4.2224 0.8859
-1.9674 -29.8776 4.2166 0.8861
0.4469 -12.2277 1.7231 0.9518
0.9573 -11.8859 1.6792 0.9530
1.1219 -11.7761 1.6659 0.9533
3.7148 -29.7553 4.2228 0.8859
4.1558 -29.7458 4.2296 0.8857
5.0428 -29.7267 4.2460 0.8853
6.3881 -29.6978 4.2778 0.8845
6.8413 -29.6880 4.2903 0.8842
7.2974 -29.6782 4.3039 0.8839
7.7563 -29.6683 4.3184 0.8835
4.9385 -13.8122 2.0657 0.9425
5.0144 -12.8289 1.9397 0.9459
5.2439 -12.8588 1.9556 0.9454
5.3869 -12.1788 1.8753 0.9476
5.5641 -12.0986 1.8753 0.9476
16.4958 -32.0845 5.0804 0.8644
17.8862 -31.3312 5.0805 0.8644
19.2422 -30.5177 5.0806 0.8644
19.6861 -30.2334 5.0806 0.8644
20.1259 -29.9426 5.0806 0.8644
9.7696 -13.2421 2.3174 0.9357
10.1199 -12.9096 2.3100 0.9359
10.5054 -12.6236 2.3128 0.9358
10.5188 -12.2704 2.2760 0.9368
11.6532 -12.4458 2.4010 0.9334
27.0110 -28.0162 5.4804 0.8545
27.7955 -27.9993 5.5559 0.8527
28.6021 -27.9819 5.6348 0.8508
30.2869 -27.9457 5.8033 0.8467
14.6919 -12.7820 2.7424 0.9244
14.9546 -12.6314 2.7567 0.9240
14.8339 -12.1625 2.7014 0.9254
15.4250 -12.2747 2.7760 0.9235
15.7088 -12.1300 2.7949 0.9230
15.8014 -11.8370 2.7803 0.9233
15.5425 -11.2922 2.7054 0.9253
26.8688 -18.9277 4.6283 0.8757
17.1014 -11.3142 2.8876 0.9205
20.3094 -12.5992 3.3657 0.9080
20.5558 -12.3398 3.3763 0.9077
20.9096 -11.7350 3.3766 0.9077
25.1420 -12.6950 3.9663 0.8925
9.0358 -3.6081 1.3701 0.9615
8.4861 -3.2456 1.2795 0.9640
8.0265 -2.8039 1.1973 0.9662
8.3936 -2.6596 1.2399 0.9651
8.7201 -2.3479 1.2717 0.9642
8.7567 -2.2211 1.2722 0.9642
9.0434 -1.7388 1.2968 0.9635
19.0315 -2.5173 2.7034 0.9254
19.6424 -2.0161 2.7806 0.9233
21.9318 8.0229 3.2887 0.9100
21.9005 8.3762 3.3020 0.9096
22.3272 9.6812 3.4270 0.9064
17.7522 8.6405 2.7803 0.9233
17.5228 8.8479 2.7644 0.9238
17.2959 9.0528 2.7491 0.9242
15.8971 8.6189 2.5465 0.9296
16.1685 9.3875 2.6329 0.9273
15.2111 9.4364 2.5208 0.9302
11.4930 7.8475 1.9598 0.9453
11.4998 8.1010 1.9809 0.9448
11.5137 8.6250 2.0259 0.9435
11.3429 9.0263 2.0414 0.9431
11.1400 9.1339 2.0287 0.9435
10.7458 9.6282 2.0318 0.9434
10.6768 9.8514 2.0458 0.9430
10.8356 10.2952 2.1048 0.9414
10.6932 10.4614 2.1066 0.9414
7.4700 9.5292 1.7051 0.9523
3.1170 9.5930 1.4204 0.9601
-2.3177 9.4261 1.3670 0.9615
-7.2851 11.1882 1.8801 0.9475
-7.6742 11.0648 1.8963 0.9471
-7.0860 9.3166 1.6484 0.9538
-12.9298 10.6014 2.3546 0.9347
-12.5383 9.3926 2.2062 0.9387
-12.9512 9.4096 2.2544 0.9374
-12.9564 8.5719 2.1877 0.9392
-18.0348 11.1882 2.9887 0.9178
-17.6601 10.2536 2.8757 0.9208
-17.0453 9.5662 2.7526 0.9241
-17.6936 9.2610 2.8123 0.9225
-18.2281 9.2039 2.8756 0.9208
-18.2125 8.8645 2.8524 0.9214
-18.2520 8.5561 2.8387 0.9218
-17.9585 7.7870 2.7565 0.9240
-1.4323 0.4539 0.2116 0.9939
-1.3929 0.3750 0.2031 0.9942
-1.3871 0.3518 0.2015 0.9942
-1.3804 0.2864 0.1985 0.9943
-1.3748 0.2229 0.1961 0.9944
-1.3700 0.1812 0.1946 0.9944
-1.3675 0.1606 0.1939 0.9945
-1.3607 0.0996 0.1921 0.9945
-1.3587 0.0795 0.1917 0.9945
-1.3568 0.0595 0.1913 0.9945
-1.3551 0.0396 0.1909 0.9945
-1.3079 0.0000 0.1694 0.9947
-1.3125 -0.0384 0.1701 0.9947
-1.3143 -0.0577 0.1704 0.9947
-1.3182 -0.0965 0.1712 0.9947
-1.3204 -0.1161 0.1717 0.9947
-1.3226 -0.1357 0.1722 0.9947
-1.3271 -0.1755 0.1734 0.9946
-1.3295 -0.1957 0.1741 0.9946
-1.3320 -0.2159 0.1748 0.9946
-1.3350 -0.2567 0.1761 0.9945
-1.3368 -0.2773 0.1769 0.9945
-1.3386 -0.2982 0.1777 0.9945
-1.3406 -0.3193 0.1785 0.9945
-1.3449 -0.3621 0.1804 0.9944
-1.3608 -0.4094 0.1841 0.9943
-1.3719 -0.4569 0.1873 0.9942
-1.3881 -0.5543 0.1936 0.9940
-30.3367 -12.6308 4.2568 0.8759
-26.4506 -11.9312 3.7588 0.8896
-25.9308 -12.1559 3.7098 0.8909
-25.2626 -12.2960 3.6395 0.8929
-5.0019 -2.7118 0.7370 0.9773
-24.4468 -13.7202 3.6315 0.8931
-19.6429 -12.1857 2.9944 0.9110
-19.6213 -12.5730 3.0188 0.9103
-4.1773 -2.9427 0.6619 0.9796
-4.1392 -3.0073 0.6628 0.9796
-4.1009 -3.0720 0.6638 0.9795
-4.0625 -3.1370 0.6649 0.9795
-4.0240 -3.2021 0.6662 0.9795
-3.9765 -3.2604 0.6661 0.9795
-14.1970 -12.3513 2.4376 0.9269
-13.5794 -12.5296 2.3935 0.9282
-30.7963 -29.2603 5.5029 0.8425
-29.8888 -29.2407 5.4165 0.8448
-11.5162 -11.6007 2.1175 0.9362
-10.8607 -11.2649 2.0270 0.9388
-10.9423 -11.6865 2.0739 0.9375
-10.3534 -11.7264 2.0264 0.9389
-9.7592 -11.7269 1.9763 0.9403
-9.6446 -11.9398 1.9882 0.9400
-9.3989 -11.9899 1.9735 0.9404
-9.1573 -12.0399 1.9595 0.9408
-21.6791 -30.3019 4.8264 0.8605
-20.3481 -30.2732 4.7251 0.8632
-19.0707 -30.2457 4.6318 0.8657
-18.4505 -30.2323 4.5880 0.8669
-17.8418 -30.2193 4.5459 0.8680
-17.2440 -30.2064 4.5056 0.8691
-6.5630 -11.8969 1.7601 0.9467
-6.4464 -12.1001 1.7760 0.9462
-6.0428 -12.1879 1.7622 0.9466
-5.5861 -12.1463 1.7318 0.9475
-5.2861 -11.9510 1.6928 0.9487
-4.9968 -11.7585 1.6550 0.9498
-4.9875 -12.2299 1.7109 0.9481
-4.7681 -12.1987 1.6966 0.9485
-4.5419 -12.1404 1.6791 0.9491
-10.2537 -30.0559 4.1138 0.8798
-9.7623 -30.0453 4.0923 0.8804
-8.7943 -30.0245 4.0528 0.8814
-8.3171 -30.0143 4.0345 0.8819
-6.9095 -29.9839 3.9859 0.8833
-5.9887 -29.9641 3.9583 0.8840
-5.5329 -29.9543 3.9459 0.8844
-5.0798 -29.9446 3.9344 0.8847
-4.6292 -29.9349 3.9238 0.8850
-4.1810 -29.9252 3.9141 0.8853
-3.2906 -29.9061 3.8974 0.8857
-2.4071 -29.8871 3.8841 0.8861
-1.5288 -29.8682 3.8742 0.8864
-1.0912 -29.8587 3.8705 0.8865
-0.6544 -29.8493 3.8676 0.8865
0.0574 -2.6189 0.3393 0.9895
0.4444 -12.1582 1.5760 0.9521
4.1559 -29.7458 3.8907 0.8859
5.0428 -29.7267 3.9058 0.8855
7.2974 -29.6782 3.9590 0.8840
7.7563 -29.6684 3.9724 0.8837
8.2185 -29.6584 3.9867 0.8833
11.0239 -37.6362 5.0802 0.8537
4.7420 -13.9000 1.9025 0.9425
4.9701 -13.9005 1.9123 0.9422
5.0904 -13.6064 1.8819 0.9431
5.2681 -12.3971 1.7449 0.9471
17.4213 -35.1380 5.0805 0.8537
18.9446 -34.3413 5.0806 0.8537
19.4445 -34.0610 5.0806 0.8537
19.9402 -33.7733 5.0806 0.8537
20.4316 -33.4785 5.0806 0.8537
20.9187 -33.1765 5.0806 0.8537
10.1046 -14.1236 2.2496 0.9324
10.5091 -13.0100 2.1664 0.9348
10.4313 -12.5345 2.1124 0.9363
10.6317 -12.0416 2.0808 0.9373
10.6780 -11.7436 2.0561 0.9380
28.6020 -27.9819 5.1833 0.8510
29.4321 -27.9641 5.2591 0.8490
30.2869 -27.9456 5.3383 0.8469
14.7400 -12.8237 2.5309 0.9242
15.0038 -12.6729 2.5441 0.9238
15.7087 -12.1298 2.5709 0.9231
15.6529 -11.7257 2.5335 0.9241
15.5929 -11.3289 2.4967 0.9252
27.2989 -18.6399 4.2820 0.8752
20.7850 -13.3187 3.1978 0.9052
20.4535 -11.8754 3.0637 0.9090
21.1253 -11.4534 3.1129 0.9076
24.8890 -12.5672 3.6118 0.8936
25.4197 -11.4663 3.6124 0.8936
7.7773 -2.8450 1.0728 0.9671
7.7837 -2.7191 1.0680 0.9673
8.2525 -2.4828 1.1164 0.9658
8.4177 -2.3989 1.1338 0.9653
8.9430 -1.9921 1.1869 0.9637
8.9654 -1.8600 1.1861 0.9637
8.9575 -1.7223 1.1816 0.9639
19.0930 -3.0956 2.5056 0.9249
19.1158 -2.5285 2.4978 0.9252
19.7287 -2.0250 2.5691 0.9231
20.0355 -1.7611 2.6054 0.9221
27.1217 9.4744 3.7215 0.8906
22.0157 8.0536 3.0367 0.9098
22.0982 9.9680 3.1403 0.9068
21.3322 10.0001 3.0519 0.9093
21.0231 10.2325 3.0288 0.9100
15.8958 8.6182 2.3423 0.9297
16.1455 9.3741 2.4184 0.9275
16.2267 10.0664 2.4736 0.9259
16.1306 10.3362 2.4817 0.9256
11.4861 7.8428 1.8017 0.9454
11.4928 8.0961 1.8211 0.9449
11.5138 8.8907 1.8844 0.9430
11.3372 9.0218 1.8769 0.9432
10.5709 8.6673 1.7708 0.9464
10.8937 9.4775 1.8705 0.9434
10.6385 9.5321 1.8504 0.9440
7.4695 9.5286 1.5684 0.9523
3.2174 9.9022 1.3487 0.9589
2.7738 9.4700 1.2783 0.9610
-7.5517 11.2352 1.7536 0.9469
-7.7213 11.1327 1.7550 0.9468
-7.5149 10.1861 1.6397 0.9502
-12.3503 9.8280 2.0446 0.9383
-12.5612 9.6994 2.0558 0.9380
-12.6156 9.4505 2.0419 0.9384
-12.9899 9.4377 2.0799 0.9373
-12.9366 9.1132 2.0499 0.9382
-12.5012 8.2707 1.9417 0.9413
-13.9258 8.9234 2.1425 0.9355
-18.0094 10.8112 2.7210 0.9188
-17.1200 9.6082 2.5431 0.9239
-17.4430 9.4571 2.5703 0.9231
-18.2037 8.8602 2.6226 0.9216
-18.2754 8.5671 2.6146 0.9218
-18.1350 8.1803 2.5771 0.9229
-17.9866 7.7991 2.5396 0.9240
-23.3374 9.7166 3.2747 0.9031
-1.3881 0.5543 0.1936 0.9940
-1.3837 0.5293 0.1919 0.9940
-1.3796 0.5047 0.1903 0.9941
-1.3756 0.4806 0.1888 0.9941
-1.3683 0.4336 0.1859 0.9942
-1.3486 0.3844 0.1817 0.9944
-1.3449 0.3621 0.1804 0.9944
-1.3427 0.3405 0.1794 0.9944
-1.3368 0.2774 0.1769 0.9945
-1.3319 0.2159 0.1748 0.9946
-1.3295 0.1957 0.1741 0.9946
-1.3271 0.1755 0.1734 0.9946
-1.3248 0.1555 0.1728 0.9946
-1.3226 0.1357 0.1722 0.9947
-1.3182 0.0965 0.1712 0.9947
-1.3143 0.0577 0.1704 0.9947
-1.3108 0.0191 0.1698 0.9947
-1.2612 -0.0000 0.1492 0.9949
-1.2685 -0.0371 0.1501 0.9949
-1.2713 -0.0557 0.1505 0.9949
-1.2730 -0.0745 0.1508 0.9949
-1.2811 -0.1504 0.1526 0.9948
-1.2833 -0.1697 0.1531 0.9948
-1.3022 -0.3507 0.1595 0.9946
-1.3046 -0.3718 0.1605 0.9946
-1.3100 -0.4151 0.1626 0.9945
-1.3129 -0.4373 0.1637 0.9944
-1.3161 -0.4597 0.1649 0.9944
-1.3229 -0.5060 0.1675 0.9943
-1.3266 -0.5297 0.1690 0.9943
-1.3346 -0.5787 0.1721 0.9942
-25.9453 -12.6283 3.4132 0.8903
-25.3366 -12.7933 3.3574 0.8920
-4.8074 -2.6064 0.6469 0.9782
-19.5658 -10.9808 2.6540 0.9136
-19.7382 -11.8490 2.7232 0.9114
-19.8504 -12.3144 2.7632 0.9102
-4.1858 -2.9487 0.6056 0.9796
-4.1093 -3.0784 0.6073 0.9795
-4.0709 -3.1434 0.6084 0.9795
-4.0323 -3.2088 0.6096 0.9795
-3.9707 -3.2557 0.6074 0.9795
-3.8529 -3.2543 0.5966 0.9799
-14.5225 -13.0122 2.3065 0.9245
-31.1239 -29.5715 5.0783 0.8412
-30.6885 -30.0231 5.0784 0.8412
-11.4996 -11.5840 1.9308 0.9364
-11.1399 -11.5544 1.8985 0.9374
-11.0706 -11.8235 1.9159 0.9368
-10.3985 -11.7774 1.8584 0.9387
-9.8834 -12.2354 1.8605 0.9386
-9.3233 -12.6372 1.8576 0.9387
-21.0065 -30.2874 4.3600 0.8620
-20.3481 -30.2732 4.3147 0.8634
-17.8419 -30.2192 4.1511 0.8682
-6.4351 -12.0790 1.6189 0.9464
-6.2329 -12.1230 1.6124 0.9466
-14.9518 -30.1570 3.9816 0.8732
-14.4011 -30.1452 3.9518 0.8741
-13.8584 -30.1335 3.9233 0.8749
-12.7957 -30.1106 3.8700 0.8765
-11.7605 -30.0883 3.8213 0.8780
-11.2525 -30.0774 3.7986 0.8787
-9.2760 -30.0349 3.7183 0.8811
-7.8441 -30.0041 3.6684 0.8826
-6.4475 -29.9740 3.6267 0.8838
-5.0798 -29.9446 3.5927 0.8849
-4.6292 -29.9349 3.5830 0.8851
-3.7348 -29.9157 3.5661 0.8857
-2.8481 -29.8966 3.5524 0.8861
-2.4071 -29.8871 3.5467 0.8862
-0.1400 -2.7345 0.3239 0.9890
0.0194 -2.6529 0.3138 0.9894
0.0574 -2.6186 0.3098 0.9895
0.6130 -11.9763 1.4185 0.9528
4.1559 -29.7458 3.5527 0.8861
4.5985 -29.7363 3.5592 0.8859
5.0428 -29.7268 3.5665 0.8856
5.4890 -29.7171 3.5746 0.8854
5.9374 -29.7075 3.5835 0.8851
6.3881 -29.6978 3.5932 0.8848
6.8413 -29.6880 3.6038 0.8845
7.7563 -29.6683 3.6273 0.8838
8.2185 -29.6584 3.6404 0.8834
12.0725 -41.2166 5.0803 0.8411
12.6736 -41.0360 5.0803 0.8411
13.2719 -40.8467 5.0803 0.8411
4.7911 -14.0437 1.7552 0.9420
4.9577 -13.8657 1.7418 0.9424
5.0779 -13.5729 1.7142 0.9433
5.1943 -13.2893 1.6878 0.9441
5.2264 -12.2988 1.5807 0.9476
5.8190 -13.1558 1.7016 0.9437
18.5143 -38.7554 5.0805 0.8411
19.0787 -38.4809 5.0806 0.8411
20.1952 -37.9074 5.0806 0.8411
21.8373 -36.9865 5.0807 0.8411
22.9089 -36.3330 5.0807 0.8411
23.4374 -35.9945 5.0808 0.8411
10.3943 -14.0889 2.0710 0.9319
10.5839 -13.1025 1.9924 0.9344
10.3738 -12.1013 1.8854 0.9378
27.1958 -30.8021 4.8604 0.8475
27.1761 -29.8881 4.7783 0.8498
27.3835 -29.2459 4.7392 0.8510
28.1801 -29.2288 4.8026 0.8491
30.7050 -30.0392 5.0811 0.8411
15.2569 -13.6703 2.4232 0.9208
12.9932 -11.3040 2.0372 0.9330
12.6854 -10.4009 1.9404 0.9361
12.9626 -10.3152 1.9595 0.9355
15.5013 -11.6121 2.2910 0.9250
16.4566 -11.9564 2.4061 0.9213
16.7577 -11.8050 2.4247 0.9208
20.5786 -13.6147 2.9187 0.9054
20.1218 -12.8938 2.8269 0.9082
20.8624 -11.3110 2.8071 0.9088
26.0484 -11.2948 3.3584 0.8919
7.9999 -3.1944 1.0189 0.9659
7.7670 -2.9706 0.9836 0.9671
7.7866 -2.8484 0.9808 0.9672
7.9400 -2.7737 0.9949 0.9667
8.4259 -2.5350 1.0408 0.9652
8.5731 -2.1745 1.0462 0.9650
8.6425 -2.0582 1.0509 0.9648
8.7121 -1.9407 1.0558 0.9647
8.9974 -1.8667 1.0869 0.9637
8.9327 -1.5826 1.0731 0.9641
19.0449 -2.8029 2.2770 0.9254
19.3113 -2.2677 2.3000 0.9247
19.7930 -2.0316 2.3536 0.9230
56.8905 -2.4955 6.7359 0.7950
27.1569 9.0437 3.3858 0.8911
22.1001 8.0845 2.7836 0.9096
22.0693 8.4408 2.7949 0.9092
22.0381 8.8001 2.8070 0.9088
22.2967 9.6680 2.8747 0.9068
21.8721 10.2532 2.8574 0.9073
17.4139 9.1146 2.3249 0.9239
16.2634 9.1275 2.2060 0.9276
15.9740 9.5894 2.2039 0.9277
16.1470 10.6827 2.2902 0.9250
11.4793 7.8382 1.6442 0.9456
11.4926 8.3499 1.6803 0.9444
11.5066 8.8851 1.7196 0.9431
11.3315 9.0173 1.7130 0.9433
10.8119 8.8648 1.6538 0.9452
11.0407 9.3255 1.7095 0.9435
10.8905 9.4748 1.7075 0.9435
11.2237 10.0565 1.7826 0.9411
2.7777 9.4832 1.1689 0.9610
0.5042 4.0383 0.4814 0.9837
0.3839 4.0305 0.4789 0.9838
0.3243 4.0269 0.4779 0.9839
0.2058 4.0204 0.4762 0.9839
0.1469 4.0196 0.4758 0.9839
-0.0299 4.0908 0.4839 0.9837
-0.0903 4.1176 0.4872 0.9835
-0.1515 4.1450 0.4906 0.9834
-7.6257 11.3453 1.6170 0.9464
-7.6160 10.6452 1.5483 0.9486
-7.0647 9.5759 1.4076 0.9532
-7.7575 10.1995 1.5158 0.9497
-7.9363 10.1241 1.5217 0.9495
-12.6474 10.6825 1.9583 0.9355
-12.3867 9.8569 1.8725 0.9382
-12.7748 8.9992 1.8484 0.9390
-13.7331 9.0857 1.9478 0.9358
-13.9747 8.9548 1.9633 0.9353
-14.2201 8.8216 1.9794 0.9348
-17.8604 10.7217 2.4641 0.9195
-17.9852 10.4422 2.4600 0.9196
-17.8833 10.0366 2.4258 0.9207
-17.8527 9.3443 2.3835 0.9220
-18.1923 9.1859 2.4107 0.9212
-18.1949 8.8560 2.3936 0.9217
-1.3305 0.5539 0.1705 0.9942
-1.3266 0.5297 0.1690 0.9943
-1.3229 0.5060 0.1675 0.9943
-1.3161 0.4598 0.1649 0.9944
-1.3072 0.3933 0.1615 0.9945
-1.2976 0.3090 0.1578 0.9946
-1.2955 0.2886 0.1570 0.9947
-1.2936 0.2684 0.1563 0.9947
-1.2917 0.2484 0.1556 0.9947
-1.2882 0.2089 0.1544 0.9948
-1.2857 0.1892 0.1537 0.9948
-1.2833 0.1698 0.1531 0.9948
-1.2730 0.0745 0.1508 0.9949
-1.2210 -0.0179 0.1307 0.9951
-1.2281 -0.0539 0.1316 0.9951
-1.2317 -0.0721 0.1321 0.9950
-1.2362 -0.1086 0.1329 0.9950
-1.2380 -0.1271 0.1332 0.9950
-1.2400 -0.1456 0.1337 0.9950
-1.2421 -0.1643 0.1341 0.9950
-1.2442 -0.1831 0.1346 0.9950
-1.2497 -0.2403 0.1363 0.9949
-1.2530 -0.2791 0.1374 0.9948
-1.2548 -0.2988 0.1381 0.9948
-1.2567 -0.3188 0.1388 0.9948
-1.2587 -0.3389 0.1396 0.9948
-1.2631 -0.3800 0.1412 0.9947
-1.2692 -0.4227 0.1432 0.9946
-1.2760 -0.4880 0.1463 0.9945
-1.2785 -0.5105 0.1474 0.9945
-1.2839 -0.5567 0.1498 0.9944
-25.3250 -12.7874 3.0375 0.8921
-25.2073 -13.1937 3.0462 0.8919
-4.6280 -2.5092 0.5636 0.9790
-19.7364 -11.4589 2.4434 0.9123
-4.3843 -2.6319 0.5475 0.9796
-4.3464 -2.6963 0.5476 0.9796
-4.3085 -2.7608 0.5479 0.9796
-3.8604 -2.8048 0.5109 0.9810
-4.1178 -3.0846 0.5508 0.9795
-4.0792 -3.1499 0.5518 0.9795
-4.0406 -3.2154 0.5529 0.9794
-3.8475 -3.2497 0.5392 0.9799
-3.7340 -3.2486 0.5299 0.9803
-4.2261 -3.7866 0.6075 0.9774
-11.1870 -11.2691 1.7001 0.9381
-11.2681 -11.6875 1.7382 0.9368
-10.8430 -11.9251 1.7256 0.9372
-10.4556 -11.8421 1.6913 0.9384
-9.8378 -12.1789 1.6762 0.9390
-9.2958 -12.5999 1.6764 0.9390
-21.6791 -30.3019 3.9891 0.8608
-20.3481 -30.2732 3.9053 0.8635
-19.0707 -30.2457 3.8282 0.8660
-18.4505 -30.2323 3.7920 0.8672
-17.2441 -30.2064 3.7239 0.8694
-16.6567 -30.1937 3.6920 0.8705
-15.5110 -30.1691 3.6320 0.8724
-14.9518 -30.1570 3.6038 0.8734
-12.7957 -30.1106 3.5028 0.8767
-10.2537 -30.0560 3.4001 0.8801
-8.7943 -30.0246 3.3496 0.8817
-7.3750 -29.9940 3.3070 0.8832
-5.9887 -29.9642 3.2716 0.8843
-5.5329 -29.9543 3.2613 0.8847
-5.0797 -29.9446 3.2518 0.8850
-4.1809 -29.9253 3.2351 0.8855
-3.7348 -29.9157 3.2278 0.8858
-3.2906 -29.9061 3.2212 0.8860
-2.4071 -29.8871 3.2102 0.8864
-1.0912 -29.8587 3.1990 0.8867
0.0194 -2.6527 0.2840 0.9894
1.0895 -29.8118 3.1939 0.8869
1.5255 -29.8024 3.1950 0.8869
1.9618 -29.7930 3.1967 0.8868
2.3988 -29.7837 3.1991 0.8867
2.8364 -29.7742 3.2022 0.8866
3.2750 -29.7648 3.2060 0.8865
3.7148 -29.7554 3.2105 0.8864
4.1559 -29.7458 3.2157 0.8862
4.5985 -29.7363 3.2216 0.8860
14.0022 -45.3378 5.0803 0.8262
14.6632 -45.1287 5.0804 0.8262
4.9453 -13.8311 1.5726 0.9426
16.6271 -44.4435 5.0805 0.8262
19.1952 -43.3973 5.0806 0.8262
19.8274 -43.1125 5.0806 0.8262
22.9221 -41.5512 5.0807 0.8262
23.5269 -41.2121 5.0808 0.8262
24.1267 -40.8641 5.0808 0.8262
24.7213 -40.5074 5.0808 0.8262
25.3107 -40.1421 5.0808 0.8262
25.8947 -39.7682 5.0809 0.8262
27.0459 -38.9950 5.0809 0.8262
10.3048 -14.4035 1.8961 0.9312
10.3715 -14.0580 1.8704 0.9321
10.4364 -13.7218 1.8458 0.9330
29.2782 -37.3493 5.0810 0.8262
30.8873 -36.0308 5.0811 0.8262
27.3835 -29.2460 4.2895 0.8511
28.9985 -29.2112 4.4069 0.8474
12.4889 -10.5487 1.7503 0.9364
12.8357 -10.5242 1.7771 0.9354
12.9532 -10.3077 1.7724 0.9356
15.3530 -11.5010 2.0538 0.9257
15.1008 -10.9714 1.9984 0.9277
26.8610 -18.3409 3.4823 0.8774
26.9523 -17.8314 3.4600 0.8781
20.3286 -13.0262 2.5850 0.9074
20.3447 -12.2131 2.5406 0.9090
20.9359 -11.7498 2.5704 0.9079
20.8389 -11.2982 2.5379 0.9090
24.9097 -12.5778 2.9877 0.8938
25.5330 -12.4277 3.0403 0.8920
7.7548 -3.2287 0.8994 0.9668
8.0019 -3.1952 0.9225 0.9659
7.9595 -2.5221 0.8939 0.9670
7.9579 -2.3942 0.8897 0.9671
8.0380 -2.2907 0.8949 0.9669
8.0425 -2.1655 0.8917 0.9670
8.8465 -2.1068 0.9736 0.9641
8.7963 -1.8250 0.9618 0.9645
9.0085 -1.7321 0.9822 0.9638
8.8321 -1.5647 0.9603 0.9646
8.9797 -1.4559 0.9740 0.9641
19.9633 -2.0491 2.1486 0.9224
20.0502 -1.7624 2.1550 0.9222
19.9588 -1.4608 2.1426 0.9226
57.3937 -3.3584 6.1554 0.7935
57.0118 -2.5008 6.1099 0.7949
33.0519 8.3834 3.6508 0.8718
32.5459 8.7632 3.6086 0.8732
33.6876 9.6007 3.7504 0.8686
32.6064 9.8098 3.6456 0.8720
27.1913 8.6159 3.0539 0.8916
22.1849 8.1154 2.5292 0.9093
22.1543 8.4733 2.5395 0.9090
22.1233 8.8341 2.5505 0.9086
22.0919 9.1981 2.5621 0.9082
22.1007 10.3604 2.6133 0.9065
15.8931 8.6167 1.9356 0.9299
16.2620 9.1266 1.9965 0.9277
16.3573 9.4971 2.0251 0.9267
15.5961 9.6753 1.9650 0.9288
11.0634 9.0711 1.5317 0.9441
11.0352 9.3208 1.5465 0.9435
10.8873 9.4719 1.5450 0.9436
7.4687 9.5275 1.2961 0.9525
2.7851 9.5085 1.0608 0.9609
0.4930 3.9493 0.4261 0.9841
0.4341 3.9456 0.4250 0.9842
0.3755 3.9421 0.4240 0.9842
0.1439 3.9378 0.4219 0.9843
0.0290 3.9734 0.4254 0.9841
-0.0292 3.9952 0.4278 0.9841
-0.0881 4.0207 0.4306 0.9840
-0.2700 4.1007 0.4400 0.9836
-7.8252 10.2884 1.3839 0.9493
-13.1625 10.4743 1.8010 0.9346
-12.6357 9.7570 1.7092 0.9378
-12.8506 9.6264 1.7191 0.9374
-12.6173 8.8883 1.6524 0.9398
-13.7811 9.1175 1.7692 0.9357
-17.6624 10.6029 2.2056 0.9205
-17.5984 9.5413 2.1433 0.9226
-18.1313 8.8250 2.1590 0.9221
-18.0086 8.4421 2.1294 0.9231
-1.2938 0.5836 0.1520 0.9943
-1.2811 0.5334 0.1486 0.9944
-1.2785 0.5105 0.1474 0.9945
-1.2714 0.4441 0.1442 0.9946
-1.2659 0.4011 0.1422 0.9947
-1.2631 0.3800 0.1412 0.9947
-1.2608 0.3593 0.1404 0.9947
-1.2587 0.3389 0.1396 0.9948
-1.2548 0.2988 0.1381 0.9948
-1.2530 0.2791 0.1374 0.9948
-1.2513 0.2596 0.1368 0.9949
-1.2497 0.2403 0.1363 0.9949
-1.2482 0.2212 0.1357 0.9949
-1.2421 0.1643 0.1341 0.9950
-1.2400 0.1456 0.1337 0.9950
-1.2361 0.1087 0.1329 0.9950
-1.2281 0.0539 0.1316 0.9951
-1.2245 0.0358 0.1312 0.9951
-1.1804 -0.0172 0.1132 0.9953
-1.1903 -0.0696 0.1143 0.9952
-1.1974 -0.1052 0.1152 0.9952
-1.1998 -0.1232 0.1156 0.9952
-1.2074 -0.1957 0.1173 0.9951
-1.2092 -0.2142 0.1177 0.9951
-1.2148 -0.2893 0.1197 0.9950
-1.2182 -0.3280 0.1209 0.9949
-1.2351 -0.4724 0.1268 0.9947
-1.2372 -0.4941 0.1277 0.9947
-1.2442 -0.5612 0.1309 0.9945
-24.7758 -12.0590 2.6417 0.8952
-25.2422 -12.7456 2.7110 0.8926
-25.1819 -13.1804 2.7249 0.8921
-4.4619 -2.4191 0.4866 0.9798
-4.5582 -2.5582 0.5011 0.9792
-4.5396 -2.6357 0.5032 0.9791
-4.3552 -2.7018 0.4914 0.9796
-4.2411 -2.8958 0.4923 0.9796
-3.9384 -2.7744 0.4619 0.9808
-3.8946 -2.8296 0.4615 0.9808
-3.8420 -3.2451 0.4821 0.9800
-3.7288 -3.2440 0.4738 0.9803
-13.7643 -12.7003 1.7955 0.9275
-11.2521 -11.6708 1.5542 0.9369
-10.4407 -11.8252 1.5123 0.9386
-10.0383 -11.7099 1.4787 0.9399
-9.7927 -12.1231 1.4940 0.9393
-22.3665 -30.3166 3.6118 0.8595
-21.6791 -30.3019 3.5719 0.8610
-21.0065 -30.2874 3.5337 0.8623
-20.3481 -30.2732 3.4970 0.8637
-19.0707 -30.2457 3.4279 0.8662
-18.4505 -30.2324 3.3955 0.8673
-17.2440 -30.2064 3.3345 0.8696
-16.6566 -30.1937 3.3059 0.8706
-16.0792 -30.1813 3.2785 0.8716
-15.5110 -30.1691 3.2522 0.8726
-14.4011 -30.1452 3.2029 0.8744
-13.8584 -30.1335 3.1798 0.8752
-12.7957 -30.1107 3.1365 0.8768
-12.2748 -30.0994 3.1164 0.8776
-10.2537 -30.0559 3.0445 0.8802
-9.7623 -30.0453 3.0287 0.8808
-8.7943 -30.0245 2.9994 0.8819
-8.3171 -30.0143 2.9859 0.8824
-7.8441 -30.0041 2.9732 0.8828
-7.3750 -29.9940 2.9612 0.8833
-6.4475 -29.9740 2.9393 0.8841
-5.9887 -29.9641 2.9295 0.8845
-2.4348 -30.2315 2.9077 0.8853
-1.1038 -30.2029 2.8975 0.8856
0.0194 -2.6523 0.2543 0.9894
0.0574 -2.6179 0.2510 0.9895
1.5431 -30.1459 2.8939 0.8858
1.9845 -30.1364 2.8954 0.8857
2.3988 -29.7837 2.8646 0.8869
2.8364 -29.7742 2.8674 0.8868
4.5985 -29.7363 2.8847 0.8861
5.0428 -29.7268 2.8906 0.8859
5.4890 -29.7171 2.8972 0.8856
6.3881 -29.6978 2.9122 0.8851
8.2185 -29.6584 2.9505 0.8837
14.7696 -47.8229 4.7984 0.8178
15.5333 -47.8065 4.8191 0.8171
17.0812 -47.7732 4.8640 0.8156
18.6596 -47.7392 4.9139 0.8139
5.3186 -12.5157 1.3037 0.9468
23.5410 -47.4811 5.0808 0.8082
25.5996 -46.4047 5.0809 0.8082
26.2751 -46.0260 5.0809 0.8082
29.5655 -43.9866 5.0810 0.8082
30.2051 -43.5500 5.0811 0.8082
30.8384 -43.1042 5.0811 0.8082
10.4790 -12.5918 1.5705 0.9363
27.1958 -30.8021 3.9393 0.8478
27.3835 -29.2459 3.8410 0.8513
28.1801 -29.2288 3.8924 0.8495
28.9985 -29.2112 3.9461 0.8476
12.6346 -11.3207 1.6264 0.9341
12.3284 -10.7257 1.5666 0.9364
12.8555 -10.5404 1.5938 0.9354
16.5810 -12.0468 1.9649 0.9209
26.2853 -18.5167 3.0825 0.8788
20.3757 -12.6404 2.2988 0.9081
20.3664 -12.2261 2.2773 0.9090
20.8338 -11.6925 2.2904 0.9085
21.4867 -11.6493 2.3432 0.9065
25.1511 -12.6996 2.7012 0.8930
25.7115 -12.0530 2.7224 0.8922
8.6481 -3.7499 0.9037 0.9628
7.7567 -3.2295 0.8055 0.9668
7.7849 -3.1086 0.8036 0.9669
7.9462 -3.0391 0.8156 0.9664
8.1063 -2.9654 0.8275 0.9659
7.7019 -2.6905 0.7821 0.9677
8.0132 -2.5391 0.8059 0.9668
8.0092 -2.2825 0.7984 0.9671
8.5711 -2.0411 0.8447 0.9652
9.0050 -1.4600 0.8746 0.9640
19.9813 -1.7563 1.9230 0.9226
28.8509 -2.1116 2.7733 0.8903
56.8395 -2.4932 5.4544 0.7956
38.4574 8.5667 3.7773 0.8536
38.2987 9.1207 3.7744 0.8537
33.3694 8.4639 3.3004 0.8708
32.4184 9.2389 3.2317 0.8733
27.2951 8.6488 2.7450 0.8913
27.4380 9.5849 2.7864 0.8898
22.2398 8.5060 2.2827 0.9088
22.2091 8.8684 2.2926 0.9084
21.4506 10.0556 2.2712 0.9092
15.8918 8.6160 1.7330 0.9299
16.2606 9.1259 1.7876 0.9278
16.1512 9.6957 1.8060 0.9271
16.1202 10.0004 1.8187 0.9266
16.9664 10.8718 1.9319 0.9222
11.3262 9.2865 1.4042 0.9428
7.4682 9.5270 1.1605 0.9525
2.7925 9.5338 0.9524 0.9609
0.5987 3.8716 0.3756 0.9844
0.5404 3.8679 0.3744 0.9844
0.4248 3.8610 0.3724 0.9845
0.3677 3.8593 0.3717 0.9845
0.3108 3.8591 0.3712 0.9846
0.1975 3.8591 0.3705 0.9846
0.0284 3.8903 0.3730 0.9845
-0.0286 3.9108 0.3749 0.9844
-0.1445 3.9533 0.3793 0.9842
-0.2037 3.9787 0.3819 0.9841
-12.6731 9.7859 1.5350 0.9377
-12.8884 9.6548 1.5438 0.9373
-13.3521 9.4059 1.5658 0.9365
-18.1536 10.5400 2.0125 0.9191
-18.2405 10.2371 2.0053 0.9194
-18.1259 9.1525 1.9467 0.9216
-1.2418 0.5384 0.1298 0.9946
-1.2372 0.4941 0.1277 0.9947
-1.2300 0.4297 0.1249 0.9948
-1.2241 0.3879 0.1231 0.9949
-1.2219 0.3676 0.1223 0.9949
-1.2148 0.2893 0.1197 0.9950
-1.2118 0.2514 0.1186 0.9950
-1.2091 0.2142 0.1177 0.9951
-1.2074 0.1958 0.1173 0.9951
-1.2054 0.1774 0.1168 0.9951
-1.2034 0.1592 0.1164 0.9951
-1.2016 0.1411 0.1160 0.9952
-1.1974 0.1053 0.1152 0.9952
-1.1903 0.0697 0.1143 0.9952
-1.1804 0.0173 0.1132 0.9953
-1.1454 -0.0335 0.0971 0.9954
-1.1484 -0.0504 0.0974 0.9954
-1.1616 -0.1192 0.0989 0.9953
-1.1690 -0.1720 0.1001 0.9953
-1.1736 -0.2257 0.1012 0.9952
-1.1748 -0.2437 0.1016 0.9952
-1.1760 -0.2620 0.1020 0.9952
-1.1787 -0.2990 0.1030 0.9951
-1.1818 -0.3368 0.1041 0.9951
-1.1834 -0.3561 0.1047 0.9951
-1.1986 -0.4786 0.1093 0.9948
-1.2024 -0.5214 0.1110 0.9948
-1.2298 -0.5765 0.1150 0.9946
-4.6048 -2.3251 0.4369 0.9795
-4.4251 -2.4835 0.4298 0.9798
-4.4670 -2.5936 0.4375 0.9795
-4.3641 -2.7074 0.4350 0.9796
-4.2880 -2.8368 0.4355 0.9796
-3.9294 -2.8548 0.4114 0.9807
-3.9324 -3.0365 0.4208 0.9803
-4.0572 -3.2286 0.4392 0.9794
-3.9536 -3.2416 0.4330 0.9797
-3.8366 -3.2405 0.4254 0.9800
-3.7237 -3.2396 0.4180 0.9804
-3.6145 -3.2386 0.4111 0.9807
-4.2186 -3.8925 0.4862 0.9772
-11.2361 -11.6542 1.3711 0.9371
-28.5097 -30.4489 3.5330 0.8458
-10.0831 -12.1161 1.3351 0.9387
-23.7893 -30.3473 3.2660 0.8566
-23.0696 -30.3318 3.2277 0.8581
-20.3481 -30.2732 3.0894 0.8638
-19.7030 -30.2593 3.0583 0.8651
-19.0707 -30.2457 3.0285 0.8663
-18.5781 -30.4414 3.0205 0.8666
-17.9652 -30.4282 2.9929 0.8678
-17.3633 -30.4153 2.9663 0.8688
-16.8116 -30.4747 2.9478 0.8696
-15.1241 -30.5046 2.8838 0.8722
-14.4011 -30.1452 2.8296 0.8745
-13.8584 -30.1335 2.8092 0.8753
-13.3234 -30.1220 2.7897 0.8761
-12.7957 -30.1106 2.7710 0.8769
-12.2748 -30.0994 2.7532 0.8777
-4.7992 -12.2784 1.1166 0.9485
-11.2525 -30.0775 2.7199 0.8790
-10.7503 -30.0666 2.7045 0.8797
-9.7623 -30.0454 2.6757 0.8809
-8.7944 -30.0245 2.6498 0.8820
-8.3171 -30.0143 2.6379 0.8825
-7.3750 -29.9940 2.6161 0.8834
-6.4475 -29.9740 2.5968 0.8842
-5.0797 -29.9445 2.5725 0.8852
-4.6292 -29.9349 2.5656 0.8855
-4.1809 -29.9253 2.5592 0.8858
-0.2814 -2.9544 0.2514 0.9882
-2.4348 -30.2315 2.5688 0.8854
-0.1782 -2.7062 0.2297 0.9892
-0.1397 -2.7298 0.2315 0.9891
-0.6619 -30.1934 2.5579 0.8858
-0.0192 -2.6237 0.2222 0.9895
0.0574 -2.6177 0.2218 0.9895
1.1021 -30.1554 2.5558 0.8859
1.5431 -30.1459 2.5566 0.8859
2.3988 -29.7837 2.5308 0.8870
2.8364 -29.7742 2.5332 0.8869
3.2750 -29.7648 2.5362 0.8867
4.1559 -29.7459 2.5439 0.8864
4.5985 -29.7363 2.5485 0.8862
5.4890 -29.7171 2.5596 0.8858
5.9374 -29.7075 2.5659 0.8855
6.3881 -29.6978 2.5729 0.8852
6.8413 -29.6880 2.5804 0.8849
7.7563 -29.6684 2.5973 0.8842
8.2186 -29.6584 2.6067 0.8838
14.0124 -47.8392 4.2221 0.8186
17.0812 -47.7732 4.2971 0.8157
19.4614 -47.7219 4.3651 0.8131
21.0925 -47.6868 4.4164 0.8111
21.8540 -47.5191 4.4300 0.8106
25.3563 -47.5951 4.5676 0.8053
26.2457 -47.5759 4.6021 0.8040
27.1487 -47.5565 4.6381 0.8027
27.5366 -46.6396 4.5874 0.8046
28.8269 -45.7187 4.5777 0.8050
27.1762 -29.8881 3.4215 0.8503
28.1801 -29.2288 3.4388 0.8496
28.9985 -29.2112 3.4862 0.8477
11.5488 -10.6561 1.3309 0.9389
11.8244 -10.5947 1.3447 0.9383
12.2103 -10.3134 1.3537 0.9379
12.6523 -9.7698 1.3539 0.9378
26.2458 -19.0686 2.7477 0.8779
26.8441 -18.3293 2.7531 0.8777
21.1121 -13.5282 2.1238 0.9042
21.3518 -12.3969 2.0912 0.9056
24.4102 -12.7765 2.3336 0.8953
25.0966 -12.6721 2.3812 0.8933
25.3611 -11.8888 2.3723 0.8937
26.1349 -11.7889 2.4283 0.8913
8.6804 -3.7639 0.8014 0.9627
7.7586 -3.2303 0.7118 0.9668
7.8891 -2.8859 0.7115 0.9668
7.9776 -2.6567 0.7122 0.9668
8.0503 -2.5508 0.7152 0.9667
8.0653 -2.4265 0.7134 0.9668
8.1377 -2.1911 0.7138 0.9667
8.7278 -2.0785 0.7599 0.9646
8.9657 -1.9972 0.7780 0.9638
8.9442 -1.8556 0.7737 0.9640
9.0039 -1.7312 0.7766 0.9639
9.0451 -1.6025 0.7780 0.9638
9.0304 -1.4641 0.7748 0.9639
19.3256 -2.2695 1.6481 0.9249
19.6710 -2.0191 1.6748 0.9237
19.9131 -1.7504 1.6931 0.9229
28.7518 -2.1043 2.4417 0.8907
57.0508 -3.3384 4.8403 0.7950
56.8153 -2.4922 4.8168 0.7959
38.6511 8.0189 3.3434 0.8535
38.6830 8.6170 3.3567 0.8529
33.5011 7.9782 2.9168 0.8709
33.2265 8.9464 2.9144 0.8710
32.3976 9.7470 2.8655 0.8730
28.0569 8.8901 2.4928 0.8886
27.1429 10.3812 2.4613 0.8899
22.3306 9.2975 2.0487 0.9075
8.5059 4.1401 0.8012 0.9627
8.4017 4.2423 0.7972 0.9629
8.4269 4.4107 0.8056 0.9625
8.4538 4.5834 0.8145 0.9621
16.2488 10.0801 1.6195 0.9261
11.6013 9.5121 1.2707 0.9416
7.4678 9.5264 1.0252 0.9526
0.6435 3.7933 0.3259 0.9847
0.5860 3.7898 0.3248 0.9847
0.5290 3.7864 0.3238 0.9848
0.4724 3.7843 0.3230 0.9848
0.1383 3.7841 0.3207 0.9849
0.0831 3.7913 0.3212 0.9849
0.0278 3.8107 0.3228 0.9848
-0.2577 3.9131 0.3321 0.9844
-0.3776 3.9639 0.3373 0.9841
-1.9557 3.9446 0.3729 0.9825
-2.0217 3.9325 0.3745 0.9824
-2.0990 3.9401 0.3781 0.9822
-2.1781 3.9485 0.3819 0.9821
-2.4279 3.9783 0.3947 0.9815
-7.3549 9.6703 1.0290 0.9524
-12.7435 9.5463 1.3486 0.9381
-18.0952 9.4711 1.7299 0.9213
-17.8752 8.7004 1.6838 0.9233
-1.2297 0.5764 0.1150 0.9946
-1.1929 0.4364 0.1076 0.9949
-1.1902 0.4158 0.1068 0.9950
-1.1852 0.3755 0.1053 0.9950
-1.1818 0.3368 0.1041 0.9951
-1.1802 0.3178 0.1035 0.9951
-1.1774 0.2804 0.1025 0.9952
-1.1673 0.1544 0.0997 0.9953
-1.1651 0.1368 0.0994 0.9953
-1.1582 0.1018 0.0985 0.9953
-1.1549 0.0845 0.0981 0.9954
-1.1516 0.0674 0.0977 0.9954
-1.1484 0.0504 0.0974 0.9954
-1.1041 -0.0000 0.0812 0.9956
-1.1184 -0.0818 0.0825 0.9955
-1.1215 -0.0986 0.0828 0.9955
-1.1246 -0.1154 0.0832 0.9955
-1.1312 -0.1496 0.0839 0.9954
-1.1346 -0.1670 0.0843 0.9954
-1.1381 -0.2016 0.0850 0.9954
-1.1391 -0.2190 0.0853 0.9954
-1.1401 -0.2366 0.0856 0.9953
-1.1422 -0.2720 0.0864 0.9953
-1.1447 -0.3082 0.0872 0.9953
-1.1460 -0.3266 0.0876 0.9952
-1.1488 -0.3640 0.0886 0.9952
-1.1530 -0.4028 0.0898 0.9951
-1.1554 -0.4227 0.0905 0.9951
-1.1578 -0.4428 0.0912 0.9950
-1.1629 -0.4842 0.0926 0.9950
-1.1655 -0.5054 0.0934 0.9949
-1.1689 -0.5480 0.0950 0.9948
-1.4718 -0.7703 0.1222 0.9934
-4.4126 -2.4765 0.3722 0.9799
-4.2747 -2.5661 0.3667 0.9802
-4.2967 -2.8427 0.3789 0.9795
-4.0079 -2.7367 0.3569 0.9807
-3.9969 -2.8155 0.3596 0.9806
-3.9646 -2.8805 0.3604 0.9805
-3.7447 -2.8052 0.3441 0.9814
-3.5437 -2.7364 0.3293 0.9822
-3.7872 -3.0137 0.3560 0.9808
-3.8312 -3.2360 0.3688 0.9801
-3.6096 -3.2342 0.3565 0.9807
-4.2305 -3.9035 0.4234 0.9772
-27.6695 -30.4307 3.0249 0.8479
-26.8523 -30.4131 2.9839 0.8498
-26.0568 -30.3960 2.9445 0.8517
-25.2819 -30.3794 2.9068 0.8534
-24.5264 -30.3631 2.8706 0.8551
-23.0697 -30.3318 2.8027 0.8583
-22.3665 -30.3166 2.7708 0.8598
-21.6791 -30.3019 2.7402 0.8612
-21.0065 -30.2874 2.7109 0.8626
-20.3481 -30.2732 2.6827 0.8639
-19.2653 -30.5542 2.6565 0.8651
-18.6632 -30.5808 2.6349 0.8662
-17.4428 -30.5545 2.5876 0.8684
-16.8486 -30.5417 2.5654 0.8694
-15.6898 -30.5168 2.5237 0.8714
-15.1241 -30.5046 2.5041 0.8724
-14.4011 -30.1452 2.4571 0.8746
-13.8584 -30.1335 2.4394 0.8754
-12.7956 -30.1106 2.4062 0.8770
-12.2748 -30.0994 2.3907 0.8778
-4.7961 -12.2704 0.9689 0.9485
-9.2760 -30.0349 2.3119 0.8815
-7.8441 -30.0041 2.2809 0.8830
-7.3750 -29.9940 2.2717 0.8835
-6.9095 -29.9840 2.2630 0.8839
-5.9887 -29.9642 2.2474 0.8847
-5.0797 -29.9446 2.2338 0.8853
-4.6292 -29.9349 2.2278 0.8856
-4.1809 -29.9252 2.2223 0.8859
-3.7348 -29.9156 2.2173 0.8861
-0.2390 -2.9674 0.2189 0.9881
-0.1783 -2.7079 0.1996 0.9892
-0.1018 -2.7874 0.2051 0.9889
-0.1824 -8.3187 0.6120 0.9672
0.0194 -2.6518 0.1950 0.9894
0.0574 -2.6173 0.1925 0.9896
0.3032 -8.2960 0.6106 0.9673
0.4245 -8.2918 0.6106 0.9672
0.5458 -8.2879 0.6109 0.9672
0.6673 -8.2850 0.6113 0.9672
0.7894 -8.2866 0.6122 0.9672
0.9160 -8.3250 0.6160 0.9670
4.5984 -29.7363 2.2130 0.8863
5.4890 -29.7171 2.2226 0.8859
6.3881 -29.6978 2.2341 0.8853
8.2185 -29.6584 2.2635 0.8839
14.0123 -47.8392 3.6662 0.8188
14.7696 -47.8229 3.6811 0.8181
18.6596 -47.7392 3.7697 0.8142
19.4614 -47.7220 3.7904 0.8133
5.3157 -12.5089 0.9996 0.9469
22.7639 -47.6509 3.8839 0.8091
23.6161 -47.6325 3.9102 0.8080
24.4800 -47.6139 3.9376 0.8068
25.3563 -47.5951 3.9662 0.8055
26.2457 -47.5759 3.9962 0.8042
27.5366 -46.6396 3.9834 0.8047
27.9137 -45.7384 3.9409 0.8066
28.8269 -45.7187 3.9751 0.8051
2.2883 -3.1985 0.2892 0.9844
10.4674 -12.5778 1.2035 0.9365
27.1959 -30.8022 3.0220 0.8481
27.1762 -29.8881 2.9710 0.8504
28.1801 -29.2288 2.9861 0.8497
11.4238 -10.8540 1.1589 0.9388
11.5948 -10.6985 1.1603 0.9387
11.7692 -10.2392 1.1473 0.9393
12.2682 -10.0589 1.1668 0.9384
12.3665 -9.8409 1.1623 0.9386
12.4751 -9.6329 1.1592 0.9387
12.5410 -9.3946 1.1524 0.9391
12.9731 -9.4255 1.1794 0.9377
26.6971 -18.8068 2.4018 0.8772
27.4065 -18.1320 2.4169 0.8765
22.1138 -13.7186 1.9139 0.9009
21.1069 -12.6706 1.8106 0.9060
21.5378 -12.5049 1.8317 0.9049
21.6995 -12.1783 1.8301 0.9050
25.0424 -12.6447 2.0633 0.8936
25.5987 -12.4596 2.0939 0.8921
25.5587 -11.9814 2.0761 0.8930
7.9943 -3.0575 0.6295 0.9663
7.9244 -2.7682 0.6173 0.9669
8.0721 -2.6881 0.6257 0.9665
8.0022 -2.5356 0.6174 0.9669
8.1148 -2.1849 0.6181 0.9669
8.9061 -1.8478 0.6690 0.9642
8.9616 -1.7231 0.6712 0.9641
9.0708 -1.6070 0.6775 0.9637
19.2723 -2.8363 1.4327 0.9248
19.3933 -1.9906 1.4338 0.9248
56.9104 -3.3301 4.1927 0.7956
56.2185 -2.4660 4.1387 0.7980
57.3650 -1.6769 4.2208 0.7944
53.9651 8.7495 4.0208 0.8031
54.4147 9.6404 4.0643 0.8012
39.0930 8.1107 2.9364 0.8520
38.0392 8.4736 2.8662 0.8553
32.5192 10.3041 2.5089 0.8721
27.6784 9.6689 2.1563 0.8891
27.4546 10.0432 2.1501 0.8894
27.2430 10.4196 2.1452 0.8896
9.5300 3.9679 0.7592 0.9594
9.2463 4.0093 0.7412 0.9604
8.7173 4.0865 0.7081 0.9621
8.4143 4.4041 0.6985 0.9626
8.4421 4.5770 0.7063 0.9622
8.4681 4.7525 0.7142 0.9618
8.5396 5.1264 0.7325 0.9608
8.5904 5.3292 0.7435 0.9603
4.5752 3.9804 0.4460 0.9760
4.3499 4.0136 0.4353 0.9765
4.2411 4.0296 0.4303 0.9768
4.0317 4.0613 0.4209 0.9773
3.9289 4.0751 0.4163 0.9776
3.7732 4.1498 0.4125 0.9778
3.8358 4.6092 0.4410 0.9762
3.8312 4.7430 0.4484 0.9758
3.8995 4.9745 0.4649 0.9750
2.8075 9.5849 0.7346 0.9607
0.6301 3.7147 0.2771 0.9850
0.4084 3.7114 0.2746 0.9851
0.3536 3.7114 0.2742 0.9852
0.2989 3.7113 0.2738 0.9852
0.2444 3.7115 0.2736 0.9852
0.1900 3.7116 0.2733 0.9852
-0.0827 3.7726 0.2775 0.9850
-0.1386 3.7921 0.2791 0.9849
-0.1952 3.8120 0.2807 0.9848
-0.2524 3.8323 0.2825 0.9847
-0.3103 3.8529 0.2843 0.9846
-0.3691 3.8742 0.2862 0.9845
-0.4290 3.8991 0.2885 0.9844
-1.8002 5.0350 0.3933 0.9788
-1.8199 4.8647 0.3820 0.9794
-1.8562 4.5520 0.3616 0.9805
-1.8731 4.4079 0.3522 0.9810
-1.8891 4.2711 0.3435 0.9814
-1.9043 4.1410 0.3352 0.9819
-1.9190 4.0171 0.3274 0.9823
-1.9358 3.9046 0.3205 0.9827
-1.9553 3.8034 0.3145 0.9830
-1.9742 3.7059 0.3088 0.9833
-2.0650 3.6173 0.3063 0.9834
-2.1390 3.6230 0.3094 0.9833
-2.2148 3.6293 0.3127 0.9831
-2.7252 3.8092 0.3445 0.9814
-2.9999 4.0663 0.3716 0.9799
-4.6457 5.1094 0.5079 0.9727
-4.6629 4.9800 0.5018 0.9730
-4.6983 4.7328 0.4905 0.9736
-4.8839 4.5065 0.4888 0.9737
-12.7484 9.8440 1.1846 0.9374
-1.4718 0.7704 0.1222 0.9934
-1.1690 0.5480 0.0950 0.9948
-1.1672 0.5265 0.0942 0.9949
-1.1603 0.4634 0.0919 0.9950
-1.1530 0.4028 0.0898 0.9951
-1.1508 0.3832 0.0892 0.9951
-1.1488 0.3640 0.0886 0.9952
-1.1474 0.3452 0.0881 0.9952
-1.1459 0.3266 0.0876 0.9952
-1.1446 0.3082 0.0872 0.9953
-1.1365 0.1843 0.0847 0.9954
-1.1346 0.1670 0.0843 0.9954
-1.1279 0.1325 0.0835 0.9955
-1.1247 0.1154 0.0832 0.9955
-1.1154 0.0653 0.0822 0.9955
-1.1125 0.0488 0.0819 0.9955
-1.1068 0.0161 0.0814 0.9956
-1.0331 0.0000 0.0645 0.9959
-1.0421 -0.0304 0.0651 0.9958
-1.0538 -0.0617 0.0659 0.9958
-1.0599 -0.0775 0.0663 0.9958
-1.0661 -0.0937 0.0668 0.9957
-1.0792 -0.1267 0.0678 0.9957
-1.0860 -0.1436 0.0684 0.9956
-1.1003 -0.1784 0.0696 0.9955
-1.1065 -0.2128 0.0703 0.9955
-1.1074 -0.2297 0.0706 0.9955
-1.1092 -0.2641 0.0712 0.9954
-1.1102 -0.2816 0.0715 0.9954
-1.1112 -0.2992 0.0718 0.9954
-1.1124 -0.3170 0.0722 0.9954
-1.1135 -0.3350 0.0726 0.9954
-1.1181 -0.3906 0.0739 0.9953
-1.1222 -0.4292 0.0750 0.9952
-1.1245 -0.4490 0.0756 0.9952
-1.1290 -0.4895 0.0768 0.9951
-1.1314 -0.5104 0.0775 0.9950
-1.1716 -0.5703 0.0813 0.9948
-1.2578 -0.6351 0.0879 0.9944
-1.4422 -0.7549 0.1016 0.9935
-1.4418 -0.7817 0.1024 0.9934
-4.2198 -2.6178 0.3099 0.9803
-4.0404 -2.6731 0.3024 0.9808
-4.0267 -2.8366 0.3074 0.9805
-4.0155 -2.9174 0.3098 0.9803
-3.7771 -2.8294 0.2945 0.9813
-3.5729 -2.7589 0.2817 0.9821
-3.9807 -3.1677 0.3175 0.9798
-3.9423 -3.2323 0.3182 0.9798
-3.6047 -3.2298 0.3021 0.9808
-4.2108 -4.0007 0.3625 0.9770
-3.4809 -3.4055 0.3039 0.9807
-3.8117 -3.9536 0.3428 0.9782
-28.5097 -30.4488 2.6034 0.8461
-27.6695 -30.4307 2.5671 0.8480
-25.2819 -30.3794 2.4668 0.8535
-24.5264 -30.3631 2.4361 0.8552
-22.3665 -30.3166 2.3514 0.8599
-21.0065 -30.2874 2.3005 0.8627
-20.3481 -30.2732 2.2766 0.8640
-19.7030 -30.2593 2.2537 0.8653
-19.2652 -30.5541 2.2544 0.8652
-18.6632 -30.5808 2.2360 0.8662
-16.8486 -30.5417 2.1770 0.8695
-16.2645 -30.5291 2.1590 0.8705
-15.6898 -30.5168 2.1417 0.8715
-15.1241 -30.5046 2.1251 0.8724
-14.4011 -30.1452 2.0852 0.8747
-12.7956 -30.1106 2.0420 0.8771
-4.7979 -12.2752 0.8226 0.9486
-11.2525 -30.0774 2.0043 0.8792
-10.7503 -30.0666 1.9929 0.8799
-9.2760 -30.0349 1.9620 0.8816
-8.7943 -30.0245 1.9527 0.8822
-4.6292 -29.9349 1.8906 0.8857
-3.7348 -29.9156 1.8817 0.8862
-3.2906 -29.9061 1.8778 0.8864
-0.2792 -2.9312 0.1838 0.9883
-0.2376 -2.9505 0.1847 0.9882
-0.1784 -2.7096 0.1695 0.9892
-0.0194 -2.6478 0.1653 0.9894
0.0194 -2.6514 0.1655 0.9894
0.0574 -2.6171 0.1634 0.9896
0.5407 -8.2112 0.5136 0.9676
0.7817 -8.2058 0.5145 0.9675
0.9027 -8.2041 0.5151 0.9675
1.0248 -8.2083 0.5163 0.9674
1.2748 -8.2434 0.5206 0.9671
5.4890 -29.7171 1.8861 0.8859
6.3881 -29.6978 1.8960 0.8854
14.7232 -47.6726 3.1141 0.8188
15.4844 -47.6562 3.1275 0.8181
16.2524 -47.6397 3.1417 0.8173
17.0275 -47.6230 3.1566 0.8165
17.8103 -47.6062 3.1724 0.8157
19.4003 -47.5720 3.2066 0.8139
20.2085 -47.5546 3.2249 0.8130
21.0263 -47.5370 3.2443 0.8119
22.6924 -47.5011 3.2857 0.8098
23.5418 -47.4828 3.3078 0.8086
25.3563 -47.5951 3.3659 0.8056
26.2457 -47.5759 3.3913 0.8043
27.1488 -47.5565 3.4178 0.8029
27.9137 -45.7384 3.3444 0.8067
2.3559 -3.1933 0.2477 0.9842
2.3225 -2.4805 0.2121 0.9865
28.9986 -29.2112 2.5690 0.8479
11.2494 -10.6882 0.9685 0.9397
11.4838 -10.5961 0.9752 0.9393
11.7214 -10.5024 0.9823 0.9389
12.2234 -10.0221 0.9866 0.9386
12.3522 -9.8295 0.9853 0.9387
12.4231 -9.5928 0.9796 0.9390
12.9944 -9.4409 1.0025 0.9377
27.4400 -18.7362 2.0738 0.8753
29.6584 -18.3990 2.1784 0.8695
21.0343 -12.6271 1.5312 0.9064
21.3204 -12.3787 1.5387 0.9059
26.4187 -12.8587 1.8338 0.8889
8.9645 -3.8871 0.6098 0.9616
7.9236 -3.1640 0.5325 0.9664
7.8506 -3.0026 0.5246 0.9669
7.8156 -2.8590 0.5194 0.9672
8.0998 -2.8295 0.5355 0.9662
8.0967 -2.5655 0.5301 0.9665
8.4960 -2.0233 0.5451 0.9656
8.6844 -1.9345 0.5553 0.9650
8.8684 -1.8399 0.5653 0.9644
8.9198 -1.7151 0.5669 0.9643
9.0966 -1.6116 0.5766 0.9637
19.0680 -3.0916 1.2057 0.9255
18.8584 -2.7754 1.1897 0.9265
19.2781 -2.5500 1.2137 0.9250
19.4843 -2.2881 1.2244 0.9244
28.5593 -2.5103 1.7894 0.8915
56.9827 -3.3343 3.5626 0.7955
56.5768 -2.4818 3.5346 0.7969
58.2868 -1.7039 3.6395 0.7916
53.9303 8.7438 3.4100 0.8034
54.0443 9.5747 3.4256 0.8025
43.3676 8.9975 2.7644 0.8374
38.6331 8.6059 2.4703 0.8533
30.7484 8.7629 1.9955 0.8797
31.0696 9.3475 2.0250 0.8781
27.7729 9.7019 1.8361 0.8888
27.3438 10.4582 1.8272 0.8893
9.5033 3.9568 0.6425 0.9596
9.2211 3.9983 0.6273 0.9605
8.9518 4.0380 0.6129 0.9614
8.4017 4.3975 0.5919 0.9627
8.4563 4.7459 0.6052 0.9619
8.5252 5.1177 0.6206 0.9609
8.5753 5.3198 0.6298 0.9604
8.6212 5.5243 0.6391 0.9598
8.7100 5.7625 0.6518 0.9590
4.6734 3.9474 0.3818 0.9758
4.5380 3.9481 0.3754 0.9762
4.4197 3.9601 0.3704 0.9765
4.3046 3.9718 0.3656 0.9768
4.1955 3.9863 0.3612 0.9771
3.9833 4.0125 0.3529 0.9776
3.8822 4.0267 0.3491 0.9778
3.7869 4.0444 0.3458 0.9780
3.6978 4.0668 0.3431 0.9782
3.7881 4.8323 0.3832 0.9757
3.8379 5.0461 0.3957 0.9749
0.6179 3.6426 0.2306 0.9853
0.4546 3.6418 0.2291 0.9854
0.4007 3.6420 0.2287 0.9854
0.3471 3.6440 0.2285 0.9854
0.2402 3.6481 0.2282 0.9855
0.1868 3.6502 0.2281 0.9855
0.1335 3.6523 0.2281 0.9855
0.0801 3.6550 0.2282 0.9855
-0.0811 3.7005 0.2310 0.9853
-0.2473 3.7552 0.2349 0.9850
-0.3040 3.7748 0.2364 0.9849
-0.4790 3.8365 0.2413 0.9846
-2.3525 9.5677 0.6149 0.9613
-1.7535 5.1402 0.3390 0.9785
-1.7748 4.9641 0.3290 0.9791
-1.7950 4.7982 0.3197 0.9797
-1.8141 4.6414 0.3110 0.9802
-1.8322 4.4930 0.3028 0.9807
-1.8658 4.2184 0.2879 0.9817
-1.8984 3.9739 0.2749 0.9825
-1.9169 3.8665 0.2694 0.9829
-1.9557 3.6711 0.2596 0.9835
-1.9919 3.4893 0.2508 0.9840
-2.0364 3.3369 0.2440 0.9845
-2.1773 3.3439 0.2490 0.9841
