ply
format ascii 1.0
element vertex 1592
property float32 x
property float32 y
property float32 z
property float32 I
end_header
4.6583 -2.7046 0.0970 0.9787
4.5726 -2.4791 0.0937 0.9794
6.8359 -3.0836 0.1351 0.9704
19.6860 -8.1964 0.3840 0.9182
20.4892 -8.1816 0.3973 0.9155
32.0917 -10.1686 0.6063 0.8740
15.4316 -3.4375 0.2847 0.9387
15.0841 -2.4456 0.2752 0.9407
15.1176 -2.2249 0.2752 0.9407
15.5662 -2.0590 0.2828 0.9391
28.6775 -3.3677 0.5200 0.8909
28.4982 -2.5049 0.5152 0.8919
49.3619 -2.1652 0.8898 0.8206
56.0421 4.1018 1.0120 0.7987
56.3179 5.7806 1.0196 0.7973
24.2900 4.3033 0.4443 0.9060
15.6292 3.7221 0.2893 0.9377
14.9860 3.8011 0.2784 0.9400
14.5427 3.9157 0.2712 0.9415
14.5596 4.1494 0.2726 0.9412
14.5794 4.3863 0.2742 0.9409
12.0325 3.8127 0.2273 0.9508
11.2341 3.9244 0.2143 0.9535
10.9971 4.0229 0.2109 0.9542
11.0024 4.2080 0.2121 0.9540
8.9583 3.7298 0.1748 0.9619
8.4321 3.8035 0.1666 0.9637
7.9528 3.8708 0.1593 0.9652
7.7442 4.1986 0.1586 0.9654
7.8539 4.8722 0.1664 0.9637
7.9316 5.2475 0.1713 0.9627
7.9723 5.4435 0.1738 0.9621
5.3411 3.7625 0.1177 0.9742
5.1934 3.7733 0.1156 0.9746
5.0508 3.7836 0.1137 0.9751
4.9160 3.7960 0.1119 0.9755
4.6728 3.8312 0.1088 0.9761
4.3537 3.9009 0.1053 0.9769
4.1753 3.9670 0.1037 0.9772
4.1911 4.4761 0.1104 0.9758
4.2526 4.9608 0.1177 0.9742
4.2874 5.1518 0.1207 0.9735
4.3629 5.5656 0.1274 0.9721
4.4039 5.7902 0.1310 0.9713
4.4934 6.2806 0.1391 0.9696
1.5820 2.8676 0.0590 0.9870
1.5119 2.8377 0.0579 0.9872
1.2832 2.7901 0.0553 0.9878
1.1885 2.7966 0.0547 0.9879
1.0500 2.8063 0.0540 0.9881
1.0046 2.8095 0.0537 0.9881
0.9596 2.8126 0.0535 0.9882
0.9151 2.8159 0.0533 0.9882
0.8287 2.8292 0.0531 0.9883
0.7434 2.8432 0.0529 0.9883
0.7016 2.8532 0.0529 0.9883
0.6599 2.8632 0.0529 0.9883
0.6181 2.8732 0.0529 0.9883
0.5763 2.8832 0.0530 0.9883
0.5345 2.8932 0.0530 0.9883
0.4506 2.9133 0.0531 0.9883
0.4086 2.9234 0.0532 0.9883
0.3240 2.9437 0.0533 0.9882
0.2416 2.9985 0.0542 0.9880
0.1999 3.0341 0.0548 0.9879
0.1573 3.0706 0.0554 0.9878
0.1137 3.1087 0.0560 0.9876
0.0698 3.1802 0.0573 0.9874
-1.6934 5.4833 0.1034 0.9773
-1.7186 5.2895 0.1002 0.9780
-1.7442 5.1127 0.0973 0.9786
-1.8390 4.5097 0.0877 0.9807
-1.8990 4.1292 0.0819 0.9820
-1.9172 4.0134 0.0801 0.9824
-1.9833 3.5952 0.0739 0.9837
-1.9986 3.5011 0.0726 0.9840
-2.0140 3.4113 0.0713 0.9843
-2.1154 3.2488 0.0698 0.9846
-2.1539 3.2046 0.0695 0.9847
-2.3594 3.1981 0.0716 0.9842
-2.6024 3.2217 0.0746 0.9836
-3.0089 3.3093 0.0806 0.9823
-1.1481 0.6893 0.0241 0.9947
-0.9337 0.5420 0.0194 0.9957
-0.9313 0.4874 0.0189 0.9958
-0.9299 0.4526 0.0186 0.9959
-0.9194 0.4147 0.0182 0.9960
-0.9141 0.3963 0.0179 0.9960
-0.9090 0.3785 0.0177 0.9961
-0.8977 0.3433 0.0173 0.9962
-0.8919 0.3262 0.0171 0.9962
-0.8807 0.2933 0.0167 0.9963
-0.8753 0.2773 0.0165 0.9963
-0.8713 0.2621 0.0164 0.9964
-0.8687 0.2339 0.0162 0.9964
-0.8675 0.2200 0.0161 0.9964
-0.8606 0.1785 0.0158 0.9965
-0.8565 0.1646 0.0157 0.9965
-0.8524 0.1510 0.0156 0.9965
-0.8485 0.1376 0.0155 0.9966
-0.8384 0.0984 0.0152 0.9966
-0.8324 0.0731 0.0150 0.9967
-0.8267 0.0484 0.0149 0.9967
-0.8239 0.0361 0.0149 0.9967
-0.8211 0.0240 0.0148 0.9967
-0.8184 0.0120 0.0147 0.9967
-0.7799 -0.0228 0.0054 0.9969
-0.7823 -0.0343 0.0054 0.9969
-0.7874 -0.0577 0.0055 0.9968
-0.7899 -0.0694 0.0055 0.9968
-0.7978 -0.1055 0.0056 0.9968
-0.8167 -0.1820 0.0058 0.9967
-0.8200 -0.1953 0.0058 0.9966
-0.8219 -0.2213 0.0059 0.9966
-0.8229 -0.2345 0.0059 0.9966
-0.8380 -0.2927 0.0061 0.9965
-0.8478 -0.3243 0.0063 0.9964
-0.8528 -0.3405 0.0064 0.9963
-0.8580 -0.3572 0.0064 0.9963
-0.8629 -0.3741 0.0065 0.9962
-0.8717 -0.4086 0.0067 0.9962
-0.8763 -0.4266 0.0067 0.9961
-0.8810 -0.4448 0.0068 0.9961
-0.8859 -0.4637 0.0069 0.9960
-0.8883 -0.4816 0.0070 0.9960
-0.8887 -0.4988 0.0071 0.9959
-0.8895 -0.5340 0.0072 0.9959
-12.9426 -8.5627 0.1075 0.9398
-12.3647 -8.7103 0.1048 0.9413
-12.3219 -9.5147 0.1078 0.9396
-12.3511 -9.8286 0.1093 0.9388
-2.8201 -2.3123 0.0253 0.9855
-2.6984 -2.3476 0.0248 0.9858
-2.4679 -2.4144 0.0239 0.9863
-2.1083 -2.4594 0.0224 0.9871
-2.0247 -2.4329 0.0219 0.9874
-1.8371 -2.4901 0.0214 0.9877
-1.7856 -2.4959 0.0213 0.9878
-1.5400 -2.5233 0.0205 0.9882
-1.4929 -2.5285 0.0203 0.9883
-1.3978 -2.7187 0.0212 0.9878
-1.1641 -2.8546 0.0214 0.9877
-1.2299 -3.1466 0.0234 0.9866
-1.2566 -3.5144 0.0258 0.9852
-3.0693 -8.9970 0.0658 0.9627
-2.5029 -9.0322 0.0649 0.9632
-2.3676 -9.0562 0.0648 0.9632
-2.2519 -9.1583 0.0653 0.9630
-6.0772 -30.4067 0.2148 0.8833
-4.6976 -30.3770 0.2129 0.8843
-2.4427 -30.3284 0.2107 0.8854
-1.9965 -30.3188 0.2104 0.8856
-1.1074 -30.2997 0.2100 0.8858
-0.2213 -30.2806 0.2097 0.8859
0.6634 -30.2615 0.2096 0.8860
1.1131 -30.4581 0.2111 0.8852
0.4420 -8.6348 0.0599 0.9660
0.5611 -8.5202 0.0591 0.9664
0.9335 -8.4840 0.0591 0.9664
1.0588 -8.4808 0.0592 0.9664
1.3105 -8.4743 0.0594 0.9663
1.6921 -8.4664 0.0598 0.9661
1.8205 -8.4633 0.0600 0.9660
1.9496 -8.4603 0.0601 0.9659
2.2103 -8.4546 0.0605 0.9656
2.3418 -8.4509 0.0607 0.9655
2.7416 -8.4378 0.0614 0.9651
2.8776 -8.4349 0.0617 0.9650
3.2951 -8.4303 0.0627 0.9644
3.4406 -8.4369 0.0631 0.9642
3.5881 -8.4434 0.0635 0.9640
3.7363 -8.4473 0.0640 0.9637
13.7873 -29.9789 0.2285 0.8763
14.3162 -29.9675 0.2300 0.8756
15.9465 -29.9324 0.2349 0.8731
18.4445 -30.2225 0.2452 0.8679
20.2873 -30.1828 0.2519 0.8646
21.5741 -30.1551 0.2568 0.8622
3.0087 -3.7247 0.0332 0.9810
7.3372 -8.5591 0.0781 0.9559
3.0794 -3.4877 0.0322 0.9816
7.9955 -8.5393 0.0810 0.9543
8.4429 -8.5048 0.0830 0.9532
9.4825 -8.4964 0.0882 0.9503
15.5966 -12.4113 0.1381 0.9234
4.4284 -2.9298 0.0368 0.9790
4.5033 -2.7938 0.0367 0.9790
4.5777 -2.7480 0.0370 0.9789
4.7400 -2.6602 0.0376 0.9785
4.6901 -2.4548 0.0367 0.9790
6.5966 -3.3309 0.0512 0.9709
6.6434 -3.2336 0.0512 0.9709
6.8356 -3.0834 0.0519 0.9704
6.8709 -2.9793 0.0519 0.9705
20.2685 -8.0935 0.1512 0.9164
22.0918 -8.0814 0.1629 0.9102
25.5352 -8.5036 0.1864 0.8979
26.6483 -8.4439 0.1936 0.8942
32.0088 -9.6301 0.2315 0.8748
15.0921 -4.0636 0.1083 0.9394
15.4852 -2.9774 0.1092 0.9389
15.2881 -2.2500 0.1070 0.9401
15.3221 -2.0267 0.1070 0.9400
16.0445 -1.8841 0.1119 0.9374
28.6653 -2.9423 0.1996 0.8911
29.6686 -1.7361 0.2058 0.8879
96.1551 -1.4052 0.6660 0.6807
94.7411 4.1557 0.6568 0.6843
55.8483 3.2680 0.3875 0.7995
43.7779 3.8479 0.3044 0.8388
34.0592 3.4959 0.2371 0.8720
33.7839 3.9673 0.2356 0.8728
17.2179 3.5722 0.1218 0.9321
15.4424 3.6776 0.1099 0.9385
14.8342 3.7626 0.1060 0.9406
14.4845 3.9000 0.1039 0.9418
14.4907 4.1297 0.1044 0.9415
14.4971 4.3616 0.1049 0.9412
11.9163 3.7758 0.0866 0.9512
11.1542 3.8965 0.0818 0.9538
10.9568 4.1906 0.0812 0.9542
8.7855 3.6579 0.0659 0.9626
8.5252 3.6966 0.0644 0.9635
8.2769 3.7336 0.0629 0.9643
8.0397 3.7688 0.0615 0.9651
7.7037 4.3235 0.0612 0.9653
7.7296 4.4877 0.0619 0.9649
7.7560 4.6560 0.0627 0.9645
7.7832 4.8284 0.0634 0.9640
7.8110 5.0051 0.0643 0.9636
7.8396 5.1866 0.0651 0.9631
7.8767 5.3782 0.0661 0.9626
5.1645 3.7523 0.0442 0.9748
4.8865 3.7732 0.0428 0.9756
4.7594 3.7873 0.0421 0.9760
4.2343 3.9070 0.0399 0.9772
4.1526 3.9454 0.0397 0.9773
4.1560 4.0659 0.0403 0.9770
4.1673 4.4507 0.0422 0.9759
4.1715 4.5878 0.0429 0.9755
4.1832 4.7379 0.0438 0.9750
4.3584 5.7303 0.0499 0.9716
4.4000 5.9639 0.0513 0.9708
4.4441 6.2118 0.0529 0.9699
4.4911 6.4753 0.0546 0.9690
1.5707 2.8471 0.0225 0.9871
1.5012 2.8177 0.0221 0.9873
1.3756 2.7743 0.0214 0.9877
1.3271 2.7777 0.0213 0.9878
1.1848 2.7878 0.0210 0.9880
1.0467 2.7975 0.0207 0.9881
1.0015 2.8007 0.0206 0.9882
0.8685 2.8118 0.0204 0.9883
0.7829 2.8250 0.0203 0.9883
0.7412 2.8346 0.0203 0.9883
0.6995 2.8446 0.0203 0.9884
0.6579 2.8546 0.0203 0.9884
0.5746 2.8745 0.0203 0.9883
0.4493 2.9045 0.0204 0.9883
0.3230 2.9348 0.0204 0.9883
0.1988 3.0173 0.0209 0.9880
0.1564 3.0534 0.0212 0.9878
0.1130 3.0903 0.0214 0.9877
0.0236 3.2123 0.0222 0.9872
-1.6422 5.6067 0.0405 0.9769
-1.6694 5.4056 0.0392 0.9776
-1.6951 5.2172 0.0380 0.9783
-1.7224 5.0491 0.0369 0.9789
-1.7961 4.5955 0.0342 0.9805
-1.8183 4.4590 0.0334 0.9809
-1.8395 4.3288 0.0326 0.9814
-1.8790 4.0859 0.0311 0.9822
-1.8975 3.9721 0.0305 0.9825
-1.9153 3.8631 0.0299 0.9829
-1.9323 3.7585 0.0293 0.9832
-1.9487 3.6579 0.0287 0.9836
-1.9796 3.4678 0.0277 0.9842
-1.9946 3.3785 0.0272 0.9844
-2.0097 3.2932 0.0267 0.9847
-2.0470 3.2466 0.0266 0.9848
-2.1613 3.1164 0.0263 0.9849
-2.2258 3.1112 0.0265 0.9848
-2.2998 3.1174 0.0268 0.9846
-2.3758 3.1238 0.0272 0.9844
-2.5340 3.1371 0.0279 0.9840
-2.7997 3.1710 0.0293 0.9832
-2.9070 3.1972 0.0299 0.9829
-3.0192 3.2246 0.0306 0.9825
-3.1365 3.2533 0.0313 0.9821
-3.2707 3.2948 0.0322 0.9816
-0.9720 0.6030 0.0079 0.9954
-0.8895 0.5339 0.0072 0.9959
-0.8891 0.5162 0.0071 0.9959
-0.8717 0.4087 0.0067 0.9962
-0.8672 0.3912 0.0066 0.9962
-0.8580 0.3572 0.0064 0.9963
-0.8380 0.2927 0.0061 0.9965
-0.8228 0.2345 0.0059 0.9966
-0.8219 0.2213 0.0059 0.9966
-0.8209 0.2082 0.0059 0.9966
-0.8200 0.1953 0.0058 0.9966
-0.8131 0.1687 0.0058 0.9967
-0.8032 0.1302 0.0056 0.9968
-0.7925 0.0813 0.0055 0.9968
-0.7874 0.0576 0.0055 0.9968
-0.7849 0.0459 0.0054 0.9969
-0.7774 0.0113 0.0054 0.9969
-0.7381 -0.0000 -0.0031 0.9971
-0.7448 -0.0327 -0.0031 0.9970
-0.7470 -0.0437 -0.0031 0.9970
-0.7516 -0.0661 -0.0031 0.9970
-0.7562 -0.0888 -0.0032 0.9970
-0.7608 -0.1120 -0.0032 0.9969
-0.7680 -0.1477 -0.0033 0.9969
-0.7706 -0.1599 -0.0033 0.9969
-0.7737 -0.1724 -0.0033 0.9968
-0.7791 -0.1977 -0.0033 0.9968
-0.7805 -0.2225 -0.0034 0.9968
-0.7868 -0.2493 -0.0034 0.9967
-0.7908 -0.2634 -0.0035 0.9967
-0.7948 -0.2777 -0.0035 0.9966
-0.7989 -0.2923 -0.0035 0.9966
-0.8118 -0.3380 -0.0037 0.9965
-0.8244 -0.3865 -0.0038 0.9964
-0.8282 -0.4031 -0.0038 0.9963
-0.8360 -0.4376 -0.0039 0.9962
-0.8443 -0.4738 -0.0040 0.9961
-0.8486 -0.4927 -0.0041 0.9961
-0.8486 -0.5265 -0.0041 0.9960
-0.8486 -0.5438 -0.0042 0.9960
-12.7378 -8.4272 -0.0635 0.9407
-12.3881 -8.4587 -0.0623 0.9418
-12.2278 -8.8840 -0.0628 0.9413
-12.2197 -9.1539 -0.0634 0.9408
-12.2273 -9.7301 -0.0649 0.9394
-2.7901 -2.3567 -0.0152 0.9855
-2.7288 -2.3741 -0.0150 0.9856
-2.6687 -2.3912 -0.0149 0.9858
-2.4948 -2.4407 -0.0145 0.9861
-2.4388 -2.4567 -0.0144 0.9862
-2.3772 -2.4657 -0.0142 0.9864
-2.2232 -2.5181 -0.0140 0.9867
-2.0613 -2.4046 -0.0132 0.9874
-2.0510 -2.4645 -0.0133 0.9873
-2.0403 -2.5259 -0.0135 0.9871
-1.9035 -2.5801 -0.0133 0.9873
-1.6932 -2.6005 -0.0129 0.9877
-1.5440 -2.6151 -0.0126 0.9879
-1.4956 -2.6198 -0.0125 0.9880
-1.4478 -2.6245 -0.0125 0.9881
-1.4007 -2.6291 -0.0124 0.9882
-1.4104 -2.8448 -0.0132 0.9874
-1.4429 -3.0203 -0.0139 0.9867
-1.3856 -3.0128 -0.0138 0.9868
-1.3293 -3.0054 -0.0137 0.9869
-1.2817 -3.1428 -0.0141 0.9865
-3.1998 -8.9492 -0.0395 0.9627
-2.9069 -8.9466 -0.0391 0.9631
-2.7663 -8.9570 -0.0390 0.9632
-2.4908 -8.9888 -0.0388 0.9634
-2.2267 -9.0560 -0.0388 0.9634
-6.5427 -30.4167 -0.1293 0.8830
-6.0772 -30.4067 -0.1289 0.8834
-5.1548 -30.3868 -0.1281 0.8840
-4.6976 -30.3770 -0.1277 0.8843
-3.7900 -30.3574 -0.1271 0.8848
-2.8902 -30.3381 -0.1266 0.8852
-2.4427 -30.3284 -0.1264 0.8854
-1.9965 -30.3188 -0.1263 0.8856
0.0642 -8.7841 -0.0365 0.9655
0.1868 -8.5188 -0.0354 0.9665
0.4336 -8.4712 -0.0352 0.9666
0.5571 -8.4602 -0.0352 0.9667
0.6801 -8.4437 -0.0352 0.9667
0.8043 -8.4427 -0.0352 0.9666
1.0533 -8.4368 -0.0353 0.9666
1.1783 -8.4334 -0.0354 0.9665
1.4293 -8.4255 -0.0355 0.9664
1.8099 -8.4139 -0.0358 0.9662
1.9380 -8.4100 -0.0359 0.9661
2.1967 -8.4024 -0.0361 0.9659
2.3272 -8.3981 -0.0362 0.9657
2.5915 -8.3909 -0.0365 0.9655
2.7252 -8.3873 -0.0366 0.9653
2.8599 -8.3830 -0.0368 0.9652
2.9974 -8.3832 -0.0370 0.9650
3.1374 -8.3862 -0.0372 0.9648
3.2780 -8.3865 -0.0374 0.9646
3.4232 -8.3940 -0.0377 0.9644
3.5745 -8.4114 -0.0380 0.9641
14.8521 -29.9560 -0.1389 0.8748
15.3954 -29.9443 -0.1399 0.8740
15.9465 -29.9324 -0.1409 0.8731
17.0738 -29.9082 -0.1431 0.8713
18.2374 -29.8831 -0.1455 0.8693
19.4412 -29.8572 -0.1481 0.8672
20.0595 -29.8439 -0.1494 0.8660
2.5632 -3.6956 -0.0187 0.9822
6.6937 -9.3561 -0.0478 0.9550
3.0114 -3.7281 -0.0199 0.9810
2.9900 -3.5929 -0.0194 0.9815
3.2009 -3.7340 -0.0204 0.9805
3.0787 -3.4870 -0.0193 0.9816
3.1273 -3.4394 -0.0193 0.9816
8.1121 -8.4139 -0.0486 0.9543
8.8334 -8.3928 -0.0506 0.9524
9.0929 -8.3900 -0.0514 0.9517
9.3588 -8.3855 -0.0522 0.9510
12.6421 -9.7617 -0.0664 0.9381
12.6252 -8.8937 -0.0642 0.9401
4.4272 -2.9290 -0.0221 0.9790
4.4646 -2.8609 -0.0220 0.9790
4.5775 -2.7479 -0.0222 0.9789
4.7397 -2.6601 -0.0226 0.9785
18.1161 -9.4821 -0.0850 0.9215
6.7236 -3.1519 -0.0309 0.9707
19.2513 -8.0154 -0.0867 0.9200
21.6391 -7.9158 -0.0957 0.9120
24.6318 -8.6046 -0.1084 0.9009
25.0910 -8.3557 -0.1099 0.8996
15.5330 -4.4267 -0.0671 0.9374
14.9069 -4.0138 -0.0642 0.9401
15.0569 -3.8191 -0.0646 0.9398
13.7655 -3.2783 -0.0588 0.9450
15.1193 -3.3680 -0.0644 0.9399
14.6038 -2.8080 -0.0618 0.9422
22.6620 -2.3261 -0.0947 0.9129
28.3083 -2.4882 -0.1181 0.8926
77.8668 -2.2763 -0.3237 0.7323
86.2932 3.7852 -0.3589 0.7079
33.5937 3.9450 -0.1406 0.8735
29.6414 3.9207 -0.1243 0.8873
24.8816 3.6618 -0.1045 0.9043
17.1272 3.5534 -0.0727 0.9324
17.1380 3.8177 -0.0730 0.9322
14.7315 3.7366 -0.0632 0.9410
11.4065 3.7985 -0.0500 0.9530
11.0892 3.8737 -0.0488 0.9541
8.3677 3.6282 -0.0379 0.9642
7.8976 3.7022 -0.0362 0.9657
7.6274 3.8513 -0.0355 0.9664
7.6138 4.1279 -0.0360 0.9659
7.6381 4.2866 -0.0364 0.9656
7.6884 4.6154 -0.0373 0.9648
7.7686 5.1396 -0.0387 0.9634
4.9996 3.7452 -0.0260 0.9753
4.7382 3.7705 -0.0252 0.9761
4.6299 3.7960 -0.0249 0.9763
4.3189 3.8697 -0.0241 0.9771
4.1369 3.9306 -0.0237 0.9774
4.1404 4.0506 -0.0241 0.9771
4.1440 4.1744 -0.0244 0.9767
4.1477 4.3020 -0.0248 0.9764
4.1514 4.4337 -0.0252 0.9760
4.2013 4.9009 -0.0268 0.9745
4.2291 5.0817 -0.0275 0.9739
4.3213 5.6816 -0.0297 0.9719
4.3555 5.9036 -0.0305 0.9711
4.3960 6.1444 -0.0314 0.9702
4.4409 6.4029 -0.0324 0.9693
4.5082 6.7071 -0.0336 0.9682
1.7221 2.9166 -0.0141 0.9865
1.4907 2.7980 -0.0132 0.9874
1.4244 2.7703 -0.0129 0.9876
1.3711 2.7654 -0.0128 0.9877
1.3228 2.7688 -0.0128 0.9878
1.2750 2.7722 -0.0127 0.9879
1.0889 2.7856 -0.0124 0.9881
0.9984 2.7920 -0.0123 0.9882
0.9093 2.7984 -0.0122 0.9883
0.8653 2.8015 -0.0122 0.9883
0.8225 2.8077 -0.0122 0.9884
0.7805 2.8162 -0.0121 0.9884
0.7390 2.8262 -0.0121 0.9884
0.5313 2.8759 -0.0122 0.9884
0.4479 2.8958 -0.0122 0.9883
0.3641 2.9159 -0.0122 0.9883
0.2390 2.9659 -0.0124 0.9882
0.1977 3.0007 -0.0125 0.9880
0.1555 3.0364 -0.0126 0.9879
0.1124 3.0729 -0.0128 0.9878
0.0683 3.1102 -0.0129 0.9876
-1.6461 5.3302 -0.0232 0.9779
-1.7012 4.9869 -0.0219 0.9791
-1.7273 4.8312 -0.0213 0.9797
-1.7521 4.6836 -0.0208 0.9802
-1.7981 4.4094 -0.0198 0.9811
-1.8400 4.1600 -0.0189 0.9820
-1.8595 4.0434 -0.0185 0.9824
-1.8782 3.9317 -0.0181 0.9827
-1.9134 3.7217 -0.0174 0.9834
-1.9459 3.5276 -0.0167 0.9840
-1.9613 3.4358 -0.0164 0.9843
-1.9762 3.3472 -0.0162 0.9846
-1.9909 3.2623 -0.0159 0.9848
-2.0563 3.1580 -0.0157 0.9850
-2.1795 3.0465 -0.0156 0.9851
-2.3293 3.0626 -0.0160 0.9847
-2.6555 3.0978 -0.0170 0.9838
-2.9482 3.1488 -0.0179 0.9829
-3.0566 3.1705 -0.0183 0.9825
-3.1697 3.1930 -0.0187 0.9822
-3.2877 3.2165 -0.0191 0.9818
-0.8486 0.5094 -0.0041 0.9960
-0.8443 0.4738 -0.0040 0.9961
-0.8401 0.4555 -0.0040 0.9962
-0.8360 0.4376 -0.0039 0.9962
-0.8282 0.4031 -0.0038 0.9963
-0.8207 0.3702 -0.0037 0.9964
-0.8074 0.3224 -0.0036 0.9965
-0.8031 0.3071 -0.0036 0.9966
-0.7908 0.2633 -0.0035 0.9967
-0.7805 0.2224 -0.0034 0.9968
-0.7798 0.2100 -0.0034 0.9968
-0.7791 0.1976 -0.0033 0.9968
-0.7737 0.1723 -0.0033 0.9968
-0.7680 0.1477 -0.0033 0.9969
-0.7656 0.1356 -0.0032 0.9969
-0.7632 0.1237 -0.0032 0.9969
-0.7608 0.1120 -0.0032 0.9969
-0.7562 0.0888 -0.0032 0.9970
-0.7516 0.0660 -0.0031 0.9970
-0.7493 0.0548 -0.0031 0.9970
-0.7470 0.0437 -0.0031 0.9970
-0.7403 0.0108 -0.0031 0.9970
-0.7046 0.0000 -0.0107 0.9972
-0.7107 -0.0312 -0.0108 0.9972
-0.7147 -0.0523 -0.0109 0.9971
-0.7168 -0.0630 -0.0110 0.9971
-0.7188 -0.0738 -0.0110 0.9971
-0.7208 -0.0847 -0.0111 0.9971
-0.7229 -0.0957 -0.0111 0.9971
-0.7249 -0.1067 -0.0112 0.9971
-0.7312 -0.1406 -0.0113 0.9970
-0.7377 -0.1757 -0.0116 0.9970
-0.7418 -0.1998 -0.0117 0.9969
-0.7423 -0.2116 -0.0118 0.9969
-0.7456 -0.2244 -0.0119 0.9969
-0.7524 -0.2505 -0.0121 0.9968
-0.7558 -0.2641 -0.0122 0.9968
-0.7594 -0.2778 -0.0123 0.9968
-0.7629 -0.2918 -0.0124 0.9967
-0.7666 -0.3061 -0.0126 0.9967
-0.7703 -0.3207 -0.0127 0.9967
-0.7819 -0.3666 -0.0132 0.9966
-0.7851 -0.3821 -0.0133 0.9965
-0.7883 -0.3980 -0.0135 0.9965
-0.7915 -0.4143 -0.0136 0.9964
-0.7948 -0.4309 -0.0138 0.9964
-0.7982 -0.4480 -0.0139 0.9963
-0.8017 -0.4655 -0.0141 0.9963
-0.8052 -0.4834 -0.0143 0.9963
-0.8088 -0.5018 -0.0145 0.9962
-0.8107 -0.5195 -0.0147 0.9962
-0.8103 -0.5361 -0.0148 0.9961
-12.2154 -8.6051 -0.2277 0.9420
-3.0396 -2.3471 -0.0585 0.9848
-2.9507 -2.3480 -0.0575 0.9850
-2.7600 -2.4012 -0.0557 0.9855
-2.6390 -2.4350 -0.0547 0.9857
-2.5801 -2.4514 -0.0542 0.9859
-2.2882 -2.5166 -0.0518 0.9865
-2.2409 -2.5381 -0.0516 0.9865
-2.0881 -2.4359 -0.0489 0.9872
-2.0046 -2.4088 -0.0478 0.9875
-1.9541 -2.4192 -0.0474 0.9876
-2.0105 -2.6434 -0.0506 0.9868
-1.9654 -2.6640 -0.0504 0.9868
-1.8628 -2.6859 -0.0498 0.9870
-1.8083 -2.6903 -0.0494 0.9871
-1.7019 -2.6991 -0.0486 0.9873
-1.6499 -2.7034 -0.0483 0.9874
-1.5987 -2.7077 -0.0479 0.9875
-1.5440 -2.7046 -0.0475 0.9876
-1.4009 -2.7247 -0.0467 0.9878
-1.3529 -2.7288 -0.0464 0.9879
-1.3056 -2.7330 -0.0462 0.9880
-1.3771 -3.1134 -0.0519 0.9865
-1.3339 -3.1391 -0.0520 0.9864
-1.2906 -3.1648 -0.0521 0.9864
-1.2471 -3.1907 -0.0522 0.9864
-3.3338 -8.9112 -0.1450 0.9627
-2.8965 -8.9144 -0.1428 0.9632
-2.7563 -8.9247 -0.1423 0.9633
-2.6172 -8.9352 -0.1419 0.9634
-2.4822 -8.9577 -0.1416 0.9635
-2.2179 -9.0204 -0.1415 0.9635
-2.1077 -9.1463 -0.1430 0.9631
-2.0293 -9.4342 -0.1470 0.9621
-6.0771 -30.4067 -0.4725 0.8833
-4.6976 -30.3770 -0.4684 0.8843
-4.2427 -30.3672 -0.4672 0.8846
-3.7900 -30.3574 -0.4662 0.8848
-2.4427 -30.3284 -0.4636 0.8854
-0.1880 -8.5745 -0.1307 0.9663
0.0620 -8.4835 -0.1293 0.9666
0.1853 -8.4530 -0.1288 0.9667
0.3080 -8.4279 -0.1285 0.9668
0.4302 -8.4048 -0.1282 0.9669
0.6767 -8.4019 -0.1284 0.9668
0.7991 -8.3878 -0.1284 0.9669
0.9227 -8.3862 -0.1286 0.9668
1.5456 -8.3681 -0.1297 0.9665
1.6717 -8.3641 -0.1300 0.9665
2.4429 -8.3403 -0.1324 0.9658
2.9846 -8.3475 -0.1351 0.9652
3.7212 -8.4130 -0.1402 0.9639
13.7873 -29.9789 -0.5028 0.8763
14.3162 -29.9675 -0.5061 0.8756
14.8521 -29.9560 -0.5095 0.8748
17.0738 -29.9082 -0.5248 0.8713
18.2374 -29.8831 -0.5335 0.8693
19.4412 -29.8572 -0.5429 0.8672
2.5613 -3.6930 -0.0685 0.9822
2.7332 -3.8204 -0.0716 0.9814
6.3850 -8.6545 -0.1639 0.9579
2.9586 -3.7742 -0.0731 0.9810
2.7989 -3.4649 -0.0679 0.9823
2.9932 -3.5967 -0.0713 0.9815
3.1687 -3.6963 -0.0742 0.9807
3.1266 -3.4386 -0.0708 0.9816
3.1751 -3.3910 -0.0708 0.9816
8.5225 -8.3378 -0.1817 0.9534
8.7692 -8.3318 -0.1843 0.9528
9.0289 -8.3309 -0.1872 0.9520
9.3053 -8.3377 -0.1904 0.9512
46.8477 -38.4111 -0.9232 0.7848
15.5170 -12.3479 -0.3022 0.9237
12.5120 -9.6614 -0.2409 0.9387
12.4877 -9.0727 -0.2352 0.9401
4.3884 -2.9964 -0.0810 0.9790
4.4259 -2.9282 -0.0809 0.9790
4.4634 -2.8601 -0.0808 0.9790
4.5008 -2.7921 -0.0807 0.9790
4.5773 -2.7478 -0.0814 0.9789
4.6577 -2.7043 -0.0821 0.9787
4.7395 -2.6599 -0.0828 0.9785
4.6438 -2.5177 -0.0805 0.9791
6.5929 -3.3290 -0.1125 0.9709
6.6397 -3.2317 -0.1125 0.9709
6.7233 -3.1517 -0.1131 0.9707
6.8350 -3.0831 -0.1143 0.9704
6.7615 -2.9318 -0.1123 0.9709
8.6932 -3.6195 -0.1435 0.9630
8.8522 -3.3857 -0.1444 0.9628
9.0135 -3.1487 -0.1455 0.9625
24.8603 -8.2789 -0.3993 0.9005
15.2346 -4.5834 -0.2424 0.9383
14.9511 -4.0256 -0.2359 0.9399
15.0025 -3.3420 -0.2342 0.9404
15.6062 -2.5303 -0.2409 0.9387
15.8737 -2.3361 -0.2445 0.9378
15.9526 -2.1101 -0.2452 0.9377
22.5505 -2.3146 -0.3454 0.9133
28.3808 -1.6607 -0.4332 0.8925
30.2336 -1.3262 -0.4611 0.8860
64.5155 -1.8860 -0.9835 0.7724
65.5190 1.9152 -0.9988 0.7693
65.4351 3.8289 -0.9988 0.7693
24.5356 3.6109 -0.3779 0.9056
18.0586 2.9279 -0.2788 0.9294
17.3193 3.0684 -0.2680 0.9321
17.0813 3.2843 -0.2651 0.9328
17.0864 3.5450 -0.2659 0.9326
17.0943 3.8080 -0.2669 0.9323
15.1493 3.6078 -0.2373 0.9396
14.4001 3.8773 -0.2272 0.9421
14.4066 4.1057 -0.2283 0.9418
11.3477 3.7789 -0.1823 0.9533
11.0323 3.8539 -0.1781 0.9543
10.8869 3.9825 -0.1766 0.9547
10.8920 4.1658 -0.1777 0.9544
8.7880 3.5091 -0.1442 0.9629
8.0421 3.6276 -0.1344 0.9653
7.5975 4.4111 -0.1339 0.9655
7.6470 4.7439 -0.1371 0.9646
4.9786 3.7295 -0.0948 0.9754
4.8441 3.7405 -0.0933 0.9758
4.7222 3.7578 -0.0920 0.9761
4.6137 3.7828 -0.0909 0.9764
4.3043 3.8566 -0.0881 0.9771
4.1239 3.9182 -0.0867 0.9775
4.1287 4.1590 -0.0893 0.9768
4.1356 4.4170 -0.0922 0.9761
4.2201 5.0710 -0.1005 0.9740
4.2490 5.2602 -0.1030 0.9733
4.2794 5.4591 -0.1057 0.9726
4.3452 5.8897 -0.1115 0.9711
4.3809 6.1234 -0.1147 0.9703
4.4188 6.3710 -0.1181 0.9695
4.4634 6.6404 -0.1219 0.9685
33.6013 55.0578 -0.9829 0.7726
1.6191 2.8361 -0.0498 0.9870
1.5485 2.8068 -0.0488 0.9873
1.3667 2.7564 -0.0469 0.9878
1.3186 2.7600 -0.0466 0.9878
1.2710 2.7634 -0.0463 0.9879
1.2239 2.7669 -0.0461 0.9880
1.1773 2.7702 -0.0459 0.9880
1.1312 2.7736 -0.0456 0.9881
1.0855 2.7769 -0.0454 0.9881
0.9953 2.7834 -0.0450 0.9882
0.9066 2.7898 -0.0447 0.9883
0.7782 2.8079 -0.0444 0.9884
0.6954 2.8277 -0.0444 0.9884
0.6540 2.8376 -0.0444 0.9884
0.5712 2.8574 -0.0444 0.9884
0.5297 2.8673 -0.0444 0.9884
0.4882 2.8773 -0.0445 0.9884
0.4466 2.8872 -0.0445 0.9884
0.2790 2.9272 -0.0448 0.9883
0.2377 2.9498 -0.0451 0.9882
0.1547 3.0196 -0.0461 0.9880
0.1118 3.0557 -0.0466 0.9878
0.0230 3.1304 -0.0477 0.9876
-1.4124 64.4300 -0.9820 0.7727
-2.3536 64.4007 -0.9820 0.7727
-4.2341 64.3003 -0.9819 0.7728
-5.1730 64.2297 -0.9819 0.7728
-8.9150 63.8095 -0.9818 0.7728
-10.7749 63.5175 -0.9817 0.7728
-11.7016 63.3516 -0.9817 0.7728
-12.6254 63.1712 -0.9817 0.7728
-13.5468 62.9783 -0.9816 0.7728
-14.4650 62.7711 -0.9816 0.7728
-1.4999 6.1002 -0.0957 0.9752
-1.5339 5.8677 -0.0924 0.9760
-1.6234 5.2568 -0.0838 0.9782
-1.6806 4.9262 -0.0793 0.9794
-1.7319 4.6295 -0.0753 0.9804
-1.7557 4.4920 -0.0735 0.9809
-1.7783 4.3609 -0.0718 0.9813
-1.7999 4.2358 -0.0701 0.9818
-1.8404 4.0018 -0.0671 0.9825
-1.8949 3.6857 -0.0632 0.9836
-1.9278 3.4947 -0.0608 0.9842
-1.9729 3.2328 -0.0577 0.9850
-1.9904 3.1568 -0.0569 0.9852
-2.0280 3.1145 -0.0566 0.9852
-2.0725 3.0835 -0.0566 0.9852
-2.2439 3.0416 -0.0576 0.9850
-2.3194 3.0496 -0.0584 0.9848
-2.4767 3.0662 -0.0601 0.9844
-2.5589 3.0749 -0.0610 0.9841
-2.9326 3.1321 -0.0654 0.9830
-3.0401 3.1533 -0.0667 0.9826
-3.1521 3.1753 -0.0682 0.9823
-3.2691 3.1983 -0.0697 0.9819
-46.5690 44.2463 -0.9789 0.7734
-11.2928 9.5384 -0.2253 0.9426
-49.6570 40.7145 -0.9785 0.7735
-51.3816 38.4904 -0.9783 0.7735
-52.4771 36.9674 -0.9781 0.7735
-0.8106 0.5195 -0.0147 0.9962
-0.8052 0.4833 -0.0143 0.9963
-0.7948 0.4309 -0.0138 0.9964
-0.7915 0.4143 -0.0136 0.9964
-0.7883 0.3980 -0.0135 0.9965
-0.7851 0.3821 -0.0133 0.9965
-0.7741 0.3357 -0.0129 0.9966
-0.7703 0.3207 -0.0127 0.9967
-0.7666 0.3061 -0.0126 0.9967
-0.7629 0.2918 -0.0124 0.9967
-0.7558 0.2641 -0.0122 0.9968
-0.7524 0.2505 -0.0121 0.9968
-0.7405 0.1878 -0.0116 0.9969
-0.7377 0.1757 -0.0116 0.9970
-0.7354 0.1638 -0.0115 0.9970
-0.7312 0.1406 -0.0113 0.9970
-0.7270 0.1179 -0.0112 0.9971
-0.7229 0.0956 -0.0111 0.9971
-0.7167 0.0630 -0.0110 0.9971
-0.7127 0.0417 -0.0109 0.9971
-0.7107 0.0312 -0.0108 0.9972
-0.6775 -0.0198 -0.0178 0.9973
-0.6849 -0.0602 -0.0181 0.9973
-0.6886 -0.0809 -0.0183 0.9972
-0.6922 -0.1019 -0.0184 0.9972
-0.6941 -0.1126 -0.0185 0.9972
-0.6977 -0.1342 -0.0187 0.9972
-0.7032 -0.1675 -0.0190 0.9971
-0.7051 -0.1789 -0.0191 0.9971
-0.7071 -0.1904 -0.0193 0.9971
-0.7088 -0.2020 -0.0194 0.9971
-0.7175 -0.2390 -0.0199 0.9970
-0.7235 -0.2647 -0.0203 0.9969
-0.7361 -0.3192 -0.0211 0.9968
-0.7393 -0.3335 -0.0214 0.9968
-0.7460 -0.3631 -0.0218 0.9967
-0.7488 -0.3781 -0.0221 0.9966
-0.7542 -0.4089 -0.0226 0.9966
-0.7569 -0.4248 -0.0228 0.9965
-0.7654 -0.4748 -0.0237 0.9964
-0.7683 -0.4923 -0.0240 0.9964
-0.7713 -0.5103 -0.0243 0.9963
-0.8869 -0.6445 -0.0289 0.9956
-12.0921 -9.0583 -0.3977 0.9413
-12.0822 -9.3296 -0.4018 0.9407
-2.9199 -2.3940 -0.0994 0.9850
-2.7919 -2.4289 -0.0974 0.9853
-2.7298 -2.4459 -0.0965 0.9854
-2.6054 -2.4755 -0.0946 0.9857
-2.4685 -2.4150 -0.0909 0.9863
-2.4476 -2.4655 -0.0915 0.9862
-2.3909 -2.4799 -0.0907 0.9863
-2.3426 -2.5019 -0.0902 0.9864
-2.1254 -2.4073 -0.0845 0.9872
-1.9854 -2.3857 -0.0817 0.9877
-2.0616 -2.6300 -0.0880 0.9867
-2.0161 -2.6508 -0.0877 0.9868
-1.8703 -2.6142 -0.0846 0.9872
-1.8781 -2.7079 -0.0867 0.9869
-1.8411 -2.7391 -0.0869 0.9869
-1.7168 -2.7228 -0.0847 0.9872
-1.3518 -2.8296 -0.0826 0.9875
-1.3031 -2.8334 -0.0821 0.9876
-1.2549 -2.8371 -0.0817 0.9877
-1.5600 -3.8253 -0.1088 0.9836
-1.4899 -3.8116 -0.1077 0.9838
-1.4210 -3.7982 -0.1068 0.9839
-1.3533 -3.7850 -0.1058 0.9840
-0.9564 -2.9434 -0.0815 0.9877
-2.7539 -8.9170 -0.2457 0.9633
-2.4802 -8.9505 -0.2445 0.9635
-2.0938 -9.0862 -0.2455 0.9634
-1.9889 -9.2463 -0.2490 0.9629
-6.0772 -30.4067 -0.8163 0.8833
-4.6976 -30.3770 -0.8092 0.8843
-4.2427 -30.3672 -0.8072 0.8845
-3.3392 -30.3477 -0.8037 0.8850
-2.4426 -30.3284 -0.8010 0.8854
-1.9964 -30.3188 -0.7999 0.8855
-0.3172 -8.6795 -0.2286 0.9658
-0.0618 -8.4590 -0.2227 0.9667
0.0615 -8.4183 -0.2216 0.9669
0.4274 -8.3503 -0.2201 0.9671
0.6737 -8.3653 -0.2209 0.9670
0.7951 -8.3464 -0.2207 0.9670
1.7908 -8.3251 -0.2242 0.9665
1.9185 -8.3253 -0.2249 0.9664
2.0472 -8.3259 -0.2257 0.9663
0.7736 -2.9592 -0.0805 0.9878
0.8197 -2.9580 -0.0808 0.9878
0.9128 -2.9556 -0.0814 0.9877
3.1167 -8.3309 -0.2342 0.9650
3.4004 -8.3382 -0.2370 0.9646
3.5560 -8.3680 -0.2393 0.9643
3.7151 -8.3993 -0.2418 0.9639
14.3162 -29.9675 -0.8743 0.8756
15.3954 -29.9443 -0.8864 0.8740
16.5058 -29.9204 -0.8995 0.8722
17.6508 -29.8957 -0.9139 0.8703
18.2362 -29.8812 -0.9215 0.8693
18.8340 -29.8703 -0.9296 0.8682
6.1356 -9.4229 -0.2960 0.9560
6.1323 -9.1234 -0.2894 0.9570
2.6996 -3.7734 -0.1221 0.9816
2.7144 -3.5689 -0.1180 0.9822
2.9646 -3.7819 -0.1265 0.9810
2.8369 -3.4089 -0.1167 0.9824
3.0774 -3.4855 -0.1224 0.9816
3.1259 -3.4379 -0.1223 0.9816
8.0472 -8.3466 -0.3052 0.9547
8.5111 -8.3266 -0.3134 0.9535
8.7556 -8.3189 -0.3179 0.9528
9.5209 -8.2832 -0.3322 0.9508
9.8907 -8.3541 -0.3408 0.9495
28.8313 -23.6392 -0.9815 0.8614
12.4039 -9.2917 -0.4080 0.9399
12.4330 -9.0330 -0.4046 0.9404
4.3886 -2.9966 -0.1399 0.9790
4.4244 -2.9272 -0.1397 0.9790
4.4621 -2.8593 -0.1395 0.9790
4.5771 -2.7477 -0.1405 0.9789
4.6575 -2.7041 -0.1418 0.9787
17.8247 -9.3296 -0.5296 0.9227
6.5924 -3.3287 -0.1944 0.9709
6.7230 -3.1516 -0.1955 0.9707
6.8346 -3.0830 -0.1974 0.9704
8.6900 -3.6182 -0.2478 0.9630
8.8490 -3.3845 -0.2494 0.9628
8.8988 -3.2552 -0.2494 0.9628
9.0101 -3.1475 -0.2512 0.9625
26.0114 -8.2420 -0.7183 0.8966
14.7096 -3.0519 -0.3955 0.9417
15.0391 -2.8917 -0.4032 0.9406
15.4076 -2.7297 -0.4119 0.9393
20.0194 -3.2458 -0.5339 0.9221
22.4391 -1.9723 -0.5930 0.9138
28.3178 -2.0726 -0.7474 0.8926
28.3134 -1.6568 -0.7466 0.8927
37.8824 0.0000 -0.9972 0.8593
37.8662 1.1069 -0.9972 0.8593
37.8460 1.6600 -0.9972 0.8593
37.7366 3.3169 -0.9972 0.8593
34.9280 3.5851 -0.9243 0.8689
33.3373 3.9148 -0.8836 0.8743
37.5548 4.9675 -0.9972 0.8593
17.9732 2.9140 -0.4793 0.9297
17.3031 3.0655 -0.4626 0.9321
17.0736 3.2829 -0.4577 0.9328
16.8623 3.7562 -0.4548 0.9332
14.5580 3.6926 -0.3954 0.9417
12.1304 3.6495 -0.3335 0.9506
11.6495 3.6913 -0.3217 0.9523
11.2904 3.7599 -0.3133 0.9535
10.9760 3.8343 -0.3061 0.9545
10.8574 3.9718 -0.3043 0.9548
8.7226 3.4830 -0.2472 0.9631
8.4657 3.5247 -0.2414 0.9640
8.2205 3.5645 -0.2359 0.9648
7.9863 3.6024 -0.2306 0.9656
7.5792 3.6890 -0.2219 0.9668
7.5267 3.9395 -0.2236 0.9666
7.5086 4.0709 -0.2248 0.9664
7.5123 4.2161 -0.2268 0.9661
7.5360 4.3754 -0.2294 0.9657
7.6102 4.8765 -0.2379 0.9645
7.6363 5.0520 -0.2410 0.9640
5.3891 3.6797 -0.1718 0.9742
4.8252 3.7259 -0.1605 0.9759
4.5983 3.7702 -0.1565 0.9765
4.4929 3.7950 -0.1548 0.9767
4.3903 3.8196 -0.1532 0.9770
4.2898 3.8437 -0.1516 0.9772
4.1914 3.8674 -0.1501 0.9774
4.1152 3.9099 -0.1494 0.9775
4.1136 4.1437 -0.1537 0.9769
4.1363 4.5490 -0.1619 0.9757
4.1579 4.7092 -0.1654 0.9752
4.1839 4.8806 -0.1692 0.9746
4.2112 5.0602 -0.1733 0.9740
4.2398 5.2487 -0.1776 0.9734
4.2699 5.4469 -0.1822 0.9727
4.3016 5.6557 -0.1871 0.9720
4.3350 5.8759 -0.1922 0.9712
4.3704 6.1086 -0.1977 0.9704
1.7638 2.8900 -0.0891 0.9865
1.6801 2.8455 -0.0870 0.9869
1.6075 2.8158 -0.0853 0.9871
1.4718 2.7626 -0.0824 0.9876
1.4122 2.7466 -0.0813 0.9877
1.3636 2.7501 -0.0808 0.9878
1.3156 2.7537 -0.0803 0.9879
1.2681 2.7572 -0.0799 0.9879
1.1747 2.7642 -0.0791 0.9881
0.9932 2.7777 -0.0777 0.9883
0.9488 2.7810 -0.0773 0.9883
0.9047 2.7842 -0.0771 0.9884
0.8610 2.7875 -0.0768 0.9884
0.7766 2.8024 -0.0766 0.9884
0.7353 2.8122 -0.0765 0.9884
0.6940 2.8221 -0.0765 0.9884
0.4456 2.8810 -0.0767 0.9884
0.4040 2.8908 -0.0768 0.9884
0.3204 2.9106 -0.0771 0.9884
0.1956 2.9689 -0.0783 0.9882
0.1111 3.0387 -0.0800 0.9879
-0.8167 37.2581 -0.9810 0.8615
-1.3611 37.2412 -0.9810 0.8615
-1.9050 37.2160 -0.9810 0.8615
-2.4484 37.1830 -0.9809 0.8615
-2.9916 37.1422 -0.9809 0.8615
-4.0751 37.0366 -0.9808 0.8615
-5.1552 36.8990 -0.9808 0.8615
-5.6937 36.8183 -0.9807 0.8615
-7.3009 36.5295 -0.9806 0.8615
-1.4766 6.0057 -0.1628 0.9756
-1.5110 5.7799 -0.1573 0.9764
-1.6028 5.1898 -0.1430 0.9785
-1.6324 5.0241 -0.1391 0.9791
-1.7371 4.4443 -0.1256 0.9811
-1.7603 4.3167 -0.1227 0.9815
-1.7826 4.1949 -0.1200 0.9819
-1.8039 4.0784 -0.1174 0.9823
-1.8242 3.9667 -0.1149 0.9827
-1.8625 3.7568 -0.1104 0.9834
-1.8806 3.6579 -0.1083 0.9837
-1.8980 3.5627 -0.1063 0.9840
-1.9147 3.4709 -0.1044 0.9843
-1.9616 3.2143 -0.0991 0.9850
-2.1630 3.0234 -0.0979 0.9852
-2.3096 3.0366 -0.1004 0.9849
-2.3866 3.0446 -0.1018 0.9846
-2.4659 3.0529 -0.1033 0.9844
-2.5475 3.0612 -0.1048 0.9842
-2.7183 3.0789 -0.1081 0.9837
-2.8148 3.0957 -0.1101 0.9834
-3.0237 3.1363 -0.1147 0.9827
-26.9596 25.6149 -0.9790 0.8617
-27.6941 24.8140 -0.9789 0.8617
-28.0524 24.4055 -0.9788 0.8618
-11.2466 9.4995 -0.3875 0.9428
-28.7513 23.5737 -0.9787 0.8618
-29.0915 23.1501 -0.9787 0.8618
-29.7529 22.2882 -0.9786 0.8618
-0.8869 0.6443 -0.0289 0.9956
-0.7683 0.4923 -0.0240 0.9964
-0.7654 0.4748 -0.0237 0.9964
-0.7625 0.4577 -0.0234 0.9964
-0.7597 0.4411 -0.0231 0.9965
-0.7569 0.4248 -0.0228 0.9965
-0.7542 0.4089 -0.0226 0.9966
-0.7515 0.3934 -0.0223 0.9966
-0.7426 0.3481 -0.0216 0.9967
-0.7393 0.3335 -0.0214 0.9968
-0.7329 0.3051 -0.0209 0.9968
-0.7297 0.2914 -0.0207 0.9969
-0.7235 0.2646 -0.0203 0.9969
-0.7175 0.2389 -0.0199 0.9970
-0.7071 0.1904 -0.0193 0.9971
-0.7032 0.1675 -0.0190 0.9971
-0.7014 0.1562 -0.0189 0.9971
-0.6977 0.1341 -0.0187 0.9972
-0.6959 0.1233 -0.0186 0.9972
-0.6941 0.1125 -0.0185 0.9972
-0.6922 0.1018 -0.0184 0.9972
-0.6904 0.0913 -0.0183 0.9972
-0.6849 0.0602 -0.0181 0.9973
-0.6831 0.0500 -0.0180 0.9973
-0.6812 0.0399 -0.0180 0.9973
-0.6794 0.0298 -0.0179 0.9973
-0.6775 0.0198 -0.0178 0.9973
-0.6478 -0.0095 -0.0242 0.9974
-0.6506 -0.0286 -0.0244 0.9974
-0.6522 -0.0382 -0.0244 0.9974
-0.6555 -0.0576 -0.0246 0.9974
-0.6572 -0.0675 -0.0247 0.9974
-0.6588 -0.0773 -0.0248 0.9973
-0.6604 -0.0873 -0.0249 0.9973
-0.6669 -0.1282 -0.0254 0.9973
-0.6701 -0.1493 -0.0257 0.9973
-0.6733 -0.1708 -0.0260 0.9972
-0.6749 -0.1818 -0.0262 0.9972
-0.6765 -0.1928 -0.0263 0.9972
-0.6814 -0.2159 -0.0267 0.9971
-0.6871 -0.2400 -0.0272 0.9971
-0.6900 -0.2524 -0.0275 0.9971
-0.6988 -0.2910 -0.0283 0.9970
-0.7016 -0.3042 -0.0286 0.9969
-0.7043 -0.3177 -0.0289 0.9969
-0.7071 -0.3315 -0.0292 0.9969
-0.7127 -0.3599 -0.0299 0.9968
-0.7153 -0.3744 -0.0302 0.9968
-0.7175 -0.3890 -0.0305 0.9967
-0.7241 -0.4347 -0.0316 0.9966
-0.7263 -0.4506 -0.0320 0.9966
-0.7309 -0.4836 -0.0328 0.9965
-0.7333 -0.5007 -0.0332 0.9965
-2.8246 -2.4574 -0.1401 0.9851
-2.7615 -2.4743 -0.1387 0.9853
-2.4080 -2.4976 -0.1298 0.9862
-2.3493 -2.5091 -0.1286 0.9863
-2.3013 -2.5309 -0.1280 0.9864
-2.1535 -2.4390 -0.1217 0.9871
-2.1439 -2.5010 -0.1233 0.9869
-1.9719 -2.3695 -0.1153 0.9877
-2.0573 -2.6244 -0.1248 0.9867
-1.7330 -2.4986 -0.1138 0.9879
-1.7632 -2.6232 -0.1183 0.9874
-1.7748 -2.7257 -0.1217 0.9871
-1.7136 -2.7177 -0.1202 0.9872
-1.6538 -2.7098 -0.1188 0.9874
-1.5389 -2.7896 -0.1192 0.9873
-1.4264 -2.7743 -0.1167 0.9876
-1.3718 -2.7669 -0.1156 0.9877
-1.3184 -2.7597 -0.1144 0.9878
-1.3506 -2.9367 -0.1209 0.9871
-1.2508 -2.9434 -0.1197 0.9873
-1.2017 -2.9468 -0.1191 0.9873
-1.4717 -3.7653 -0.1513 0.9839
-1.0747 -2.8726 -0.1148 0.9878
-2.7506 -8.9064 -0.3488 0.9634
-2.4776 -8.9411 -0.3472 0.9635
-1.9683 -9.1504 -0.3502 0.9632
-4.7551 -25.7435 -0.9795 0.9005
-3.6226 -25.9288 -0.9796 0.9005
-3.2434 -25.9796 -0.9796 0.9005
-2.8635 -26.0248 -0.9797 0.9005
-2.4830 -26.0645 -0.9797 0.9005
-1.7204 -26.1270 -0.9797 0.9005
-1.3385 -26.1499 -0.9797 0.9005
-0.3129 -8.5618 -0.3206 0.9663
-0.1850 -8.4385 -0.3158 0.9668
-0.0614 -8.4068 -0.3146 0.9669
0.0611 -8.3682 -0.3131 0.9671
0.3043 -8.3250 -0.3117 0.9672
0.5695 -8.6482 -0.3243 0.9659
1.1621 -8.3180 -0.3143 0.9669
0.7733 -2.9581 -0.1144 0.9878
0.8194 -2.9569 -0.1148 0.9878
0.8657 -2.9557 -0.1152 0.9877
0.9125 -2.9545 -0.1157 0.9877
2.7033 -8.3199 -0.3273 0.9656
3.1120 -8.3182 -0.3323 0.9651
3.4240 -8.3961 -0.3393 0.9644
3.5461 -8.3447 -0.3393 0.9644
11.9818 -23.3048 -0.9805 0.9004
12.6581 -22.9457 -0.9805 0.9004
13.3237 -22.5668 -0.9806 0.9004
6.1329 -9.7266 -0.4302 0.9550
2.6323 -3.6793 -0.1693 0.9821
2.7872 -3.7779 -0.1757 0.9814
2.7152 -3.5700 -0.1678 0.9822
2.8129 -3.5884 -0.1706 0.9819
2.8886 -3.5761 -0.1720 0.9818
3.0604 -3.5700 -0.1759 0.9814
3.0767 -3.4847 -0.1739 0.9816
8.2737 -8.3344 -0.4394 0.9541
8.7516 -8.3151 -0.4517 0.9528
9.0030 -8.3071 -0.4584 0.9521
9.2511 -8.2890 -0.4648 0.9515
12.5924 -10.0205 -0.6022 0.9376
12.4248 -9.3074 -0.5809 0.9398
4.1858 -2.7693 -0.1878 0.9801
6.4432 -3.3724 -0.2721 0.9713
6.3664 -3.2146 -0.2669 0.9719
6.4618 -3.1452 -0.2689 0.9716
6.7227 -3.1515 -0.2778 0.9707
8.6868 -3.6168 -0.3521 0.9630
9.0068 -3.1464 -0.3570 0.9625
25.2680 -8.4147 -0.9965 0.8989
25.5036 -7.6729 -0.9965 0.8989
9.1816 -2.6166 -0.3572 0.9625
13.7325 -3.2704 -0.5282 0.9451
14.9760 -2.8795 -0.5706 0.9408
26.2255 -4.6462 -0.9966 0.8989
26.2907 -4.2626 -0.9966 0.8989
16.4925 -2.4272 -0.6238 0.9355
22.3316 -2.6225 -0.8413 0.9139
26.5633 -1.9442 -0.9966 0.8989
26.5890 -1.5559 -0.9966 0.8989
26.6318 -0.3892 -0.9966 0.8989
26.6232 0.7782 -0.9966 0.8989
26.6090 1.1672 -0.9966 0.8989
26.4952 2.7195 -0.9966 0.8989
26.4525 3.1063 -0.9966 0.8989
26.4043 3.4925 -0.9966 0.8989
26.3504 3.8779 -0.9966 0.8989
26.2907 4.2625 -0.9966 0.8989
15.1194 3.6007 -0.5815 0.9397
14.5635 3.6940 -0.5622 0.9416
14.3352 3.8598 -0.5555 0.9423
14.2124 4.0504 -0.5530 0.9426
12.0806 3.6345 -0.4720 0.9508
11.2445 3.7446 -0.4435 0.9537
8.9242 3.4132 -0.3575 0.9625
8.6581 3.4573 -0.3488 0.9634
8.4046 3.4993 -0.3406 0.9642
8.1625 3.5393 -0.3329 0.9650
7.9312 3.5776 -0.3256 0.9658
7.7097 3.6141 -0.3186 0.9665
7.5525 3.6760 -0.3143 0.9669
7.4813 4.0561 -0.3184 0.9665
7.5092 4.2143 -0.3222 0.9661
7.5327 4.3735 -0.3259 0.9657
7.5569 4.5364 -0.3298 0.9653
7.5816 4.7033 -0.3338 0.9649
7.6328 5.0498 -0.3424 0.9640
5.2176 3.6755 -0.2388 0.9748
5.0754 3.6875 -0.2347 0.9752
4.9388 3.6997 -0.2309 0.9756
4.8065 3.7115 -0.2272 0.9760
4.4779 3.7822 -0.2193 0.9768
4.3755 3.8066 -0.2170 0.9771
4.0957 4.0069 -0.2144 0.9773
4.1022 4.2548 -0.2211 0.9766
4.1106 4.3902 -0.2250 0.9762
4.1282 4.5401 -0.2296 0.9757
4.1753 4.8705 -0.2400 0.9746
4.2306 5.2373 -0.2519 0.9734
4.2918 5.6428 -0.2653 0.9720
4.3249 5.8621 -0.2726 0.9713
4.3598 6.0938 -0.2804 0.9705
4.4361 6.5998 -0.2975 0.9687
1.7426 2.8552 -0.1252 0.9867
1.5985 2.7999 -0.1206 0.9872
1.5313 2.7758 -0.1186 0.9874
1.1724 2.7587 -0.1122 0.9881
1.1265 2.7622 -0.1116 0.9881
1.0360 2.7689 -0.1106 0.9882
0.9913 2.7723 -0.1102 0.9883
0.9030 2.7789 -0.1093 0.9884
0.8593 2.7821 -0.1089 0.9884
0.6514 2.8266 -0.1085 0.9885
0.6102 2.8363 -0.1086 0.9885
0.5276 2.8559 -0.1087 0.9884
0.4862 2.8657 -0.1088 0.9884
0.3616 2.8952 -0.1092 0.9884
0.3197 2.9052 -0.1094 0.9884
0.2360 2.9289 -0.1099 0.9883
0.1950 2.9602 -0.1110 0.9882
0.1533 2.9922 -0.1121 0.9881
0.0227 3.0950 -0.1158 0.9877
-0.9570 26.1857 -0.9805 0.9004
-1.3395 26.1683 -0.9804 0.9004
-2.4847 26.0827 -0.9804 0.9004
-3.2456 25.9977 -0.9803 0.9004
-3.6251 25.9468 -0.9803 0.9004
-1.4652 5.9592 -0.2296 0.9757
-1.5016 5.7438 -0.2221 0.9765
-1.5692 5.3575 -0.2089 0.9779
-1.6586 4.8620 -0.1922 0.9796
-1.7350 4.4390 -0.1783 0.9811
-1.7583 4.3118 -0.1742 0.9815
-1.8019 4.0739 -0.1667 0.9823
-1.8223 3.9625 -0.1632 0.9827
-1.8419 3.8556 -0.1599 0.9830
-1.8606 3.7530 -0.1567 0.9834
-1.9129 3.4676 -0.1482 0.9843
-1.9290 3.3792 -0.1456 0.9845
-2.2252 3.0162 -0.1402 0.9851
-2.2998 3.0238 -0.1421 0.9849
-2.3764 3.0316 -0.1441 0.9847
-2.4552 3.0396 -0.1462 0.9845
-2.7060 3.0649 -0.1530 0.9838
-2.8002 3.0798 -0.1557 0.9835
-2.9018 3.0992 -0.1589 0.9831
-19.2285 17.7421 -0.9790 0.9006
-19.4851 17.4587 -0.9789 0.9006
-20.4693 16.2887 -0.9788 0.9006
-0.8644 0.6675 -0.0409 0.9956
-0.7540 0.5648 -0.0352 0.9962
-0.7381 0.5362 -0.0341 0.9964
-0.7333 0.5007 -0.0332 0.9965
-0.7263 0.4505 -0.0320 0.9966
-0.7174 0.3889 -0.0305 0.9967
-0.7153 0.3744 -0.0302 0.9968
-0.7071 0.3314 -0.0292 0.9969
-0.7043 0.3177 -0.0289 0.9969
-0.6958 0.2779 -0.0280 0.9970
-0.6900 0.2524 -0.0275 0.9971
-0.6871 0.2400 -0.0272 0.9971
-0.6842 0.2279 -0.0270 0.9971
-0.6813 0.2159 -0.0267 0.9971
-0.6765 0.1928 -0.0263 0.9972
-0.6748 0.1817 -0.0262 0.9972
-0.6717 0.1600 -0.0258 0.9972
-0.6701 0.1492 -0.0257 0.9973
-0.6685 0.1387 -0.0255 0.9973
-0.6669 0.1282 -0.0254 0.9973
-0.6637 0.1076 -0.0252 0.9973
-0.6621 0.0974 -0.0250 0.9973
-0.6588 0.0773 -0.0248 0.9973
-0.6555 0.0576 -0.0246 0.9974
-0.6539 0.0479 -0.0245 0.9974
-0.6522 0.0381 -0.0244 0.9974
-0.6492 0.0190 -0.0243 0.9974
-0.6478 0.0095 -0.0242 0.9974
-0.6221 -0.0091 -0.0302 0.9975
-0.6233 -0.0182 -0.0303 0.9975
-0.6286 -0.0553 -0.0306 0.9975
-0.6301 -0.0647 -0.0307 0.9975
-0.6315 -0.0742 -0.0309 0.9975
-0.6344 -0.0934 -0.0311 0.9974
-0.6358 -0.1031 -0.0313 0.9974
-0.6372 -0.1129 -0.0314 0.9974
-0.6427 -0.1531 -0.0321 0.9974
-0.6441 -0.1634 -0.0322 0.9973
-0.6468 -0.1843 -0.0326 0.9973
-0.6517 -0.2171 -0.0333 0.9973
-0.6539 -0.2284 -0.0336 0.9972
-0.6613 -0.2641 -0.0346 0.9972
-0.6663 -0.2889 -0.0352 0.9971
-0.6689 -0.3017 -0.0356 0.9971
-0.6715 -0.3148 -0.0360 0.9970
-0.6740 -0.3281 -0.0364 0.9970
-0.6766 -0.3417 -0.0368 0.9970
-0.6793 -0.3555 -0.0372 0.9969
-0.6862 -0.3984 -0.0385 0.9968
-0.6879 -0.4130 -0.0389 0.9968
-0.6896 -0.4278 -0.0394 0.9968
-0.6913 -0.4430 -0.0398 0.9967
-0.6930 -0.4585 -0.0403 0.9967
-0.6965 -0.4906 -0.0413 0.9966
-0.6999 -0.5243 -0.0424 0.9965
-2.9235 -2.4694 -0.1857 0.9848
-2.8580 -2.4865 -0.1838 0.9849
-2.6881 -2.4803 -0.1775 0.9855
-2.1354 -2.3485 -0.1540 0.9874
-2.1007 -2.3793 -0.1540 0.9874
-1.9496 -2.3427 -0.1479 0.9879
-2.0066 -2.4841 -0.1549 0.9873
-2.0733 -2.6448 -0.1630 0.9866
-1.7376 -2.4287 -0.1449 0.9881
-1.7693 -2.7171 -0.1573 0.9871
-1.6507 -2.7048 -0.1537 0.9874
-1.6056 -2.7194 -0.1532 0.9874
-1.5718 -2.7534 -0.1538 0.9874
-1.5470 -2.8043 -0.1554 0.9873
-1.4897 -2.7963 -0.1537 0.9874
-1.4337 -2.7886 -0.1521 0.9875
-1.3788 -2.7810 -0.1506 0.9876
-1.3250 -2.7736 -0.1491 0.9878
-1.4093 -3.0644 -0.1637 0.9866
-1.3548 -3.0629 -0.1625 0.9867
-1.0977 -2.9341 -0.1520 0.9875
-1.0653 -2.9794 -0.1535 0.9874
-2.8857 -8.8812 -0.4531 0.9633
-2.6083 -8.9050 -0.4502 0.9635
-2.4738 -8.9271 -0.4495 0.9636
-2.0765 -9.0110 -0.4487 0.9636
-1.8898 -9.4555 -0.4679 0.9621
-3.6673 -19.8543 -0.9796 0.9223
-2.2084 -20.0707 -0.9797 0.9223
-1.9150 -20.1012 -0.9797 0.9223
-1.6211 -20.1273 -0.9797 0.9223
-1.0323 -20.1668 -0.9798 0.9223
-0.1841 -8.3987 -0.4076 0.9669
-0.0611 -8.3618 -0.4057 0.9671
0.0633 -8.6590 -0.4201 0.9659
0.4262 -8.3271 -0.4046 0.9672
0.3267 -2.9686 -0.1449 0.9881
0.3705 -2.9674 -0.1451 0.9881
0.4144 -2.9662 -0.1453 0.9881
0.5028 -2.9640 -0.1459 0.9880
0.5919 -2.9617 -0.1465 0.9880
0.6592 -2.8605 -0.1424 0.9883
0.7274 -2.9582 -0.1478 0.9879
0.7730 -2.9570 -0.1483 0.9878
0.8191 -2.9558 -0.1488 0.9878
2.8350 -8.3102 -0.4260 0.9654
2.9756 -8.3223 -0.4288 0.9652
3.1139 -8.3233 -0.4312 0.9650
3.2521 -8.3204 -0.4334 0.9649
3.5386 -8.3271 -0.4390 0.9644
9.7601 -17.6923 -0.9804 0.9223
10.2733 -17.4002 -0.9804 0.9223
10.5266 -17.2484 -0.9804 0.9223
6.0992 -9.6731 -0.5548 0.9552
6.0805 -9.3382 -0.5407 0.9564
2.5062 -3.7286 -0.2180 0.9822
2.5572 -3.6870 -0.2177 0.9822
2.6305 -3.6768 -0.2194 0.9821
2.6858 -3.6404 -0.2195 0.9820
2.7161 -3.5711 -0.2177 0.9822
2.8093 -3.5838 -0.2209 0.9819
2.8436 -3.4170 -0.2157 0.9824
2.8794 -3.3589 -0.2147 0.9824
3.1256 -3.4375 -0.2254 0.9816
3.0743 -3.1888 -0.2149 0.9824
9.0040 -8.3080 -0.5944 0.9521
9.2511 -8.2890 -0.6027 0.9515
9.5209 -8.2832 -0.6123 0.9507
9.7996 -8.2772 -0.6224 0.9499
12.7054 -10.1105 -0.7878 0.9370
12.7430 -9.8399 -0.7812 0.9376
12.9639 -9.7114 -0.7859 0.9372
4.2074 -2.7836 -0.2448 0.9800
4.2758 -2.7399 -0.2464 0.9799
4.0809 -2.5316 -0.2330 0.9810
4.5767 -2.7474 -0.2590 0.9788
4.6571 -2.7039 -0.2613 0.9787
4.8162 -2.6112 -0.2658 0.9783
6.4484 -3.3752 -0.3531 0.9713
6.9474 -3.0125 -0.3674 0.9701
8.6837 -3.6155 -0.4564 0.9630
9.0035 -3.1452 -0.4627 0.9625
9.4913 -3.0074 -0.4831 0.9609
9.0968 -2.7368 -0.4609 0.9627
15.0853 -4.0618 -0.7580 0.9394
13.7822 -3.4957 -0.6899 0.9446
13.7340 -3.2707 -0.6850 0.9450
13.6946 -3.0506 -0.6807 0.9454
15.5019 -2.9806 -0.7659 0.9387
20.4781 -1.4988 -0.9962 0.9211
20.4978 -1.1995 -0.9962 0.9211
20.5242 -0.6000 -0.9962 0.9211
20.5330 0.0000 -0.9962 0.9211
20.5132 0.8998 -0.9962 0.9211
20.4541 1.7979 -0.9962 0.9211
20.4256 2.0965 -0.9962 0.9211
20.3927 2.3947 -0.9962 0.9211
20.3554 2.6925 -0.9962 0.9211
20.3139 2.9896 -0.9962 0.9211
18.3994 3.5377 -0.9091 0.9277
17.0898 3.5456 -0.8468 0.9325
16.8424 3.7518 -0.8372 0.9332
15.7623 3.7537 -0.7862 0.9372
15.6006 4.2005 -0.7839 0.9373
14.2000 4.0468 -0.7164 0.9426
12.1060 3.6421 -0.6134 0.9506
11.6705 3.6979 -0.5940 0.9522
11.2742 3.7545 -0.5765 0.9535
8.8721 3.3933 -0.4609 0.9627
8.6032 3.4354 -0.4495 0.9636
8.1053 3.5145 -0.4286 0.9652
7.8768 3.5530 -0.4192 0.9660
7.5302 3.6651 -0.4063 0.9670
7.3430 4.1211 -0.4086 0.9668
5.3419 3.6475 -0.3138 0.9744
5.1955 3.6600 -0.3083 0.9749
5.0552 3.6728 -0.3032 0.9753
4.9194 3.6852 -0.2982 0.9757
4.4632 3.7698 -0.2835 0.9769
4.3608 3.7939 -0.2804 0.9771
4.2612 3.8180 -0.2776 0.9773
4.0979 3.8935 -0.2743 0.9776
4.1008 4.3797 -0.2911 0.9763
4.1202 4.5313 -0.2971 0.9758
4.1934 5.0388 -0.3181 0.9741
4.2215 5.2261 -0.3260 0.9735
4.3859 6.3236 -0.3734 0.9697
4.4248 6.5830 -0.3848 0.9687
4.3195 6.8506 -0.3929 0.9681
1.6615 2.8140 -0.1586 0.9870
1.5924 2.7893 -0.1558 0.9872
1.5257 2.7655 -0.1532 0.9874
1.4068 2.7362 -0.1493 0.9878
1.3103 2.7426 -0.1475 0.9879
1.2630 2.7462 -0.1467 0.9880
1.1701 2.7532 -0.1451 0.9881
1.0789 2.7602 -0.1438 0.9882
1.0340 2.7635 -0.1432 0.9883
0.9451 2.7702 -0.1420 0.9883
0.8577 2.7768 -0.1410 0.9884
0.8150 2.7821 -0.1407 0.9885
0.7325 2.8017 -0.1405 0.9885
0.6914 2.8115 -0.1405 0.9885
0.6091 2.8310 -0.1405 0.9885
0.5678 2.8408 -0.1406 0.9885
0.5266 2.8506 -0.1406 0.9885
0.4025 2.8799 -0.1411 0.9884
0.0669 3.0487 -0.1480 0.9879
-0.0227 3.1170 -0.1512 0.9876
-1.0327 20.1744 -0.9801 0.9223
-2.2092 20.0781 -0.9801 0.9223
-2.5023 20.0434 -0.9800 0.9223
-3.3780 19.9134 -0.9800 0.9223
-3.6686 19.8614 -0.9800 0.9223
-3.9583 19.8053 -0.9799 0.9223
-1.3812 6.4214 -0.3187 0.9740
-1.4988 5.7332 -0.2875 0.9765
-1.5343 5.5370 -0.2788 0.9773
-1.5992 5.1782 -0.2630 0.9785
-1.6572 4.8577 -0.2490 0.9797
-1.6839 4.7098 -0.2427 0.9802
-1.7566 4.3076 -0.2257 0.9815
-1.7787 4.1857 -0.2207 0.9820
-1.8203 3.9582 -0.2114 0.9827
-1.8587 3.7491 -0.2030 0.9834
-1.8768 3.6506 -0.1992 0.9837
-1.8942 3.5557 -0.1955 0.9840
-1.9272 3.3760 -0.1886 0.9846
-1.9428 3.2907 -0.1854 0.9848
-1.9726 3.1286 -0.1794 0.9853
-2.0557 3.0586 -0.1788 0.9854
-2.1513 3.0071 -0.1794 0.9853
-2.2901 3.0111 -0.1835 0.9850
-2.3662 3.0187 -0.1861 0.9848
-2.4446 3.0264 -0.1888 0.9845
-2.5251 3.0344 -0.1915 0.9843
-2.6081 3.0425 -0.1944 0.9841
-2.6937 3.0510 -0.1975 0.9838
-2.7858 3.0639 -0.2009 0.9836
-2.8866 3.0830 -0.2049 0.9832
-2.9914 3.1028 -0.2091 0.9829
-3.2145 3.1449 -0.2182 0.9822
-15.2219 13.2430 -0.9789 0.9224
-0.8410 0.6896 -0.0528 0.9957
-0.7017 0.5418 -0.0430 0.9965
-0.6999 0.5243 -0.0424 0.9965
-0.6982 0.5073 -0.0419 0.9965
-0.6964 0.4906 -0.0413 0.9966
-0.6947 0.4744 -0.0408 0.9966
-0.6930 0.4585 -0.0403 0.9967
-0.6913 0.4430 -0.0398 0.9967
-0.6793 0.3555 -0.0372 0.9969
-0.6715 0.3147 -0.0360 0.9970
-0.6689 0.3017 -0.0356 0.9971
-0.6638 0.2764 -0.0349 0.9971
-0.6588 0.2520 -0.0342 0.9972
-0.6539 0.2284 -0.0336 0.9972
-0.6517 0.2170 -0.0333 0.9973
-0.6500 0.2059 -0.0331 0.9973
-0.6482 0.1950 -0.0328 0.9973
-0.6468 0.1843 -0.0326 0.9973
-0.6454 0.1738 -0.0324 0.9973
-0.6441 0.1634 -0.0322 0.9973
-0.6414 0.1429 -0.0319 0.9974
-0.6400 0.1328 -0.0317 0.9974
-0.6386 0.1228 -0.0316 0.9974
-0.6358 0.1031 -0.0313 0.9974
-0.6300 0.0646 -0.0307 0.9975
-0.6271 0.0459 -0.0305 0.9975
-0.6258 0.0366 -0.0304 0.9975
-0.6221 0.0091 -0.0302 0.9975
-0.6017 -0.0352 -0.0359 0.9976
-0.6028 -0.0441 -0.0360 0.9976
-0.6038 -0.0531 -0.0361 0.9976
-0.6050 -0.0621 -0.0363 0.9976
-0.6063 -0.0712 -0.0364 0.9976
-0.6114 -0.1083 -0.0370 0.9975
-0.6138 -0.1273 -0.0374 0.9975
-0.6150 -0.1370 -0.0376 0.9975
-0.6173 -0.1566 -0.0380 0.9975
-0.6196 -0.1766 -0.0384 0.9974
-0.6220 -0.1971 -0.0389 0.9974
-0.6301 -0.2516 -0.0405 0.9973
-0.6321 -0.2632 -0.0408 0.9973
-0.6363 -0.2870 -0.0416 0.9972
-0.6385 -0.2993 -0.0420 0.9972
-0.6406 -0.3118 -0.0425 0.9971
-0.6569 -0.4209 -0.0465 0.9969
-0.6594 -0.4502 -0.0476 0.9968
-0.6606 -0.4654 -0.0482 0.9968
-0.6642 -0.5129 -0.0500 0.9966
-0.6653 -0.5295 -0.0507 0.9966
-0.8167 -0.7105 -0.0646 0.9957
-2.7719 -2.4836 -0.2219 0.9852
-2.4342 -2.3128 -0.2002 0.9866
-2.1796 -2.3279 -0.1902 0.9873
-2.0062 -2.4107 -0.1870 0.9875
-1.7315 -2.4202 -0.1775 0.9881
-1.6981 -2.4483 -0.1777 0.9881
-1.7874 -2.6592 -0.1911 0.9872
-1.7680 -2.7152 -0.1932 0.9871
-1.6929 -2.6848 -0.1893 0.9874
-1.6891 -2.7676 -0.1933 0.9871
-1.6473 -2.7901 -0.1932 0.9871
-1.5341 -2.7809 -0.1894 0.9874
-1.4976 -2.8110 -0.1899 0.9873
-1.3318 -2.7877 -0.1842 0.9877
-1.2471 -2.8196 -0.1839 0.9877
-1.0553 -3.0934 -0.1949 0.9870
-2.8849 -8.8787 -0.5567 0.9633
-2.6077 -8.9028 -0.5532 0.9635
-1.9125 -9.5690 -0.5819 0.9617
-2.5107 -16.2354 -0.9797 0.9363
-2.2732 -16.2706 -0.9797 0.9363
-1.5581 -16.3552 -0.9797 0.9363
-1.3190 -16.3765 -0.9797 0.9363
-1.0796 -16.3943 -0.9798 0.9363
-0.1525 -2.9797 -0.1779 0.9881
-0.1088 -2.9786 -0.1777 0.9881
-0.0653 -2.9775 -0.1776 0.9881
-0.0217 -2.9763 -0.1775 0.9881
0.0652 -2.9741 -0.1774 0.9882
0.1956 -2.9708 -0.1775 0.9881
0.2392 -2.9697 -0.1777 0.9881
0.3265 -2.9675 -0.1780 0.9881
0.3703 -2.9663 -0.1783 0.9881
0.4584 -2.9641 -0.1789 0.9881
0.5471 -2.9618 -0.1796 0.9880
0.5917 -2.9606 -0.1800 0.9880
0.6366 -2.9595 -0.1805 0.9879
0.6592 -2.8605 -0.1750 0.9883
0.7728 -2.9559 -0.1822 0.9878
0.8188 -2.9547 -0.1828 0.9878
0.8651 -2.9535 -0.1835 0.9877
2.8399 -8.3245 -0.5245 0.9654
2.9766 -8.3251 -0.5272 0.9652
3.2538 -8.3247 -0.5330 0.9648
3.3914 -8.3161 -0.5356 0.9647
3.5397 -8.3295 -0.5397 0.9644
7.0656 -14.7902 -0.9775 0.9364
7.2810 -14.6855 -0.9775 0.9364
7.9179 -14.3529 -0.9775 0.9364
8.1269 -14.2359 -0.9775 0.9364
8.3341 -14.1157 -0.9775 0.9364
8.5396 -13.9927 -0.9775 0.9364
6.0947 -9.6662 -0.6814 0.9552
2.6287 -3.6742 -0.2694 0.9821
2.7043 -3.6655 -0.2716 0.9819
2.7170 -3.5723 -0.2676 0.9822
2.8070 -3.5808 -0.2713 0.9819
2.8801 -3.5655 -0.2733 0.9818
2.8940 -3.3760 -0.2652 0.9823
3.0814 -3.1961 -0.2647 0.9824
9.0055 -8.3094 -0.7307 0.9521
12.6795 -10.3961 -0.9778 0.9364
4.2842 -3.2093 -0.3192 0.9788
13.5101 -9.8156 -0.9958 0.9353
4.0859 -2.5348 -0.2867 0.9809
4.7387 -2.6595 -0.3240 0.9785
6.4631 -3.3828 -0.4350 0.9712
6.6247 -3.2245 -0.4394 0.9709
6.2946 -2.9508 -0.4146 0.9725
6.8337 -3.0825 -0.4471 0.9704
6.9756 -3.0247 -0.4534 0.9700
8.6805 -3.6142 -0.5607 0.9630
8.7596 -3.4978 -0.5625 0.9629
8.8392 -3.3807 -0.5644 0.9628
8.8987 -3.2553 -0.5651 0.9627
9.3717 -3.2738 -0.5920 0.9610
9.3998 -3.1303 -0.5908 0.9611
8.7021 -2.6180 -0.5419 0.9642
9.8012 -2.6391 -0.6053 0.9601
13.6113 -3.2415 -0.8344 0.9455
15.8294 -3.2841 -0.9641 0.9373
16.1943 -2.8691 -0.9808 0.9362
16.2712 -2.3946 -0.9808 0.9362
