ply
format ascii 1.0
element vertex 1594
property float32 x
property float32 y
property float32 z
property float32 I
end_header
1.7211 2.2629 -0.9948 0.9880
1.6878 2.2878 -0.9948 0.9880
1.6542 2.3123 -0.9948 0.9880
1.6203 2.3361 -0.9948 0.9880
1.5860 2.3596 -0.9948 0.9880
1.5513 2.3825 -0.9948 0.9880
1.4811 2.4268 -0.9948 0.9880
1.4454 2.4482 -0.9948 0.9880
1.3733 2.4894 -0.9948 0.9880
1.3000 2.5285 -0.9948 0.9880
1.2255 2.5654 -0.9948 0.9880
1.1879 2.5830 -0.9948 0.9880
1.1500 2.6002 -0.9948 0.9880
1.0736 2.6326 -0.9948 0.9880
0.9962 2.6629 -0.9948 0.9880
0.9572 2.6771 -0.9948 0.9880
0.8390 2.7166 -0.9948 0.9880
0.7992 2.7285 -0.9948 0.9880
0.6788 2.7609 -0.9948 0.9880
0.6384 2.7705 -0.9949 0.9880
0.5164 2.7959 -0.9949 0.9880
0.4345 2.8098 -0.9949 0.9880
0.3522 2.8213 -0.9949 0.9880
0.3109 2.8262 -0.9949 0.9880
0.2696 2.8304 -0.9949 0.9880
0.1453 2.8395 -0.9949 0.9880
0.0208 2.8432 -0.9949 0.9880
-0.0208 2.8432 -0.9949 0.9880
-0.0623 2.8426 -0.9949 0.9880
-0.1038 2.8413 -0.9949 0.9880
-0.1454 2.8395 -0.9949 0.9880
-0.2282 2.8341 -0.9949 0.9880
-0.2697 2.8305 -0.9949 0.9880
-0.3522 2.8214 -0.9949 0.9880
-0.3934 2.8159 -0.9949 0.9880
-0.5165 2.7960 -0.9949 0.9880
-0.5572 2.7881 -0.9949 0.9880
-0.6789 2.7611 -0.9949 0.9880
-0.7192 2.7509 -0.9949 0.9880
-0.1668 0.5694 -0.2076 0.9975
-0.1778 0.5472 -0.2013 0.9976
-0.1880 0.5259 -0.1954 0.9976
-0.1929 0.5155 -0.1926 0.9977
-0.1978 0.5062 -0.1902 0.9977
-0.2027 0.4970 -0.1878 0.9977
-0.2163 0.4703 -0.1811 0.9978
-0.2400 0.4204 -0.1694 0.9980
-0.2435 0.4124 -0.1676 0.9980
-0.2502 0.3969 -0.1642 0.9980
-0.2534 0.3893 -0.1625 0.9980
-0.2627 0.3672 -0.1580 0.9981
-0.2656 0.3600 -0.1565 0.9981
-0.2684 0.3529 -0.1551 0.9981
-0.2712 0.3459 -0.1538 0.9981
-0.2738 0.3390 -0.1525 0.9982
-0.2764 0.3321 -0.1512 0.9982
-0.2789 0.3253 -0.1499 0.9982
-0.2813 0.3186 -0.1487 0.9982
-0.2833 0.3116 -0.1474 0.9982
-0.2853 0.3047 -0.1460 0.9982
-0.2871 0.2978 -0.1447 0.9982
-0.2889 0.2910 -0.1435 0.9983
-0.2906 0.2843 -0.1422 0.9983
-0.2922 0.2777 -0.1411 0.9983
-0.2953 0.2646 -0.1388 0.9983
-0.2982 0.2519 -0.1366 0.9983
-0.2995 0.2456 -0.1355 0.9984
-0.3065 0.2093 -0.1299 0.9984
-0.3084 0.1977 -0.1282 0.9984
-0.3107 0.1866 -0.1268 0.9985
-0.3118 0.1811 -0.1262 0.9985
-0.3129 0.1756 -0.1256 0.9985
-0.3140 0.1702 -0.1250 0.9985
-0.3160 0.1595 -0.1238 0.9985
-0.3169 0.1543 -0.1233 0.9985
-0.3177 0.1490 -0.1228 0.9985
-0.3192 0.1385 -0.1217 0.9985
-0.3199 0.1332 -0.1212 0.9985
-0.3226 0.1075 -0.1190 0.9986
-0.3234 0.0973 -0.1182 0.9986
-0.3246 0.0773 -0.1168 0.9986
-0.3249 0.0724 -0.1165 0.9986
-0.3250 0.0675 -0.1162 0.9986
-0.3253 0.0577 -0.1156 0.9986
-0.3254 0.0528 -0.1154 0.9986
-0.3255 0.0479 -0.1151 0.9986
-0.3255 0.0334 -0.1145 0.9986
-0.3254 0.0287 -0.1143 0.9986
-0.3254 0.0239 -0.1141 0.9986
-0.3252 0.0191 -0.1140 0.9986
-0.3251 0.0143 -0.1139 0.9986
-0.3249 0.0095 -0.1137 0.9986
-0.3196 -0.0047 -0.1158 0.9986
-0.3198 -0.0093 -0.1159 0.9986
-0.3201 -0.0187 -0.1162 0.9986
-0.3202 -0.0234 -0.1164 0.9986
-0.3204 -0.0376 -0.1169 0.9986
-0.3203 -0.0471 -0.1173 0.9986
-0.3188 -0.0858 -0.1197 0.9986
-0.3185 -0.0907 -0.1200 0.9986
-0.3181 -0.0957 -0.1204 0.9986
-0.3177 -0.1006 -0.1208 0.9986
-0.3163 -0.1157 -0.1220 0.9986
-0.3151 -0.1258 -0.1230 0.9986
-0.3124 -0.1464 -0.1250 0.9985
-0.3115 -0.1516 -0.1255 0.9985
-0.3105 -0.1568 -0.1261 0.9985
-0.3075 -0.1725 -0.1278 0.9985
-0.3018 -0.1996 -0.1311 0.9985
-0.3008 -0.2053 -0.1320 0.9985
-0.2997 -0.2111 -0.1329 0.9984
-0.2975 -0.2228 -0.1347 0.9984
-0.2963 -0.2287 -0.1357 0.9984
-0.2909 -0.2530 -0.1398 0.9984
-0.2863 -0.2720 -0.1431 0.9983
-0.2847 -0.2784 -0.1443 0.9983
-0.2829 -0.2850 -0.1455 0.9983
-0.2730 -0.3185 -0.1520 0.9982
-0.2706 -0.3251 -0.1533 0.9982
-0.2654 -0.3384 -0.1559 0.9982
-0.2539 -0.3661 -0.1615 0.9981
-0.2508 -0.3732 -0.1630 0.9981
-0.2477 -0.3803 -0.1645 0.9981
-0.2445 -0.3877 -0.1661 0.9981
-0.2412 -0.3951 -0.1678 0.9980
-0.2378 -0.4026 -0.1695 0.9980
-0.2342 -0.4103 -0.1712 0.9980
-0.2306 -0.4180 -0.1730 0.9980
-0.2231 -0.4338 -0.1768 0.9979
-0.2191 -0.4418 -0.1787 0.9979
-0.1973 -0.4838 -0.1894 0.9978
-0.1826 -0.5106 -0.1965 0.9977
-0.1720 -0.5293 -0.2017 0.9976
-0.1667 -0.5396 -0.2047 0.9976
-0.1612 -0.5502 -0.2078 0.9976
-0.1555 -0.5610 -0.2110 0.9975
-0.1496 -0.6083 -0.2270 0.9973
-0.5685 -2.6427 -0.9797 0.9886
-0.5298 -2.6508 -0.9797 0.9886
-0.4910 -2.6582 -0.9797 0.9886
-0.3740 -2.6772 -0.9797 0.9886
-0.3349 -2.6823 -0.9797 0.9886
-0.2170 -2.6944 -0.9796 0.9886
-0.1776 -2.6973 -0.9796 0.9886
-0.0592 -2.7025 -0.9796 0.9886
-0.0198 -2.7030 -0.9796 0.9886
0.0198 -2.7031 -0.9796 0.9886
0.0593 -2.7025 -0.9796 0.9886
0.1382 -2.6996 -0.9796 0.9886
0.1776 -2.6973 -0.9796 0.9886
0.2564 -2.6909 -0.9796 0.9886
0.2956 -2.6869 -0.9796 0.9886
0.3740 -2.6771 -0.9796 0.9886
0.4910 -2.6581 -0.9796 0.9886
0.5298 -2.6507 -0.9796 0.9886
0.5684 -2.6426 -0.9796 0.9886
0.6070 -2.6341 -0.9796 0.9886
0.6837 -2.6152 -0.9796 0.9886
0.7153 -2.4420 -0.9222 0.9892
0.7611 -2.4645 -0.9348 0.9891
0.8567 -2.5113 -0.9616 0.9888
0.9471 -2.5316 -0.9796 0.9886
0.9840 -2.5175 -0.9796 0.9886
1.0207 -2.5029 -0.9796 0.9886
1.0572 -2.4877 -0.9796 0.9886
1.0934 -2.4720 -0.9796 0.9886
1.2359 -2.4039 -0.9796 0.9886
1.2709 -2.3855 -0.9796 0.9886
1.3057 -2.3667 -0.9796 0.9886
1.3401 -2.3474 -0.9796 0.9886
1.4081 -2.3073 -0.9796 0.9886
1.5405 -2.2210 -0.9796 0.9886
1.5727 -2.1983 -0.9796 0.9886
1.6047 -2.1751 -0.9796 0.9886
1.6363 -2.1514 -0.9796 0.9886
1.6684 -2.1283 -0.9801 0.9886
1.7092 -2.1159 -0.9857 0.9885
1.7512 -2.1043 -0.9921 0.9884
1.7866 -2.0840 -0.9948 0.9884
1.8168 -2.0577 -0.9948 0.9884
1.8467 -2.0309 -0.9948 0.9884
1.9052 -1.9761 -0.9948 0.9884
1.9339 -1.9480 -0.9948 0.9884
1.9622 -1.9196 -0.9948 0.9884
2.0174 -1.8614 -0.9948 0.9884
2.0444 -1.8318 -0.9948 0.9884
2.0709 -1.8017 -0.9948 0.9884
2.1227 -1.7404 -0.9948 0.9884
2.1479 -1.7092 -0.9948 0.9884
2.1969 -1.6457 -0.9948 0.9884
2.2207 -1.6134 -0.9948 0.9884
2.2441 -1.5808 -0.9948 0.9884
2.3326 -1.4470 -0.9948 0.9884
2.3535 -1.4127 -0.9948 0.9884
2.3738 -1.3782 -0.9948 0.9884
2.4131 -1.3083 -0.9948 0.9884
2.4320 -1.2729 -0.9948 0.9884
2.4681 -1.2013 -0.9948 0.9884
2.4854 -1.1651 -0.9948 0.9884
2.5021 -1.1287 -0.9948 0.9884
2.5184 -1.0920 -0.9948 0.9884
2.5341 -1.0550 -0.9948 0.9884
2.5638 -0.9805 -0.9948 0.9884
2.5779 -0.9429 -0.9948 0.9884
2.5914 -0.9052 -0.9948 0.9884
2.6398 -0.7523 -0.9948 0.9884
2.6505 -0.7136 -0.9948 0.9884
2.6703 -0.6359 -0.9948 0.9884
2.6792 -0.5968 -0.9948 0.9884
2.6877 -0.5576 -0.9948 0.9884
2.6955 -0.5182 -0.9948 0.9884
2.7157 -0.3996 -0.9948 0.9884
2.7305 -0.2802 -0.9948 0.9884
2.7344 -0.2403 -0.9948 0.9884
2.7376 -0.2004 -0.9948 0.9884
2.7402 -0.1603 -0.9948 0.9884
2.7423 -0.1202 -0.9948 0.9884
2.7449 0.0000 -0.9948 0.9884
2.7402 0.1604 -0.9948 0.9884
2.7376 0.2004 -0.9948 0.9884
2.7262 0.3202 -0.9948 0.9884
2.7212 0.3600 -0.9948 0.9884
2.7156 0.3997 -0.9948 0.9884
2.7095 0.4393 -0.9948 0.9884
2.7028 0.4789 -0.9948 0.9884
2.6955 0.5183 -0.9948 0.9884
2.6702 0.6359 -0.9948 0.9884
2.6398 0.7524 -0.9948 0.9884
2.6167 0.8292 -0.9948 0.9884
2.5914 0.9053 -0.9948 0.9884
2.5638 0.9806 -0.9948 0.9884
2.5492 1.0179 -0.9948 0.9884
2.5341 1.0551 -0.9948 0.9884
2.5021 1.1287 -0.9948 0.9884
2.4681 1.2013 -0.9948 0.9884
2.4319 1.2730 -0.9948 0.9884
2.4131 1.3083 -0.9948 0.9884
2.3937 1.3435 -0.9948 0.9884
2.3534 1.4128 -0.9948 0.9884
2.3326 1.4471 -0.9948 0.9884
2.1969 1.6457 -0.9948 0.9884
2.0970 1.7713 -0.9948 0.9884
2.0444 1.8318 -0.9948 0.9884
1.9052 1.9762 -0.9948 0.9884
1.8761 2.0038 -0.9948 0.9884
1.7866 2.0841 -0.9948 0.9884
1.7559 2.1100 -0.9948 0.9884
1.6618 2.1849 -0.9948 0.9884
1.4979 2.3004 -0.9948 0.9884
1.4641 2.3220 -0.9948 0.9884
1.3609 2.3840 -0.9948 0.9884
1.2552 2.4413 -0.9948 0.9884
1.2194 2.4595 -0.9948 0.9884
1.1833 2.4770 -0.9948 0.9884
1.1470 2.4941 -0.9948 0.9884
1.1104 2.5105 -0.9948 0.9884
1.0366 2.5419 -0.9948 0.9884
0.9993 2.5568 -0.9948 0.9884
0.8863 2.5981 -0.9948 0.9884
0.8483 2.6109 -0.9948 0.9884
0.7716 2.6345 -0.9948 0.9884
0.6943 2.6559 -0.9948 0.9884
0.6165 2.6751 -0.9949 0.9884
0.5380 2.6920 -0.9949 0.9884
0.3798 2.7188 -0.9949 0.9884
0.3401 2.7241 -0.9949 0.9884
-0.0602 2.7446 -0.9949 0.9884
-0.1404 2.7417 -0.9949 0.9884
-0.1804 2.7394 -0.9949 0.9884
-0.2204 2.7365 -0.9949 0.9884
-0.2604 2.7329 -0.9949 0.9884
-0.3003 2.7288 -0.9949 0.9884
-0.3401 2.7241 -0.9949 0.9884
-0.3799 2.7189 -0.9949 0.9884
-0.5381 2.6921 -0.9949 0.9884
-0.5773 2.6839 -0.9949 0.9884
-0.1667 0.5397 -0.2047 0.9976
-0.1774 0.5198 -0.1991 0.9977
-0.1877 0.5016 -0.1941 0.9977
-0.2108 0.4584 -0.1828 0.9979
-0.2231 0.4339 -0.1768 0.9979
-0.2343 0.4104 -0.1712 0.9980
-0.2411 0.3952 -0.1678 0.9980
-0.2445 0.3877 -0.1661 0.9981
-0.2477 0.3804 -0.1645 0.9981
-0.2509 0.3732 -0.1630 0.9981
-0.2569 0.3591 -0.1600 0.9981
-0.2626 0.3453 -0.1572 0.9982
-0.2706 0.3252 -0.1533 0.9982
-0.2754 0.3119 -0.1508 0.9982
-0.2774 0.3050 -0.1494 0.9982
-0.2793 0.2983 -0.1481 0.9983
-0.2847 0.2785 -0.1443 0.9983
-0.2909 0.2531 -0.1397 0.9984
-0.2937 0.2409 -0.1376 0.9984
-0.2950 0.2348 -0.1366 0.9984
-0.2963 0.2288 -0.1357 0.9984
-0.2987 0.2170 -0.1338 0.9984
-0.2997 0.2112 -0.1329 0.9984
-0.3008 0.2054 -0.1320 0.9985
-0.3018 0.1997 -0.1311 0.9985
-0.3028 0.1941 -0.1303 0.9985
-0.3041 0.1886 -0.1297 0.9985
-0.3052 0.1833 -0.1290 0.9985
-0.3105 0.1568 -0.1261 0.9985
-0.3115 0.1516 -0.1255 0.9985
-0.3124 0.1464 -0.1250 0.9985
-0.3145 0.1310 -0.1235 0.9986
-0.3152 0.1259 -0.1230 0.9986
-0.3173 0.1057 -0.1212 0.9986
-0.3177 0.1007 -0.1208 0.9986
-0.3181 0.0958 -0.1204 0.9986
-0.3185 0.0908 -0.1200 0.9986
-0.3188 0.0859 -0.1197 0.9986
-0.3191 0.0810 -0.1193 0.9986
-0.3196 0.0712 -0.1187 0.9986
-0.3198 0.0664 -0.1184 0.9986
-0.3200 0.0616 -0.1181 0.9986
-0.3204 0.0424 -0.1171 0.9986
-0.3204 0.0329 -0.1167 0.9986
-0.3203 0.0282 -0.1165 0.9986
-0.3201 0.0187 -0.1162 0.9986
-0.3200 0.0141 -0.1161 0.9986
-0.3196 0.0047 -0.1158 0.9986
-0.3144 0.0000 -0.1179 0.9987
-0.3150 -0.0138 -0.1182 0.9987
-0.3151 -0.0184 -0.1184 0.9987
-0.3152 -0.0230 -0.1185 0.9987
-0.3153 -0.0277 -0.1187 0.9986
-0.3153 -0.0323 -0.1189 0.9986
-0.3153 -0.0464 -0.1195 0.9986
-0.3149 -0.0605 -0.1203 0.9986
-0.3147 -0.0653 -0.1205 0.9986
-0.3143 -0.0748 -0.1211 0.9986
-0.3140 -0.0796 -0.1215 0.9986
-0.3121 -0.1039 -0.1234 0.9986
-0.3116 -0.1088 -0.1238 0.9986
-0.3086 -0.1338 -0.1261 0.9986
-0.3071 -0.1439 -0.1272 0.9986
-0.3062 -0.1490 -0.1277 0.9985
-0.3053 -0.1541 -0.1282 0.9985
-0.3022 -0.1696 -0.1299 0.9985
-0.2987 -0.1853 -0.1318 0.9985
-0.2952 -0.2016 -0.1341 0.9985
-0.2942 -0.2072 -0.1349 0.9985
-0.2931 -0.2129 -0.1358 0.9985
-0.2894 -0.2302 -0.1387 0.9984
-0.2853 -0.2481 -0.1418 0.9984
-0.2838 -0.2542 -0.1429 0.9984
-0.2789 -0.2728 -0.1463 0.9983
-0.2735 -0.2920 -0.1501 0.9983
-0.2716 -0.2987 -0.1514 0.9983
-0.2696 -0.3052 -0.1527 0.9983
-0.2624 -0.3248 -0.1566 0.9982
-0.2570 -0.3379 -0.1592 0.9982
-0.2484 -0.3580 -0.1634 0.9981
-0.2453 -0.3649 -0.1649 0.9981
-0.2422 -0.3718 -0.1664 0.9981
-0.2389 -0.3789 -0.1680 0.9981
-0.2322 -0.3933 -0.1713 0.9981
-0.2252 -0.4081 -0.1748 0.9980
-0.2215 -0.4157 -0.1766 0.9980
-0.2177 -0.4233 -0.1785 0.9980
-0.2138 -0.4310 -0.1804 0.9979
-0.2097 -0.4389 -0.1824 0.9979
-0.2055 -0.4468 -0.1844 0.9979
-0.1968 -0.4630 -0.1887 0.9979
-0.1922 -0.4713 -0.1909 0.9978
-0.1777 -0.4969 -0.1979 0.9977
-0.1725 -0.5057 -0.2004 0.9977
-0.1617 -0.5237 -0.2055 0.9977
-0.1561 -0.5329 -0.2082 0.9976
-0.1503 -0.5423 -0.2110 0.9976
-0.1445 -0.5526 -0.2142 0.9976
-0.1332 -0.5781 -0.2225 0.9975
-0.5494 -2.5541 -0.9797 0.9889
-0.4369 -2.5756 -0.9797 0.9889
-0.3615 -2.5873 -0.9797 0.9889
-0.3236 -2.5923 -0.9797 0.9889
-0.2478 -2.6007 -0.9796 0.9889
-0.2097 -2.6040 -0.9796 0.9889
-0.0954 -2.6107 -0.9796 0.9889
-0.0572 -2.6118 -0.9796 0.9889
0.1335 -2.6090 -0.9796 0.9889
0.2097 -2.6039 -0.9796 0.9889
0.2478 -2.6006 -0.9796 0.9889
0.2857 -2.5967 -0.9796 0.9889
0.3615 -2.5873 -0.9796 0.9889
0.4745 -2.5689 -0.9796 0.9889
0.5120 -2.5617 -0.9796 0.9889
0.7611 -2.4645 -0.9672 0.9890
0.8072 -2.4844 -0.9796 0.9889
0.8435 -2.4724 -0.9796 0.9889
0.8795 -2.4598 -0.9796 0.9889
0.9510 -2.4330 -0.9796 0.9889
0.9864 -2.4189 -0.9796 0.9889
1.0567 -2.3890 -0.9796 0.9889
1.1261 -2.3571 -0.9796 0.9889
1.1604 -2.3404 -0.9796 0.9889
1.1945 -2.3232 -0.9796 0.9889
1.2618 -2.2873 -0.9796 0.9889
1.3281 -2.2495 -0.9796 0.9889
1.4254 -2.1890 -0.9796 0.9889
1.4572 -2.1680 -0.9796 0.9889
1.4888 -2.1465 -0.9796 0.9889
1.5213 -2.1264 -0.9804 0.9889
1.5612 -2.1161 -0.9861 0.9888
1.6366 -2.0878 -0.9948 0.9887
1.6670 -2.0637 -0.9948 0.9887
1.6970 -2.0391 -0.9948 0.9887
1.7266 -2.0141 -0.9948 0.9887
1.7558 -1.9887 -0.9948 0.9887
1.8132 -1.9365 -0.9948 0.9887
1.8413 -1.9098 -0.9948 0.9887
1.8690 -1.8827 -0.9948 0.9887
1.9758 -1.7702 -0.9948 0.9887
2.0014 -1.7412 -0.9948 0.9887
2.0267 -1.7118 -0.9948 0.9887
2.0515 -1.6820 -0.9948 0.9887
2.1462 -1.5593 -0.9948 0.9887
2.1688 -1.5277 -0.9948 0.9887
2.1908 -1.4958 -0.9948 0.9887
2.2336 -1.4312 -0.9948 0.9887
2.2543 -1.3984 -0.9948 0.9887
2.3133 -1.2983 -0.9948 0.9887
2.3321 -1.2643 -0.9948 0.9887
2.3503 -1.2302 -0.9948 0.9887
2.3853 -1.1609 -0.9948 0.9887
2.4019 -1.1260 -0.9948 0.9887
2.4181 -1.0908 -0.9948 0.9887
2.4636 -0.9837 -0.9948 0.9887
2.5044 -0.8748 -0.9948 0.9887
2.5403 -0.7642 -0.9948 0.9887
2.5512 -0.7270 -0.9948 0.9887
2.5714 -0.6522 -0.9948 0.9887
2.5893 -0.5767 -0.9948 0.9887
2.6050 -0.5009 -0.9948 0.9887
2.6121 -0.4627 -0.9948 0.9887
2.6186 -0.4245 -0.9948 0.9887
2.6245 -0.3862 -0.9948 0.9887
2.6389 -0.2708 -0.9948 0.9887
2.6426 -0.2323 -0.9948 0.9887
2.6457 -0.1936 -0.9948 0.9887
2.6482 -0.1549 -0.9948 0.9887
2.6502 -0.1163 -0.9948 0.9887
2.6516 0.0776 -0.9948 0.9887
2.6502 0.1163 -0.9948 0.9887
2.6483 0.1550 -0.9948 0.9887
2.6389 0.2709 -0.9948 0.9887
2.6346 0.3094 -0.9948 0.9887
2.6245 0.3863 -0.9948 0.9887
2.5616 0.6898 -0.9948 0.9887
2.5512 0.7271 -0.9948 0.9887
2.5044 0.8749 -0.9948 0.9887
2.4913 0.9114 -0.9948 0.9887
2.4777 0.9477 -0.9948 0.9887
2.4636 0.9838 -0.9948 0.9887
2.4339 1.0554 -0.9948 0.9887
2.4182 1.0908 -0.9948 0.9887
2.3852 1.1610 -0.9948 0.9887
2.3503 1.2302 -0.9948 0.9887
2.3321 1.2644 -0.9948 0.9887
2.3134 1.2984 -0.9948 0.9887
2.2942 1.3321 -0.9948 0.9887
2.2125 1.4638 -0.9948 0.9887
2.1908 1.4959 -0.9948 0.9887
2.1687 1.5278 -0.9948 0.9887
2.1462 1.5593 -0.9948 0.9887
2.1232 1.5905 -0.9948 0.9887
2.0758 1.6519 -0.9948 0.9887
2.0514 1.6820 -0.9948 0.9887
2.0014 1.7413 -0.9948 0.9887
1.9497 1.7990 -0.9948 0.9887
1.8963 1.8552 -0.9948 0.9887
1.8413 1.9098 -0.9948 0.9887
1.8132 1.9366 -0.9948 0.9887
1.7558 1.9887 -0.9948 0.9887
1.6060 2.1116 -0.9948 0.9887
1.5119 2.1799 -0.9948 0.9887
1.4799 2.2018 -0.9948 0.9887
1.3488 2.2845 -0.9948 0.9887
1.3153 2.3039 -0.9948 0.9887
1.2474 2.3414 -0.9948 0.9887
1.2130 2.3594 -0.9948 0.9887
1.1085 2.4103 -0.9948 0.9887
1.0018 2.4566 -0.9948 0.9887
0.9658 2.4709 -0.9948 0.9887
0.8932 2.4981 -0.9948 0.9887
0.8566 2.5109 -0.9948 0.9887
0.7084 2.5566 -0.9948 0.9887
0.6710 2.5668 -0.9948 0.9887
0.5958 2.5853 -0.9949 0.9887
0.4437 2.6157 -0.9949 0.9887
0.4055 2.6219 -0.9949 0.9887
0.3287 2.6326 -0.9949 0.9887
0.0581 2.6525 -0.9949 0.9887
-0.0194 2.6530 -0.9949 0.9887
-0.0582 2.6525 -0.9949 0.9887
-0.0969 2.6513 -0.9949 0.9887
-0.1743 2.6474 -0.9949 0.9887
-0.2130 2.6446 -0.9949 0.9887
-0.3287 2.6327 -0.9949 0.9887
-0.4055 2.6220 -0.9949 0.9887
-0.4819 2.6091 -0.9949 0.9887
-0.5579 2.5939 -0.9949 0.9887
-0.1503 0.5424 -0.2110 0.9976
-0.1725 0.5058 -0.2004 0.9977
-0.1827 0.4884 -0.1955 0.9978
-0.1875 0.4798 -0.1932 0.9978
-0.1922 0.4714 -0.1909 0.9978
-0.1968 0.4631 -0.1887 0.9979
-0.2012 0.4549 -0.1865 0.9979
-0.2097 0.4389 -0.1824 0.9979
-0.2137 0.4311 -0.1804 0.9979
-0.2215 0.4157 -0.1766 0.9980
-0.2322 0.3934 -0.1713 0.9981
-0.2356 0.3861 -0.1696 0.9981
-0.2453 0.3650 -0.1649 0.9981
-0.2484 0.3581 -0.1634 0.9981
-0.2514 0.3513 -0.1620 0.9982
-0.2542 0.3446 -0.1606 0.9982
-0.2570 0.3380 -0.1592 0.9982
-0.2649 0.3184 -0.1553 0.9982
-0.2674 0.3120 -0.1541 0.9982
-0.2716 0.2987 -0.1514 0.9983
-0.2754 0.2857 -0.1488 0.9983
-0.2822 0.2604 -0.1440 0.9984
-0.2867 0.2421 -0.1407 0.9984
-0.2894 0.2303 -0.1387 0.9984
-0.2907 0.2245 -0.1377 0.9984
-0.2919 0.2187 -0.1368 0.9984
-0.2930 0.2129 -0.1358 0.9985
-0.2942 0.2073 -0.1349 0.9985
-0.2962 0.1960 -0.1332 0.9985
-0.2975 0.1906 -0.1325 0.9985
-0.2987 0.1854 -0.1318 0.9985
-0.3022 0.1696 -0.1299 0.9985
-0.3033 0.1645 -0.1294 0.9985
-0.3053 0.1541 -0.1282 0.9985
-0.3071 0.1440 -0.1272 0.9986
-0.3079 0.1389 -0.1267 0.9986
-0.3093 0.1288 -0.1256 0.9986
-0.3105 0.1188 -0.1247 0.9986
-0.3111 0.1138 -0.1242 0.9986
-0.3116 0.1089 -0.1238 0.9986
-0.3121 0.1040 -0.1234 0.9986
-0.3134 0.0893 -0.1222 0.9986
-0.3140 0.0797 -0.1215 0.9986
-0.3145 0.0701 -0.1208 0.9986
-0.3153 0.0417 -0.1193 0.9986
-0.3152 0.0231 -0.1185 0.9987
-0.3151 0.0184 -0.1184 0.9987
-0.3099 -0.0091 -0.1202 0.9987
-0.3104 -0.0318 -0.1210 0.9987
-0.3104 -0.0410 -0.1214 0.9987
-0.3100 -0.0595 -0.1224 0.9986
-0.3098 -0.0643 -0.1227 0.9986
-0.3090 -0.0784 -0.1236 0.9986
-0.3087 -0.0831 -0.1239 0.9986
-0.3080 -0.0926 -0.1247 0.9986
-0.3075 -0.0974 -0.1251 0.9986
-0.3071 -0.1022 -0.1255 0.9986
-0.3055 -0.1168 -0.1268 0.9986
-0.3049 -0.1217 -0.1273 0.9986
-0.3042 -0.1266 -0.1278 0.9986
-0.3035 -0.1316 -0.1283 0.9986
-0.3020 -0.1415 -0.1293 0.9986
-0.3011 -0.1465 -0.1298 0.9986
-0.3001 -0.1515 -0.1304 0.9986
-0.2992 -0.1566 -0.1309 0.9986
-0.2981 -0.1616 -0.1315 0.9985
-0.2898 -0.1979 -0.1361 0.9985
-0.2888 -0.2034 -0.1369 0.9985
-0.2852 -0.2202 -0.1397 0.9985
-0.2839 -0.2259 -0.1407 0.9984
-0.2812 -0.2375 -0.1427 0.9984
-0.2797 -0.2433 -0.1437 0.9984
-0.2783 -0.2493 -0.1448 0.9984
-0.2751 -0.2613 -0.1471 0.9984
-0.2734 -0.2674 -0.1483 0.9984
-0.2716 -0.2736 -0.1495 0.9983
-0.2679 -0.2861 -0.1520 0.9983
-0.2660 -0.2925 -0.1533 0.9983
-0.2640 -0.2989 -0.1546 0.9983
-0.2595 -0.3118 -0.1573 0.9983
-0.2570 -0.3180 -0.1585 0.9982
-0.2516 -0.3308 -0.1611 0.9982
-0.2489 -0.3372 -0.1625 0.9982
-0.2460 -0.3438 -0.1639 0.9982
-0.2400 -0.3570 -0.1668 0.9982
-0.2368 -0.3637 -0.1683 0.9981
-0.2337 -0.3705 -0.1698 0.9981
-0.2269 -0.3843 -0.1730 0.9981
-0.2235 -0.3914 -0.1747 0.9981
-0.2162 -0.4059 -0.1783 0.9980
-0.2086 -0.4207 -0.1820 0.9980
-0.1962 -0.4436 -0.1881 0.9979
-0.1919 -0.4514 -0.1902 0.9979
-0.1827 -0.4674 -0.1946 0.9978
-0.1730 -0.4838 -0.1992 0.9978
-0.1627 -0.5007 -0.2041 0.9977
-0.1573 -0.5093 -0.2067 0.9977
-0.1518 -0.5181 -0.2093 0.9977
-0.1461 -0.5270 -0.2120 0.9977
-0.1215 -0.5647 -0.2239 0.9975
-0.4590 -2.4849 -0.9797 0.9892
-0.3862 -2.4973 -0.9797 0.9892
-0.2764 -2.5118 -0.9797 0.9892
-0.2396 -2.5155 -0.9796 0.9892
-0.2029 -2.5187 -0.9796 0.9892
-0.1660 -2.5214 -0.9796 0.9892
-0.0185 -2.5268 -0.9796 0.9892
0.0185 -2.5268 -0.9796 0.9892
0.0923 -2.5252 -0.9796 0.9892
0.1292 -2.5236 -0.9796 0.9892
0.2764 -2.5117 -0.9796 0.9892
0.3496 -2.5025 -0.9796 0.9892
0.3862 -2.4971 -0.9796 0.9892
0.4226 -2.4913 -0.9796 0.9892
0.4590 -2.4848 -0.9796 0.9892
0.4952 -2.4778 -0.9796 0.9892
0.5314 -2.4703 -0.9796 0.9892
0.6033 -2.4537 -0.9796 0.9892
0.6706 -2.4202 -0.9736 0.9893
0.7456 -2.4143 -0.9796 0.9892
0.7808 -2.4031 -0.9796 0.9892
0.9882 -2.3255 -0.9796 0.9892
1.0221 -2.3108 -0.9796 0.9892
1.0558 -2.2956 -0.9796 0.9892
1.0892 -2.2799 -0.9796 0.9892
1.1224 -2.2637 -0.9796 0.9892
1.1554 -2.2471 -0.9796 0.9892
1.2527 -2.1943 -0.9796 0.9892
1.2847 -2.1758 -0.9796 0.9892
1.3163 -2.1568 -0.9796 0.9892
1.3828 -2.1237 -0.9825 0.9892
1.4212 -2.1143 -0.9877 0.9891
1.4598 -2.1047 -0.9930 0.9891
1.4931 -2.0869 -0.9948 0.9891
1.5234 -2.0648 -0.9948 0.9891
1.5831 -2.0195 -0.9948 0.9891
1.6701 -1.9481 -0.9948 0.9891
1.6983 -1.9236 -0.9948 0.9891
1.7263 -1.8985 -0.9948 0.9891
1.7538 -1.8730 -0.9948 0.9891
1.8342 -1.7945 -0.9948 0.9891
1.8602 -1.7674 -0.9948 0.9891
1.8859 -1.7401 -0.9948 0.9891
1.9111 -1.7123 -0.9948 0.9891
1.9359 -1.6842 -0.9948 0.9891
2.0310 -1.5682 -0.9948 0.9891
2.0537 -1.5384 -0.9948 0.9891
2.0759 -1.5082 -0.9948 0.9891
2.1191 -1.4469 -0.9948 0.9891
2.1605 -1.3844 -0.9948 0.9891
2.2000 -1.3206 -0.9948 0.9891
2.2376 -1.2558 -0.9948 0.9891
2.2905 -1.1565 -0.9948 0.9891
2.3072 -1.1230 -0.9948 0.9891
2.3688 -0.9862 -0.9948 0.9891
2.3830 -0.9515 -0.9948 0.9891
2.3966 -0.9166 -0.9948 0.9891
2.4345 -0.8107 -0.9948 0.9891
2.4461 -0.7750 -0.9948 0.9891
2.4777 -0.6671 -0.9948 0.9891
2.4872 -0.6309 -0.9948 0.9891
2.5046 -0.5579 -0.9948 0.9891
2.5124 -0.5213 -0.9948 0.9891
2.5266 -0.4476 -0.9948 0.9891
2.5386 -0.3736 -0.9948 0.9891
2.5484 -0.2993 -0.9948 0.9891
2.5525 -0.2620 -0.9948 0.9891
2.5561 -0.2246 -0.9948 0.9891
2.5648 -0.0749 -0.9948 0.9891
2.5657 -0.0374 -0.9948 0.9891
2.5659 0.0000 -0.9948 0.9891
2.5615 0.1499 -0.9948 0.9891
2.5591 0.1873 -0.9948 0.9891
2.5525 0.2620 -0.9948 0.9891
2.5484 0.2993 -0.9948 0.9891
2.5328 0.4107 -0.9948 0.9891
2.5266 0.4477 -0.9948 0.9891
2.5198 0.4845 -0.9948 0.9891
2.5124 0.5213 -0.9948 0.9891
2.4872 0.6309 -0.9948 0.9891
2.4677 0.7033 -0.9948 0.9891
2.4571 0.7393 -0.9948 0.9891
2.4224 0.8462 -0.9948 0.9891
2.4097 0.8816 -0.9948 0.9891
2.3688 0.9863 -0.9948 0.9891
2.3390 1.0551 -0.9948 0.9891
2.2905 1.1566 -0.9948 0.9891
2.2734 1.1900 -0.9948 0.9891
2.2191 1.2884 -0.9948 0.9891
2.2000 1.3207 -0.9948 0.9891
2.1605 1.3845 -0.9948 0.9891
2.1400 1.4159 -0.9948 0.9891
2.0977 1.4778 -0.9948 0.9891
2.0759 1.5083 -0.9948 0.9891
2.0537 1.5384 -0.9948 0.9891
2.0079 1.5978 -0.9948 0.9891
1.9603 1.6558 -0.9948 0.9891
1.9111 1.7124 -0.9948 0.9891
1.8859 1.7401 -0.9948 0.9891
1.8602 1.7675 -0.9948 0.9891
1.8342 1.7945 -0.9948 0.9891
1.8078 1.8211 -0.9948 0.9891
1.7810 1.8473 -0.9948 0.9891
1.7538 1.8732 -0.9948 0.9891
1.7263 1.8986 -0.9948 0.9891
1.6701 1.9482 -0.9948 0.9891
1.6124 1.9962 -0.9948 0.9891
1.5831 2.0195 -0.9948 0.9891
1.5534 2.0425 -0.9948 0.9891
1.4315 2.1297 -0.9948 0.9891
1.4002 2.1504 -0.9948 0.9891
1.3368 2.1904 -0.9948 0.9891
1.2395 2.2469 -0.9948 0.9891
1.2066 2.2648 -0.9948 0.9891
1.1733 2.2822 -0.9948 0.9891
1.1398 2.2991 -0.9948 0.9891
1.0722 2.3314 -0.9948 0.9891
1.0380 2.3468 -0.9948 0.9891
0.9690 2.3761 -0.9948 0.9891
0.8639 2.4163 -0.9948 0.9891
0.7930 2.4406 -0.9948 0.9891
0.7572 2.4519 -0.9948 0.9891
0.6853 2.4730 -0.9948 0.9891
0.5762 2.5006 -0.9949 0.9891
0.5397 2.5088 -0.9949 0.9891
0.5029 2.5165 -0.9949 0.9891
0.3922 2.5361 -0.9949 0.9891
0.3179 2.5464 -0.9949 0.9891
0.2806 2.5508 -0.9949 0.9891
0.2433 2.5547 -0.9949 0.9891
0.2060 2.5579 -0.9949 0.9891
0.1686 2.5607 -0.9949 0.9891
0.0937 2.5645 -0.9949 0.9891
0.0562 2.5656 -0.9949 0.9891
-0.0187 2.5662 -0.9949 0.9891
-0.0562 2.5656 -0.9949 0.9891
-0.0937 2.5646 -0.9949 0.9891
-0.1312 2.5629 -0.9949 0.9891
-0.1686 2.5607 -0.9949 0.9891
-0.2060 2.5580 -0.9949 0.9891
-0.3179 2.5466 -0.9949 0.9891
-0.3551 2.5416 -0.9949 0.9891
-0.3922 2.5361 -0.9949 0.9891
-0.4661 2.5236 -0.9949 0.9891
-0.1161 0.5812 -0.2297 0.9975
-0.1401 0.5361 -0.2148 0.9976
-0.1518 0.5182 -0.2093 0.9977
-0.1730 0.4839 -0.1992 0.9978
-0.2125 0.4133 -0.1801 0.9980
-0.2303 0.3774 -0.1714 0.9981
-0.2430 0.3504 -0.1653 0.9982
-0.2489 0.3373 -0.1625 0.9982
-0.2516 0.3309 -0.1611 0.9982
-0.2595 0.3119 -0.1573 0.9983
-0.2640 0.2990 -0.1546 0.9983
-0.2679 0.2862 -0.1520 0.9983
-0.2716 0.2736 -0.1495 0.9983
-0.2734 0.2675 -0.1483 0.9984
-0.2797 0.2434 -0.1437 0.9984
-0.2826 0.2317 -0.1417 0.9984
-0.2839 0.2259 -0.1407 0.9984
-0.2852 0.2202 -0.1397 0.9985
-0.2876 0.2090 -0.1378 0.9985
-0.2982 0.1616 -0.1315 0.9985
-0.3001 0.1516 -0.1304 0.9986
-0.3011 0.1466 -0.1298 0.9986
-0.3020 0.1416 -0.1293 0.9986
-0.3028 0.1366 -0.1288 0.9986
-0.3036 0.1316 -0.1283 0.9986
-0.3049 0.1218 -0.1273 0.9986
-0.3060 0.1120 -0.1263 0.9986
-0.3066 0.1071 -0.1259 0.9986
-0.3075 0.0975 -0.1251 0.9986
-0.3093 0.0737 -0.1233 0.9986
-0.3101 0.0550 -0.1221 0.9986
-0.3102 0.0504 -0.1218 0.9987
-0.3103 0.0457 -0.1216 0.9987
-0.3104 0.0365 -0.1212 0.9987
-0.3104 0.0319 -0.1210 0.9987
-0.3102 0.0182 -0.1205 0.9987
-0.3099 0.0091 -0.1202 0.9987
-0.3097 0.0046 -0.1201 0.9987
-0.3048 0.0000 -0.1221 0.9987
-0.3050 -0.0044 -0.1222 0.9987
-0.3053 -0.0134 -0.1224 0.9987
-0.3055 -0.0178 -0.1225 0.9987
-0.3055 -0.0223 -0.1227 0.9987
-0.3056 -0.0268 -0.1229 0.9987
-0.3056 -0.0313 -0.1230 0.9987
-0.3056 -0.0358 -0.1232 0.9987
-0.3053 -0.0541 -0.1242 0.9987
-0.3047 -0.0678 -0.1250 0.9987
-0.3044 -0.0725 -0.1253 0.9987
-0.3041 -0.0771 -0.1257 0.9986
-0.3038 -0.0818 -0.1260 0.9986
-0.3017 -0.1053 -0.1280 0.9986
-0.3011 -0.1101 -0.1284 0.9986
-0.3005 -0.1149 -0.1289 0.9986
-0.2993 -0.1246 -0.1298 0.9986
-0.2986 -0.1295 -0.1303 0.9986
-0.2979 -0.1343 -0.1309 0.9986
-0.2961 -0.1441 -0.1319 0.9986
-0.2951 -0.1490 -0.1324 0.9986
-0.2931 -0.1589 -0.1335 0.9986
-0.2921 -0.1639 -0.1341 0.9986
-0.2909 -0.1689 -0.1347 0.9986
-0.2898 -0.1739 -0.1353 0.9985
-0.2886 -0.1790 -0.1360 0.9985
-0.2847 -0.1943 -0.1380 0.9985
-0.2835 -0.1997 -0.1389 0.9985
-0.2773 -0.2273 -0.1436 0.9985
-0.2744 -0.2387 -0.1457 0.9984
-0.2729 -0.2445 -0.1467 0.9984
-0.2713 -0.2503 -0.1478 0.9984
-0.2662 -0.2681 -0.1513 0.9984
-0.2585 -0.2928 -0.1564 0.9983
-0.2565 -0.2991 -0.1578 0.9983
-0.2517 -0.3116 -0.1604 0.9983
-0.2464 -0.3239 -0.1630 0.9982
-0.2436 -0.3302 -0.1643 0.9982
-0.2408 -0.3366 -0.1657 0.9982
-0.2378 -0.3429 -0.1671 0.9982
-0.2317 -0.3558 -0.1701 0.9982
-0.2285 -0.3624 -0.1716 0.9982
-0.2253 -0.3691 -0.1732 0.9981
-0.2219 -0.3757 -0.1748 0.9981
-0.2184 -0.3825 -0.1764 0.9981
-0.2112 -0.3964 -0.1799 0.9981
-0.1997 -0.4180 -0.1855 0.9980
-0.1871 -0.4402 -0.1916 0.9979
-0.1781 -0.4556 -0.1959 0.9979
-0.1734 -0.4634 -0.1982 0.9979
-0.1635 -0.4793 -0.2028 0.9978
-0.1531 -0.4957 -0.2078 0.9978
-0.1477 -0.5040 -0.2104 0.9977
-0.1303 -0.5298 -0.2185 0.9977
-0.1241 -0.5387 -0.2214 0.9976
-0.1178 -0.5476 -0.2243 0.9976
-0.1113 -0.5567 -0.2274 0.9976
-0.4091 -2.4117 -0.9797 0.9895
-0.3385 -2.4226 -0.9797 0.9895
-0.3031 -2.4273 -0.9797 0.9895
-0.2320 -2.4351 -0.9796 0.9895
-0.1964 -2.4382 -0.9796 0.9895
-0.1607 -2.4409 -0.9796 0.9895
-0.0893 -2.4445 -0.9796 0.9895
-0.0536 -2.4455 -0.9796 0.9895
0.1964 -2.4381 -0.9796 0.9895
0.2320 -2.4350 -0.9796 0.9895
0.3030 -2.4272 -0.9796 0.9895
0.3385 -2.4225 -0.9796 0.9895
0.4091 -2.4116 -0.9796 0.9895
0.5144 -2.3914 -0.9796 0.9895
0.5493 -2.3835 -0.9796 0.9895
0.5840 -2.3753 -0.9796 0.9895
0.6532 -2.3572 -0.9796 0.9895
0.6876 -2.3474 -0.9796 0.9895
0.7218 -2.3371 -0.9796 0.9895
0.7558 -2.3263 -0.9796 0.9895
0.7898 -2.3150 -0.9796 0.9895
0.8905 -2.2782 -0.9796 0.9895
0.9567 -2.2512 -0.9796 0.9895
0.9895 -2.2370 -0.9796 0.9895
1.0865 -2.1914 -0.9796 0.9895
1.1815 -2.1417 -0.9796 0.9895
1.2881 -2.1107 -0.9903 0.9894
1.3554 -2.0816 -0.9948 0.9894
1.4157 -2.0411 -0.9948 0.9894
1.5325 -1.9549 -0.9948 0.9894
1.5609 -1.9323 -0.9948 0.9894
1.5889 -1.9093 -0.9948 0.9894
1.6167 -1.8859 -0.9948 0.9894
1.6441 -1.8621 -0.9948 0.9894
1.6711 -1.8378 -0.9948 0.9894
1.6978 -1.8132 -0.9948 0.9894
1.7500 -1.7629 -0.9948 0.9894
1.7756 -1.7371 -0.9948 0.9894
1.8008 -1.7109 -0.9948 0.9894
1.8256 -1.6845 -0.9948 0.9894
1.8740 -1.6303 -0.9948 0.9894
1.9208 -1.5749 -0.9948 0.9894
1.9437 -1.5467 -0.9948 0.9894
1.9661 -1.5181 -0.9948 0.9894
2.0716 -1.3705 -0.9948 0.9894
2.1108 -1.3094 -0.9948 0.9894
2.2173 -1.1196 -0.9948 0.9894
2.2334 -1.0870 -0.9948 0.9894
2.2642 -1.0213 -0.9948 0.9894
2.2931 -0.9547 -0.9948 0.9894
2.3068 -0.9211 -0.9948 0.9894
2.3200 -0.8873 -0.9948 0.9894
2.3327 -0.8533 -0.9948 0.9894
2.3567 -0.7848 -0.9948 0.9894
2.3888 -0.6807 -0.9948 0.9894
2.3985 -0.6458 -0.9948 0.9894
2.4163 -0.5754 -0.9948 0.9894
2.4245 -0.5400 -0.9948 0.9894
2.4321 -0.5046 -0.9948 0.9894
2.4625 -0.3257 -0.9948 0.9894
2.4709 -0.2536 -0.9948 0.9894
2.4815 -0.1088 -0.9948 0.9894
2.4836 -0.0362 -0.9948 0.9894
2.4836 0.0363 -0.9948 0.9894
2.4815 0.1089 -0.9948 0.9894
2.4773 0.1813 -0.9948 0.9894
2.4744 0.2175 -0.9948 0.9894
2.4709 0.2536 -0.9948 0.9894
2.4670 0.2897 -0.9948 0.9894
2.4625 0.3258 -0.9948 0.9894
2.4392 0.4691 -0.9948 0.9894
2.4245 0.5401 -0.9948 0.9894
2.4163 0.5755 -0.9948 0.9894
2.4076 0.6107 -0.9948 0.9894
2.3985 0.6459 -0.9948 0.9894
2.3888 0.6808 -0.9948 0.9894
2.3786 0.7156 -0.9948 0.9894
2.3679 0.7503 -0.9948 0.9894
2.3449 0.8192 -0.9948 0.9894
2.2789 0.9882 -0.9948 0.9894
2.2334 1.0871 -0.9948 0.9894
2.2173 1.1196 -0.9948 0.9894
2.2007 1.1520 -0.9948 0.9894
2.1297 1.2785 -0.9948 0.9894
2.1108 1.3095 -0.9948 0.9894
2.0096 1.4601 -0.9948 0.9894
1.9437 1.5467 -0.9948 0.9894
1.8740 1.6305 -0.9948 0.9894
1.8008 1.7110 -0.9948 0.9894
1.7756 1.7371 -0.9948 0.9894
1.7500 1.7629 -0.9948 0.9894
1.7241 1.7883 -0.9948 0.9894
1.6711 1.8379 -0.9948 0.9894
1.4747 1.9989 -0.9948 0.9894
1.4454 2.0203 -0.9948 0.9894
1.4157 2.0412 -0.9948 0.9894
1.3249 2.1013 -0.9948 0.9894
1.2941 2.1204 -0.9948 0.9894
1.2315 2.1573 -0.9948 0.9894
1.1999 2.1751 -0.9948 0.9894
1.1680 2.1923 -0.9948 0.9894
1.1034 2.2256 -0.9948 0.9894
1.0048 2.2718 -0.9948 0.9894
0.9380 2.3002 -0.9948 0.9894
0.8704 2.3266 -0.9948 0.9894
0.8363 2.3391 -0.9948 0.9894
0.5931 2.4123 -0.9949 0.9894
0.4512 2.4428 -0.9949 0.9894
0.3437 2.4602 -0.9949 0.9894
0.3077 2.4650 -0.9949 0.9894
0.2717 2.4693 -0.9949 0.9894
0.1994 2.4762 -0.9949 0.9894
0.1632 2.4789 -0.9949 0.9894
0.1270 2.4810 -0.9949 0.9894
0.0181 2.4841 -0.9949 0.9894
-0.0182 2.4841 -0.9949 0.9894
-0.0545 2.4836 -0.9949 0.9894
-0.0907 2.4826 -0.9949 0.9894
-0.1632 2.4789 -0.9949 0.9894
-0.1994 2.4762 -0.9949 0.9894
-0.3437 2.4603 -0.9949 0.9894
-0.4155 2.4493 -0.9949 0.9894
-0.1046 0.5661 -0.2305 0.9975
-0.1113 0.5568 -0.2274 0.9976
-0.1178 0.5477 -0.2243 0.9976
-0.1242 0.5387 -0.2214 0.9976
-0.1362 0.5212 -0.2157 0.9977
-0.1420 0.5126 -0.2130 0.9977
-0.1584 0.4875 -0.2053 0.9978
-0.1685 0.4714 -0.2005 0.9978
-0.1827 0.4479 -0.1937 0.9979
-0.1871 0.4404 -0.1916 0.9979
-0.1914 0.4328 -0.1895 0.9980
-0.1997 0.4180 -0.1855 0.9980
-0.2112 0.3965 -0.1799 0.9981
-0.2149 0.3895 -0.1781 0.9981
-0.2184 0.3826 -0.1764 0.9981
-0.2253 0.3691 -0.1732 0.9981
-0.2317 0.3559 -0.1701 0.9982
-0.2349 0.3494 -0.1686 0.9982
-0.2408 0.3366 -0.1657 0.9982
-0.2436 0.3303 -0.1643 0.9982
-0.2517 0.3116 -0.1604 0.9983
-0.2585 0.2929 -0.1564 0.9983
-0.2644 0.2743 -0.1526 0.9984
-0.2662 0.2682 -0.1513 0.9984
-0.2697 0.2562 -0.1490 0.9984
-0.2713 0.2504 -0.1478 0.9984
-0.2729 0.2445 -0.1467 0.9984
-0.2744 0.2387 -0.1457 0.9984
-0.2786 0.2218 -0.1426 0.9985
-0.2824 0.2052 -0.1398 0.9985
-0.2835 0.1997 -0.1389 0.9985
-0.2860 0.1893 -0.1373 0.9985
-0.2898 0.1740 -0.1353 0.9985
-0.2909 0.1689 -0.1347 0.9986
-0.2920 0.1639 -0.1341 0.9986
-0.2931 0.1589 -0.1335 0.9986
-0.2942 0.1540 -0.1330 0.9986
-0.2952 0.1491 -0.1324 0.9986
-0.2961 0.1441 -0.1319 0.9986
-0.2970 0.1393 -0.1314 0.9986
-0.2986 0.1295 -0.1303 0.9986
-0.2993 0.1246 -0.1298 0.9986
-0.3016 0.1054 -0.1280 0.9986
-0.3022 0.1006 -0.1275 0.9986
-0.3038 0.0818 -0.1260 0.9986
-0.3049 0.0633 -0.1247 0.9987
-0.3051 0.0587 -0.1244 0.9987
-0.3053 0.0541 -0.1242 0.9987
-0.3054 0.0495 -0.1239 0.9987
-0.3055 0.0450 -0.1237 0.9987
-0.3055 0.0224 -0.1227 0.9987
-0.3054 0.0179 -0.1225 0.9987
-0.3053 0.0134 -0.1224 0.9987
-0.3001 0.0000 -0.1241 0.9987
-0.3003 -0.0044 -0.1242 0.9987
-0.3005 -0.0088 -0.1243 0.9987
-0.3008 -0.0176 -0.1245 0.9987
-0.3008 -0.0220 -0.1247 0.9987
-0.3009 -0.0264 -0.1249 0.9987
-0.3008 -0.0443 -0.1257 0.9987
-0.3007 -0.0487 -0.1259 0.9987
-0.3006 -0.0532 -0.1262 0.9987
-0.3002 -0.0622 -0.1267 0.9987
-0.3000 -0.0668 -0.1270 0.9987
-0.2997 -0.0713 -0.1273 0.9987
-0.2990 -0.0805 -0.1280 0.9987
-0.2978 -0.0943 -0.1291 0.9986
-0.2963 -0.1084 -0.1304 0.9986
-0.2957 -0.1130 -0.1309 0.9986
-0.2944 -0.1225 -0.1318 0.9986
-0.2937 -0.1273 -0.1323 0.9986
-0.2930 -0.1321 -0.1329 0.9986
-0.2921 -0.1369 -0.1334 0.9986
-0.2912 -0.1417 -0.1339 0.9986
-0.2903 -0.1465 -0.1344 0.9986
-0.2860 -0.1661 -0.1367 0.9986
-0.2824 -0.1809 -0.1387 0.9985
-0.2784 -0.1961 -0.1408 0.9985
-0.2772 -0.2014 -0.1417 0.9985
-0.2760 -0.2067 -0.1426 0.9985
-0.2748 -0.2121 -0.1435 0.9985
-0.2735 -0.2175 -0.1445 0.9985
-0.2721 -0.2230 -0.1455 0.9985
-0.2707 -0.2286 -0.1465 0.9985
-0.2628 -0.2570 -0.1520 0.9984
-0.2592 -0.2687 -0.1544 0.9984
-0.2490 -0.2992 -0.1609 0.9983
-0.2414 -0.3173 -0.1648 0.9983
-0.2358 -0.3295 -0.1675 0.9982
-0.2329 -0.3357 -0.1689 0.9982
-0.2299 -0.3420 -0.1703 0.9982
-0.2268 -0.3482 -0.1718 0.9982
-0.2236 -0.3546 -0.1733 0.9982
-0.2170 -0.3675 -0.1764 0.9982
-0.2100 -0.3807 -0.1797 0.9981
-0.2064 -0.3874 -0.1815 0.9981
-0.1950 -0.4081 -0.1870 0.9980
-0.1910 -0.4152 -0.1889 0.9980
-0.1826 -0.4295 -0.1930 0.9980
-0.1737 -0.4442 -0.1972 0.9979
-0.1643 -0.4593 -0.2017 0.9979
-0.1593 -0.4670 -0.2040 0.9979
-0.1543 -0.4748 -0.2064 0.9978
-0.1325 -0.5069 -0.2166 0.9977
-0.1267 -0.5152 -0.2193 0.9977
-0.1207 -0.5236 -0.2221 0.9977
-0.1145 -0.5321 -0.2250 0.9976
-0.1015 -0.5495 -0.2310 0.9976
-0.3279 -2.3469 -0.9797 0.9898
-0.2592 -2.3555 -0.9796 0.9898
-0.1902 -2.3620 -0.9796 0.9898
-0.1557 -2.3646 -0.9796 0.9898
-0.1211 -2.3666 -0.9796 0.9898
-0.0866 -2.3681 -0.9796 0.9898
0.0865 -2.3681 -0.9796 0.9898
0.1557 -2.3645 -0.9796 0.9898
0.2247 -2.3590 -0.9796 0.9898
0.2935 -2.3513 -0.9796 0.9898
0.3279 -2.3468 -0.9796 0.9898
0.3621 -2.3418 -0.9796 0.9898
0.3963 -2.3363 -0.9796 0.9898
0.4644 -2.3237 -0.9796 0.9898
0.4983 -2.3166 -0.9796 0.9898
0.5658 -2.3011 -0.9796 0.9898
0.7322 -2.2536 -0.9796 0.9898
0.7651 -2.2427 -0.9796 0.9898
0.7978 -2.2312 -0.9796 0.9898
0.8948 -2.1941 -0.9796 0.9898
0.9585 -2.1670 -0.9796 0.9898
0.9901 -2.1528 -0.9796 0.9898
1.0214 -2.1381 -0.9796 0.9898
1.0547 -2.1274 -0.9816 0.9898
1.1256 -2.1128 -0.9897 0.9897
1.1613 -2.1052 -0.9939 0.9896
1.2536 -2.0541 -0.9948 0.9896
1.2835 -2.0355 -0.9948 0.9896
1.3131 -2.0166 -0.9948 0.9896
1.4286 -1.9364 -0.9948 0.9896
1.5393 -1.8496 -0.9948 0.9896
1.5927 -1.8038 -0.9948 0.9896
1.6189 -1.7804 -0.9948 0.9896
1.6447 -1.7566 -0.9948 0.9896
1.6702 -1.7323 -0.9948 0.9896
1.7201 -1.6828 -0.9948 0.9896
1.8829 -1.4984 -0.9948 0.9896
1.9046 -1.4707 -0.9948 0.9896
1.9468 -1.4144 -0.9948 0.9896
1.9873 -1.3569 -0.9948 0.9896
2.0448 -1.2685 -0.9948 0.9896
2.0631 -1.2385 -0.9948 0.9896
2.0810 -1.2082 -0.9948 0.9896
2.0984 -1.1777 -0.9948 0.9896
2.1319 -1.1159 -0.9948 0.9896
2.1480 -1.0846 -0.9948 0.9896
2.1636 -1.0531 -0.9948 0.9896
2.1788 -1.0213 -0.9948 0.9896
2.2077 -0.9573 -0.9948 0.9896
2.2215 -0.9249 -0.9948 0.9896
2.2475 -0.8596 -0.9948 0.9896
2.2599 -0.8266 -0.9948 0.9896
2.2939 -0.7268 -0.9948 0.9896
2.3043 -0.6932 -0.9948 0.9896
2.3142 -0.6595 -0.9948 0.9896
2.3235 -0.6256 -0.9948 0.9896
2.3408 -0.5574 -0.9948 0.9896
2.3487 -0.5232 -0.9948 0.9896
2.3753 -0.3851 -0.9948 0.9896
2.3855 -0.3155 -0.9948 0.9896
2.3937 -0.2457 -0.9948 0.9896
2.4022 -0.1405 -0.9948 0.9896
2.4040 -0.1054 -0.9948 0.9896
2.4063 0.0000 -0.9948 0.9896
2.4060 0.0352 -0.9948 0.9896
2.4040 0.1055 -0.9948 0.9896
2.3971 0.2107 -0.9948 0.9896
2.3937 0.2457 -0.9948 0.9896
2.3753 0.3852 -0.9948 0.9896
2.3694 0.4198 -0.9948 0.9896
2.3561 0.4888 -0.9948 0.9896
2.3487 0.5232 -0.9948 0.9896
2.3236 0.6257 -0.9948 0.9896
2.3043 0.6933 -0.9948 0.9896
2.2831 0.7603 -0.9948 0.9896
2.2599 0.8267 -0.9948 0.9896
2.2347 0.8924 -0.9948 0.9896
2.2077 0.9573 -0.9948 0.9896
2.1320 1.1159 -0.9948 0.9896
2.0985 1.1778 -0.9948 0.9896
2.0810 1.2083 -0.9948 0.9896
2.0632 1.2386 -0.9948 0.9896
2.0448 1.2686 -0.9948 0.9896
2.0069 1.3278 -0.9948 0.9896
1.9672 1.3858 -0.9948 0.9896
1.9468 1.4145 -0.9948 0.9896
1.8829 1.4984 -0.9948 0.9896
1.8154 1.5795 -0.9948 0.9896
1.7922 1.6059 -0.9948 0.9896
1.7445 1.6576 -0.9948 0.9896
1.6953 1.7078 -0.9948 0.9896
1.6447 1.7566 -0.9948 0.9896
1.6189 1.7805 -0.9948 0.9896
1.5927 1.8039 -0.9948 0.9896
1.5393 1.8497 -0.9948 0.9896
1.5121 1.8720 -0.9948 0.9896
1.4846 1.8939 -0.9948 0.9896
1.3131 2.0166 -0.9948 0.9896
1.2235 2.0723 -0.9948 0.9896
1.1931 2.0899 -0.9948 0.9896
1.0690 2.1560 -0.9948 0.9896
1.0055 2.1864 -0.9948 0.9896
0.9734 2.2009 -0.9948 0.9896
0.9412 2.2148 -0.9948 0.9896
0.9087 2.2283 -0.9948 0.9896
0.7770 2.2776 -0.9948 0.9896
0.7101 2.2994 -0.9948 0.9896
0.6426 2.3191 -0.9949 0.9896
0.5746 2.3369 -0.9949 0.9896
0.5404 2.3451 -0.9949 0.9896
0.5061 2.3527 -0.9949 0.9896
0.4371 2.3665 -0.9949 0.9896
0.3678 2.3783 -0.9949 0.9896
0.2282 2.3957 -0.9949 0.9896
0.1932 2.3988 -0.9949 0.9896
0.0527 2.4060 -0.9949 0.9896
-0.0176 2.4065 -0.9949 0.9896
-0.0528 2.4060 -0.9949 0.9896
-0.1230 2.4034 -0.9949 0.9896
-0.1581 2.4014 -0.9949 0.9896
-0.1932 2.3989 -0.9949 0.9896
-0.2981 2.3881 -0.9949 0.9896
-0.3330 2.3835 -0.9949 0.9896
-0.1081 0.5408 -0.2280 0.9976
-0.1145 0.5321 -0.2250 0.9976
-0.1325 0.5070 -0.2166 0.9977
-0.1382 0.4988 -0.2139 0.9978
-0.1690 0.4518 -0.1994 0.9979
-0.1737 0.4443 -0.1972 0.9979
-0.1868 0.4224 -0.1909 0.9980
-0.1910 0.4152 -0.1889 0.9980
-0.1950 0.4082 -0.1870 0.9980
-0.1989 0.4012 -0.1851 0.9981
-0.2027 0.3943 -0.1833 0.9981
-0.2064 0.3875 -0.1815 0.9981
-0.2135 0.3741 -0.1781 0.9981
-0.2299 0.3420 -0.1703 0.9982
-0.2386 0.3234 -0.1661 0.9983
-0.2440 0.3113 -0.1635 0.9983
-0.2490 0.2993 -0.1609 0.9983
-0.2553 0.2808 -0.1569 0.9984
-0.2573 0.2748 -0.1556 0.9984
-0.2592 0.2688 -0.1544 0.9984
-0.2610 0.2629 -0.1531 0.9984
-0.2628 0.2571 -0.1520 0.9984
-0.2645 0.2513 -0.1508 0.9984
-0.2661 0.2455 -0.1497 0.9984
-0.2692 0.2342 -0.1475 0.9985
-0.2707 0.2287 -0.1465 0.9985
-0.2721 0.2231 -0.1455 0.9985
-0.2748 0.2122 -0.1435 0.9985
-0.2772 0.2014 -0.1417 0.9985
-0.2784 0.1962 -0.1408 0.9985
-0.2798 0.1911 -0.1400 0.9985
-0.2811 0.1860 -0.1393 0.9985
-0.2824 0.1810 -0.1387 0.9985
-0.2837 0.1760 -0.1380 0.9986
-0.2871 0.1612 -0.1361 0.9986
-0.2902 0.1466 -0.1344 0.9986
-0.2912 0.1418 -0.1339 0.9986
-0.2921 0.1370 -0.1334 0.9986
-0.2944 0.1226 -0.1318 0.9986
-0.2951 0.1179 -0.1313 0.9986
-0.2957 0.1131 -0.1309 0.9986
-0.2973 0.0991 -0.1296 0.9986
-0.2978 0.0944 -0.1291 0.9986
-0.2983 0.0898 -0.1288 0.9987
-0.2997 0.0714 -0.1273 0.9987
-0.3000 0.0669 -0.1270 0.9987
-0.3002 0.0623 -0.1267 0.9987
-0.3004 0.0578 -0.1264 0.9987
-0.3006 0.0533 -0.1262 0.9987
-0.3009 0.0398 -0.1255 0.9987
-0.3009 0.0354 -0.1253 0.9987
-0.3009 0.0265 -0.1249 0.9987
-0.3009 0.0220 -0.1247 0.9987
-0.3005 0.0088 -0.1243 0.9987
-0.2956 0.0000 -0.1260 0.9987
-0.2963 -0.0260 -0.1268 0.9987
-0.2963 -0.0304 -0.1270 0.9987
-0.2963 -0.0348 -0.1272 0.9987
-0.2958 -0.0568 -0.1284 0.9987
-0.2953 -0.0657 -0.1290 0.9987
-0.2944 -0.0792 -0.1300 0.9987
-0.2936 -0.0883 -0.1307 0.9987
-0.2931 -0.0929 -0.1311 0.9987
-0.2910 -0.1112 -0.1328 0.9986
-0.2903 -0.1159 -0.1333 0.9986
-0.2845 -0.1489 -0.1369 0.9986
-0.2835 -0.1537 -0.1375 0.9986
-0.2824 -0.1585 -0.1381 0.9986
-0.2801 -0.1681 -0.1393 0.9986
-0.2789 -0.1730 -0.1399 0.9986
-0.2763 -0.1827 -0.1413 0.9986
-0.2736 -0.1927 -0.1427 0.9985
-0.2722 -0.1978 -0.1435 0.9985
-0.2698 -0.2082 -0.1453 0.9985
-0.2684 -0.2136 -0.1463 0.9985
-0.2656 -0.2243 -0.1483 0.9985
-0.2626 -0.2353 -0.1504 0.9985
-0.2577 -0.2521 -0.1537 0.9984
-0.2559 -0.2577 -0.1549 0.9984
-0.2522 -0.2693 -0.1574 0.9984
-0.2502 -0.2752 -0.1586 0.9984
-0.2482 -0.2811 -0.1599 0.9984
-0.2461 -0.2871 -0.1613 0.9984
-0.2309 -0.3227 -0.1692 0.9983
-0.2123 -0.3595 -0.1781 0.9982
-0.2089 -0.3659 -0.1797 0.9982
-0.2018 -0.3787 -0.1830 0.9981
-0.1904 -0.3986 -0.1884 0.9981
-0.1782 -0.4192 -0.1943 0.9980
-0.1739 -0.4262 -0.1963 0.9980
-0.1649 -0.4405 -0.2006 0.9980
-0.1601 -0.4478 -0.2028 0.9979
-0.1553 -0.4552 -0.2051 0.9979
-0.1503 -0.4626 -0.2074 0.9979
-0.1452 -0.4702 -0.2098 0.9979
-0.1346 -0.4855 -0.2148 0.9978
-0.1233 -0.5012 -0.2201 0.9978
-0.1174 -0.5091 -0.2228 0.9977
-0.1113 -0.5173 -0.2256 0.9977
-0.0986 -0.5338 -0.2315 0.9976
-0.0920 -0.5422 -0.2345 0.9976
-0.3511 -2.2703 -0.9797 0.9901
-0.3179 -2.2752 -0.9797 0.9901
-0.1174 -2.2942 -0.9796 0.9901
-0.0506 -2.2968 -0.9797 0.9901
0.0839 -2.2957 -0.9796 0.9901
0.1174 -2.2942 -0.9796 0.9901
0.3178 -2.2751 -0.9796 0.9901
0.3511 -2.2702 -0.9796 0.9901
0.4173 -2.2590 -0.9796 0.9901
0.4831 -2.2458 -0.9796 0.9901
0.5810 -2.2225 -0.9796 0.9901
0.6457 -2.2046 -0.9796 0.9901
0.6779 -2.1948 -0.9796 0.9901
0.7099 -2.1847 -0.9796 0.9901
0.8049 -2.1515 -0.9796 0.9901
0.8363 -2.1395 -0.9796 0.9901
0.8686 -2.1300 -0.9809 0.9900
0.9026 -2.1240 -0.9842 0.9900
0.9711 -2.1114 -0.9911 0.9899
1.0055 -2.1048 -0.9947 0.9899
1.0363 -2.0901 -0.9948 0.9899
1.0969 -2.0589 -0.9948 0.9899
1.1268 -2.0427 -0.9948 0.9899
1.1566 -2.0260 -0.9948 0.9899
1.2153 -1.9912 -0.9948 0.9899
1.2442 -1.9733 -0.9948 0.9899
1.2729 -1.9549 -0.9948 0.9899
1.3014 -1.9362 -0.9948 0.9899
1.3295 -1.9168 -0.9948 0.9899
1.3574 -1.8973 -0.9948 0.9899
1.3850 -1.8772 -0.9948 0.9899
1.4392 -1.8360 -0.9948 0.9899
1.4659 -1.8147 -0.9948 0.9899
1.5183 -1.7711 -0.9948 0.9899
1.5440 -1.7487 -0.9948 0.9899
1.6192 -1.6794 -0.9948 0.9899
1.6912 -1.6068 -0.9948 0.9899
1.7145 -1.5819 -0.9948 0.9899
1.7821 -1.5053 -0.9948 0.9899
1.8254 -1.4526 -0.9948 0.9899
1.8670 -1.3986 -0.9948 0.9899
1.9071 -1.3434 -0.9948 0.9899
1.9265 -1.3154 -0.9948 0.9899
2.0001 -1.2006 -0.9948 0.9899
2.0343 -1.1416 -0.9948 0.9899
2.0508 -1.1118 -0.9948 0.9899
2.0668 -1.0817 -0.9948 0.9899
2.0824 -1.0514 -0.9948 0.9899
2.1664 -0.8651 -0.9948 0.9899
2.1908 -0.8014 -0.9948 0.9899
2.2238 -0.7046 -0.9948 0.9899
2.2339 -0.6720 -0.9948 0.9899
2.2434 -0.6393 -0.9948 0.9899
2.2525 -0.6065 -0.9948 0.9899
2.2612 -0.5735 -0.9948 0.9899
2.2693 -0.5404 -0.9948 0.9899
2.2769 -0.5072 -0.9948 0.9899
2.2841 -0.4739 -0.9948 0.9899
2.2908 -0.4404 -0.9948 0.9899
2.3027 -0.3733 -0.9948 0.9899
2.3126 -0.3059 -0.9948 0.9899
2.3168 -0.2720 -0.9948 0.9899
2.3238 -0.2042 -0.9948 0.9899
2.3288 -0.1363 -0.9948 0.9899
2.3317 -0.0681 -0.9948 0.9899
2.3327 0.0001 -0.9948 0.9899
2.3318 0.0682 -0.9948 0.9899
2.3305 0.1022 -0.9948 0.9899
2.3288 0.1363 -0.9948 0.9899
2.3265 0.1704 -0.9948 0.9899
2.3238 0.2043 -0.9948 0.9899
2.3206 0.2382 -0.9948 0.9899
2.3126 0.3059 -0.9948 0.9899
2.3079 0.3397 -0.9948 0.9899
2.2970 0.4070 -0.9948 0.9899
2.2908 0.4405 -0.9948 0.9899
2.2769 0.5073 -0.9948 0.9899
2.2693 0.5405 -0.9948 0.9899
2.2612 0.5736 -0.9948 0.9899
2.2526 0.6065 -0.9948 0.9899
2.2434 0.6394 -0.9948 0.9899
2.2339 0.6721 -0.9948 0.9899
2.2133 0.7371 -0.9948 0.9899
2.1908 0.8014 -0.9948 0.9899
2.1789 0.8334 -0.9948 0.9899
2.1264 0.9592 -0.9948 0.9899
2.0975 1.0209 -0.9948 0.9899
2.0824 1.0515 -0.9948 0.9899
2.0668 1.0818 -0.9948 0.9899
2.0508 1.1119 -0.9948 0.9899
2.0343 1.1418 -0.9948 0.9899
1.9823 1.2298 -0.9948 0.9899
1.8873 1.3712 -0.9948 0.9899
1.8464 1.4258 -0.9948 0.9899
1.8254 1.4526 -0.9948 0.9899
1.7821 1.5053 -0.9948 0.9899
1.7600 1.5312 -0.9948 0.9899
1.7145 1.5820 -0.9948 0.9899
1.6675 1.6314 -0.9948 0.9899
1.5694 1.7260 -0.9948 0.9899
1.5440 1.7488 -0.9948 0.9899
1.5183 1.7712 -0.9948 0.9899
1.4922 1.7932 -0.9948 0.9899
1.4123 1.8568 -0.9948 0.9899
1.3574 1.8973 -0.9948 0.9899
1.3014 1.9362 -0.9948 0.9899
1.2729 1.9550 -0.9948 0.9899
1.2153 1.9914 -0.9948 0.9899
1.0969 2.0589 -0.9948 0.9899
1.0667 2.0748 -0.9948 0.9899
1.0056 2.1051 -0.9948 0.9899
0.9748 2.1195 -0.9948 0.9899
0.9124 2.1471 -0.9948 0.9899
0.8493 2.1729 -0.9948 0.9899
0.8175 2.1851 -0.9948 0.9899
0.7854 2.1968 -0.9948 0.9899
0.7209 2.2188 -0.9948 0.9899
0.6884 2.2291 -0.9948 0.9899
0.6558 2.2389 -0.9948 0.9899
0.6230 2.2482 -0.9949 0.9899
0.5900 2.2571 -0.9949 0.9899
0.5570 2.2655 -0.9949 0.9899
0.4906 2.2809 -0.9949 0.9899
0.4572 2.2877 -0.9949 0.9899
0.3902 2.3002 -0.9949 0.9899
0.3565 2.3055 -0.9949 0.9899
0.2551 2.3190 -0.9949 0.9899
0.2213 2.3225 -0.9949 0.9899
0.0852 2.3314 -0.9949 0.9899
0.0511 2.3325 -0.9949 0.9899
0.0171 2.3330 -0.9949 0.9899
-0.0170 2.3330 -0.9949 0.9899
-0.0852 2.3315 -0.9949 0.9899
-0.1533 2.3280 -0.9949 0.9899
-0.2212 2.3225 -0.9949 0.9899
-0.2552 2.3191 -0.9949 0.9899
-0.3566 2.3057 -0.9949 0.9899
-0.1050 0.5255 -0.2285 0.9977
-0.1113 0.5173 -0.2256 0.9977
-0.1233 0.5012 -0.2201 0.9978
-0.1290 0.4934 -0.2174 0.9978
-0.1345 0.4855 -0.2148 0.9978
-0.1452 0.4702 -0.2098 0.9979
-0.1503 0.4627 -0.2074 0.9979
-0.1553 0.4552 -0.2051 0.9979
-0.1648 0.4406 -0.2006 0.9980
-0.1694 0.4334 -0.1984 0.9980
-0.1739 0.4263 -0.1963 0.9980
-0.1824 0.4124 -0.1923 0.9980
-0.1865 0.4055 -0.1903 0.9981
-0.1905 0.3987 -0.1884 0.9981
-0.1981 0.3853 -0.1847 0.9981
-0.2123 0.3596 -0.1781 0.9982
-0.2156 0.3534 -0.1765 0.9982
-0.2189 0.3471 -0.1750 0.9982
-0.2309 0.3228 -0.1692 0.9983
-0.2365 0.3109 -0.1666 0.9983
-0.2440 0.2932 -0.1626 0.9983
-0.2461 0.2871 -0.1613 0.9984
-0.2482 0.2812 -0.1599 0.9984
-0.2503 0.2753 -0.1586 0.9984
-0.2522 0.2694 -0.1574 0.9984
-0.2559 0.2579 -0.1549 0.9984
-0.2626 0.2353 -0.1504 0.9985
-0.2642 0.2298 -0.1493 0.9985
-0.2671 0.2190 -0.1473 0.9985
-0.2684 0.2137 -0.1463 0.9985
-0.2697 0.2083 -0.1453 0.9985
-0.2736 0.1928 -0.1427 0.9985
-0.2763 0.1828 -0.1413 0.9986
-0.2776 0.1779 -0.1406 0.9986
-0.2789 0.1730 -0.1399 0.9986
-0.2801 0.1682 -0.1393 0.9986
-0.2813 0.1633 -0.1387 0.9986
-0.2824 0.1585 -0.1381 0.9986
-0.2855 0.1442 -0.1364 0.9986
-0.2882 0.1300 -0.1348 0.9986
-0.2890 0.1253 -0.1343 0.9986
-0.2897 0.1206 -0.1338 0.9986
-0.2903 0.1160 -0.1333 0.9986
-0.2916 0.1067 -0.1324 0.9987
-0.2921 0.1021 -0.1319 0.9987
-0.2931 0.0929 -0.1311 0.9987
-0.2936 0.0884 -0.1307 0.9987
-0.2944 0.0793 -0.1300 0.9987
-0.2947 0.0748 -0.1296 0.9987
-0.2950 0.0703 -0.1293 0.9987
-0.2953 0.0658 -0.1290 0.9987
-0.2955 0.0613 -0.1287 0.9987
-0.2963 0.0348 -0.1272 0.9987
-0.2963 0.0261 -0.1268 0.9987
-0.2962 0.0174 -0.1265 0.9987
-0.2961 0.0130 -0.1264 0.9987
-0.2960 0.0087 -0.1263 0.9987
-0.2958 0.0044 -0.1261 0.9987
-0.2911 0.0000 -0.1280 0.9987
-0.2913 -0.0042 -0.1281 0.9987
-0.2916 -0.0127 -0.1283 0.9987
-0.2917 -0.0170 -0.1285 0.9987
-0.2918 -0.0256 -0.1288 0.9987
-0.2912 -0.0559 -0.1304 0.9987
-0.2910 -0.0603 -0.1306 0.9987
-0.2908 -0.0647 -0.1309 0.9987
-0.2905 -0.0691 -0.1313 0.9987
-0.2898 -0.0780 -0.1319 0.9987
-0.2894 -0.0824 -0.1323 0.9987
-0.2890 -0.0869 -0.1327 0.9987
-0.2880 -0.0959 -0.1335 0.9987
-0.2875 -0.1004 -0.1339 0.9987
-0.2870 -0.1049 -0.1343 0.9987
-0.2864 -0.1095 -0.1348 0.9987
-0.2836 -0.1279 -0.1368 0.9986
-0.2827 -0.1325 -0.1373 0.9986
-0.2818 -0.1371 -0.1378 0.9986
-0.2799 -0.1464 -0.1388 0.9986
-0.2754 -0.1653 -0.1412 0.9986
-0.2742 -0.1701 -0.1419 0.9986
-0.2730 -0.1748 -0.1425 0.9986
-0.2717 -0.1797 -0.1432 0.9986
-0.2689 -0.1894 -0.1446 0.9986
-0.2675 -0.1943 -0.1453 0.9986
-0.2662 -0.1993 -0.1462 0.9985
-0.2649 -0.2045 -0.1471 0.9985
-0.2622 -0.2149 -0.1490 0.9985
-0.2577 -0.2309 -0.1521 0.9985
-0.2561 -0.2363 -0.1532 0.9985
-0.2545 -0.2418 -0.1543 0.9985
-0.2528 -0.2472 -0.1554 0.9985
-0.2473 -0.2641 -0.1590 0.9984
-0.2453 -0.2698 -0.1603 0.9984
-0.2412 -0.2813 -0.1629 0.9984
-0.2391 -0.2872 -0.1643 0.9984
-0.2368 -0.2931 -0.1657 0.9984
-0.2317 -0.3046 -0.1683 0.9983
-0.2290 -0.3104 -0.1696 0.9983
-0.2204 -0.3279 -0.1737 0.9983
-0.2142 -0.3398 -0.1766 0.9982
-0.2110 -0.3457 -0.1781 0.9982
-0.2078 -0.3518 -0.1796 0.9982
-0.2044 -0.3579 -0.1812 0.9982
-0.2009 -0.3641 -0.1828 0.9982
-0.1974 -0.3704 -0.1845 0.9982
-0.1937 -0.3766 -0.1862 0.9982
-0.1899 -0.3830 -0.1879 0.9981
-0.1861 -0.3895 -0.1898 0.9981
-0.1781 -0.4026 -0.1936 0.9981
-0.1697 -0.4161 -0.1976 0.9980
-0.1562 -0.4368 -0.2039 0.9980
-0.1514 -0.4438 -0.2062 0.9980
-0.1310 -0.4728 -0.2157 0.9979
-0.1256 -0.4803 -0.2182 0.9978
-0.1200 -0.4878 -0.2208 0.9978
-0.1083 -0.5031 -0.2263 0.9978
-0.1021 -0.5109 -0.2291 0.9977
-0.2761 -2.2113 -0.9797 0.9903
-0.2437 -2.2151 -0.9796 0.9903
-0.2114 -2.2184 -0.9796 0.9903
-0.1464 -2.2237 -0.9796 0.9903
-0.1140 -2.2256 -0.9796 0.9903
-0.0163 -2.2284 -0.9796 0.9903
0.0163 -2.2284 -0.9796 0.9903
0.0814 -2.2270 -0.9796 0.9903
0.1139 -2.2255 -0.9796 0.9903
0.1464 -2.2236 -0.9796 0.9903
0.1789 -2.2213 -0.9796 0.9903
0.2113 -2.2184 -0.9796 0.9903
0.2761 -2.2113 -0.9796 0.9903
0.3083 -2.2070 -0.9796 0.9903
0.3405 -2.2023 -0.9796 0.9903
0.3727 -2.1970 -0.9796 0.9903
0.4367 -2.1852 -0.9796 0.9903
0.4686 -2.1786 -0.9796 0.9903
0.5004 -2.1715 -0.9796 0.9903
0.5321 -2.1639 -0.9796 0.9903
0.5951 -2.1475 -0.9796 0.9903
0.6583 -2.1317 -0.9808 0.9903
0.7570 -2.1174 -0.9885 0.9902
0.7902 -2.1121 -0.9914 0.9902
0.8851 -2.0827 -0.9948 0.9902
0.9154 -2.0696 -0.9948 0.9902
0.9456 -2.0560 -0.9948 0.9902
1.0641 -1.9973 -0.9948 0.9902
1.0931 -1.9815 -0.9948 0.9902
1.1219 -1.9653 -0.9948 0.9902
1.1506 -1.9487 -0.9948 0.9902
1.2070 -1.9142 -0.9948 0.9902
1.2348 -1.8964 -0.9948 0.9902
1.3168 -1.8405 -0.9948 0.9902
1.3435 -1.8210 -0.9948 0.9902
1.3700 -1.8012 -0.9948 0.9902
1.3961 -1.7810 -0.9948 0.9902
1.4978 -1.6964 -0.9948 0.9902
1.5467 -1.6519 -0.9948 0.9902
1.5707 -1.6291 -0.9948 0.9902
1.6176 -1.5825 -0.9948 0.9902
1.6854 -1.5101 -0.9948 0.9902
