ply
format ascii 1.0
element vertex 1577
property float32 x
property float32 y
property float32 z
property float32 I
end_header
-1.0863 -2.7792 -0.0785 0.9881
-1.0075 -2.8179 -0.0788 0.9881
-0.9546 -2.7981 -0.0778 0.9882
-0.8868 -2.8716 -0.0791 0.9880
-0.6858 -2.9761 -0.0804 0.9879
-0.6445 -2.9964 -0.0807 0.9878
-0.5968 -2.9862 -0.0802 0.9879
-0.5223 -2.8278 -0.0757 0.9886
-0.4207 -2.7207 -0.0725 0.9890
-0.3476 -2.7842 -0.0739 0.9888
-0.2647 -2.7784 -0.0735 0.9889
-0.2183 -2.7102 -0.0716 0.9892
-0.1832 -2.7825 -0.0734 0.9889
-0.1405 -2.7449 -0.0724 0.9891
-0.0219 -2.9918 -0.0788 0.9881
0.0218 -2.9869 -0.0786 0.9881
0.0654 -2.9820 -0.0785 0.9881
0.1088 -2.9771 -0.0784 0.9882
0.5690 -8.6409 -0.2280 0.9659
0.6907 -8.5759 -0.2265 0.9662
0.8168 -8.5747 -0.2267 0.9661
0.9433 -8.5734 -0.2271 0.9661
1.1974 -8.5708 -0.2278 0.9660
1.7121 -8.5667 -0.2300 0.9656
2.9235 -8.5696 -0.2384 0.9644
3.0642 -8.5700 -0.2396 0.9642
3.3500 -8.5708 -0.2422 0.9638
3.4955 -8.5714 -0.2437 0.9636
3.7918 -8.5727 -0.2468 0.9632
3.9428 -8.5734 -0.2484 0.9629
4.0960 -8.5740 -0.2501 0.9627
14.9625 -30.1787 -0.8867 0.8739
15.5099 -30.1670 -0.8929 0.8731
16.0651 -30.1550 -0.8994 0.8722
17.2007 -30.1305 -0.9133 0.8704
18.3730 -30.1053 -0.9284 0.8684
6.4688 -9.6241 -0.3053 0.9547
6.4667 -9.3238 -0.2987 0.9556
6.9631 -8.8827 -0.2971 0.9558
7.1789 -8.8873 -0.3007 0.9553
25.9205 -26.8851 -0.9831 0.8612
26.3119 -26.5049 -0.9831 0.8612
10.1275 -9.9080 -0.3730 0.9449
3.6939 -3.4084 -0.1323 0.9801
3.8127 -3.3170 -0.1330 0.9800
4.0896 -2.7925 -0.1304 0.9804
4.3332 -2.7767 -0.1355 0.9796
4.3667 -2.7090 -0.1353 0.9796
13.8471 -8.3126 -0.4252 0.9374
7.1656 -4.1604 -0.2181 0.9674
6.7025 -3.7616 -0.2023 0.9697
6.7924 -3.6827 -0.2034 0.9696
6.8168 -3.4421 -0.2010 0.9699
6.7762 -3.2982 -0.1984 0.9703
6.9449 -3.2557 -0.2019 0.9698
7.1398 -2.9727 -0.2036 0.9695
7.3504 -2.9351 -0.2083 0.9688
7.5953 -2.6533 -0.2118 0.9683
7.6581 -2.5503 -0.2125 0.9682
7.7977 -2.4709 -0.2153 0.9678
8.0877 -2.4332 -0.2223 0.9668
9.6937 -2.6101 -0.2643 0.9606
10.9797 -2.7850 -0.2982 0.9557
11.3011 -2.6914 -0.3058 0.9546
15.1453 -2.6832 -0.4049 0.9403
37.9765 -0.5550 -0.9998 0.8590
37.9441 1.6643 -0.9998 0.8590
37.9156 2.2186 -0.9998 0.8590
37.8791 2.7723 -0.9998 0.8590
37.8344 3.3255 -0.9998 0.8590
19.2246 3.4059 -0.5140 0.9249
17.9489 3.7238 -0.4826 0.9293
17.7565 3.9554 -0.4789 0.9298
11.4849 2.7351 -0.3108 0.9539
11.0558 2.8043 -0.3003 0.9554
10.7229 2.8872 -0.2923 0.9565
10.4400 3.6470 -0.2911 0.9567
7.9143 3.0270 -0.2231 0.9667
7.4534 3.1032 -0.2125 0.9682
7.2526 3.1448 -0.2081 0.9689
7.1039 3.2043 -0.2051 0.9693
7.0284 3.2948 -0.2043 0.9694
6.9999 3.4070 -0.2049 0.9693
7.0526 3.8236 -0.2112 0.9684
7.0895 4.1162 -0.2158 0.9677
7.1283 4.4221 -0.2208 0.9670
7.1487 4.5807 -0.2235 0.9666
7.2830 5.6237 -0.2422 0.9639
7.3077 5.8152 -0.2458 0.9633
7.4243 6.6522 -0.2624 0.9609
5.8400 5.3887 -0.2092 0.9687
5.5226 5.7282 -0.2095 0.9687
5.1414 6.1782 -0.2116 0.9683
5.0645 6.2698 -0.2122 0.9683
20.8397 31.0045 -0.9834 0.8612
19.9232 31.5977 -0.9833 0.8612
18.5170 32.4362 -0.9832 0.8612
18.0402 32.7016 -0.9832 0.8612
17.5596 32.9603 -0.9831 0.8612
16.5877 33.4561 -0.9830 0.8612
15.5986 33.9260 -0.9829 0.8612
14.0978 34.5695 -0.9828 0.8612
13.5904 34.7699 -0.9827 0.8612
12.0517 35.3264 -0.9826 0.8613
11.5335 35.4969 -0.9825 0.8613
7.3116 36.5829 -0.9821 0.8613
6.2388 36.7766 -0.9820 0.8613
4.6204 37.0073 -0.9818 0.8614
3.5364 37.1219 -0.9816 0.8614
2.4500 37.2045 -0.9815 0.8614
1.9060 37.2339 -0.9815 0.8614
0.2725 37.2740 -0.9813 0.8614
-0.8168 37.2616 -0.9811 0.8615
-1.3611 37.2430 -0.9811 0.8615
-2.4484 37.1824 -0.9809 0.8615
-2.9912 37.1400 -0.9809 0.8615
-4.6150 36.9655 -0.9807 0.8615
-6.2291 36.7199 -0.9804 0.8615
-7.8306 36.4040 -0.9802 0.8616
-9.4164 36.0181 -0.9800 0.8616
-9.9409 35.8741 -0.9800 0.8616
-10.9833 35.5629 -0.9798 0.8616
-11.5009 35.3961 -0.9797 0.8616
-12.5284 35.0398 -0.9796 0.8617
-14.0490 34.4499 -0.9794 0.8617
-14.5498 34.2384 -0.9793 0.8617
-15.5416 33.7935 -0.9792 0.8617
-3.2367 6.2954 -0.1863 0.9721
-3.3366 5.6513 -0.1728 0.9741
-3.3816 5.3632 -0.1669 0.9749
-3.4237 5.0938 -0.1616 0.9757
-3.4438 4.9653 -0.1591 0.9761
-3.4821 4.7198 -0.1544 0.9768
-3.5004 4.6023 -0.1522 0.9771
-3.5525 4.2687 -0.1462 0.9780
-3.5703 4.1648 -0.1444 0.9783
-3.5882 4.0640 -0.1427 0.9785
-3.6108 3.9711 -0.1413 0.9788
-3.7315 3.5454 -0.1355 0.9796
-4.0134 3.4917 -0.1400 0.9789
-4.1446 3.5007 -0.1428 0.9785
-4.2820 3.5108 -0.1458 0.9781
-4.4258 3.5219 -0.1489 0.9776
-4.6153 3.5638 -0.1535 0.9769
-4.8196 3.6104 -0.1585 0.9762
-0.7740 0.5452 -0.0249 0.9962
-0.7743 0.5287 -0.0247 0.9963
-0.7683 0.4923 -0.0240 0.9964
-0.7654 0.4748 -0.0237 0.9964
-0.7625 0.4577 -0.0234 0.9964
-0.7488 0.3781 -0.0221 0.9966
-0.7460 0.3630 -0.0218 0.9967
-0.7393 0.3334 -0.0214 0.9968
-0.7297 0.2913 -0.0207 0.9969
-0.7266 0.2779 -0.0205 0.9969
-0.7235 0.2646 -0.0203 0.9969
-0.7205 0.2516 -0.0201 0.9970
-0.7117 0.2141 -0.0196 0.9970
-0.7088 0.2020 -0.0194 0.9971
-0.7051 0.1788 -0.0191 0.9971
-0.6996 0.1451 -0.0188 0.9971
-0.6959 0.1233 -0.0186 0.9972
-0.6904 0.0913 -0.0183 0.9972
-0.6867 0.0705 -0.0182 0.9972
-0.6849 0.0602 -0.0181 0.9973
-0.6794 0.0298 -0.0179 0.9973
-0.6775 0.0198 -0.0178 0.9973
-0.6757 0.0098 -0.0178 0.9973
-0.6465 -0.0000 -0.0242 0.9974
-0.6478 -0.0095 -0.0242 0.9974
-0.6492 -0.0190 -0.0243 0.9974
-0.6539 -0.0479 -0.0245 0.9974
-0.6555 -0.0577 -0.0246 0.9974
-0.6588 -0.0774 -0.0248 0.9973
-0.6621 -0.0975 -0.0250 0.9973
-0.6653 -0.1179 -0.0253 0.9973
-0.6685 -0.1388 -0.0255 0.9973
-0.6717 -0.1600 -0.0258 0.9972
-0.6733 -0.1708 -0.0260 0.9972
-0.6765 -0.1928 -0.0263 0.9972
-0.6842 -0.2279 -0.0270 0.9971
-0.6871 -0.2400 -0.0272 0.9971
-0.6929 -0.2650 -0.0278 0.9970
-0.6988 -0.2910 -0.0283 0.9970
-0.7043 -0.3177 -0.0289 0.9969
-0.7127 -0.3599 -0.0299 0.9968
-0.7241 -0.4347 -0.0316 0.9966
-0.7263 -0.4506 -0.0320 0.9966
-0.7286 -0.4669 -0.0324 0.9965
-0.7309 -0.4836 -0.0328 0.9965
-0.7381 -0.5363 -0.0341 0.9964
-0.7540 -0.5648 -0.0353 0.9962
-19.9580 -16.8575 -0.9775 0.9007
-19.7102 -17.1479 -0.9775 0.9007
-19.2019 -17.7176 -0.9776 0.9007
-18.9416 -17.9969 -0.9776 0.9007
-9.1907 -9.8159 -0.5031 0.9476
-8.8611 -9.7454 -0.4928 0.9486
-8.6013 -9.7420 -0.4863 0.9493
-7.9589 -9.8530 -0.4739 0.9506
-7.7197 -9.8478 -0.4682 0.9511
-15.5183 -21.0342 -0.9781 0.9007
-4.7804 -8.3738 -0.3608 0.9621
-4.6175 -8.3704 -0.3577 0.9625
-4.4575 -8.3669 -0.3547 0.9628
-4.1503 -8.3709 -0.3496 0.9633
-0.9575 -2.8068 -0.1110 0.9882
-0.8896 -2.8807 -0.1128 0.9880
-0.7535 -2.5724 -0.1003 0.9893
-0.7387 -2.6659 -0.1035 0.9890
-0.7230 -2.7656 -0.1070 0.9886
-0.7062 -2.8723 -0.1107 0.9882
-0.6882 -2.9865 -0.1147 0.9878
-0.6473 -3.0094 -0.1152 0.9878
-0.5358 -2.9011 -0.1104 0.9883
-0.4882 -2.8780 -0.1092 0.9884
-0.3977 -2.8466 -0.1075 0.9886
-0.3497 -2.8014 -0.1056 0.9888
-0.2634 -2.7650 -0.1039 0.9889
-0.2173 -2.6975 -0.1013 0.9892
-0.1825 -2.7721 -0.1039 0.9889
-0.0659 -3.0048 -0.1125 0.9880
0.0219 -2.9950 -0.1121 0.9881
0.0655 -2.9901 -0.1119 0.9881
0.5663 -8.6009 -0.3225 0.9661
0.6901 -8.5683 -0.3216 0.9662
0.8161 -8.5671 -0.3220 0.9661
0.9425 -8.5658 -0.3224 0.9661
1.0692 -8.5645 -0.3229 0.9660
1.1964 -8.5631 -0.3235 0.9660
1.3240 -8.5620 -0.3242 0.9659
1.8420 -8.5633 -0.3277 0.9655
2.1057 -8.5639 -0.3300 0.9653
2.2390 -8.5642 -0.3312 0.9652
2.3733 -8.5646 -0.3325 0.9651
2.5087 -8.5648 -0.3339 0.9649
2.6452 -8.5652 -0.3354 0.9648
2.7831 -8.5655 -0.3370 0.9646
3.6088 -8.4921 -0.3453 0.9637
3.9404 -8.5680 -0.3529 0.9630
11.9928 -23.3263 -0.9814 0.9003
12.6704 -22.9678 -0.9815 0.9003
13.0052 -22.7812 -0.9815 0.9003
13.3372 -22.5897 -0.9816 0.9003
6.4204 -9.5522 -0.4306 0.9550
6.4233 -9.2611 -0.4217 0.9559
6.5616 -8.8939 -0.4136 0.9567
6.9443 -8.8587 -0.4212 0.9559
7.8667 -8.9099 -0.4447 0.9535
8.1434 -8.9561 -0.4529 0.9527
17.9401 -19.1603 -0.9821 0.9003
18.4936 -18.6292 -0.9822 0.9003
10.0521 -9.5507 -0.5188 0.9460
3.7029 -3.4167 -0.1885 0.9800
3.8220 -3.3252 -0.1896 0.9799
3.9744 -3.1627 -0.1901 0.9799
3.9925 -3.0829 -0.1887 0.9800
4.0809 -2.9650 -0.1887 0.9800
4.0805 -2.7862 -0.1849 0.9804
4.3508 -2.7880 -0.1934 0.9795
4.6282 -2.8712 -0.2038 0.9784
6.7820 -3.9377 -0.2934 0.9691
6.6952 -3.7575 -0.2873 0.9697
6.7958 -3.6845 -0.2892 0.9695
6.8614 -3.5913 -0.2898 0.9695
6.8728 -3.3452 -0.2860 0.9699
7.0026 -3.2827 -0.2894 0.9695
6.9954 -3.1555 -0.2871 0.9697
7.1030 -2.9574 -0.2879 0.9697
7.3342 -2.9287 -0.2955 0.9689
7.4589 -2.7286 -0.2972 0.9687
8.2873 -2.3619 -0.3224 0.9661
11.0371 -2.7995 -0.4261 0.9554
10.9292 -2.6028 -0.4204 0.9560
11.3524 -2.5289 -0.4352 0.9545
11.2957 -2.3436 -0.4317 0.9549
14.8852 -2.4134 -0.5642 0.9414
25.9945 -3.8256 -0.9831 0.9002
26.0956 -3.0645 -0.9831 0.9002
26.1376 -2.6829 -0.9831 0.9002
26.1742 -2.3007 -0.9831 0.9002
26.6127 -1.9479 -0.9984 0.8987
26.6384 -1.5587 -0.9984 0.8987
26.6583 -1.1694 -0.9984 0.8987
26.6841 -0.0000 -0.9984 0.8987
26.6583 1.1693 -0.9984 0.8987
26.6128 1.9477 -0.9984 0.8987
26.5814 2.3364 -0.9984 0.8987
26.5442 2.7245 -0.9984 0.8987
26.4530 3.4989 -0.9984 0.8987
19.1920 3.4001 -0.7293 0.9249
11.4146 2.7184 -0.4390 0.9541
7.6202 3.0428 -0.3070 0.9677
6.9947 3.4045 -0.2911 0.9693
7.0119 3.5405 -0.2939 0.9690
7.0660 3.9656 -0.3032 0.9681
7.0850 4.1136 -0.3065 0.9677
7.1045 4.2648 -0.3100 0.9674
7.1244 4.4197 -0.3137 0.9670
7.1870 4.9073 -0.3256 0.9658
7.2548 5.4346 -0.3392 0.9644
7.2786 5.6204 -0.3441 0.9639
7.3032 5.8116 -0.3492 0.9633
7.3285 6.0087 -0.3546 0.9628
7.3546 6.2120 -0.3602 0.9622
7.3468 6.3917 -0.3644 0.9618
5.9465 5.3282 -0.2988 0.9685
5.7669 5.4793 -0.2976 0.9687
5.6074 5.6486 -0.2978 0.9686
5.4518 5.8227 -0.2985 0.9686
5.3003 6.0032 -0.2996 0.9685
5.2241 6.0941 -0.3003 0.9684
5.1474 6.1854 -0.3011 0.9683
5.0704 6.2771 -0.3019 0.9682
4.8366 6.5558 -0.3048 0.9679
15.2742 21.3495 -0.9822 0.9003
14.3228 21.9965 -0.9822 0.9003
13.9995 22.2027 -0.9821 0.9003
13.6732 22.4043 -0.9821 0.9003
13.0119 22.7929 -0.9820 0.9003
12.6771 22.9798 -0.9820 0.9003
12.3396 23.1619 -0.9820 0.9003
11.9994 23.3389 -0.9819 0.9003
11.6567 23.5110 -0.9819 0.9003
11.3116 23.6780 -0.9819 0.9003
10.9641 23.8400 -0.9818 0.9003
10.6142 23.9969 -0.9818 0.9003
9.5513 24.4362 -0.9817 0.9003
3.5063 9.3721 -0.3744 0.9607
3.3498 9.3689 -0.3723 0.9610
8.4703 24.8285 -0.9816 0.9003
8.1063 24.9487 -0.9816 0.9003
7.3733 25.1730 -0.9815 0.9003
7.0044 25.2770 -0.9814 0.9003
6.6341 25.3756 -0.9814 0.9003
5.8893 25.5565 -0.9813 0.9003
5.5150 25.6388 -0.9813 0.9003
5.1396 25.7155 -0.9812 0.9004
4.7631 25.7866 -0.9812 0.9004
4.3856 25.8524 -0.9812 0.9004
3.6280 25.9673 -0.9811 0.9004
3.2482 26.0163 -0.9810 0.9004
2.4862 26.0979 -0.9809 0.9004
2.1046 26.1303 -0.9809 0.9004
1.7224 26.1571 -0.9808 0.9004
1.3400 26.1782 -0.9808 0.9004
0.9573 26.1938 -0.9808 0.9004
-0.1915 26.2068 -0.9806 0.9004
-0.5743 26.2000 -0.9806 0.9004
-0.9570 26.1875 -0.9805 0.9004
-1.3395 26.1695 -0.9805 0.9004
-1.7217 26.1459 -0.9804 0.9004
-0.8968 9.4139 -0.3538 0.9629
-3.2454 25.9955 -0.9802 0.9004
-3.6247 25.9441 -0.9802 0.9005
-5.1330 25.6829 -0.9800 0.9005
-5.5075 25.6038 -0.9799 0.9005
-6.9923 25.2332 -0.9797 0.9005
-7.3599 25.1271 -0.9797 0.9005
-7.7258 25.0155 -0.9796 0.9005
-8.0901 24.8987 -0.9796 0.9005
-8.4526 24.7765 -0.9795 0.9005
-8.8133 24.6491 -0.9795 0.9005
-9.5288 24.3785 -0.9794 0.9005
-10.2360 24.0873 -0.9793 0.9005
-3.2043 6.4629 -0.2699 0.9715
-3.2301 6.2826 -0.2643 0.9721
-3.2567 6.1131 -0.2592 0.9727
-3.2824 5.9501 -0.2543 0.9732
-3.3070 5.7930 -0.2496 0.9737
-3.3309 5.6416 -0.2451 0.9741
-3.3975 5.2177 -0.2330 0.9754
-3.4578 4.8332 -0.2224 0.9765
-3.5130 4.4814 -0.2131 0.9775
-3.5473 4.2625 -0.2075 0.9780
-3.5651 4.1589 -0.2050 0.9783
-3.5832 4.0583 -0.2026 0.9786
-3.6490 3.7848 -0.1967 0.9792
-3.7209 3.5353 -0.1921 0.9797
-3.7666 3.4755 -0.1918 0.9797
-3.8698 3.4673 -0.1944 0.9794
-4.1253 3.4845 -0.2021 0.9786
-0.8645 0.6675 -0.0409 0.9956
-0.7541 0.5648 -0.0353 0.9962
-0.7286 0.4669 -0.0324 0.9965
-0.7219 0.4191 -0.0312 0.9967
-0.7071 0.3314 -0.0292 0.9969
-0.7043 0.3177 -0.0289 0.9969
-0.7016 0.3041 -0.0286 0.9969
-0.6988 0.2909 -0.0283 0.9970
-0.6958 0.2778 -0.0280 0.9970
-0.6929 0.2650 -0.0278 0.9970
-0.6842 0.2278 -0.0270 0.9971
-0.6814 0.2159 -0.0267 0.9971
-0.6786 0.2041 -0.0265 0.9972
-0.6765 0.1927 -0.0263 0.9972
-0.6685 0.1387 -0.0255 0.9973
-0.6669 0.1282 -0.0254 0.9973
-0.6653 0.1179 -0.0253 0.9973
-0.6637 0.1076 -0.0252 0.9973
-0.6621 0.0974 -0.0250 0.9973
-0.6539 0.0478 -0.0245 0.9974
-0.6209 0.0000 -0.0301 0.9975
-0.6246 -0.0274 -0.0303 0.9975
-0.6286 -0.0553 -0.0306 0.9975
-0.6301 -0.0647 -0.0307 0.9975
-0.6315 -0.0742 -0.0309 0.9975
-0.6330 -0.0838 -0.0310 0.9974
-0.6358 -0.1031 -0.0313 0.9974
-0.6372 -0.1129 -0.0314 0.9974
-0.6386 -0.1228 -0.0316 0.9974
-0.6400 -0.1328 -0.0317 0.9974
-0.6455 -0.1738 -0.0324 0.9973
-0.6500 -0.2060 -0.0331 0.9973
-0.6564 -0.2402 -0.0339 0.9972
-0.6589 -0.2520 -0.0342 0.9972
-0.6614 -0.2641 -0.0346 0.9972
-0.6715 -0.3148 -0.0360 0.9970
-0.6741 -0.3281 -0.0364 0.9970
-0.6793 -0.3555 -0.0372 0.9969
-0.6845 -0.3842 -0.0381 0.9969
-0.6863 -0.3985 -0.0385 0.9968
-0.6879 -0.4130 -0.0389 0.9968
-0.6914 -0.4430 -0.0398 0.9967
-0.6930 -0.4586 -0.0403 0.9967
-0.6965 -0.4907 -0.0413 0.9966
-0.6982 -0.5073 -0.0419 0.9965
-0.8411 -0.6896 -0.0528 0.9957
-14.9717 -13.4148 -0.9754 0.9227
-14.5740 -13.8473 -0.9754 0.9226
-13.9543 -14.4737 -0.9755 0.9226
-9.2026 -9.8286 -0.6533 0.9475
-8.9789 -9.8750 -0.6476 0.9480
-8.2632 -9.6393 -0.6160 0.9504
-8.1281 -9.7670 -0.6165 0.9504
-7.8852 -9.7618 -0.6089 0.9510
-7.6598 -9.7714 -0.6024 0.9515
-7.4931 -9.8519 -0.6006 0.9516
-11.9728 -16.2284 -0.9785 0.9224
-11.7347 -16.4021 -0.9785 0.9224
-11.4941 -16.5723 -0.9785 0.9224
-11.2511 -16.7390 -0.9786 0.9224
-4.9461 -8.3774 -0.4720 0.9618
-4.7804 -8.3738 -0.4678 0.9621
-4.6175 -8.3703 -0.4638 0.9624
-4.4574 -8.3669 -0.4600 0.9627
-4.3041 -8.3715 -0.4567 0.9630
-4.1492 -8.3687 -0.4532 0.9633
-3.5504 -8.3549 -0.4405 0.9643
-0.9606 -2.8156 -0.1443 0.9882
-0.9268 -2.8525 -0.1455 0.9881
-0.8925 -2.8899 -0.1467 0.9880
-0.7492 -2.5579 -0.1293 0.9894
-0.6501 -3.0224 -0.1500 0.9877
-0.5258 -2.6309 -0.1302 0.9893
-0.5493 -2.9738 -0.1467 0.9880
-0.2621 -2.7516 -0.1341 0.9890
-0.2162 -2.6848 -0.1307 0.9893
-0.1819 -2.7619 -0.1343 0.9890
-0.1395 -2.7249 -0.1324 0.9891
-0.1103 -3.0180 -0.1465 0.9880
0.6895 -8.5607 -0.4167 0.9662
1.0531 -8.4351 -0.4124 0.9665
1.5809 -8.5589 -0.4223 0.9657
1.9725 -8.5598 -0.4262 0.9654
2.1048 -8.5602 -0.4277 0.9653
2.2380 -8.5604 -0.4293 0.9652
2.5076 -8.5611 -0.4328 0.9649
2.7818 -8.5616 -0.4368 0.9646
3.2033 -8.5625 -0.4436 0.9641
3.3469 -8.5629 -0.4461 0.9639
3.4595 -8.4831 -0.4445 0.9640
3.5588 -8.3747 -0.4415 0.9642
3.8517 -8.3751 -0.4473 0.9638
9.2456 -17.9828 -0.9811 0.9222
9.5076 -17.8463 -0.9811 0.9222
6.4134 -9.8495 -0.5703 0.9540
6.4034 -9.5268 -0.5569 0.9551
6.4042 -9.2336 -0.5452 0.9560
6.4339 -8.9930 -0.5365 0.9567
6.7026 -8.8126 -0.5372 0.9566
6.9048 -8.8082 -0.5430 0.9562
7.3806 -8.8688 -0.5598 0.9548
7.6143 -8.8823 -0.5676 0.9542
14.0031 -14.5243 -0.9789 0.9224
14.2142 -14.3185 -0.9789 0.9224
10.1481 -9.9281 -0.6888 0.9447
3.7715 -3.3793 -0.2457 0.9799
3.8868 -3.1869 -0.2439 0.9801
3.9474 -3.1413 -0.2448 0.9800
4.0720 -3.1443 -0.2496 0.9796
4.0349 -3.0226 -0.2446 0.9800
4.1154 -2.8991 -0.2442 0.9800
4.3364 -2.7787 -0.2499 0.9796
6.9893 -4.1957 -0.3955 0.9679
6.8397 -3.9712 -0.3837 0.9688
6.6878 -3.7534 -0.3721 0.9698
7.0272 -3.2943 -0.3766 0.9694
7.1750 -3.1111 -0.3794 0.9692
7.4658 -2.7311 -0.3857 0.9687
7.5109 -2.6238 -0.3860 0.9686
7.9178 -2.5089 -0.4030 0.9673
8.2512 -2.3516 -0.4163 0.9662
10.7917 -2.9058 -0.5423 0.9562
11.0951 -2.8143 -0.5554 0.9552
11.4829 -2.5580 -0.5708 0.9540
14.8015 -2.3998 -0.7275 0.9417
20.4838 -1.8005 -0.9977 0.9210
20.5278 -1.2012 -0.9977 0.9210
20.5608 -0.3005 -0.9977 0.9210
20.5630 -0.0000 -0.9977 0.9210
20.5608 0.3004 -0.9977 0.9210
20.5432 0.9011 -0.9977 0.9210
20.5278 1.2012 -0.9977 0.9210
20.5080 1.5009 -0.9977 0.9210
20.4838 1.8004 -0.9977 0.9210
20.4553 2.0995 -0.9977 0.9210
20.4224 2.3982 -0.9977 0.9210
20.3850 2.6963 -0.9977 0.9210
20.3433 2.9939 -0.9977 0.9210
20.2470 3.5870 -0.9977 0.9210
19.4314 3.7361 -0.9601 0.9238
20.1332 4.1770 -0.9977 0.9210
10.3964 3.1278 -0.5268 0.9575
10.4016 3.2959 -0.5294 0.9572
10.1721 3.5534 -0.5228 0.9578
7.3818 3.0734 -0.3880 0.9685
7.0077 3.5384 -0.3809 0.9691
6.9448 3.6349 -0.3803 0.9691
6.8866 3.8649 -0.3832 0.9689
7.1006 4.2625 -0.4018 0.9674
7.1204 4.4172 -0.4066 0.9670
7.1407 4.5757 -0.4115 0.9666
7.1616 4.7380 -0.4166 0.9662
7.1829 4.9045 -0.4220 0.9658
7.2048 5.0754 -0.4276 0.9653
7.2273 5.2509 -0.4334 0.9649
7.2504 5.4313 -0.4395 0.9644
7.2742 5.6170 -0.4459 0.9639
7.3239 6.0049 -0.4595 0.9628
5.9537 5.3346 -0.3879 0.9685
5.8657 5.4123 -0.3872 0.9685
5.6945 5.5711 -0.3865 0.9686
5.6159 5.6571 -0.3868 0.9686
5.5371 5.7433 -0.3871 0.9686
5.4585 5.8298 -0.3875 0.9685
5.3824 5.9196 -0.3882 0.9685
5.3064 6.0102 -0.3890 0.9684
5.0763 6.2845 -0.3920 0.9682
4.9988 6.3769 -0.3931 0.9681
4.9208 6.4699 -0.3944 0.9680
11.7710 16.4529 -0.9815 0.9222
11.2847 16.7890 -0.9815 0.9222
11.0380 16.9518 -0.9815 0.9222
10.7889 17.1108 -0.9815 0.9222
10.0280 17.5659 -0.9814 0.9222
9.5100 17.8507 -0.9813 0.9222
9.2479 17.9872 -0.9813 0.9222
8.1805 18.4948 -0.9812 0.9222
7.6362 18.7250 -0.9812 0.9222
3.5045 9.3674 -0.4853 0.9607
5.9663 19.3183 -0.9810 0.9222
5.6832 19.4028 -0.9810 0.9222
5.3989 19.4832 -0.9809 0.9222
5.1135 19.5594 -0.9809 0.9222
4.5395 19.6992 -0.9808 0.9222
3.9617 19.8221 -0.9808 0.9222
3.3806 19.9281 -0.9807 0.9222
2.5038 20.0551 -0.9806 0.9223
1.9166 20.1183 -0.9805 0.9223
1.6224 20.1434 -0.9805 0.9223
1.3278 20.1643 -0.9805 0.9223
1.0330 20.1808 -0.9804 0.9223
0.7380 20.1931 -0.9804 0.9223
0.4429 20.2009 -0.9804 0.9223
-0.1476 20.2037 -0.9803 0.9223
-0.7378 20.1893 -0.9802 0.9223
-1.0327 20.1755 -0.9802 0.9223
-1.6217 20.1352 -0.9801 0.9223
-2.5022 20.0425 -0.9800 0.9223
-2.7947 20.0031 -0.9800 0.9223
-3.0865 19.9594 -0.9799 0.9223
-3.3777 19.9114 -0.9799 0.9223
-3.6682 19.8591 -0.9799 0.9223
-3.9578 19.8025 -0.9798 0.9223
-4.2485 19.7436 -0.9798 0.9223
-4.5345 19.6770 -0.9797 0.9223
-5.3917 19.4570 -0.9796 0.9223
-5.9574 19.2897 -0.9795 0.9223
-6.5180 19.1058 -0.9795 0.9223
-6.7962 19.0078 -0.9794 0.9223
-7.0729 18.9057 -0.9794 0.9223
-7.6217 18.6895 -0.9793 0.9224
-7.8937 18.5753 -0.9793 0.9224
-3.1705 6.6368 -0.3569 0.9710
-3.1529 6.3592 -0.3444 0.9720
-3.3013 5.7829 -0.3231 0.9737
-3.3482 5.4862 -0.3118 0.9746
-3.3704 5.3454 -0.3066 0.9750
-3.4127 5.0773 -0.2968 0.9758
-3.4329 4.9496 -0.2923 0.9762
-3.4525 4.8257 -0.2879 0.9765
-3.4714 4.7053 -0.2837 0.9769
-3.4899 4.5884 -0.2797 0.9772
-3.5078 4.4748 -0.2759 0.9775
-3.5957 3.9545 -0.2593 0.9788
-3.6174 3.8635 -0.2568 0.9790
-3.6629 3.6897 -0.2523 0.9794
-3.6868 3.6069 -0.2503 0.9796
-3.7583 3.4677 -0.2481 0.9797
-3.9769 3.4599 -0.2558 0.9791
-0.7017 0.5418 -0.0430 0.9965
-0.6982 0.5073 -0.0419 0.9965
-0.6930 0.4584 -0.0403 0.9967
-0.6862 0.3984 -0.0385 0.9968
-0.6846 0.3841 -0.0381 0.9969
-0.6793 0.3555 -0.0372 0.9969
-0.6767 0.3416 -0.0368 0.9970
-0.6741 0.3280 -0.0364 0.9970
-0.6715 0.3148 -0.0360 0.9970
-0.6689 0.3017 -0.0356 0.9971
-0.6639 0.2763 -0.0349 0.9971
-0.6614 0.2641 -0.0346 0.9972
-0.6589 0.2520 -0.0342 0.9972
-0.6564 0.2401 -0.0339 0.9972
-0.6518 0.2170 -0.0333 0.9973
-0.6468 0.1843 -0.0326 0.9973
-0.6441 0.1634 -0.0322 0.9973
-0.6428 0.1530 -0.0321 0.9974
-0.6400 0.1327 -0.0317 0.9974
-0.6386 0.1227 -0.0316 0.9974
-0.6372 0.1129 -0.0314 0.9974
-0.6315 0.0741 -0.0309 0.9975
-0.6271 0.0459 -0.0305 0.9975
-0.6258 0.0366 -0.0304 0.9975
-0.6246 0.0273 -0.0303 0.9975
-0.6221 0.0091 -0.0302 0.9975
-0.5972 -0.0000 -0.0356 0.9976
-0.5983 -0.0088 -0.0357 0.9976
-0.5995 -0.0176 -0.0358 0.9976
-0.6006 -0.0264 -0.0359 0.9976
-0.6017 -0.0352 -0.0359 0.9976
-0.6028 -0.0441 -0.0360 0.9976
-0.6039 -0.0531 -0.0361 0.9976
-0.6050 -0.0621 -0.0363 0.9976
-0.6064 -0.0712 -0.0364 0.9976
-0.6077 -0.0804 -0.0366 0.9975
-0.6089 -0.0896 -0.0367 0.9975
-0.6102 -0.0989 -0.0369 0.9975
-0.6126 -0.1178 -0.0372 0.9975
-0.6150 -0.1370 -0.0376 0.9975
-0.6196 -0.1766 -0.0384 0.9974
-0.6207 -0.1868 -0.0387 0.9974
-0.6220 -0.1971 -0.0389 0.9974
-0.6264 -0.2291 -0.0398 0.9973
-0.6301 -0.2516 -0.0405 0.9973
-0.6322 -0.2632 -0.0408 0.9973
-0.6364 -0.2871 -0.0416 0.9972
-0.6385 -0.2993 -0.0420 0.9972
-0.6470 -0.3508 -0.0439 0.9971
-0.6491 -0.3643 -0.0444 0.9970
-0.6513 -0.3782 -0.0449 0.9970
-0.6557 -0.4068 -0.0460 0.9969
-0.6606 -0.4654 -0.0482 0.9968
-0.6653 -0.5295 -0.0507 0.9966
-12.1857 -10.9185 -0.9757 0.9365
-12.0250 -11.0956 -0.9757 0.9365
-11.8619 -11.2704 -0.9757 0.9365
-9.2923 -9.9243 -0.8107 0.9470
-8.6509 -9.7982 -0.7794 0.9490
-8.3940 -9.7919 -0.7691 0.9496
-7.4911 -9.8492 -0.7379 0.9516
-9.7165 -13.1703 -0.9760 0.9365
-9.3279 -13.4493 -0.9760 0.9365
-8.7303 -13.8462 -0.9761 0.9365
-5.1470 -8.4336 -0.5892 0.9612
-4.7804 -8.3738 -0.5750 0.9621
-4.1485 -8.3673 -0.5569 0.9633
-3.6966 -8.3575 -0.5450 0.9640
-3.5502 -8.3544 -0.5413 0.9643
-1.1001 -2.8146 -0.1802 0.9880
-1.0603 -2.8341 -0.1804 0.9879
-1.0203 -2.8538 -0.1807 0.9879
-0.9636 -2.8245 -0.1780 0.9881
-0.9297 -2.8615 -0.1794 0.9880
-0.8592 -2.9334 -0.1823 0.9878
-0.6493 -2.6407 -0.1622 0.9892
-0.6794 -2.9483 -0.1804 0.9879
-0.6529 -3.0356 -0.1852 0.9876
-0.5385 -2.6946 -0.1639 0.9890
-0.4325 -2.7973 -0.1688 0.9887
-0.3541 -2.8367 -0.1705 0.9886
-0.3072 -2.7919 -0.1675 0.9888
-0.2608 -2.7384 -0.1640 0.9890
-0.0662 -3.0213 -0.1802 0.9880
-0.0220 -3.0163 -0.1799 0.9880
0.0220 -3.0113 -0.1796 0.9880
0.0659 -3.0064 -0.1793 0.9880
0.4400 -8.5966 -0.5133 0.9661
0.5633 -8.5544 -0.5112 0.9662
0.6867 -8.5258 -0.5101 0.9663
0.8003 -8.4011 -0.5033 0.9667
1.1787 -8.4362 -0.5080 0.9664
1.5802 -8.5552 -0.5188 0.9657
1.8404 -8.5558 -0.5219 0.9655
2.1038 -8.5564 -0.5254 0.9653
2.3712 -8.5570 -0.5295 0.9650
2.6429 -8.5575 -0.5341 0.9647
2.7806 -8.5578 -0.5366 0.9646
3.0600 -8.5584 -0.5420 0.9642
3.2023 -8.5598 -0.5450 0.9640
3.3469 -8.5629 -0.5483 0.9638
3.4337 -8.4199 -0.5423 0.9642
3.6625 -8.2803 -0.5399 0.9644
7.4996 -14.5869 -0.9781 0.9364
7.9231 -14.3623 -0.9781 0.9364
8.1323 -14.2454 -0.9782 0.9364
8.3398 -14.1254 -0.9782 0.9364
6.3939 -9.8195 -0.6988 0.9541
6.5209 -8.8387 -0.6550 0.9569
7.6196 -8.8885 -0.6982 0.9542
8.1811 -8.9975 -0.7252 0.9524
8.4384 -9.0124 -0.7362 0.9517
11.3896 -11.8136 -0.9786 0.9364
11.7304 -11.4762 -0.9786 0.9364
10.5875 -10.0595 -0.8709 0.9432
10.8024 -9.9673 -0.8765 0.9428
3.8408 -3.3415 -0.3036 0.9798
3.9011 -3.2951 -0.3045 0.9797
4.0432 -3.0288 -0.3013 0.9800
13.4746 -8.3591 -0.9456 0.9384
6.8098 -4.0880 -0.4736 0.9687
6.8249 -3.9626 -0.4706 0.9689
6.6804 -3.7493 -0.4568 0.9698
6.7807 -3.6763 -0.4600 0.9696
6.7139 -3.3901 -0.4485 0.9703
6.8351 -3.3269 -0.4533 0.9700
6.8803 -3.1036 -0.4501 0.9702
7.0746 -3.0677 -0.4598 0.9696
7.3736 -2.9444 -0.4735 0.9687
7.5728 -2.7702 -0.4809 0.9682
7.6124 -2.6593 -0.4809 0.9682
7.6520 -2.5483 -0.4810 0.9682
8.0064 -2.5370 -0.5008 0.9669
8.1356 -2.4477 -0.5066 0.9665
10.9458 -2.9473 -0.6760 0.9556
11.1131 -2.6466 -0.6812 0.9553
11.0731 -2.4667 -0.6765 0.9556
14.9868 -2.8816 -0.9101 0.9407
16.2540 -2.6353 -0.9819 0.9361
16.2908 -2.3976 -0.9819 0.9361
16.5780 -2.1929 -0.9972 0.9352
16.6352 -1.7075 -0.9972 0.9352
16.6781 -1.2207 -0.9972 0.9352
16.6942 -0.9769 -0.9972 0.9352
16.7156 -0.4887 -0.9972 0.9352
16.7210 -0.2444 -0.9972 0.9352
16.7228 -0.0000 -0.9972 0.9352
16.7210 0.2443 -0.9972 0.9352
16.7067 0.7328 -0.9972 0.9352
16.6942 0.9768 -0.9972 0.9352
16.6781 1.2206 -0.9972 0.9352
16.6585 1.4642 -0.9972 0.9352
16.6084 1.9504 -0.9972 0.9352
16.5781 2.1928 -0.9972 0.9352
16.5442 2.4348 -0.9972 0.9352
16.5069 2.6762 -0.9972 0.9352
16.4659 2.9171 -0.9972 0.9352
16.4214 3.1574 -0.9972 0.9352
16.3734 3.3970 -0.9972 0.9352
11.3753 2.7090 -0.6973 0.9542
10.6332 2.8630 -0.6567 0.9568
10.3971 3.1280 -0.6475 0.9574
10.1327 3.5396 -0.6401 0.9579
8.1366 2.9764 -0.5167 0.9659
7.8602 3.0062 -0.5018 0.9668
7.1964 3.1204 -0.4678 0.9691
6.9966 3.4054 -0.4640 0.9693
6.9756 3.5222 -0.4660 0.9692
6.8701 3.5959 -0.4624 0.9694
6.8115 3.6929 -0.4621 0.9694
6.7947 3.8134 -0.4646 0.9693
6.8699 3.9886 -0.4737 0.9687
7.1368 4.5731 -0.5055 0.9666
7.1575 4.7354 -0.5118 0.9662
7.1788 4.9017 -0.5184 0.9658
7.2006 5.0725 -0.5252 0.9653
7.2231 5.2478 -0.5324 0.9649
7.2461 5.4281 -0.5399 0.9644
7.2698 5.6135 -0.5477 0.9639
7.2942 5.8045 -0.5559 0.9633
7.2303 6.2903 -0.5715 0.9623
7.1687 6.4231 -0.5740 0.9622
5.7068 5.5832 -0.4761 0.9685
5.5455 5.7520 -0.4765 0.9685
5.4668 5.8387 -0.4770 0.9685
5.3894 5.9273 -0.4777 0.9684
5.2362 6.1083 -0.4798 0.9683
5.1595 6.1998 -0.4810 0.9682
5.0823 6.2918 -0.4823 0.9681
5.0047 6.3844 -0.4838 0.9680
4.9267 6.4776 -0.4853 0.9679
9.5732 13.3808 -0.9811 0.9362
9.3763 13.5187 -0.9811 0.9362
9.1776 13.6541 -0.9811 0.9362
8.7744 13.9160 -0.9810 0.9362
7.9459 14.4036 -0.9810 0.9362
7.7345 14.5179 -0.9810 0.9362
7.5214 14.6291 -0.9809 0.9362
7.3067 14.7371 -0.9809 0.9362
6.8726 14.9437 -0.9809 0.9362
6.6534 15.0422 -0.9808 0.9362
6.4327 15.1374 -0.9808 0.9362
6.2107 15.2295 -0.9808 0.9362
5.9874 15.3183 -0.9808 0.9362
3.3465 9.3595 -0.5927 0.9610
5.3100 15.5648 -0.9807 0.9362
4.8527 15.7126 -0.9807 0.9362
4.3913 15.8469 -0.9806 0.9362
4.1592 15.9089 -0.9806 0.9362
3.9262 15.9676 -0.9806 0.9362
3.6924 16.0229 -0.9805 0.9362
3.4577 16.0747 -0.9805 0.9362
2.9864 16.1680 -0.9805 0.9362
2.2748 16.2820 -0.9804 0.9362
2.0366 16.3130 -0.9804 0.9362
1.7980 16.3406 -0.9803 0.9362
1.5590 16.3646 -0.9803 0.9363
1.0801 16.4022 -0.9802 0.9363
0.6003 16.4258 -0.9802 0.9363
0.3602 16.4323 -0.9802 0.9363
-0.1201 16.4348 -0.9801 0.9363
-0.3602 16.4309 -0.9801 0.9363
-0.6002 16.4233 -0.9800 0.9363
-1.0799 16.3980 -0.9800 0.9363
-0.9010 9.4576 -0.5665 0.9626
-1.7972 16.3332 -0.9799 0.9363
-2.2735 16.2727 -0.9798 0.9363
-2.7478 16.1983 -0.9798 0.9363
-2.9841 16.1560 -0.9797 0.9363
-3.2198 16.1101 -0.9797 0.9363
-3.4547 16.0609 -0.9797 0.9363
-3.9223 15.9520 -0.9796 0.9363
-4.1549 15.8925 -0.9796 0.9363
-4.6171 15.7632 -0.9795 0.9363
-5.0755 15.6206 -0.9794 0.9363
-5.3030 15.5442 -0.9794 0.9363
-5.7545 15.3817 -0.9794 0.9363
-5.9785 15.2954 -0.9793 0.9363
-6.2011 15.2060 -0.9793 0.9363
-6.4225 15.1133 -0.9793 0.9363
-6.8608 14.9182 -0.9792 0.9363
-3.0317 6.3461 -0.4194 0.9722
-3.0956 6.2437 -0.4156 0.9725
-3.2707 5.9289 -0.4038 0.9732
-3.2955 5.7728 -0.3964 0.9737
-3.3194 5.6223 -0.3894 0.9742
-3.3425 5.4770 -0.3826 0.9746
-3.4274 4.9418 -0.3586 0.9762
-3.4661 4.6982 -0.3482 0.9769
-3.4846 4.5815 -0.3433 0.9772
-3.5370 4.2502 -0.3297 0.9781
-3.5549 4.1469 -0.3257 0.9784
-3.5730 4.0468 -0.3219 0.9786
-3.6096 3.8551 -0.3149 0.9791
-3.7000 3.5154 -0.3044 0.9798
-3.7500 3.4601 -0.3043 0.9798
-3.8353 3.4365 -0.3071 0.9796
-0.6665 0.5465 -0.0514 0.9966
-0.6630 0.4966 -0.0494 0.9967
-0.6618 0.4808 -0.0488 0.9967
-0.6594 0.4502 -0.0476 0.9968
-0.6582 0.4354 -0.0471 0.9968
-0.6557 0.4068 -0.0460 0.9969
-0.6514 0.3781 -0.0449 0.9970
-0.6470 0.3507 -0.0439 0.9971
-0.6427 0.3245 -0.0429 0.9971
-0.6406 0.3118 -0.0425 0.9971
-0.6385 0.2993 -0.0420 0.9972
-0.6343 0.2750 -0.0412 0.9972
-0.6301 0.2516 -0.0405 0.9973
-0.6207 0.1867 -0.0387 0.9974
-0.6185 0.1665 -0.0382 0.9974
-0.6150 0.1370 -0.0376 0.9975
-0.6089 0.0896 -0.0367 0.9975
-0.6077 0.0804 -0.0366 0.9975
-0.6051 0.0621 -0.0363 0.9976
-0.6039 0.0530 -0.0361 0.9976
-0.6028 0.0441 -0.0360 0.9976
-0.6006 0.0263 -0.0359 0.9976
-0.5995 0.0175 -0.0358 0.9976
-0.5752 -0.0001 -0.0407 0.9977
-0.5763 -0.0084 -0.0408 0.9977
-0.5774 -0.0169 -0.0409 0.9977
-0.5784 -0.0254 -0.0410 0.9977
-0.5804 -0.0425 -0.0412 0.9977
-0.5813 -0.0511 -0.0413 0.9977
-0.5823 -0.0598 -0.0414 0.9977
-0.5832 -0.0685 -0.0415 0.9976
-0.5842 -0.0773 -0.0417 0.9976
-0.5854 -0.0862 -0.0419 0.9976
-0.5876 -0.1041 -0.0422 0.9976
-0.5897 -0.1224 -0.0426 0.9976
-0.5917 -0.1409 -0.0430 0.9976
-0.5936 -0.1599 -0.0435 0.9975
-0.5946 -0.1695 -0.0437 0.9975
-0.5964 -0.1890 -0.0443 0.9975
-0.5975 -0.1990 -0.0446 0.9975
-0.5999 -0.2195 -0.0452 0.9974
-0.6011 -0.2300 -0.0455 0.9974
-0.6023 -0.2405 -0.0459 0.9974
-0.6050 -0.2624 -0.0467 0.9974
-0.6068 -0.2738 -0.0471 0.9973
-0.6154 -0.3336 -0.0495 0.9972
-0.6171 -0.3464 -0.0501 0.9972
-0.6240 -0.3999 -0.0524 0.9970
-0.6258 -0.4141 -0.0531 0.9970
-0.6282 -0.4425 -0.0544 0.9969
-0.6297 -0.4718 -0.0557 0.9968
-0.6317 -0.5180 -0.0578 0.9967
-0.6324 -0.5341 -0.0586 0.9967
-10.1830 -9.6752 -0.9940 0.9452
-10.0408 -9.8231 -0.9940 0.9452
-9.8963 -9.9689 -0.9940 0.9452
-9.7498 -10.1126 -0.9940 0.9452
-9.4505 -10.3936 -0.9940 0.9452
-9.2978 -10.5307 -0.9941 0.9452
-7.9589 -9.8530 -0.8963 0.9505
-7.7197 -9.8479 -0.8854 0.9511
-7.5617 -9.9421 -0.8839 0.9511
-8.1900 -11.1012 -0.9762 0.9462
-8.0271 -11.2199 -0.9762 0.9462
-7.5281 -11.5616 -0.9763 0.9462
-5.1479 -8.4352 -0.6993 0.9611
-4.9461 -8.3774 -0.6884 0.9617
-4.6175 -8.3703 -0.6764 0.9624
-4.4574 -8.3669 -0.6708 0.9627
-4.3193 -8.4012 -0.6685 0.9628
-4.1491 -8.3686 -0.6610 0.9632
-3.9958 -8.3641 -0.6559 0.9635
-3.8450 -8.3605 -0.6512 0.9638
-3.6965 -8.3573 -0.6466 0.9640
-1.1048 -2.8266 -0.2147 0.9879
-1.0247 -2.8660 -0.2154 0.9879
-0.9327 -2.8706 -0.2136 0.9880
-0.7260 -2.6199 -0.1924 0.9892
-0.7101 -2.7163 -0.1987 0.9888
-0.6533 -3.0370 -0.2198 0.9876
-0.5519 -2.7615 -0.1993 0.9888
-0.4367 -2.8238 -0.2022 0.9886
-0.4054 -2.9018 -0.2073 0.9883
-0.3564 -2.8547 -0.2036 0.9885
-0.3075 -2.7943 -0.1989 0.9888
-0.2596 -2.7253 -0.1937 0.9891
-0.1479 -2.8900 -0.2048 0.9885
-0.0664 -3.0296 -0.2144 0.9879
0.0661 -3.0146 -0.2134 0.9880
0.4396 -8.5888 -0.6086 0.9661
0.5633 -8.5546 -0.6067 0.9662
0.7971 -8.3674 -0.5948 0.9669
0.9161 -8.3262 -0.5927 0.9670
1.0400 -8.3307 -0.5941 0.9669
1.3223 -8.5509 -0.6123 0.9659
1.4506 -8.5512 -0.6137 0.9658
1.8396 -8.5520 -0.6190 0.9655
1.9708 -8.5523 -0.6210 0.9654
2.2360 -8.5529 -0.6256 0.9652
2.3701 -8.5531 -0.6280 0.9650
2.5053 -8.5534 -0.6307 0.9649
2.6417 -8.5538 -0.6335 0.9647
2.7800 -8.5560 -0.6366 0.9646
2.9199 -8.5590 -0.6399 0.9644
3.0613 -8.5620 -0.6434 0.9642
3.2043 -8.5651 -0.6471 0.9640
3.3490 -8.5682 -0.6510 0.9638
3.4251 -8.3988 -0.6418 0.9643
3.5291 -8.3047 -0.6385 0.9645
3.8054 -8.2745 -0.6445 0.9641
4.1010 -8.5845 -0.6732 0.9626
6.4983 -12.1977 -0.9780 0.9461
6.6760 -12.1017 -0.9780 0.9461
7.3721 -11.6921 -0.9781 0.9461
6.5619 -10.0775 -0.8510 0.9529
6.4371 -9.5770 -0.8165 0.9548
6.7026 -8.8126 -0.7835 0.9566
6.9048 -8.8082 -0.7920 0.9561
8.1189 -9.7559 -0.8981 0.9504
8.0679 -9.1378 -0.8626 0.9523
8.1993 -9.0175 -0.8624 0.9523
8.4384 -9.0124 -0.8736 0.9517
9.7731 -10.1368 -0.9964 0.9451
9.9204 -9.9931 -0.9964 0.9451
10.2084 -9.6993 -0.9964 0.9451
3.8502 -3.3497 -0.3611 0.9797
3.9108 -3.3033 -0.3622 0.9797
4.0709 -3.1435 -0.3639 0.9796
4.0784 -3.0552 -0.3606 0.9798
3.9747 -2.8879 -0.3477 0.9805
4.1563 -2.9280 -0.3598 0.9798
4.1465 -2.8313 -0.3553 0.9801
4.1841 -2.7682 -0.3550 0.9801
4.3078 -2.7604 -0.3620 0.9797
6.8759 -3.8590 -0.5579 0.9689
6.8832 -3.7319 -0.5540 0.9691
6.8219 -3.3205 -0.5369 0.9700
6.9505 -3.2583 -0.5432 0.9697
7.0652 -3.1870 -0.5485 0.9694
7.3497 -3.0601 -0.5634 0.9686
7.3132 -2.9203 -0.5572 0.9689
7.7265 -2.9552 -0.5854 0.9674
7.6708 -2.8061 -0.5780 0.9678
7.7493 -2.7071 -0.5808 0.9676
7.9999 -2.6641 -0.5967 0.9668
8.1177 -2.5722 -0.6026 0.9664
8.3750 -2.5197 -0.6189 0.9655
9.0535 -2.5802 -0.6662 0.9630
11.1508 -2.8284 -0.8140 0.9549
13.5401 -3.0162 -0.9816 0.9459
13.6226 -2.6193 -0.9816 0.9459
13.6594 -2.4200 -0.9816 0.9459
13.8213 -2.2409 -0.9908 0.9454
13.9920 -1.6431 -0.9969 0.9451
14.0747 -0.6174 -0.9969 0.9451
14.0823 -0.4117 -0.9969 0.9451
14.0867 -0.2059 -0.9969 0.9451
14.0823 0.4116 -0.9969 0.9451
14.0747 0.6173 -0.9969 0.9451
13.9379 2.0512 -0.9969 0.9451
13.9064 2.2546 -0.9969 0.9451
13.8719 2.4576 -0.9969 0.9451
13.8344 2.6600 -0.9969 0.9451
13.7507 3.0630 -0.9969 0.9451
11.4358 2.7234 -0.8318 0.9540
10.5109 2.9955 -0.7734 0.9571
10.3978 3.1282 -0.7683 0.9574
10.2336 3.4079 -0.7632 0.9577
8.1586 2.9845 -0.6147 0.9658
7.8947 3.0195 -0.5981 0.9667
7.6478 3.0538 -0.5827 0.9675
7.4170 3.0880 -0.5685 0.9683
7.0948 3.2002 -0.5508 0.9693
7.0355 3.2981 -0.5498 0.9693
7.0014 3.4077 -0.5510 0.9693
6.8318 3.5758 -0.5456 0.9696
6.7741 3.6727 -0.5453 0.9696
7.1160 4.4145 -0.5926 0.9670
7.1339 4.5712 -0.5996 0.9666
7.1535 4.7327 -0.6069 0.9662
7.2418 5.4248 -0.6403 0.9644
7.2654 5.6102 -0.6495 0.9639
7.3308 6.1919 -0.6790 0.9623
5.7194 5.5954 -0.5662 0.9684
5.4752 5.8477 -0.5669 0.9684
5.3198 6.0254 -0.5688 0.9683
5.2423 6.1154 -0.5700 0.9682
5.0883 6.2992 -0.5730 0.9681
4.9325 6.4852 -0.5765 0.9679
8.2301 11.1554 -0.9810 0.9459
7.9003 11.3907 -0.9809 0.9459
7.5638 11.6163 -0.9809 0.9459
7.3931 11.7252 -0.9809 0.9459
7.2201 11.8305 -0.9807 0.9459
7.0463 11.9346 -0.9807 0.9459
6.6944 12.1349 -0.9807 0.9459
6.5162 12.2312 -0.9807 0.9459
6.1558 12.4160 -0.9806 0.9459
5.7902 12.5902 -0.9806 0.9459
3.5010 9.3579 -0.7070 0.9607
4.4738 13.1138 -0.9805 0.9460
3.6998 13.3516 -0.9804 0.9460
3.3080 13.4534 -0.9803 0.9460
3.1110 13.5000 -0.9803 0.9460
2.9133 13.5437 -0.9803 0.9460
2.5162 13.6226 -0.9803 0.9460
1.9168 13.7186 -0.9802 0.9460
1.5146 13.7686 -0.9801 0.9460
1.3136 13.7885 -0.9801 0.9460
0.9101 13.8203 -0.9801 0.9460
0.5058 13.8403 -0.9800 0.9460
0.3035 13.8459 -0.9800 0.9460
0.1012 13.8486 -0.9800 0.9460
-0.5058 13.8386 -0.9799 0.9460
-0.7079 13.8294 -0.9799 0.9460
-0.7631 9.4749 -0.6726 0.9626
-1.5144 13.7630 -0.9798 0.9460
-1.9158 13.7121 -0.9797 0.9460
-2.9112 13.5339 -0.9796 0.9460
-3.1085 13.4896 -0.9796 0.9460
-3.3052 13.4424 -0.9795 0.9460
-3.8908 13.2835 -0.9795 0.9460
-4.0844 13.2249 -0.9794 0.9460
-4.2771 13.1635 -0.9794 0.9460
-4.6596 13.0321 -0.9794 0.9460
-4.8494 12.9623 -0.9793 0.9460
-5.0381 12.8897 -0.9793 0.9460
-5.2258 12.8144 -0.9793 0.9460
-5.5977 12.6555 -0.9792 0.9460
-2.9985 6.2766 -0.4922 0.9725
-3.0687 6.1895 -0.4889 0.9727
-3.2418 6.0851 -0.4879 0.9727
-3.2674 5.9228 -0.4787 0.9732
-3.3158 5.6160 -0.4615 0.9742
-3.4229 4.9352 -0.4250 0.9762
-3.4424 4.8116 -0.4186 0.9766
-3.5319 4.2440 -0.3907 0.9781
-3.5498 4.1409 -0.3860 0.9784
-3.4687 3.9287 -0.3709 0.9792
-3.4970 3.8460 -0.3678 0.9794
-3.5503 3.7918 -0.3676 0.9794
-3.6238 3.7587 -0.3695 0.9793
-3.6667 3.5872 -0.3630 0.9796
-0.6971 0.6246 -0.0662 0.9963
-0.6330 0.5506 -0.0594 0.9966
-0.6311 0.5021 -0.0571 0.9968
-0.6297 0.4717 -0.0557 0.9969
-0.6282 0.4425 -0.0544 0.9969
-0.6258 0.4140 -0.0531 0.9970
-0.6222 0.3860 -0.0518 0.9971
-0.6205 0.3724 -0.0512 0.9971
-0.6171 0.3462 -0.0501 0.9972
-0.6154 0.3336 -0.0495 0.9972
-0.6136 0.3211 -0.0490 0.9972
-0.6068 0.2737 -0.0471 0.9973
-0.6051 0.2623 -0.0467 0.9974
-0.6035 0.2512 -0.0463 0.9974
-0.6023 0.2405 -0.0459 0.9974
-0.5975 0.1990 -0.0446 0.9975
-0.5955 0.1791 -0.0440 0.9975
-0.5907 0.1315 -0.0428 0.9976
-0.5897 0.1223 -0.0426 0.9976
-0.5886 0.1131 -0.0424 0.9976
-0.5865 0.0951 -0.0420 0.9976
-0.5842 0.0772 -0.0417 0.9976
-0.5832 0.0685 -0.0415 0.9976
-0.5823 0.0597 -0.0414 0.9977
-0.5774 0.0169 -0.0409 0.9977
-0.5763 0.0084 -0.0408 0.9977
-0.5548 -0.0001 -0.0454 0.9978
-0.5558 -0.0081 -0.0455 0.9978
-0.5577 -0.0245 -0.0457 0.9978
-0.5586 -0.0327 -0.0458 0.9978
-0.5612 -0.0576 -0.0462 0.9977
-0.5620 -0.0660 -0.0464 0.9977
-0.5636 -0.0830 -0.0467 0.9977
-0.5645 -0.0916 -0.0468 0.9977
-0.5664 -0.1089 -0.0472 0.9977
-0.5682 -0.1266 -0.0477 0.9977
-0.5691 -0.1355 -0.0479 0.9977
-0.5714 -0.1629 -0.0487 0.9976
-0.5722 -0.1721 -0.0489 0.9976
-0.5746 -0.2007 -0.0499 0.9976
-0.5756 -0.2106 -0.0502 0.9975
-0.5775 -0.2306 -0.0509 0.9975
-0.5793 -0.2512 -0.0517 0.9975
-0.5802 -0.2617 -0.0521 0.9974
-0.5812 -0.2725 -0.0526 0.9974
-0.5840 -0.2949 -0.0536 0.9974
-0.5867 -0.3181 -0.0547 0.9973
-0.5893 -0.3422 -0.0558 0.9973
-0.5906 -0.3545 -0.0564 0.9972
-0.5932 -0.3801 -0.0577 0.9972
-0.5945 -0.3933 -0.0584 0.9971
-0.5958 -0.4068 -0.0591 0.9971
-0.5971 -0.4206 -0.0598 0.9971
-0.5984 -0.4348 -0.0606 0.9970
-0.5998 -0.4632 -0.0621 0.9970
-0.6001 -0.4776 -0.0628 0.9969
-0.6766 -0.6429 -0.0764 0.9963
-8.5510 -8.6138 -0.9942 0.9525
-8.4244 -8.7379 -0.9942 0.9525
-8.1657 -8.9806 -0.9942 0.9525
-8.0337 -9.0992 -0.9942 0.9525
-7.7647 -9.3303 -0.9942 0.9525
-7.3487 -9.6621 -0.9943 0.9524
-7.0635 -9.8730 -0.9943 0.9524
-6.9186 -9.9754 -0.9943 0.9524
-6.7722 -10.0755 -0.9944 0.9524
-4.9461 -8.3774 -0.7968 0.9617
-4.6175 -8.3703 -0.7830 0.9624
-4.4575 -8.3669 -0.7765 0.9627
-4.1501 -8.3705 -0.7653 0.9632
-3.9966 -8.3661 -0.7594 0.9635
-3.8455 -8.3617 -0.7538 0.9637
-3.6965 -8.3573 -0.7485 0.9640
-3.5501 -8.3541 -0.7435 0.9642
-1.0694 -2.8584 -0.2500 0.9878
-1.0291 -2.8784 -0.2504 0.9878
-0.9888 -2.8984 -0.2508 0.9878
-0.9357 -2.8798 -0.2480 0.9879
-0.9075 -2.9386 -0.2519 0.9877
-0.8667 -2.9589 -0.2525 0.9877
-0.7059 -2.7002 -0.2286 0.9889
-0.6890 -2.8020 -0.2363 0.9885
-0.6513 -3.0278 -0.2537 0.9876
-0.5660 -2.8319 -0.2365 0.9885
-0.5485 -2.9694 -0.2473 0.9880
-0.5120 -3.0180 -0.2507 0.9878
-0.4080 -2.9207 -0.2415 0.9882
-0.3561 -2.8527 -0.2355 0.9885
-0.3060 -2.7806 -0.2291 0.9888
-0.2584 -2.7123 -0.2232 0.9891
-0.1473 -2.8782 -0.2361 0.9885
-0.1042 -2.8523 -0.2338 0.9886
0.0221 -3.0279 -0.2480 0.9879
0.0663 -3.0229 -0.2477 0.9879
0.1103 -3.0179 -0.2474 0.9880
0.4402 -8.6009 -0.7054 0.9660
0.7967 -8.3632 -0.6881 0.9668
0.9156 -8.3217 -0.6857 0.9670
1.0395 -8.3264 -0.6873 0.9669
1.4504 -8.5498 -0.7103 0.9658
1.5789 -8.5483 -0.7120 0.9657
1.8388 -8.5483 -0.7162 0.9655
2.2351 -8.5495 -0.7238 0.9652
2.3699 -8.5524 -0.7269 0.9650
2.6431 -8.5582 -0.7337 0.9647
2.7817 -8.5612 -0.7373 0.9645
3.6689 -9.8068 -0.8576 0.9588
3.4302 -8.4113 -0.7440 0.9642
3.6585 -8.2714 -0.7408 0.9644
3.8126 -8.2901 -0.7474 0.9640
5.1460 -10.7719 -0.9778 0.9532
5.4588 -10.6173 -0.9778 0.9532
5.6134 -10.5367 -0.9779 0.9532
5.7669 -10.4537 -0.9779 0.9532
6.1819 -10.4706 -0.9959 0.9524
6.3344 -10.3793 -0.9960 0.9524
6.4855 -10.2859 -0.9960 0.9524
6.6352 -10.1902 -0.9960 0.9524
6.7835 -10.0923 -0.9960 0.9524
6.9304 -9.9923 -0.9960 0.9524
6.9047 -8.8082 -0.9167 0.9561
8.1821 -8.9986 -0.9962 0.9524
8.3128 -8.8782 -0.9962 0.9524
8.5690 -8.6318 -0.9962 0.9524
8.6943 -8.5058 -0.9963 0.9524
3.7993 -3.4043 -0.4178 0.9797
3.8598 -3.3580 -0.4190 0.9797
3.9205 -3.3115 -0.4203 0.9796
3.9817 -3.2647 -0.4217 0.9795
4.0207 -3.1047 -0.4161 0.9798
4.1006 -3.0718 -0.4197 0.9796
4.0709 -2.9577 -0.4122 0.9800
4.1602 -2.8407 -0.4126 0.9800
4.2048 -2.7819 -0.4130 0.9800
4.4746 -2.8673 -0.4353 0.9789
10.3378 -6.4132 -0.9965 0.9523
10.4305 -6.2616 -0.9965 0.9523
6.8870 -3.6047 -0.6367 0.9693
6.8797 -3.3486 -0.6267 0.9698
6.6067 -3.0971 -0.5976 0.9711
6.4788 -2.9225 -0.5822 0.9719
7.2809 -3.1571 -0.6500 0.9687
7.6064 -2.9092 -0.6670 0.9678
8.0052 -2.6659 -0.6911 0.9667
8.4127 -2.6657 -0.7228 0.9652
8.5193 -2.5631 -0.7287 0.9649
10.9184 -2.9399 -0.9262 0.9556
11.6136 -2.9457 -0.9814 0.9531
11.6554 -2.7757 -0.9814 0.9531
11.6948 -2.6052 -0.9814 0.9531
11.7317 -2.4340 -0.9814 0.9531
11.7896 -2.2669 -0.9834 0.9530
12.0384 -1.7717 -0.9967 0.9523
12.1214 -1.0655 -0.9967 0.9523
12.1566 -0.5332 -0.9967 0.9523
12.1669 -0.1778 -0.9967 0.9523
12.1566 0.5332 -0.9967 0.9523
12.1214 1.0654 -0.9967 0.9523
12.1046 1.2424 -0.9967 0.9523
12.0112 1.9473 -0.9967 0.9523
11.9491 2.2975 -0.9967 0.9523
11.8767 2.6456 -0.9966 0.9523
11.8368 2.8189 -0.9966 0.9523
11.7943 2.9915 -0.9966 0.9523
11.7492 3.1635 -0.9966 0.9523
11.7017 3.3348 -0.9966 0.9523
11.6516 3.5054 -0.9966 0.9523
11.5991 3.6752 -0.9966 0.9523
10.2863 3.4255 -0.8880 0.9574
10.1727 3.5536 -0.8826 0.9577
8.4688 3.2390 -0.7427 0.9643
7.6800 3.0667 -0.6774 0.9674
7.1021 3.2036 -0.6382 0.9692
6.9107 3.4895 -0.6341 0.9694
6.8160 3.5675 -0.6301 0.9696
6.7587 3.6643 -0.6297 0.9696
7.1392 4.5747 -0.6945 0.9665
7.1576 4.7354 -0.7030 0.9661
7.1958 5.0691 -0.7210 0.9653
7.2157 5.2425 -0.7305 0.9648
7.2375 5.4216 -0.7407 0.9644
7.2610 5.6068 -0.7514 0.9639
9.5184 7.5744 -0.9964 0.9524
7.5450 6.1862 -0.7992 0.9616
7.3521 6.2100 -0.7883 0.9621
7.2418 6.3003 -0.7862 0.9622
7.1838 6.4367 -0.7901 0.9620
8.7777 8.0990 -0.9783 0.9532
8.6583 8.2262 -0.9782 0.9532
8.5371 8.3518 -0.9782 0.9532
5.6464 5.6879 -0.6565 0.9683
5.5624 5.7695 -0.6564 0.9683
5.0943 6.3067 -0.6640 0.9680
5.0165 6.3995 -0.6660 0.9679
7.0891 9.6086 -0.9781 0.9532
6.9479 9.7111 -0.9780 0.9532
6.8051 9.8113 -0.9780 0.9532
6.6609 9.9095 -0.9780 0.9532
6.3862 10.1283 -0.9807 0.9531
6.0874 10.3102 -0.9807 0.9531
5.7833 10.4833 -0.9807 0.9531
5.6293 10.5665 -0.9806 0.9531
5.0021 10.8764 -0.9806 0.9531
4.8426 10.9482 -0.9806 0.9531
4.5204 11.0846 -0.9805 0.9531
4.3579 11.1492 -0.9805 0.9531
3.4992 9.3531 -0.8180 0.9607
3.2853 9.6298 -0.8334 0.9600
3.5320 11.4364 -0.9804 0.9531
3.3645 11.4865 -0.9804 0.9531
3.0273 11.5795 -0.9803 0.9531
2.8577 11.6222 -0.9803 0.9531
2.6875 11.6625 -0.9803 0.9531
2.5232 11.7302 -0.9828 0.9530
2.3455 11.7355 -0.9802 0.9531
1.8289 11.8263 -0.9802 0.9531
1.4824 11.8742 -0.9801 0.9531
1.1348 11.9119 -0.9801 0.9531
0.2622 11.9617 -0.9800 0.9531
-0.0874 11.9637 -0.9800 0.9531
-0.2622 11.9609 -0.9799 0.9531
-0.4369 11.9555 -0.9799 0.9531
-0.6116 11.9476 -0.9799 0.9531
-0.7859 11.9359 -0.9798 0.9531
-0.7637 9.4822 -0.7792 0.9625
-1.1344 11.9073 -0.9797 0.9531
-1.3082 11.8892 -0.9797 0.9531
-1.4817 11.8685 -0.9797 0.9531
-2.0003 11.7914 -0.9796 0.9531
-3.0246 11.5693 -0.9795 0.9531
-3.6949 11.3718 -0.9794 0.9531
-3.8611 11.3179 -0.9795 0.9531
-4.0260 11.2601 -0.9795 0.9531
-4.1900 11.1998 -0.9795 0.9531
-4.3531 11.1371 -0.9794 0.9531
-4.5153 11.0721 -0.9794 0.9531
-4.6765 11.0048 -0.9794 0.9531
-4.8367 10.9350 -0.9794 0.9531
-2.9352 6.3823 -0.5754 0.9722
-3.1410 6.1093 -0.5627 0.9728
-3.2901 5.7634 -0.5436 0.9737
-3.3794 5.1900 -0.5073 0.9755
-3.4202 4.9313 -0.4916 0.9762
-3.4770 4.5715 -0.4704 0.9772
-3.4948 4.4582 -0.4640 0.9775
-3.4000 3.9662 -0.4279 0.9793
-3.4492 3.7934 -0.4200 0.9796
-3.5719 3.7047 -0.4215 0.9796
-0.6008 0.5383 -0.0661 0.9968
-0.6007 0.5226 -0.0652 0.9968
-0.6004 0.4922 -0.0636 0.9969
-0.6001 0.4775 -0.0628 0.9969
-0.5998 0.4632 -0.0621 0.9970
-0.5971 0.4206 -0.0598 0.9971
-0.5958 0.4068 -0.0591 0.9971
-0.5932 0.3801 -0.0577 0.9972
-0.5880 0.3299 -0.0552 0.9973
-0.5840 0.2948 -0.0536 0.9974
-0.5812 0.2724 -0.0526 0.9974
-0.5793 0.2512 -0.0517 0.9975
-0.5775 0.2306 -0.0509 0.9975
-0.5736 0.1910 -0.0495 0.9976
-0.5729 0.1815 -0.0492 0.9976
-0.5714 0.1629 -0.0487 0.9976
-0.5707 0.1536 -0.0484 0.9976
-0.5699 0.1445 -0.0482 0.9976
-0.5682 0.1266 -0.0477 0.9977
-0.5673 0.1177 -0.0475 0.9977
-0.5655 0.1002 -0.0470 0.9977
-0.5636 0.0829 -0.0467 0.9977
-0.5628 0.0744 -0.0465 0.9977
-0.5604 0.0492 -0.0461 0.9977
-0.5595 0.0409 -0.0460 0.9978
-0.5577 0.0244 -0.0457 0.9978
-0.5357 0.0000 -0.0499 0.9979
-0.5366 -0.0079 -0.0500 0.9978
-0.5401 -0.0395 -0.0504 0.9978
-0.5409 -0.0476 -0.0505 0.9978
-0.5437 -0.0800 -0.0512 0.9978
-0.5450 -0.0966 -0.0515 0.9978
-0.5458 -0.1050 -0.0517 0.9978
-0.5465 -0.1134 -0.0520 0.9978
-0.5480 -0.1305 -0.0524 0.9977
-0.5487 -0.1392 -0.0527 0.9977
-0.5494 -0.1479 -0.0530 0.9977
-0.5500 -0.1568 -0.0532 0.9977
-0.5517 -0.1838 -0.0541 0.9977
-0.5539 -0.2119 -0.0552 0.9976
-0.5546 -0.2215 -0.0556 0.9976
-0.5553 -0.2312 -0.0560 0.9976
-0.5560 -0.2411 -0.0564 0.9976
-0.5567 -0.2511 -0.0568 0.9975
-0.5585 -0.2820 -0.0582 0.9975
-0.5605 -0.3039 -0.0593 0.9974
-0.5615 -0.3151 -0.0599 0.9974
-0.5634 -0.3382 -0.0612 0.9974
-0.5652 -0.3622 -0.0625 0.9973
-0.5679 -0.4001 -0.0647 0.9972
-0.5688 -0.4133 -0.0654 0.9972
-0.5704 -0.4405 -0.0671 0.9971
-0.5713 -0.5120 -0.0714 0.9969
-0.5710 -0.5269 -0.0723 0.9969
-0.6549 -0.6597 -0.0865 0.9963
-7.4146 -7.6905 -0.9943 0.9580
-7.3015 -7.7982 -0.9943 0.9580
-7.1869 -7.9042 -0.9943 0.9580
-6.9531 -8.1110 -0.9943 0.9580
-6.5912 -8.4083 -0.9944 0.9580
-6.4678 -8.5039 -0.9944 0.9580
-6.0892 -8.7795 -0.9945 0.9580
-5.9603 -8.8677 -0.9945 0.9580
-5.5663 -9.1208 -0.9945 0.9580
-4.6175 -8.3703 -0.8897 0.9623
-4.4574 -8.3669 -0.8824 0.9626
-4.8861 -9.5036 -0.9946 0.9580
-4.7468 -9.5741 -0.9946 0.9580
-4.4652 -9.7091 -0.9946 0.9580
-4.3229 -9.7734 -0.9947 0.9580
-4.1797 -9.8357 -0.9947 0.9580
-1.1545 -2.8311 -0.2846 0.9878
-1.1143 -2.8509 -0.2849 0.9878
-1.0740 -2.8708 -0.2853 0.9878
-1.0336 -2.8908 -0.2857 0.9877
-0.9930 -2.9109 -0.2863 0.9877
-0.7177 -2.5900 -0.2501 0.9893
-0.7017 -2.6843 -0.2582 0.9889
-0.6847 -2.7849 -0.2669 0.9885
-0.6269 -2.7204 -0.2598 0.9888
-0.6470 -3.0080 -0.2864 0.9877
-0.5808 -2.9061 -0.2758 0.9882
-0.5482 -2.9680 -0.2809 0.9879
-0.5099 -3.0057 -0.2837 0.9878
-0.4579 -2.9610 -0.2789 0.9880
-0.4071 -2.9137 -0.2738 0.9883
-0.2572 -2.6994 -0.2524 0.9892
-0.2222 -2.7583 -0.2576 0.9889
-0.1565 -3.0567 -0.2849 0.9878
-0.0222 -3.0413 -0.2831 0.9879
0.0222 -3.0362 -0.2826 0.9879
0.1106 -3.0262 -0.2819 0.9879
0.5368 -10.4860 -0.9772 0.9587
0.6899 -10.4772 -0.9773 0.9587
0.7992 -8.3895 -0.7844 0.9667
1.0426 -8.3512 -0.7833 0.9668
1.1776 -8.4286 -0.7921 0.9664
1.7887 -10.5442 -0.9954 0.9579
1.9426 -10.5171 -0.9954 0.9579
2.0961 -10.4878 -0.9954 0.9579
2.4018 -10.4224 -0.9955 0.9579
2.5538 -10.3864 -0.9955 0.9579
3.0067 -10.2651 -0.9956 0.9579
3.1564 -10.2203 -0.9956 0.9579
3.3055 -10.1732 -0.9956 0.9579
3.7483 -10.0191 -0.9956 0.9579
3.4537 -8.4690 -0.8513 0.9639
3.6788 -8.3171 -0.8465 0.9641
3.8477 -8.3663 -0.8571 0.9637
4.6117 -9.6535 -0.9958 0.9579
5.1681 -9.3683 -0.9958 0.9579
5.4398 -9.2136 -0.9959 0.9579
5.5739 -9.1332 -0.9959 0.9579
5.9691 -8.8806 -0.9959 0.9579
6.0983 -8.7926 -0.9959 0.9579
6.2262 -8.7027 -0.9960 0.9579
6.4781 -8.5173 -0.9960 0.9579
6.8454 -8.2256 -0.9960 0.9579
6.9649 -8.1248 -0.9960 0.9579
7.1996 -7.9181 -0.9961 0.9579
7.3146 -7.8122 -0.9961 0.9579
7.5400 -7.5953 -0.9961 0.9579
7.6502 -7.4845 -0.9961 0.9579
7.7589 -7.3719 -0.9961 0.9579
7.8659 -7.2579 -0.9962 0.9579
3.9303 -3.3198 -0.4788 0.9795
3.9917 -3.2729 -0.4804 0.9795
4.0313 -3.2080 -0.4795 0.9795
4.1230 -3.0886 -0.4795 0.9795
4.1958 -2.9557 -0.4777 0.9796
9.0962 -5.6430 -0.9963 0.9579
9.2573 -5.3749 -0.9963 0.9579
7.0049 -3.9314 -0.7476 0.9682
6.9387 -3.3773 -0.7183 0.9695
6.8145 -3.1945 -0.7005 0.9702
6.5472 -2.8390 -0.6642 0.9717
7.3025 -2.9160 -0.7319 0.9689
8.0051 -2.9284 -0.7934 0.9663
8.0096 -2.6673 -0.7857 0.9667
10.1383 -2.8893 -0.9812 0.9585
10.2185 -2.5919 -0.9812 0.9585
10.2553 -2.4423 -0.9812 0.9585
10.4830 -2.1750 -0.9965 0.9579
10.5421 -1.8677 -0.9965 0.9579
10.5683 -1.7135 -0.9965 0.9579
10.5922 -1.5589 -0.9965 0.9579
10.6333 -1.2487 -0.9965 0.9579
10.6653 -0.9375 -0.9965 0.9579
10.6882 -0.6255 -0.9965 0.9579
10.6962 -0.4692 -0.9965 0.9579
10.7019 -0.3129 -0.9965 0.9579
10.7054 -0.1565 -0.9965 0.9579
10.7053 0.1564 -0.9965 0.9579
10.7019 0.3128 -0.9965 0.9579
10.6962 0.4691 -0.9965 0.9579
10.6882 0.6254 -0.9965 0.9579
10.6779 0.7815 -0.9965 0.9579
10.6653 0.9374 -0.9965 0.9579
10.6139 1.4039 -0.9965 0.9579
10.5923 1.5588 -0.9965 0.9579
10.5683 1.7134 -0.9965 0.9579
10.5421 1.8677 -0.9965 0.9579
10.5137 2.0215 -0.9965 0.9579
10.4830 2.1748 -0.9965 0.9579
10.3775 2.6321 -0.9965 0.9579
10.1068 3.5305 -0.9964 0.9579
8.3545 3.3360 -0.8373 0.9645
8.2451 3.5751 -0.8364 0.9645
9.6930 4.5439 -0.9964 0.9579
6.9168 3.4925 -0.7212 0.9694
6.8200 3.5696 -0.7165 0.9695
6.7625 3.6663 -0.7160 0.9696
6.7775 3.9350 -0.7294 0.9690
9.1778 5.5095 -0.9963 0.9579
8.9273 5.9062 -0.9963 0.9579
8.8399 6.0360 -0.9963 0.9579
8.7507 6.1644 -0.9963 0.9579
8.6596 6.2915 -0.9963 0.9579
8.4719 6.5417 -0.9962 0.9579
8.2769 6.7863 -0.9962 0.9579
7.3005 6.3514 -0.9007 0.9619
7.6503 7.4844 -0.9961 0.9579
5.5733 5.7807 -0.7474 0.9683
5.4921 5.8657 -0.7479 0.9682
5.2580 6.1337 -0.7519 0.9681
5.1004 6.3142 -0.7555 0.9679
6.4825 8.2693 -0.9780 0.9587
6.3609 8.3630 -0.9780 0.9587
6.2379 8.4550 -0.9780 0.9587
6.1137 8.5451 -0.9779 0.9587
5.8612 8.7198 -0.9779 0.9587
5.4731 8.9678 -0.9779 0.9587
5.3414 9.0467 -0.9778 0.9587
5.2086 9.1236 -0.9778 0.9587
5.0747 9.1986 -0.9778 0.9587
4.5283 9.4787 -0.9777 0.9587
4.2493 9.6066 -0.9777 0.9587
4.1083 9.6675 -0.9777 0.9587
3.9666 9.7263 -0.9777 0.9587
3.8240 9.7831 -0.9777 0.9587
3.4974 9.3484 -0.9290 0.9607
3.1081 10.0638 -0.9803 0.9586
2.9607 10.1079 -0.9803 0.9586
2.2147 10.2961 -0.9802 0.9586
2.0640 10.3272 -0.9802 0.9586
1.7613 10.3827 -0.9802 0.9586
0.8453 10.4959 -0.9801 0.9586
0.6919 10.5069 -0.9800 0.9586
0.2308 10.5265 -0.9800 0.9586
0.0769 10.5286 -0.9800 0.9586
-0.2307 10.5259 -0.9799 0.9586
-0.5382 10.5143 -0.9799 0.9586
-0.6917 10.5052 -0.9799 0.9586
-0.9984 10.4800 -0.9798 0.9586
-1.1514 10.4641 -0.9798 0.9586
-1.3041 10.4459 -0.9798 0.9586
-1.9120 10.3512 -0.9797 0.9586
-2.0630 10.3219 -0.9797 0.9586
