ply
format ascii 1.0
element vertex 1596
property float32 x
property float32 y
property float32 z
property float32 I
end_header
0.7954 -3.9799 -0.9797 0.9834
1.0266 -3.9267 -0.9797 0.9834
1.0838 -3.9112 -0.9798 0.9834
1.2542 -3.8600 -0.9798 0.9834
1.3105 -3.8412 -0.9798 0.9834
1.3665 -3.8217 -0.9798 0.9834
1.4221 -3.8014 -0.9798 0.9834
1.4775 -3.7802 -0.9798 0.9834
1.6418 -3.7118 -0.9798 0.9834
1.4637 -3.1827 -0.8456 0.9857
1.5427 -3.1114 -0.8383 0.9858
1.6587 -3.0067 -0.8289 0.9860
1.6968 -2.9723 -0.8262 0.9860
2.1143 -3.4645 -0.9798 0.9834
2.2147 -3.4012 -0.9798 0.9834
2.2641 -3.3685 -0.9798 0.9834
2.3131 -3.3350 -0.9798 0.9834
2.3616 -3.3009 -0.9798 0.9834
2.4096 -3.2661 -0.9798 0.9834
2.5040 -3.1943 -0.9798 0.9834
2.5963 -3.1197 -0.9798 0.9834
2.6416 -3.0814 -0.9798 0.9834
2.7305 -3.0030 -0.9798 0.9834
2.9424 -2.7956 -0.9798 0.9834
2.9829 -2.7523 -0.9798 0.9834
3.0228 -2.7085 -0.9798 0.9834
3.0621 -2.6640 -0.9798 0.9834
3.2836 -2.3856 -0.9798 0.9834
3.6236 -1.9646 -0.9950 0.9832
3.6519 -1.9114 -0.9950 0.9832
3.6794 -1.8579 -0.9950 0.9832
3.7322 -1.7496 -0.9950 0.9832
3.8499 -1.4724 -0.9950 0.9832
3.8710 -1.4160 -0.9950 0.9832
3.9293 -1.2451 -0.9950 0.9832
3.9471 -1.1875 -0.9950 0.9832
3.9641 -1.1297 -0.9950 0.9832
3.9801 -1.0717 -0.9950 0.9832
3.9954 -1.0134 -0.9950 0.9832
4.0098 -0.9549 -0.9950 0.9832
4.0360 -0.8373 -0.9950 0.9832
4.0478 -0.7783 -0.9950 0.9832
4.0780 -0.6002 -0.9950 0.9832
4.0863 -0.5405 -0.9950 0.9832
4.0938 -0.4807 -0.9950 0.9832
4.1004 -0.4209 -0.9950 0.9832
4.1109 -0.3009 -0.9950 0.9832
4.1149 -0.2407 -0.9950 0.9832
4.1179 -0.1806 -0.9950 0.9832
4.1201 0.1204 -0.9950 0.9832
4.1149 0.2408 -0.9950 0.9832
4.1109 0.3009 -0.9950 0.9832
4.1004 0.4209 -0.9950 0.9832
4.0938 0.4807 -0.9950 0.9832
4.0780 0.6002 -0.9950 0.9832
4.0587 0.7191 -0.9950 0.9832
4.0478 0.7783 -0.9950 0.9832
4.0360 0.8373 -0.9950 0.9832
3.9954 1.0134 -0.9950 0.9832
3.9641 1.1297 -0.9950 0.9832
3.9107 1.3023 -0.9950 0.9832
3.8499 1.4724 -0.9950 0.9832
3.7817 1.6397 -0.9950 0.9832
3.7062 1.8039 -0.9950 0.9832
3.5945 2.0173 -0.9950 0.9832
3.5646 2.0696 -0.9950 0.9832
3.5026 2.1729 -0.9950 0.9832
3.4705 2.2238 -0.9950 0.9832
3.4377 2.2743 -0.9950 0.9832
3.4040 2.3243 -0.9950 0.9832
3.3346 2.4228 -0.9950 0.9832
3.1875 2.6134 -0.9950 0.9832
3.0699 2.7506 -0.9950 0.9832
3.0293 2.7952 -0.9950 0.9832
2.9882 2.8391 -0.9950 0.9832
2.9464 2.8825 -0.9950 0.9832
2.9039 2.9252 -0.9950 0.9832
2.8609 2.9673 -0.9950 0.9832
2.5901 3.2064 -0.9950 0.9832
2.5429 3.2439 -0.9950 0.9832
2.4953 3.2807 -0.9950 0.9832
2.3491 3.3869 -0.9950 0.9832
2.2993 3.4209 -0.9950 0.9832
2.2491 3.4541 -0.9950 0.9832
2.1984 3.4866 -0.9950 0.9832
1.9380 3.6378 -0.9950 0.9832
1.8309 3.6929 -0.9950 0.9832
1.7767 3.7192 -0.9950 0.9832
1.7222 3.7448 -0.9950 0.9832
1.6673 3.7695 -0.9950 0.9832
1.2737 3.9201 -0.9950 0.9832
1.1007 3.9721 -0.9950 0.9832
1.0425 3.9878 -0.9950 0.9832
0.9842 4.0026 -0.9950 0.9832
0.8668 4.0296 -0.9950 0.9832
0.6894 4.0637 -0.9950 0.9832
0.6299 4.0734 -0.9950 0.9832
0.5703 4.0821 -0.9950 0.9832
0.3909 4.1032 -0.9950 0.9832
0.3309 4.1084 -0.9950 0.9832
0.2107 4.1164 -0.9950 0.9832
0.1505 4.1190 -0.9950 0.9832
0.0301 4.1216 -0.9950 0.9832
-0.1505 4.1190 -0.9950 0.9832
-0.2708 4.1128 -0.9950 0.9832
-0.4508 4.0970 -0.9950 0.9832
-0.5106 4.0900 -0.9950 0.9832
-0.5703 4.0821 -0.9950 0.9832
-0.8078 4.0418 -0.9950 0.9832
-0.9256 4.0164 -0.9950 0.9832
-0.9841 4.0025 -0.9950 0.9832
-1.0425 3.9877 -0.9950 0.9832
-1.2737 3.9200 -0.9950 0.9832
-1.4442 3.8604 -0.9950 0.9832
-1.5005 3.8389 -0.9950 0.9832
-1.5564 3.8166 -0.9950 0.9832
-1.6120 3.7934 -0.9950 0.9832
-0.3388 0.6833 -0.1841 0.9969
-0.3237 0.6296 -0.1709 0.9971
-0.3083 0.5589 -0.1541 0.9974
-0.3114 0.5454 -0.1516 0.9974
-0.3197 0.5070 -0.1447 0.9975
-0.3222 0.4948 -0.1426 0.9976
-0.3247 0.4830 -0.1405 0.9976
-0.3291 0.4600 -0.1365 0.9977
-0.3312 0.4489 -0.1347 0.9977
-0.3468 0.3814 -0.1244 0.9979
-0.3490 0.3727 -0.1233 0.9979
-0.3531 0.3557 -0.1210 0.9979
-0.3548 0.3471 -0.1198 0.9980
-0.3587 0.3214 -0.1163 0.9980
-0.3609 0.3048 -0.1141 0.9981
-0.3620 0.2968 -0.1130 0.9981
-0.3630 0.2889 -0.1120 0.9981
-0.3657 0.2657 -0.1091 0.9981
-0.3672 0.2507 -0.1073 0.9982
-0.3685 0.2362 -0.1057 0.9982
-0.3697 0.2220 -0.1041 0.9982
-0.3707 0.2080 -0.1026 0.9983
-0.3722 0.1880 -0.1007 0.9983
-0.3738 0.1752 -0.0997 0.9983
-0.3749 0.1625 -0.0986 0.9983
-0.3754 0.1562 -0.0982 0.9983
-0.3758 0.1501 -0.0977 0.9983
-0.3767 0.1378 -0.0968 0.9984
-0.3773 0.1256 -0.0960 0.9984
-0.3776 0.1196 -0.0956 0.9984
-0.3778 0.1137 -0.0952 0.9984
-0.3780 0.1077 -0.0949 0.9984
-0.3783 0.1019 -0.0946 0.9984
-0.3784 0.0960 -0.0942 0.9984
-0.3785 0.0902 -0.0939 0.9984
-0.3786 0.0843 -0.0936 0.9984
-0.3787 0.0786 -0.0934 0.9984
-0.3787 0.0729 -0.0931 0.9984
-0.3787 0.0671 -0.0928 0.9984
-0.3787 0.0614 -0.0926 0.9984
-0.3786 0.0501 -0.0922 0.9984
-0.3783 0.0388 -0.0918 0.9984
-0.3777 0.0221 -0.0913 0.9984
-0.3775 0.0166 -0.0912 0.9984
-0.3772 0.0110 -0.0911 0.9984
-0.3704 -0.0054 -0.0938 0.9985
-0.3707 -0.0109 -0.0939 0.9985
-0.3718 -0.0381 -0.0946 0.9985
-0.3720 -0.0492 -0.0950 0.9985
-0.3721 -0.0547 -0.0952 0.9984
-0.3721 -0.0604 -0.0954 0.9984
-0.3721 -0.0716 -0.0959 0.9984
-0.3720 -0.0772 -0.0962 0.9984
-0.3717 -0.0943 -0.0971 0.9984
-0.3715 -0.1000 -0.0974 0.9984
-0.3713 -0.1058 -0.0977 0.9984
-0.3711 -0.1116 -0.0981 0.9984
-0.3708 -0.1175 -0.0985 0.9984
-0.3705 -0.1234 -0.0989 0.9984
-0.3694 -0.1412 -0.1001 0.9984
-0.3684 -0.1534 -0.1010 0.9984
-0.3668 -0.1720 -0.1025 0.9983
-0.3660 -0.1782 -0.1031 0.9983
-0.3652 -0.1844 -0.1036 0.9983
-0.3643 -0.1907 -0.1041 0.9983
-0.3637 -0.1972 -0.1047 0.9983
-0.3602 -0.2383 -0.1093 0.9982
-0.3595 -0.2454 -0.1102 0.9982
-0.3587 -0.2527 -0.1111 0.9982
-0.3570 -0.2674 -0.1129 0.9982
-0.3529 -0.2980 -0.1169 0.9981
-0.3517 -0.3060 -0.1180 0.9981
-0.3505 -0.3141 -0.1191 0.9981
-0.3493 -0.3222 -0.1203 0.9980
-0.3479 -0.3305 -0.1215 0.9980
-0.3465 -0.3390 -0.1227 0.9980
-0.3386 -0.3724 -0.1274 0.9979
-0.3341 -0.3897 -0.1300 0.9979
-0.3318 -0.3986 -0.1313 0.9979
-0.3242 -0.4262 -0.1356 0.9978
-0.3169 -0.4569 -0.1408 0.9977
-0.3145 -0.4679 -0.1427 0.9977
-0.3067 -0.5026 -0.1491 0.9976
-0.3039 -0.5147 -0.1513 0.9975
-0.3009 -0.5271 -0.1537 0.9975
-0.2946 -0.5529 -0.1586 0.9974
-0.2911 -0.5662 -0.1612 0.9974
-0.3001 -0.6053 -0.1710 0.9972
-0.3125 -0.6541 -0.1835 0.9970
-0.3267 -0.7102 -0.1979 0.9968
-1.4614 -3.5835 -0.9797 0.9842
-1.3561 -3.6247 -0.9797 0.9842
-1.3030 -3.6441 -0.9797 0.9842
-1.2496 -3.6628 -0.9797 0.9842
-1.1959 -3.6806 -0.9797 0.9842
-1.1420 -3.6977 -0.9797 0.9842
-1.0335 -3.7295 -0.9797 0.9842
-0.9241 -3.7581 -0.9797 0.9842
-0.8690 -3.7713 -0.9797 0.9842
-0.7585 -3.7950 -0.9797 0.9842
-0.7030 -3.8057 -0.9797 0.9842
-0.6473 -3.8156 -0.9797 0.9842
-0.5355 -3.8328 -0.9797 0.9842
-0.4794 -3.8403 -0.9797 0.9842
-0.4233 -3.8469 -0.9797 0.9842
-0.3107 -3.8576 -0.9797 0.9842
-0.2543 -3.8617 -0.9797 0.9842
-0.0848 -3.8692 -0.9797 0.9842
-0.0283 -3.8700 -0.9797 0.9842
0.0283 -3.8700 -0.9797 0.9842
0.0848 -3.8691 -0.9797 0.9842
0.1413 -3.8675 -0.9797 0.9842
0.1979 -3.8651 -0.9797 0.9842
0.2543 -3.8617 -0.9797 0.9842
0.3107 -3.8576 -0.9797 0.9842
0.3670 -3.8527 -0.9797 0.9842
0.4233 -3.8469 -0.9797 0.9842
0.5355 -3.8329 -0.9797 0.9842
0.6473 -3.8156 -0.9797 0.9842
0.7585 -3.7951 -0.9797 0.9842
0.8138 -3.7836 -0.9797 0.9842
0.9241 -3.7582 -0.9797 0.9842
1.0335 -3.7296 -0.9798 0.9842
1.1959 -3.6807 -0.9798 0.9842
1.2496 -3.6629 -0.9798 0.9842
1.3561 -3.6248 -0.9798 0.9842
1.4089 -3.6046 -0.9798 0.9842
1.5655 -3.5394 -0.9798 0.9842
1.4637 -3.1827 -0.8868 0.9856
1.5033 -3.1469 -0.8829 0.9857
1.6203 -3.0413 -0.8724 0.9859
1.6968 -2.9722 -0.8664 0.9860
2.0642 -3.2737 -0.9798 0.9842
2.1589 -3.2120 -0.9798 0.9842
2.2057 -3.1801 -0.9798 0.9842
2.2519 -3.1475 -0.9798 0.9842
2.2976 -3.1143 -0.9798 0.9842
2.3429 -3.0804 -0.9798 0.9842
2.3877 -3.0459 -0.9798 0.9842
2.5188 -2.9383 -0.9798 0.9842
2.6036 -2.8635 -0.9798 0.9842
2.6452 -2.8251 -0.9798 0.9842
2.7665 -2.7065 -0.9798 0.9842
2.8444 -2.6245 -0.9798 0.9842
2.8824 -2.5827 -0.9798 0.9842
2.9198 -2.5403 -0.9798 0.9842
2.9567 -2.4973 -0.9798 0.9842
2.9928 -2.4539 -0.9798 0.9842
3.0633 -2.3654 -0.9798 0.9842
3.1798 -2.3102 -0.9950 0.9839
3.2780 -2.1687 -0.9950 0.9839
3.3093 -2.1206 -0.9950 0.9839
3.3399 -2.0720 -0.9950 0.9839
3.3698 -2.0230 -0.9950 0.9839
3.4553 -1.8733 -0.9950 0.9839
3.5340 -1.7201 -0.9950 0.9839
3.5588 -1.6684 -0.9950 0.9839
3.6060 -1.5636 -0.9950 0.9839
3.6711 -1.4041 -0.9950 0.9839
3.7291 -1.2418 -0.9950 0.9839
3.7638 -1.1324 -0.9950 0.9839
3.7799 -1.0773 -0.9950 0.9839
3.8235 -0.9106 -0.9950 0.9839
3.8364 -0.8546 -0.9950 0.9839
3.8597 -0.7421 -0.9950 0.9839
3.8798 -0.6291 -0.9950 0.9839
3.8965 -0.5154 -0.9950 0.9839
3.9153 -0.3441 -0.9950 0.9839
3.9237 -0.2296 -0.9950 0.9839
3.9300 -0.0574 -0.9950 0.9839
3.9267 0.1722 -0.9950 0.9839
3.9200 0.2869 -0.9950 0.9839
3.9099 0.4013 -0.9950 0.9839
3.9036 0.4584 -0.9950 0.9839
3.8965 0.5154 -0.9950 0.9839
3.8885 0.5723 -0.9950 0.9839
3.8798 0.6291 -0.9950 0.9839
3.8702 0.6856 -0.9950 0.9839
3.8597 0.7421 -0.9950 0.9839
3.8364 0.8546 -0.9950 0.9839
3.8098 0.9663 -0.9950 0.9839
3.7291 1.2418 -0.9950 0.9839
3.6912 1.3503 -0.9950 0.9839
3.6502 1.4576 -0.9950 0.9839
3.4823 1.8227 -0.9950 0.9839
3.3991 1.9735 -0.9950 0.9839
3.3698 2.0230 -0.9950 0.9839
3.3093 2.1206 -0.9950 0.9839
3.1109 2.4022 -0.9950 0.9839
3.0394 2.4920 -0.9950 0.9839
3.0027 2.5361 -0.9950 0.9839
2.9273 2.6229 -0.9950 0.9839
2.8886 2.6653 -0.9950 0.9839
2.8494 2.7072 -0.9950 0.9839
2.8095 2.7486 -0.9950 0.9839
2.7690 2.7893 -0.9950 0.9839
2.7280 2.8295 -0.9950 0.9839
2.6441 2.9080 -0.9950 0.9839
2.5580 2.9840 -0.9950 0.9839
2.4697 3.0575 -0.9950 0.9839
2.4248 3.0933 -0.9950 0.9839
2.3794 3.1284 -0.9950 0.9839
2.3334 3.1628 -0.9950 0.9839
2.2869 3.1966 -0.9950 0.9839
2.1926 3.2620 -0.9950 0.9839
2.0963 3.3247 -0.9950 0.9839
1.8480 3.4688 -0.9950 0.9839
1.5372 3.6173 -0.9950 0.9839
1.4842 3.6394 -0.9950 0.9839
1.4308 3.6607 -0.9950 0.9839
1.2146 3.7380 -0.9950 0.9839
1.0496 3.7876 -0.9950 0.9839
0.9941 3.8025 -0.9950 0.9839
0.9384 3.8166 -0.9950 0.9839
0.8265 3.8425 -0.9950 0.9839
0.7703 3.8541 -0.9950 0.9839
0.6006 3.8841 -0.9950 0.9839
0.5438 3.8925 -0.9950 0.9839
0.4869 3.9000 -0.9950 0.9839
0.4299 3.9068 -0.9950 0.9839
0.3156 3.9176 -0.9950 0.9839
0.2583 3.9218 -0.9950 0.9839
0.2009 3.9252 -0.9950 0.9839
-0.0287 3.9302 -0.9950 0.9839
-0.3155 3.9176 -0.9950 0.9839
-0.3727 3.9126 -0.9950 0.9839
-0.6006 3.8841 -0.9950 0.9839
-0.7138 3.8649 -0.9950 0.9839
-0.8265 3.8423 -0.9950 0.9839
-0.8826 3.8299 -0.9950 0.9839
-0.9941 3.8025 -0.9950 0.9839
-1.0496 3.7875 -0.9950 0.9839
-1.1048 3.7718 -0.9950 0.9839
-1.2690 3.7197 -0.9950 0.9839
-1.3771 3.6811 -0.9950 0.9839
-0.3430 0.7755 -0.2147 0.9965
-0.3126 0.6542 -0.1835 0.9970
-0.2911 0.5662 -0.1612 0.9974
-0.2978 0.5398 -0.1561 0.9975
-0.3039 0.5147 -0.1513 0.9975
-0.3068 0.5027 -0.1491 0.9976
-0.3215 0.4357 -0.1371 0.9978
-0.3293 0.4077 -0.1327 0.9978
-0.3317 0.3986 -0.1313 0.9979
-0.3341 0.3897 -0.1300 0.9979
-0.3387 0.3724 -0.1274 0.9979
-0.3408 0.3640 -0.1262 0.9979
-0.3450 0.3475 -0.1240 0.9980
-0.3529 0.2981 -0.1169 0.9981
-0.3560 0.2749 -0.1139 0.9981
-0.3602 0.2383 -0.1093 0.9982
-0.3609 0.2313 -0.1085 0.9982
-0.3622 0.2174 -0.1069 0.9983
-0.3628 0.2106 -0.1062 0.9983
-0.3633 0.2038 -0.1055 0.9983
-0.3660 0.1782 -0.1031 0.9983
-0.3684 0.1534 -0.1010 0.9984
-0.3694 0.1413 -0.1001 0.9984
-0.3698 0.1353 -0.0997 0.9984
-0.3702 0.1293 -0.0993 0.9984
-0.3705 0.1234 -0.0989 0.9984
-0.3713 0.1059 -0.0977 0.9984
-0.3715 0.1000 -0.0974 0.9984
-0.3718 0.0886 -0.0968 0.9984
-0.3719 0.0828 -0.0965 0.9984
-0.3721 0.0716 -0.0959 0.9984
-0.3721 0.0659 -0.0957 0.9984
-0.3721 0.0548 -0.0952 0.9984
-0.3720 0.0492 -0.0950 0.9985
-0.3714 0.0272 -0.0943 0.9985
-0.3704 0.0054 -0.0938 0.9985
-0.3644 -0.0107 -0.0966 0.9985
-0.3647 -0.0160 -0.0967 0.9985
-0.3649 -0.0213 -0.0969 0.9985
-0.3651 -0.0267 -0.0970 0.9985
-0.3653 -0.0321 -0.0972 0.9985
-0.3655 -0.0429 -0.0975 0.9985
-0.3657 -0.0538 -0.0979 0.9985
-0.3657 -0.0648 -0.0984 0.9985
-0.3656 -0.0759 -0.0989 0.9985
-0.3653 -0.0870 -0.0995 0.9984
-0.3648 -0.1039 -0.1005 0.9984
-0.3631 -0.1329 -0.1025 0.9984
-0.3622 -0.1446 -0.1034 0.9984
-0.3612 -0.1566 -0.1043 0.9984
-0.3606 -0.1627 -0.1048 0.9984
-0.3600 -0.1688 -0.1054 0.9984
-0.3583 -0.1809 -0.1064 0.9983
-0.3575 -0.1871 -0.1069 0.9983
-0.3566 -0.1934 -0.1075 0.9983
-0.3555 -0.2064 -0.1089 0.9983
-0.3542 -0.2198 -0.1105 0.9983
-0.3528 -0.2334 -0.1121 0.9983
-0.3520 -0.2404 -0.1130 0.9982
-0.3512 -0.2474 -0.1138 0.9982
-0.3503 -0.2545 -0.1147 0.9982
-0.3494 -0.2617 -0.1157 0.9982
-0.3474 -0.2764 -0.1176 0.9982
-0.3463 -0.2839 -0.1187 0.9981
-0.3452 -0.2915 -0.1197 0.9981
-0.3440 -0.2992 -0.1208 0.9981
-0.3414 -0.3150 -0.1231 0.9981
-0.3400 -0.3230 -0.1243 0.9981
-0.3386 -0.3312 -0.1255 0.9980
-0.3371 -0.3395 -0.1268 0.9980
-0.3285 -0.3720 -0.1315 0.9979
-0.3261 -0.3804 -0.1328 0.9979
-0.3237 -0.3890 -0.1341 0.9979
-0.3213 -0.3977 -0.1355 0.9979
-0.3161 -0.4156 -0.1384 0.9978
-0.3134 -0.4248 -0.1399 0.9978
-0.3106 -0.4341 -0.1414 0.9978
-0.3076 -0.4435 -0.1430 0.9978
-0.3024 -0.4645 -0.1469 0.9977
-0.2998 -0.4755 -0.1489 0.9977
-0.2911 -0.5099 -0.1556 0.9976
-0.2846 -0.5343 -0.1604 0.9975
-0.2812 -0.5469 -0.1629 0.9975
-0.2776 -0.5598 -0.1656 0.9974
-0.2783 -0.5825 -0.1711 0.9973
-0.3129 -0.7364 -0.2120 0.9967
-1.3962 -3.4236 -0.9797 0.9848
-1.2955 -3.4629 -0.9797 0.9848
-1.2448 -3.4815 -0.9797 0.9848
-1.1938 -3.4993 -0.9797 0.9848
-1.0911 -3.5327 -0.9797 0.9848
-0.9874 -3.5630 -0.9797 0.9848
-0.8828 -3.5904 -0.9797 0.9848
-0.8303 -3.6029 -0.9797 0.9848
-0.7246 -3.6257 -0.9797 0.9848
-0.5651 -3.6539 -0.9797 0.9848
-0.5116 -3.6618 -0.9797 0.9848
-0.4044 -3.6752 -0.9797 0.9848
-0.1890 -3.6925 -0.9797 0.9848
0.0270 -3.6973 -0.9797 0.9848
0.1350 -3.6949 -0.9797 0.9848
0.1890 -3.6926 -0.9797 0.9848
0.2429 -3.6894 -0.9797 0.9848
0.2969 -3.6854 -0.9797 0.9848
0.3506 -3.6807 -0.9797 0.9848
0.4581 -3.6689 -0.9797 0.9848
0.5651 -3.6539 -0.9797 0.9848
0.6716 -3.6359 -0.9797 0.9848
0.7246 -3.6257 -0.9797 0.9848
0.7775 -3.6147 -0.9797 0.9848
0.8828 -3.5905 -0.9797 0.9848
0.9352 -3.5772 -0.9797 0.9848
1.0394 -3.5484 -0.9798 0.9848
1.1938 -3.4994 -0.9798 0.9848
1.2956 -3.4630 -0.9798 0.9848
1.3460 -3.4437 -0.9798 0.9848
1.3962 -3.4237 -0.9798 0.9848
1.4461 -3.4029 -0.9798 0.9848
1.4956 -3.3814 -0.9798 0.9848
1.5426 -3.1114 -0.9202 0.9857
1.5816 -3.0762 -0.9166 0.9858
1.6586 -3.0066 -0.9099 0.9859
1.6968 -2.9722 -0.9069 0.9859
1.7346 -2.9380 -0.9041 0.9860
1.9721 -3.1276 -0.9798 0.9848
2.0176 -3.0985 -0.9798 0.9848
2.0626 -3.0687 -0.9798 0.9848
2.1072 -3.0382 -0.9798 0.9848
2.1514 -3.0071 -0.9798 0.9848
2.1951 -2.9754 -0.9798 0.9848
2.2811 -2.9100 -0.9798 0.9848
2.3234 -2.8763 -0.9798 0.9848
2.4064 -2.8072 -0.9798 0.9848
2.4472 -2.7717 -0.9798 0.9848
2.4875 -2.7357 -0.9798 0.9848
2.5271 -2.6990 -0.9798 0.9848
2.6430 -2.5857 -0.9798 0.9848
2.7174 -2.5074 -0.9798 0.9848
2.7538 -2.4674 -0.9798 0.9848
2.7895 -2.4269 -0.9798 0.9848
2.8247 -2.3858 -0.9798 0.9848
3.0053 -2.2513 -0.9950 0.9846
3.0379 -2.2071 -0.9950 0.9846
3.1317 -2.0719 -0.9950 0.9846
3.1616 -2.0259 -0.9950 0.9846
3.2195 -1.9327 -0.9950 0.9846
3.3011 -1.7897 -0.9950 0.9846
3.3269 -1.7413 -0.9950 0.9846
3.3763 -1.6434 -0.9950 0.9846
3.4000 -1.5938 -0.9950 0.9846
3.4229 -1.5440 -0.9950 0.9846
3.4451 -1.4938 -0.9950 0.9846
3.4665 -1.4433 -0.9950 0.9846
3.5072 -1.3414 -0.9950 0.9846
3.5449 -1.2384 -0.9950 0.9846
3.5958 -1.0818 -0.9950 0.9846
3.6112 -1.0291 -0.9950 0.9846
3.6398 -0.9232 -0.9950 0.9846
3.6767 -0.7628 -0.9950 0.9846
3.6975 -0.6550 -0.9950 0.9846
3.7066 -0.6010 -0.9950 0.9846
3.7226 -0.4924 -0.9950 0.9846
3.7294 -0.4380 -0.9950 0.9846
3.7354 -0.3834 -0.9950 0.9846
3.7406 -0.3288 -0.9950 0.9846
3.7514 -0.1646 -0.9950 0.9846
3.7534 -0.1097 -0.9950 0.9846
3.7546 -0.0548 -0.9950 0.9846
3.7550 -0.0000 -0.9950 0.9846
3.7546 0.0548 -0.9950 0.9846
3.7534 0.1097 -0.9950 0.9846
3.7450 0.2741 -0.9950 0.9846
3.7354 0.3834 -0.9950 0.9846
3.7226 0.4924 -0.9950 0.9846
3.7066 0.6009 -0.9950 0.9846
3.6974 0.6551 -0.9950 0.9846
3.6875 0.7090 -0.9950 0.9846
3.6767 0.7628 -0.9950 0.9846
3.6652 0.8164 -0.9950 0.9846
3.6529 0.8699 -0.9950 0.9846
3.6112 1.0291 -0.9950 0.9846
3.5958 1.0818 -0.9950 0.9846
3.5796 1.1342 -0.9950 0.9846
3.4665 1.4433 -0.9950 0.9846
3.4451 1.4938 -0.9950 0.9846
3.4229 1.5440 -0.9950 0.9846
3.4000 1.5938 -0.9950 0.9846
3.3269 1.7413 -0.9950 0.9846
3.2746 1.8378 -0.9950 0.9846
3.2474 1.8854 -0.9950 0.9846
3.2195 1.9327 -0.9950 0.9846
3.1616 2.0259 -0.9950 0.9846
3.1317 2.0719 -0.9950 0.9846
3.1010 2.1174 -0.9950 0.9846
3.0698 2.1625 -0.9950 0.9846
3.0379 2.2071 -0.9950 0.9846
3.0053 2.2513 -0.9950 0.9846
2.9721 2.2950 -0.9950 0.9846
2.9037 2.3808 -0.9950 0.9846
2.7966 2.5058 -0.9950 0.9846
2.7597 2.5464 -0.9950 0.9846
2.7222 2.5864 -0.9950 0.9846
2.6062 2.7032 -0.9950 0.9846
2.5665 2.7410 -0.9950 0.9846
2.4439 2.8509 -0.9950 0.9846
2.3595 2.9211 -0.9950 0.9846
2.2732 2.9887 -0.9950 0.9846
2.2293 3.0216 -0.9950 0.9846
2.1400 3.0855 -0.9950 0.9846
2.0947 3.1164 -0.9950 0.9846
2.0489 3.1467 -0.9950 0.9846
1.7655 3.3140 -0.9950 0.9846
1.7169 3.3394 -0.9950 0.9846
1.6679 3.3641 -0.9950 0.9846
1.6186 3.3882 -0.9950 0.9846
1.5189 3.4341 -0.9950 0.9846
1.3670 3.4973 -0.9950 0.9846
1.3157 3.5169 -0.9950 0.9846
1.2642 3.5357 -0.9950 0.9846
1.1080 3.5877 -0.9950 0.9846
1.0027 3.6186 -0.9950 0.9846
0.9497 3.6328 -0.9950 0.9846
0.8966 3.6463 -0.9950 0.9846
0.8432 3.6591 -0.9950 0.9846
0.7896 3.6709 -0.9950 0.9846
0.6280 3.7020 -0.9950 0.9846
0.5196 3.7188 -0.9950 0.9846
0.3561 3.7380 -0.9950 0.9846
0.3014 3.7428 -0.9950 0.9846
0.1920 3.7500 -0.9950 0.9846
0.0823 3.7540 -0.9950 0.9846
0.0274 3.7548 -0.9950 0.9846
-0.0274 3.7548 -0.9950 0.9846
-0.1371 3.7524 -0.9950 0.9846
-0.2467 3.7468 -0.9950 0.9846
-0.3561 3.7380 -0.9950 0.9846
-0.5738 3.7108 -0.9950 0.9846
-0.7896 3.6709 -0.9950 0.9846
-0.8432 3.6590 -0.9950 0.9846
-0.8965 3.6463 -0.9950 0.9846
-0.9497 3.6327 -0.9950 0.9846
-1.0027 3.6185 -0.9950 0.9846
-1.1080 3.5877 -0.9950 0.9846
-1.1603 3.5711 -0.9950 0.9846
-1.3157 3.5168 -0.9950 0.9846
-1.3669 3.4972 -0.9950 0.9846
-0.3130 0.7364 -0.2120 0.9967
-0.2999 0.6780 -0.1964 0.9969
-0.2884 0.6272 -0.1829 0.9971
-0.2783 0.5826 -0.1711 0.9973
-0.2846 0.5343 -0.1604 0.9975
-0.2879 0.5220 -0.1580 0.9975
-0.3050 0.4537 -0.1449 0.9977
-0.3076 0.4435 -0.1430 0.9978
-0.3134 0.4248 -0.1399 0.9978
-0.3161 0.4156 -0.1384 0.9978
-0.3261 0.3804 -0.1328 0.9979
-0.3308 0.3638 -0.1303 0.9980
-0.3352 0.3477 -0.1280 0.9980
-0.3386 0.3312 -0.1255 0.9980
-0.3400 0.3230 -0.1243 0.9981
-0.3414 0.3150 -0.1231 0.9981
-0.3427 0.3071 -0.1219 0.9981
-0.3452 0.2915 -0.1197 0.9981
-0.3463 0.2839 -0.1187 0.9981
-0.3474 0.2764 -0.1176 0.9982
-0.3484 0.2690 -0.1166 0.9982
-0.3520 0.2404 -0.1130 0.9982
-0.3528 0.2334 -0.1121 0.9983
-0.3542 0.2198 -0.1105 0.9983
-0.3555 0.2064 -0.1089 0.9983
-0.3561 0.1998 -0.1082 0.9983
-0.3566 0.1933 -0.1075 0.9983
-0.3600 0.1688 -0.1054 0.9984
-0.3606 0.1627 -0.1048 0.9984
-0.3622 0.1447 -0.1034 0.9984
-0.3627 0.1388 -0.1029 0.9984
-0.3631 0.1329 -0.1025 0.9984
-0.3635 0.1270 -0.1020 0.9984
-0.3639 0.1211 -0.1016 0.9984
-0.3642 0.1154 -0.1012 0.9984
-0.3648 0.1039 -0.1005 0.9984
-0.3655 0.0814 -0.0992 0.9985
-0.3656 0.0758 -0.0989 0.9985
-0.3657 0.0593 -0.0982 0.9985
-0.3657 0.0538 -0.0979 0.9985
-0.3655 0.0429 -0.0975 0.9985
-0.3654 0.0375 -0.0973 0.9985
-0.3653 0.0321 -0.0972 0.9985
-0.3641 0.0053 -0.0965 0.9985
-0.3578 0.0000 -0.0991 0.9985
-0.3580 -0.0052 -0.0991 0.9985
-0.3583 -0.0105 -0.0993 0.9985
-0.3586 -0.0157 -0.0994 0.9985
-0.3588 -0.0210 -0.0995 0.9985
-0.3591 -0.0316 -0.0998 0.9985
-0.3595 -0.0583 -0.1008 0.9985
-0.3594 -0.0691 -0.1013 0.9985
-0.3593 -0.0745 -0.1016 0.9985
-0.3590 -0.0855 -0.1022 0.9985
-0.3578 -0.1134 -0.1039 0.9984
-0.3567 -0.1305 -0.1052 0.9984
-0.3552 -0.1479 -0.1065 0.9984
-0.3541 -0.1597 -0.1075 0.9984
-0.3534 -0.1657 -0.1081 0.9984
-0.3526 -0.1716 -0.1086 0.9984
-0.3517 -0.1776 -0.1091 0.9984
-0.3499 -0.1897 -0.1102 0.9983
-0.3485 -0.2023 -0.1116 0.9983
-0.3472 -0.2154 -0.1131 0.9983
-0.3449 -0.2355 -0.1156 0.9983
-0.3431 -0.2493 -0.1174 0.9982
-0.3411 -0.2634 -0.1193 0.9982
-0.3389 -0.2779 -0.1213 0.9982
-0.3377 -0.2852 -0.1224 0.9982
-0.3352 -0.3003 -0.1246 0.9981
-0.3309 -0.3237 -0.1282 0.9981
-0.3294 -0.3318 -0.1294 0.9981
-0.3233 -0.3555 -0.1330 0.9980
-0.3210 -0.3635 -0.1343 0.9980
-0.3186 -0.3716 -0.1355 0.9980
-0.3084 -0.4054 -0.1410 0.9979
-0.3056 -0.4143 -0.1425 0.9979
-0.2998 -0.4323 -0.1457 0.9978
-0.2968 -0.4416 -0.1473 0.9978
-0.2937 -0.4510 -0.1490 0.9978
-0.2907 -0.4610 -0.1509 0.9977
-0.2879 -0.4717 -0.1530 0.9977
-0.2849 -0.4826 -0.1552 0.9977
-0.2819 -0.4937 -0.1574 0.9976
-0.2787 -0.5052 -0.1597 0.9976
-0.2644 -0.5534 -0.1698 0.9975
-0.2662 -0.6018 -0.1822 0.9973
-1.2399 -3.3141 -0.9797 0.9854
-1.1913 -3.3320 -0.9797 0.9854
-1.0935 -3.3653 -0.9797 0.9854
-0.9947 -3.3959 -0.9797 0.9854
-0.8950 -3.4234 -0.9797 0.9854
-0.8449 -3.4362 -0.9797 0.9854
-0.6935 -3.4699 -0.9797 0.9854
-0.6427 -3.4796 -0.9797 0.9854
-0.5918 -3.4887 -0.9797 0.9854
-0.4384 -3.5113 -0.9797 0.9854
-0.3356 -3.5226 -0.9797 0.9854
-0.2841 -3.5271 -0.9797 0.9854
-0.1809 -3.5339 -0.9797 0.9854
0.0258 -3.5384 -0.9797 0.9854
0.1292 -3.5362 -0.9797 0.9854
0.1809 -3.5339 -0.9797 0.9854
0.2841 -3.5271 -0.9797 0.9854
0.3870 -3.5173 -0.9797 0.9854
0.5408 -3.4970 -0.9797 0.9854
0.5918 -3.4887 -0.9797 0.9854
0.6935 -3.4699 -0.9797 0.9854
0.7441 -3.4594 -0.9797 0.9854
0.7946 -3.4482 -0.9797 0.9854
0.8449 -3.4362 -0.9797 0.9854
0.8950 -3.4235 -0.9797 0.9854
0.9450 -3.4100 -0.9797 0.9854
0.9946 -3.3959 -0.9797 0.9854
1.1913 -3.3320 -0.9798 0.9854
1.2882 -3.2958 -0.9798 0.9854
1.3362 -3.2766 -0.9798 0.9854
1.3840 -3.2567 -0.9798 0.9854
1.5426 -3.1114 -0.9615 0.9857
1.5816 -3.0762 -0.9577 0.9857
1.6202 -3.0412 -0.9541 0.9858
1.6586 -3.0066 -0.9507 0.9858
1.7346 -2.9380 -0.9447 0.9859
1.9740 -2.9369 -0.9798 0.9854
2.0167 -2.9077 -0.9798 0.9854
2.1008 -2.8475 -0.9798 0.9854
2.1422 -2.8165 -0.9798 0.9854
2.1831 -2.7849 -0.9798 0.9854
2.2236 -2.7527 -0.9798 0.9854
2.2635 -2.7199 -0.9798 0.9854
2.3030 -2.6866 -0.9798 0.9854
2.3421 -2.6527 -0.9798 0.9854
2.4560 -2.5475 -0.9798 0.9854
2.5653 -2.4374 -0.9798 0.9854
2.6354 -2.3614 -0.9798 0.9854
2.6838 -2.3350 -0.9850 0.9853
2.8762 -2.1546 -0.9950 0.9852
2.9379 -2.0696 -0.9950 0.9852
2.9678 -2.0265 -0.9950 0.9852
3.0538 -1.8945 -0.9950 0.9852
3.1078 -1.8044 -0.9950 0.9852
3.1339 -1.7588 -0.9950 0.9852
3.1592 -1.7128 -0.9950 0.9852
3.1839 -1.6665 -0.9950 0.9852
3.2971 -1.4296 -0.9950 0.9852
3.3750 -1.2346 -0.9950 0.9852
3.4259 -1.0855 -0.9950 0.9852
3.4413 -1.0354 -0.9950 0.9852
3.4701 -0.9343 -0.9950 0.9852
3.5077 -0.7814 -0.9950 0.9852
3.5188 -0.7301 -0.9950 0.9852
3.5291 -0.6786 -0.9950 0.9852
3.5386 -0.6269 -0.9950 0.9852
3.5554 -0.5232 -0.9950 0.9852
3.5627 -0.4712 -0.9950 0.9852
3.5799 -0.3147 -0.9950 0.9852
3.5903 -0.1575 -0.9950 0.9852
3.5937 0.0000 -0.9950 0.9852
3.5933 0.0525 -0.9950 0.9852
3.5922 0.1050 -0.9950 0.9852
3.5876 0.2100 -0.9950 0.9852
3.5627 0.4712 -0.9950 0.9852
3.5554 0.5233 -0.9950 0.9852
3.5474 0.5752 -0.9950 0.9852
3.5188 0.7301 -0.9950 0.9852
3.4701 0.9343 -0.9950 0.9852
3.4258 1.0855 -0.9950 0.9852
3.4096 1.1354 -0.9950 0.9852
3.3750 1.2346 -0.9950 0.9852
3.2313 1.5727 -0.9950 0.9852
3.2079 1.6198 -0.9950 0.9852
3.1839 1.6665 -0.9950 0.9852
3.1593 1.7129 -0.9950 0.9852
3.1078 1.8044 -0.9950 0.9852
3.0538 1.8945 -0.9950 0.9852
2.9678 2.0265 -0.9950 0.9852
2.9073 2.1123 -0.9950 0.9852
2.8444 2.1964 -0.9950 0.9852
2.7790 2.2786 -0.9950 0.9852
2.6053 2.4753 -0.9950 0.9852
2.5318 2.5504 -0.9950 0.9852
2.4562 2.6233 -0.9950 0.9852
2.3785 2.6939 -0.9950 0.9852
2.2582 2.7956 -0.9950 0.9852
2.1755 2.8603 -0.9950 0.9852
2.1335 2.8918 -0.9950 0.9852
2.0910 2.9227 -0.9950 0.9852
2.0481 2.9529 -0.9950 0.9852
2.0047 2.9825 -0.9950 0.9852
1.7817 3.1209 -0.9950 0.9852
1.6432 3.1959 -0.9950 0.9852
1.5491 3.2426 -0.9950 0.9852
1.5016 3.2649 -0.9950 0.9852
1.4537 3.2865 -0.9950 0.9852
1.2592 3.3658 -0.9950 0.9852
1.2099 3.3838 -0.9950 0.9852
1.1105 3.4177 -0.9950 0.9852
0.9597 3.4631 -0.9950 0.9852
0.9090 3.4768 -0.9950 0.9852
0.8581 3.4897 -0.9950 0.9852
0.8070 3.5019 -0.9950 0.9852
0.6527 3.5338 -0.9950 0.9852
0.6010 3.5430 -0.9950 0.9852
0.5492 3.5514 -0.9950 0.9852
0.4972 3.5591 -0.9950 0.9852
0.4452 3.5659 -0.9950 0.9852
0.3930 3.5721 -0.9950 0.9852
0.3408 3.5774 -0.9950 0.9852
0.2885 3.5820 -0.9950 0.9852
0.2361 3.5858 -0.9950 0.9852
0.1837 3.5889 -0.9950 0.9852
0.1312 3.5912 -0.9950 0.9852
0.0262 3.5935 -0.9950 0.9852
-0.0262 3.5935 -0.9950 0.9852
-0.1312 3.5912 -0.9950 0.9852
-0.1837 3.5889 -0.9950 0.9852
-0.3408 3.5774 -0.9950 0.9852
-0.3930 3.5720 -0.9950 0.9852
-0.4452 3.5659 -0.9950 0.9852
-0.4972 3.5590 -0.9950 0.9852
-0.5492 3.5514 -0.9950 0.9852
-0.6010 3.5430 -0.9950 0.9852
-0.6527 3.5337 -0.9950 0.9852
-0.7557 3.5132 -0.9950 0.9852
-0.8580 3.4896 -0.9950 0.9852
-1.0101 3.4487 -0.9950 0.9852
-1.0604 3.4335 -0.9950 0.9852
-1.1603 3.4011 -0.9950 0.9852
-1.2099 3.3837 -0.9950 0.9852
-1.2592 3.3657 -0.9950 0.9852
-1.3082 3.3470 -0.9950 0.9852
-0.2857 0.7006 -0.2095 0.9969
-0.2662 0.6019 -0.1822 0.9973
-0.2644 0.5534 -0.1698 0.9975
-0.2682 0.5409 -0.1672 0.9975
-0.2718 0.5287 -0.1646 0.9975
-0.2787 0.5052 -0.1597 0.9976
-0.2819 0.4937 -0.1574 0.9976
-0.2849 0.4826 -0.1552 0.9977
-0.2879 0.4717 -0.1530 0.9977
-0.2907 0.4610 -0.1509 0.9977
-0.2937 0.4510 -0.1490 0.9978
-0.2998 0.4323 -0.1457 0.9978
-0.3084 0.4055 -0.1410 0.9979
-0.3136 0.3882 -0.1382 0.9979
-0.3161 0.3798 -0.1368 0.9980
-0.3186 0.3716 -0.1355 0.9980
-0.3210 0.3635 -0.1343 0.9980
-0.3233 0.3555 -0.1330 0.9980
-0.3294 0.3318 -0.1294 0.9981
-0.3324 0.3158 -0.1269 0.9981
-0.3338 0.3080 -0.1258 0.9981
-0.3352 0.3003 -0.1246 0.9981
-0.3389 0.2779 -0.1213 0.9982
-0.3411 0.2634 -0.1193 0.9982
-0.3440 0.2423 -0.1165 0.9983
-0.3449 0.2355 -0.1156 0.9983
-0.3457 0.2287 -0.1148 0.9983
-0.3479 0.2088 -0.1123 0.9983
-0.3491 0.1959 -0.1108 0.9983
-0.3509 0.1837 -0.1096 0.9984
-0.3517 0.1776 -0.1091 0.9984
-0.3526 0.1716 -0.1086 0.9984
-0.3547 0.1538 -0.1070 0.9984
-0.3552 0.1479 -0.1065 0.9984
-0.3567 0.1305 -0.1052 0.9984
-0.3571 0.1247 -0.1047 0.9984
-0.3584 0.1021 -0.1032 0.9985
-0.3586 0.0966 -0.1028 0.9985
-0.3590 0.0855 -0.1022 0.9985
-0.3592 0.0800 -0.1019 0.9985
-0.3593 0.0745 -0.1016 0.9985
-0.3594 0.0691 -0.1013 0.9985
-0.3595 0.0583 -0.1008 0.9985
-0.3595 0.0529 -0.1006 0.9985
-0.3594 0.0476 -0.1004 0.9985
-0.3591 0.0316 -0.0998 0.9985
-0.3590 0.0263 -0.0997 0.9985
-0.3583 0.0105 -0.0993 0.9985
-0.3581 0.0052 -0.0991 0.9985
-0.3532 -0.0362 -0.1026 0.9985
-0.3534 -0.0468 -0.1030 0.9985
-0.3534 -0.0520 -0.1032 0.9985
-0.3534 -0.0573 -0.1034 0.9985
-0.3533 -0.0679 -0.1039 0.9985
-0.3529 -0.0841 -0.1048 0.9985
-0.3525 -0.0949 -0.1054 0.9985
-0.3522 -0.1004 -0.1058 0.9985
-0.3516 -0.1114 -0.1065 0.9985
-0.3512 -0.1170 -0.1069 0.9985
-0.3504 -0.1282 -0.1078 0.9984
-0.3499 -0.1338 -0.1082 0.9984
-0.3494 -0.1395 -0.1087 0.9984
-0.3489 -0.1452 -0.1092 0.9984
-0.3477 -0.1569 -0.1102 0.9984
-0.3471 -0.1627 -0.1107 0.9984
-0.3462 -0.1685 -0.1112 0.9984
-0.3453 -0.1744 -0.1117 0.9984
-0.3444 -0.1802 -0.1123 0.9984
-0.3425 -0.1922 -0.1134 0.9984
-0.3411 -0.2048 -0.1149 0.9983
-0.3396 -0.2176 -0.1165 0.9983
-0.3379 -0.2307 -0.1182 0.9983
-0.3370 -0.2374 -0.1191 0.9983
-0.3361 -0.2442 -0.1200 0.9983
-0.3351 -0.2510 -0.1209 0.9983
-0.3340 -0.2579 -0.1219 0.9982
-0.3329 -0.2649 -0.1229 0.9982
-0.3317 -0.2720 -0.1239 0.9982
-0.3305 -0.2792 -0.1250 0.9982
-0.3279 -0.2938 -0.1272 0.9982
-0.3265 -0.3013 -0.1283 0.9982
-0.3251 -0.3088 -0.1295 0.9981
-0.3235 -0.3166 -0.1307 0.9981
-0.3203 -0.3322 -0.1333 0.9981
-0.3183 -0.3399 -0.1345 0.9981
-0.3160 -0.3476 -0.1357 0.9980
-0.3137 -0.3553 -0.1369 0.9980
-0.3063 -0.3791 -0.1408 0.9980
-0.3010 -0.3957 -0.1436 0.9979
-0.2982 -0.4042 -0.1451 0.9979
-0.2924 -0.4216 -0.1482 0.9979
-0.2894 -0.4305 -0.1498 0.9978
-0.2796 -0.4580 -0.1550 0.9978
-0.2763 -0.4679 -0.1569 0.9977
-0.2699 -0.4893 -0.1614 0.9977
-0.2556 -0.5350 -0.1713 0.9975
-0.2475 -0.5595 -0.1767 0.9975
-0.2457 -0.5781 -0.1814 0.9974
-0.2528 -0.6200 -0.1934 0.9972
-1.1420 -3.1939 -0.9797 0.9860
-1.0952 -3.2102 -0.9797 0.9860
-1.0482 -3.2259 -0.9797 0.9860
-0.9058 -3.2687 -0.9797 0.9860
-0.8099 -3.2937 -0.9797 0.9860
-0.6648 -3.3261 -0.9797 0.9860
-0.6161 -3.3355 -0.9797 0.9860
-0.5673 -3.3441 -0.9797 0.9860
-0.5184 -3.3521 -0.9797 0.9860
-0.4693 -3.3593 -0.9797 0.9860
-0.4202 -3.3658 -0.9797 0.9860
-0.3710 -3.3716 -0.9797 0.9860
-0.3217 -3.3766 -0.9797 0.9860
-0.2723 -3.3809 -0.9797 0.9860
-0.1239 -3.3896 -0.9797 0.9860
-0.0743 -3.3911 -0.9797 0.9860
0.0248 -3.3919 -0.9797 0.9860
0.0743 -3.3911 -0.9797 0.9860
0.1239 -3.3896 -0.9797 0.9860
0.1734 -3.3875 -0.9797 0.9860
0.2723 -3.3810 -0.9797 0.9860
0.3217 -3.3766 -0.9797 0.9860
0.4693 -3.3593 -0.9797 0.9860
0.5184 -3.3521 -0.9797 0.9860
0.7133 -3.3161 -0.9797 0.9860
0.8099 -3.2938 -0.9797 0.9860
0.9058 -3.2687 -0.9797 0.9860
0.9535 -3.2552 -0.9797 0.9860
1.0009 -3.2409 -0.9797 0.9860
1.0482 -3.2259 -0.9798 0.9860
1.1420 -3.1939 -0.9798 0.9860
1.2348 -3.1592 -0.9798 0.9860
1.2809 -3.1408 -0.9798 0.9860
1.5509 -3.0166 -0.9798 0.9860
1.6384 -2.9700 -0.9798 0.9860
1.7245 -2.9209 -0.9798 0.9860
1.7670 -2.8954 -0.9798 0.9860
1.8508 -2.8425 -0.9798 0.9860
1.8922 -2.8152 -0.9798 0.9860
1.9331 -2.7872 -0.9798 0.9860
2.0534 -2.6998 -0.9798 0.9860
2.1314 -2.6387 -0.9798 0.9860
2.1697 -2.6073 -0.9798 0.9860
2.2076 -2.5752 -0.9798 0.9860
2.2450 -2.5427 -0.9798 0.9860
2.3543 -2.4419 -0.9798 0.9860
2.3897 -2.4073 -0.9798 0.9860
2.4246 -2.3721 -0.9798 0.9860
2.5989 -2.2610 -0.9950 0.9858
2.6316 -2.2228 -0.9950 0.9858
2.6638 -2.1841 -0.9950 0.9858
2.7265 -2.1054 -0.9950 0.9858
2.7570 -2.0653 -0.9950 0.9858
2.8162 -1.9838 -0.9950 0.9858
2.8449 -1.9425 -0.9950 0.9858
2.8729 -1.9007 -0.9950 0.9858
2.9273 -1.8159 -0.9950 0.9858
2.9535 -1.7729 -0.9950 0.9858
3.0040 -1.6859 -0.9950 0.9858
3.0283 -1.6419 -0.9950 0.9858
3.1191 -1.4622 -0.9950 0.9858
3.1605 -1.3704 -0.9950 0.9858
3.1801 -1.3241 -0.9950 0.9858
3.2175 -1.2305 -0.9950 0.9858
3.2351 -1.1834 -0.9950 0.9858
3.2521 -1.1360 -0.9950 0.9858
3.2683 -1.0884 -0.9950 0.9858
3.2987 -0.9924 -0.9950 0.9858
3.3391 -0.8469 -0.9950 0.9858
3.3828 -0.6504 -0.9950 0.9858
3.3920 -0.6009 -0.9950 0.9858
3.4081 -0.5016 -0.9950 0.9858
3.4316 -0.3016 -0.9950 0.9858
3.4448 0.0000 -0.9950 0.9858
3.4433 0.1007 -0.9950 0.9858
3.4389 0.2012 -0.9950 0.9858
3.4268 0.3517 -0.9950 0.9858
3.4151 0.4517 -0.9950 0.9858
3.4081 0.5016 -0.9950 0.9858
3.3828 0.6504 -0.9950 0.9858
3.3263 0.8956 -0.9950 0.9858
3.2839 1.0405 -0.9950 0.9858
3.2683 1.0884 -0.9950 0.9858
3.2521 1.1361 -0.9950 0.9858
3.2351 1.1834 -0.9950 0.9858
3.1802 1.3241 -0.9950 0.9858
3.1604 1.3704 -0.9950 0.9858
3.0974 1.5076 -0.9950 0.9858
3.0750 1.5527 -0.9950 0.9858
2.9535 1.7730 -0.9950 0.9858
2.7869 2.0248 -0.9950 0.9858
2.7570 2.0653 -0.9950 0.9858
2.7265 2.1054 -0.9950 0.9858
2.4973 2.3727 -0.9950 0.9858
2.4624 2.4090 -0.9950 0.9858
2.3909 2.4799 -0.9950 0.9858
2.3544 2.5146 -0.9950 0.9858
2.3175 2.5487 -0.9950 0.9858
2.2800 2.5823 -0.9950 0.9858
2.2420 2.6153 -0.9950 0.9858
2.2035 2.6478 -0.9950 0.9858
2.1646 2.6797 -0.9950 0.9858
2.1252 2.7111 -0.9950 0.9858
2.0854 2.7418 -0.9950 0.9858
2.0451 2.7720 -0.9950 0.9858
2.0044 2.8016 -0.9950 0.9858
1.9632 2.8306 -0.9950 0.9858
1.8797 2.8867 -0.9950 0.9858
1.7078 2.9916 -0.9950 0.9858
1.5302 3.0862 -0.9950 0.9858
1.4393 3.1296 -0.9950 0.9858
1.2541 3.2084 -0.9950 0.9858
1.2070 3.2264 -0.9950 0.9858
1.0645 3.2761 -0.9950 0.9858
0.9199 3.3196 -0.9950 0.9858
0.8713 3.3327 -0.9950 0.9858
0.7735 3.3567 -0.9950 0.9858
0.6751 3.3779 -0.9950 0.9858
0.6257 3.3874 -0.9950 0.9858
0.5761 3.3962 -0.9950 0.9858
0.4267 3.4182 -0.9950 0.9858
0.3768 3.4240 -0.9950 0.9858
0.3267 3.4291 -0.9950 0.9858
0.2765 3.4336 -0.9950 0.9858
0.1761 3.4402 -0.9950 0.9858
0.1258 3.4424 -0.9950 0.9858
0.0252 3.4446 -0.9950 0.9858
-0.0252 3.4446 -0.9950 0.9858
-0.1258 3.4423 -0.9950 0.9858
-0.3767 3.4240 -0.9950 0.9858
-0.4267 3.4181 -0.9950 0.9858
-0.5264 3.4042 -0.9950 0.9858
-0.5761 3.3961 -0.9950 0.9858
-0.7244 3.3677 -0.9950 0.9858
-0.8225 3.3450 -0.9950 0.9858
-0.9199 3.3196 -0.9950 0.9858
-0.9683 3.3058 -0.9950 0.9858
-1.0165 3.2912 -0.9950 0.9858
-1.0644 3.2761 -0.9950 0.9858
-1.1122 3.2602 -0.9950 0.9858
-0.2631 0.5116 -0.1662 0.9976
-0.2666 0.5004 -0.1637 0.9976
-0.2732 0.4785 -0.1591 0.9977
-0.2796 0.4580 -0.1550 0.9978
-0.2829 0.4487 -0.1532 0.9978
-0.2862 0.4395 -0.1515 0.9978
-0.2894 0.4305 -0.1498 0.9978
-0.3036 0.3873 -0.1422 0.9980
-0.3063 0.3791 -0.1408 0.9980
-0.3113 0.3631 -0.1382 0.9980
-0.3137 0.3553 -0.1369 0.9980
-0.3161 0.3475 -0.1357 0.9980
-0.3183 0.3399 -0.1345 0.9981
-0.3203 0.3322 -0.1333 0.9981
-0.3235 0.3165 -0.1307 0.9981
-0.3265 0.3012 -0.1283 0.9982
-0.3305 0.2792 -0.1250 0.9982
-0.3318 0.2720 -0.1239 0.9982
-0.3329 0.2649 -0.1229 0.9982
-0.3361 0.2441 -0.1200 0.9983
-0.3370 0.2374 -0.1191 0.9983
-0.3418 0.1984 -0.1141 0.9984
-0.3435 0.1862 -0.1128 0.9984
-0.3462 0.1685 -0.1112 0.9984
-0.3470 0.1627 -0.1107 0.9984
-0.3477 0.1568 -0.1102 0.9984
-0.3489 0.1453 -0.1092 0.9984
-0.3499 0.1339 -0.1082 0.9984
-0.3504 0.1282 -0.1078 0.9984
-0.3516 0.1114 -0.1065 0.9985
-0.3519 0.1059 -0.1062 0.9985
-0.3522 0.1004 -0.1058 0.9985
-0.3527 0.0895 -0.1051 0.9985
-0.3529 0.0840 -0.1048 0.9985
-0.3532 0.0733 -0.1042 0.9985
-0.3534 0.0573 -0.1034 0.9985
-0.3534 0.0520 -0.1032 0.9985
-0.3534 0.0467 -0.1030 0.9985
-0.3533 0.0415 -0.1028 0.9985
-0.3533 0.0362 -0.1026 0.9985
-0.3531 0.0311 -0.1024 0.9985
-0.3530 0.0258 -0.1022 0.9985
-0.3528 0.0207 -0.1021 0.9985
-0.3521 0.0052 -0.1017 0.9985
-0.3461 0.0000 -0.1041 0.9986
-0.3463 -0.0051 -0.1042 0.9986
-0.3466 -0.0102 -0.1043 0.9986
-0.3468 -0.0152 -0.1045 0.9986
-0.3470 -0.0203 -0.1046 0.9985
-0.3472 -0.0254 -0.1047 0.9985
-0.3473 -0.0305 -0.1049 0.9985
-0.3474 -0.0356 -0.1051 0.9985
-0.3475 -0.0460 -0.1055 0.9985
-0.3475 -0.0511 -0.1057 0.9985
-0.3475 -0.0564 -0.1059 0.9985
-0.3474 -0.0668 -0.1064 0.9985
-0.3473 -0.0720 -0.1067 0.9985
-0.3471 -0.0773 -0.1070 0.9985
-0.3469 -0.0827 -0.1073 0.9985
-0.3465 -0.0933 -0.1080 0.9985
-0.3459 -0.1041 -0.1087 0.9985
-0.3456 -0.1095 -0.1091 0.9985
-0.3452 -0.1150 -0.1095 0.9985
-0.3448 -0.1205 -0.1099 0.9985
-0.3443 -0.1260 -0.1103 0.9985
-0.3428 -0.1427 -0.1117 0.9985
-0.3422 -0.1484 -0.1122 0.9984
-0.3391 -0.1713 -0.1143 0.9984
-0.3382 -0.1770 -0.1148 0.9984
-0.3372 -0.1828 -0.1154 0.9984
-0.3362 -0.1887 -0.1160 0.9984
-0.3352 -0.1946 -0.1166 0.9984
-0.3345 -0.2008 -0.1174 0.9984
-0.3330 -0.2134 -0.1190 0.9983
-0.3303 -0.2327 -0.1216 0.9983
-0.3283 -0.2459 -0.1234 0.9983
-0.3261 -0.2595 -0.1254 0.9983
-0.3249 -0.2664 -0.1264 0.9982
-0.3236 -0.2733 -0.1275 0.9982
-0.3223 -0.2804 -0.1285 0.9982
-0.3209 -0.2876 -0.1297 0.9982
-0.3180 -0.3021 -0.1320 0.9982
-0.3149 -0.3171 -0.1345 0.9981
-0.3132 -0.3248 -0.1358 0.9981
-0.3113 -0.3325 -0.1371 0.9981
-0.3018 -0.3627 -0.1420 0.9980
-0.2992 -0.3704 -0.1433 0.9980
-0.2966 -0.3783 -0.1446 0.9980
-0.2853 -0.4113 -0.1506 0.9979
-0.2822 -0.4199 -0.1522 0.9979
-0.2791 -0.4286 -0.1539 0.9979
-0.2724 -0.4464 -0.1574 0.9978
-0.2654 -0.4648 -0.1610 0.9978
-0.2583 -0.4848 -0.1653 0.9977
-0.2548 -0.4955 -0.1676 0.9977
-0.2511 -0.5064 -0.1701 0.9976
-0.2473 -0.5177 -0.1726 0.9976
-0.2392 -0.5407 -0.1779 0.9975
-0.2349 -0.5527 -0.1807 0.9975
-0.2304 -0.5649 -0.1836 0.9975
-0.2322 -0.5939 -0.1919 0.9973
-0.2383 -0.6369 -0.2046 0.9972
-0.9608 -3.1111 -0.9797 0.9865
-0.9153 -3.1248 -0.9797 0.9865
-0.8695 -3.1379 -0.9797 0.9865
-0.8236 -3.1502 -0.9797 0.9865
-0.7775 -3.1619 -0.9797 0.9865
-0.6847 -3.1833 -0.9797 0.9865
-0.6381 -3.1930 -0.9797 0.9865
-0.5914 -3.2020 -0.9797 0.9865
-0.5446 -3.2102 -0.9797 0.9865
-0.4034 -3.2311 -0.9797 0.9865
-0.3561 -3.2366 -0.9797 0.9865
-0.3088 -3.2414 -0.9797 0.9865
-0.1189 -3.2540 -0.9797 0.9865
-0.0238 -3.2561 -0.9797 0.9865
0.1189 -3.2539 -0.9797 0.9865
0.3088 -3.2414 -0.9797 0.9865
0.4034 -3.2311 -0.9797 0.9865
0.4976 -3.2179 -0.9797 0.9865
0.5446 -3.2103 -0.9797 0.9865
0.5914 -3.2020 -0.9797 0.9865
0.6382 -3.1930 -0.9797 0.9865
0.7312 -3.1730 -0.9797 0.9865
0.7775 -3.1620 -0.9797 0.9865
0.8236 -3.1503 -0.9797 0.9865
0.8695 -3.1379 -0.9797 0.9865
0.9608 -3.1112 -0.9797 0.9865
1.1854 -3.0327 -0.9798 0.9865
1.2296 -3.0151 -0.9798 0.9865
1.2735 -2.9968 -0.9798 0.9865
1.3171 -2.9779 -0.9798 0.9865
1.4889 -2.8959 -0.9798 0.9865
1.5729 -2.8511 -0.9798 0.9865
1.6143 -2.8279 -0.9798 0.9865
1.6555 -2.8039 -0.9798 0.9865
1.6963 -2.7795 -0.9798 0.9865
1.8165 -2.7025 -0.9798 0.9865
1.8558 -2.6756 -0.9798 0.9865
1.8946 -2.6482 -0.9798 0.9865
1.9712 -2.5917 -0.9798 0.9865
2.0461 -2.5330 -0.9798 0.9865
2.0829 -2.5029 -0.9798 0.9865
2.1193 -2.4722 -0.9798 0.9865
2.1551 -2.4410 -0.9798 0.9865
2.3144 -2.3312 -0.9884 0.9864
2.3638 -2.3125 -0.9950 0.9863
2.3973 -2.2777 -0.9950 0.9863
2.4303 -2.2425 -0.9950 0.9863
2.4948 -2.1705 -0.9950 0.9863
2.5572 -2.0967 -0.9950 0.9863
2.6174 -2.0211 -0.9950 0.9863
2.7034 -1.9045 -0.9950 0.9863
2.7579 -1.8246 -0.9950 0.9863
2.7843 -1.7842 -0.9950 0.9863
2.9071 -1.5761 -0.9950 0.9863
2.9734 -1.4472 -0.9950 0.9863
2.9942 -1.4036 -0.9950 0.9863
3.0144 -1.3597 -0.9950 0.9863
3.0339 -1.3155 -0.9950 0.9863
3.0529 -1.2711 -0.9950 0.9863
3.0887 -1.1813 -0.9950 0.9863
3.1524 -0.9989 -0.9950 0.9863
3.1667 -0.9527 -0.9950 0.9863
3.1803 -0.9063 -0.9950 0.9863
3.1931 -0.8598 -0.9950 0.9863
3.2054 -0.8130 -0.9950 0.9863
3.2278 -0.7190 -0.9950 0.9863
3.2474 -0.6244 -0.9950 0.9863
3.2562 -0.5769 -0.9950 0.9863
3.2843 -0.3857 -0.9950 0.9863
3.2896 -0.3377 -0.9950 0.9863
3.2942 -0.2896 -0.9950 0.9863
3.3012 -0.1932 -0.9950 0.9863
3.3037 -0.1449 -0.9950 0.9863
3.3055 -0.0966 -0.9950 0.9863
3.3066 -0.0483 -0.9950 0.9863
3.3069 0.0000 -0.9950 0.9863
3.3065 0.0483 -0.9950 0.9863
3.3055 0.0966 -0.9950 0.9863
3.3037 0.1449 -0.9950 0.9863
3.3013 0.1932 -0.9950 0.9863
3.2843 0.3857 -0.9950 0.9863
3.2783 0.4336 -0.9950 0.9863
3.2562 0.5769 -0.9950 0.9863
3.2474 0.6244 -0.9950 0.9863
3.2169 0.7661 -0.9950 0.9863
3.1932 0.8598 -0.9950 0.9863
3.1056 1.1361 -0.9950 0.9863
3.0887 1.1813 -0.9950 0.9863
3.0711 1.2263 -0.9950 0.9863
3.0529 1.2711 -0.9950 0.9863
2.9734 1.4472 -0.9950 0.9863
2.9519 1.4905 -0.9950 0.9863
2.9071 1.5762 -0.9950 0.9863
2.8838 1.6184 -0.9950 0.9863
2.8101 1.7433 -0.9950 0.9863
2.7843 1.7841 -0.9950 0.9863
2.7310 1.8647 -0.9950 0.9863
2.6174 2.0211 -0.9950 0.9863
2.5572 2.0967 -0.9950 0.9863
2.4948 2.1705 -0.9950 0.9863
2.4304 2.2425 -0.9950 0.9863
2.3973 2.2777 -0.9950 0.9863
2.3638 2.3126 -0.9950 0.9863
2.1153 2.5418 -0.9950 0.9863
2.0779 2.5724 -0.9950 0.9863
2.0401 2.6025 -0.9950 0.9863
1.9632 2.6610 -0.9950 0.9863
1.8044 2.7712 -0.9950 0.9863
1.5973 2.8955 -0.9950 0.9863
1.5120 2.9409 -0.9950 0.9863
1.4689 2.9627 -0.9950 0.9863
1.4254 2.9838 -0.9950 0.9863
1.3817 3.0044 -0.9950 0.9863
1.3377 3.0242 -0.9950 0.9863
1.2933 3.0434 -0.9950 0.9863
1.2487 3.0620 -0.9950 0.9863
1.2038 3.0799 -0.9950 0.9863
1.1587 3.0972 -0.9950 0.9863
1.1133 3.1137 -0.9950 0.9863
0.9758 3.1596 -0.9950 0.9863
0.9295 3.1735 -0.9950 0.9863
0.8831 3.1867 -0.9950 0.9863
0.6954 3.2329 -0.9950 0.9863
0.6481 3.2427 -0.9950 0.9863
0.6006 3.2518 -0.9950 0.9863
0.5530 3.2602 -0.9950 0.9863
0.4576 3.2750 -0.9950 0.9863
0.3617 3.2870 -0.9950 0.9863
0.3136 3.2919 -0.9950 0.9863
0.1208 3.3046 -0.9950 0.9863
0.0242 3.3067 -0.9950 0.9863
-0.1690 3.3025 -0.9950 0.9863
-0.2654 3.2961 -0.9950 0.9863
-0.3617 3.2870 -0.9950 0.9863
-0.4097 3.2813 -0.9950 0.9863
-0.6006 3.2518 -0.9950 0.9863
-0.6481 3.2427 -0.9950 0.9863
-0.6954 3.2328 -0.9950 0.9863
-0.7425 3.2223 -0.9950 0.9863
-0.7896 3.2111 -0.9950 0.9863
-0.8830 3.1867 -0.9950 0.9863
-0.9295 3.1734 -0.9950 0.9863
-1.0218 3.1449 -0.9950 0.9863
-1.0677 3.1296 -0.9950 0.9863
-0.2451 0.6855 -0.2191 0.9970
-0.2383 0.6370 -0.2046 0.9972
-0.2304 0.5650 -0.1836 0.9975
-0.2473 0.5177 -0.1726 0.9976
-0.2511 0.5064 -0.1701 0.9976
-0.2583 0.4848 -0.1653 0.9977
-0.2654 0.4648 -0.1610 0.9978
-0.2690 0.4555 -0.1592 0.9978
-0.2725 0.4464 -0.1574 0.9978
-0.2822 0.4199 -0.1522 0.9979
-0.2883 0.4029 -0.1491 0.9979
-0.2911 0.3946 -0.1475 0.9980
-0.2939 0.3864 -0.1461 0.9980
-0.3018 0.3627 -0.1420 0.9980
-0.3067 0.3474 -0.1394 0.9981
-0.3091 0.3399 -0.1382 0.9981
-0.3113 0.3325 -0.1371 0.9981
-0.3165 0.3096 -0.1332 0.9982
-0.3180 0.3022 -0.1320 0.9982
-0.3236 0.2733 -0.1275 0.9982
-0.3272 0.2526 -0.1244 0.9983
-0.3283 0.2459 -0.1234 0.9983
-0.3293 0.2393 -0.1225 0.9983
-0.3303 0.2327 -0.1216 0.9983
-0.3321 0.2197 -0.1198 0.9983
-0.3337 0.2070 -0.1182 0.9984
-0.3345 0.2008 -0.1174 0.9984
-0.3362 0.1887 -0.1160 0.9984
-0.3372 0.1828 -0.1154 0.9984
-0.3382 0.1770 -0.1148 0.9984
-0.3400 0.1655 -0.1138 0.9984
-0.3409 0.1598 -0.1133 0.9984
-0.3438 0.1315 -0.1108 0.9985
-0.3452 0.1149 -0.1095 0.9985
-0.3456 0.1095 -0.1091 0.9985
-0.3459 0.1041 -0.1087 0.9985
-0.3462 0.0987 -0.1083 0.9985
-0.3465 0.0933 -0.1080 0.9985
-0.3467 0.0880 -0.1076 0.9985
-0.3470 0.0827 -0.1073 0.9985
-0.3474 0.0668 -0.1064 0.9985
-0.3475 0.0616 -0.1062 0.9985
-0.3475 0.0564 -0.1059 0.9985
-0.3475 0.0408 -0.1053 0.9985
-0.3473 0.0305 -0.1049 0.9985
-0.3472 0.0254 -0.1047 0.9985
-0.3468 0.0152 -0.1045 0.9986
-0.3463 0.0051 -0.1042 0.9986
-0.3404 0.0000 -0.1066 0.9986
-0.3407 -0.0050 -0.1067 0.9986
-0.3414 -0.0200 -0.1070 0.9986
-0.3416 -0.0300 -0.1073 0.9986
-0.3417 -0.0351 -0.1075 0.9986
-0.3418 -0.0402 -0.1077 0.9986
-0.3418 -0.0503 -0.1081 0.9986
-0.3417 -0.0605 -0.1086 0.9985
-0.3416 -0.0657 -0.1089 0.9985
-0.3415 -0.0708 -0.1092 0.9985
-0.3404 -0.0970 -0.1108 0.9985
-0.3401 -0.1023 -0.1112 0.9985
-0.3397 -0.1077 -0.1115 0.9985
-0.3384 -0.1238 -0.1128 0.9985
-0.3374 -0.1347 -0.1137 0.9985
-0.3362 -0.1458 -0.1147 0.9985
-0.3348 -0.1570 -0.1157 0.9985
-0.3331 -0.1682 -0.1168 0.9984
-0.3312 -0.1795 -0.1179 0.9984
-0.3290 -0.1910 -0.1191 0.9984
-0.3273 -0.2030 -0.1206 0.9984
-0.3265 -0.2092 -0.1214 0.9984
-0.3238 -0.2281 -0.1240 0.9983
-0.3217 -0.2410 -0.1258 0.9983
-0.3206 -0.2475 -0.1268 0.9983
-0.3194 -0.2542 -0.1278 0.9983
-0.3182 -0.2609 -0.1288 0.9983
-0.3156 -0.2745 -0.1309 0.9982
-0.3127 -0.2886 -0.1332 0.9982
-0.3096 -0.3029 -0.1356 0.9982
-0.3045 -0.3252 -0.1394 0.9981
-0.3023 -0.3325 -0.1407 0.9981
-0.2925 -0.3621 -0.1457 0.9981
-0.2814 -0.3934 -0.1514 0.9980
-0.2723 -0.4182 -0.1562 0.9979
-0.2657 -0.4353 -0.1596 0.9979
-0.2622 -0.4441 -0.1614 0.9978
-0.2586 -0.4529 -0.1633 0.9978
-0.2549 -0.4620 -0.1652 0.9978
-0.2510 -0.4712 -0.1671 0.9978
-0.2471 -0.4805 -0.1691 0.9977
-0.2433 -0.4907 -0.1714 0.9977
-0.2227 -0.5459 -0.1846 0.9975
-0.2180 -0.5577 -0.1875 0.9975
-0.2225 -0.6521 -0.2157 0.9971
-0.8798 -3.0037 -0.9797 0.9870
-0.8358 -3.0163 -0.9797 0.9870
-0.7029 -3.0500 -0.9797 0.9870
-0.6582 -3.0600 -0.9797 0.9870
-0.6134 -3.0693 -0.9797 0.9870
-0.5235 -3.0859 -0.9797 0.9870
-0.4783 -3.0932 -0.9797 0.9870
-0.3878 -3.1059 -0.9797 0.9870
-0.2513 -3.1199 -0.9797 0.9870
-0.1143 -3.1279 -0.9797 0.9870
-0.0686 -3.1293 -0.9797 0.9870
-0.0229 -3.1299 -0.9797 0.9870
0.1600 -3.1259 -0.9797 0.9870
0.2513 -3.1199 -0.9797 0.9870
0.3423 -3.1112 -0.9797 0.9870
0.4331 -3.0999 -0.9797 0.9870
0.4783 -3.0933 -0.9797 0.9870
0.5235 -3.0859 -0.9797 0.9870
0.5685 -3.0780 -0.9797 0.9870
0.7474 -3.0395 -0.9797 0.9870
0.7917 -3.0282 -0.9797 0.9870
0.9237 -2.9906 -0.9797 0.9870
0.9672 -2.9768 -0.9797 0.9870
1.0538 -2.9473 -0.9798 0.9870
1.0967 -2.9316 -0.9798 0.9870
1.1820 -2.8983 -0.9798 0.9870
1.3078 -2.8438 -0.9798 0.9870
1.3904 -2.8043 -0.9798 0.9870
1.4312 -2.7837 -0.9798 0.9870
1.4717 -2.7625 -0.9798 0.9870
1.6306 -2.6718 -0.9798 0.9870
1.7461 -2.5977 -0.9798 0.9870
1.8212 -2.5457 -0.9798 0.9870
1.8583 -2.5188 -0.9798 0.9870
1.8949 -2.4914 -0.9798 0.9870
2.1223 -2.3341 -0.9875 0.9869
2.1726 -2.3204 -0.9950 0.9868
2.2063 -2.2884 -0.9950 0.9868
2.2395 -2.2559 -0.9950 0.9868
2.2722 -2.2229 -0.9950 0.9868
2.3362 -2.1556 -0.9950 0.9868
2.3675 -2.1212 -0.9950 0.9868
2.3982 -2.0864 -0.9950 0.9868
2.4284 -2.0511 -0.9950 0.9868
2.4581 -2.0155 -0.9950 0.9868
2.5160 -1.9428 -0.9950 0.9868
2.5717 -1.8684 -0.9950 0.9868
2.5987 -1.8307 -0.9950 0.9868
2.6511 -1.7539 -0.9950 0.9868
2.7012 -1.6757 -0.9950 0.9868
2.7254 -1.6361 -0.9950 0.9868
2.7490 -1.5961 -0.9950 0.9868
2.7721 -1.5557 -0.9950 0.9868
2.9521 -1.1788 -0.9950 0.9868
2.9853 -1.0920 -0.9950 0.9868
3.0303 -0.9602 -0.9950 0.9868
3.0440 -0.9158 -0.9950 0.9868
3.0571 -0.8712 -0.9950 0.9868
3.0923 -0.7364 -0.9950 0.9868
3.1125 -0.6457 -0.9950 0.9868
3.1300 -0.5545 -0.9950 0.9868
3.1449 -0.4629 -0.9950 0.9868
3.1622 -0.3246 -0.9950 0.9868
3.1666 -0.2784 -0.9950 0.9868
3.1703 -0.2320 -0.9950 0.9868
3.1757 -0.1393 -0.9950 0.9868
3.1774 -0.0929 -0.9950 0.9868
3.1785 -0.0464 -0.9950 0.9868
3.1788 0.0000 -0.9950 0.9868
3.1733 0.1857 -0.9950 0.9868
3.1666 0.2784 -0.9950 0.9868
3.1513 0.4168 -0.9950 0.9868
3.1449 0.4629 -0.9950 0.9868
3.1378 0.5087 -0.9950 0.9868
3.1300 0.5545 -0.9950 0.9868
3.1216 0.6002 -0.9950 0.9868
3.1027 0.6912 -0.9950 0.9868
3.0812 0.7815 -0.9950 0.9868
3.0440 0.9158 -0.9950 0.9868
3.0159 1.0044 -0.9950 0.9868
3.0009 1.0483 -0.9950 0.9868
2.9690 1.1355 -0.9950 0.9868
2.9521 1.1788 -0.9950 0.9868
2.8976 1.3071 -0.9950 0.9868
2.8582 1.3912 -0.9950 0.9868
2.8375 1.4328 -0.9950 0.9868
2.7945 1.5151 -0.9950 0.9868
2.7721 1.5557 -0.9950 0.9868
2.7254 1.6361 -0.9950 0.9868
2.7012 1.6757 -0.9950 0.9868
2.6764 1.7150 -0.9950 0.9868
2.6511 1.7540 -0.9950 0.9868
2.5441 1.9058 -0.9950 0.9868
2.5160 1.9428 -0.9950 0.9868
2.4873 1.9793 -0.9950 0.9868
2.3982 2.0864 -0.9950 0.9868
2.3362 2.1556 -0.9950 0.9868
2.3045 2.1895 -0.9950 0.9868
2.2395 2.2559 -0.9950 0.9868
2.2063 2.2884 -0.9950 0.9868
2.1726 2.3204 -0.9950 0.9868
2.1385 2.3519 -0.9950 0.9868
1.9611 2.5017 -0.9950 0.9868
1.9243 2.5301 -0.9950 0.9868
1.8872 2.5580 -0.9950 0.9868
1.8116 2.6120 -0.9950 0.9868
1.7732 2.6382 -0.9950 0.9868
1.6954 2.6889 -0.9950 0.9868
1.5760 2.7606 -0.9950 0.9868
1.5354 2.7833 -0.9950 0.9868
1.4946 2.8054 -0.9950 0.9868
1.4535 2.8270 -0.9950 0.9868
1.4120 2.8479 -0.9950 0.9868
1.3702 2.8683 -0.9950 0.9868
1.2858 2.9071 -0.9950 0.9868
1.2003 2.9434 -0.9950 0.9868
1.1572 2.9606 -0.9950 0.9868
1.1138 2.9772 -0.9950 0.9868
1.0702 2.9931 -0.9950 0.9868
0.9823 3.0231 -0.9950 0.9868
0.8935 3.0505 -0.9950 0.9868
0.7138 3.0975 -0.9950 0.9868
0.6230 3.1171 -0.9950 0.9868
0.5774 3.1259 -0.9950 0.9868
0.5316 3.1339 -0.9950 0.9868
0.4858 3.1413 -0.9950 0.9868
0.4398 3.1481 -0.9950 0.9868
0.3477 3.1596 -0.9950 0.9868
0.2552 3.1684 -0.9950 0.9868
0.2089 3.1718 -0.9950 0.9868
0.1625 3.1745 -0.9950 0.9868
0.1161 3.1766 -0.9950 0.9868
0.0697 3.1779 -0.9950 0.9868
0.0232 3.1786 -0.9950 0.9868
-0.1161 3.1766 -0.9950 0.9868
-0.2552 3.1684 -0.9950 0.9868
-0.3477 3.1596 -0.9950 0.9868
-0.3938 3.1542 -0.9950 0.9868
-0.4398 3.1481 -0.9950 0.9868
-0.6685 3.1076 -0.9950 0.9868
-0.8040 3.0753 -0.9950 0.9868
-0.8935 3.0505 -0.9950 0.9868
-0.9823 3.0230 -0.9950 0.9868
-0.2132 0.5698 -0.1904 0.9975
-0.2180 0.5578 -0.1875 0.9975
-0.2314 0.5231 -0.1791 0.9976
-0.2395 0.5012 -0.1739 0.9977
-0.2549 0.4620 -0.1652 0.9978
-0.2586 0.4530 -0.1633 0.9978
-0.2657 0.4353 -0.1596 0.9979
-0.2690 0.4267 -0.1579 0.9979
-0.2785 0.4015 -0.1529 0.9980
-0.2814 0.3934 -0.1514 0.9980
-0.2843 0.3853 -0.1499 0.9980
-0.2871 0.3775 -0.1484 0.9980
-0.2925 0.3621 -0.1457 0.9981
-0.2951 0.3546 -0.1444 0.9981
-0.2976 0.3471 -0.1431 0.9981
-0.3000 0.3398 -0.1419 0.9981
-0.3045 0.3252 -0.1394 0.9981
-0.3063 0.3177 -0.1381 0.9982
-0.3080 0.3103 -0.1368 0.9982
-0.3096 0.3029 -0.1356 0.9982
-0.3156 0.2746 -0.1309 0.9982
-0.3170 0.2677 -0.1299 0.9983
-0.3182 0.2609 -0.1288 0.9983
-0.3194 0.2542 -0.1278 0.9983
-0.3217 0.2410 -0.1258 0.9983
-0.3228 0.2345 -0.1249 0.9983
-0.3238 0.2281 -0.1240 0.9983
-0.3247 0.2217 -0.1231 0.9984
-0.3257 0.2155 -0.1222 0.9984
-0.3265 0.2093 -0.1214 0.9984
-0.3311 0.1796 -0.1179 0.9984
-0.3321 0.1738 -0.1173 0.9984
-0.3331 0.1682 -0.1168 0.9984
-0.3340 0.1625 -0.1163 0.9984
-0.3348 0.1570 -0.1158 0.9985
-0.3356 0.1514 -0.1152 0.9985
-0.3362 0.1458 -0.1147 0.9985
-0.3368 0.1402 -0.1142 0.9985
-0.3374 0.1347 -0.1137 0.9985
-0.3379 0.1292 -0.1132 0.9985
-0.3384 0.1238 -0.1128 0.9985
-0.3393 0.1130 -0.1119 0.9985
-0.3400 0.1023 -0.1112 0.9985
-0.3404 0.0970 -0.1108 0.9985
-0.3409 0.0864 -0.1101 0.9985
-0.3413 0.0761 -0.1095 0.9985
