ply
format ascii 1.0
element vertex 1599
property float32 x
property float32 y
property float32 z
property float32 I
end_header
0.1528 -2.3197 -0.6437 0.9904
0.2728 -2.1852 -0.6097 0.9909
0.3008 -2.1533 -0.6020 0.9910
0.3547 -2.0912 -0.5873 0.9912
0.4060 -2.0315 -0.5736 0.9914
0.7444 -3.4607 -0.9801 0.9854
0.7949 -3.4495 -0.9801 0.9854
0.8954 -3.4248 -0.9801 0.9854
1.0939 -3.3668 -0.9801 0.9854
1.2404 -3.3156 -0.9802 0.9854
1.2887 -3.2972 -0.9802 0.9854
1.5261 -3.1945 -0.9802 0.9854
1.6188 -3.1485 -0.9802 0.9854
1.6646 -3.1245 -0.9802 0.9854
1.7101 -3.0999 -0.9802 0.9854
1.6228 -2.8426 -0.9063 0.9865
1.6902 -2.8628 -0.9205 0.9863
1.8883 -2.9948 -0.9803 0.9854
1.9319 -2.9669 -0.9803 0.9854
1.9751 -2.9384 -0.9803 0.9854
2.0212 -2.7397 -0.9427 0.9860
2.0793 -2.7338 -0.9510 0.9858
2.1383 -2.7277 -0.9596 0.9857
2.2594 -2.7149 -0.9780 0.9854
2.3044 -2.6881 -0.9803 0.9854
2.4575 -2.5490 -0.9803 0.9854
2.4945 -2.5128 -0.9803 0.9854
2.5669 -2.4388 -0.9804 0.9854
2.6023 -2.4012 -0.9804 0.9854
2.7050 -2.2848 -0.9804 0.9854
2.8026 -2.1641 -0.9804 0.9854
2.8339 -2.1230 -0.9804 0.9854
2.8837 -2.0952 -0.9869 0.9853
2.9697 -2.0278 -0.9957 0.9852
2.9991 -1.9842 -0.9957 0.9852
3.1099 -1.8056 -0.9957 0.9852
3.1360 -1.7600 -0.9957 0.9852
3.1861 -1.6676 -0.9957 0.9852
3.2561 -1.5264 -0.9957 0.9852
3.2781 -1.4787 -0.9957 0.9852
3.2994 -1.4306 -0.9957 0.9852
3.3398 -1.3336 -0.9957 0.9852
3.4586 -0.9857 -0.9957 0.9852
3.4859 -0.8841 -0.9957 0.9852
3.5213 -0.7306 -0.9957 0.9852
3.5316 -0.6791 -0.9957 0.9852
3.5412 -0.6273 -0.9957 0.9852
3.5653 -0.4716 -0.9957 0.9852
3.5775 -0.3672 -0.9957 0.9852
3.5868 -0.2625 -0.9957 0.9852
3.5902 -0.2101 -0.9957 0.9852
3.5929 -0.1576 -0.9957 0.9852
3.5948 0.1051 -0.9957 0.9852
3.5902 0.2101 -0.9957 0.9852
3.5825 0.3149 -0.9957 0.9852
3.5775 0.3672 -0.9957 0.9852
3.5718 0.4194 -0.9957 0.9852
3.5653 0.4716 -0.9957 0.9852
3.5580 0.5236 -0.9957 0.9852
3.5412 0.6274 -0.9957 0.9852
3.5213 0.7305 -0.9957 0.9852
3.4586 0.9856 -0.9957 0.9852
3.4283 1.0863 -0.9957 0.9852
3.4120 1.1363 -0.9957 0.9852
3.3773 1.2355 -0.9957 0.9852
3.3398 1.3336 -0.9957 0.9852
3.3200 1.3823 -0.9957 0.9852
3.2994 1.4306 -0.9957 0.9852
3.2781 1.4787 -0.9957 0.9852
3.2562 1.5264 -0.9957 0.9852
3.2101 1.6209 -0.9957 0.9852
3.1861 1.6676 -0.9957 0.9852
3.1099 1.8056 -0.9957 0.9852
3.0832 1.8508 -0.9957 0.9852
2.9991 1.9841 -0.9957 0.9852
2.9698 2.0277 -0.9957 0.9852
2.9092 2.1137 -0.9956 0.9852
2.8780 2.1560 -0.9956 0.9852
2.8462 2.1978 -0.9956 0.9852
2.8138 2.2391 -0.9956 0.9852
2.7471 2.3204 -0.9956 0.9852
2.7129 2.3602 -0.9956 0.9852
2.6068 2.4768 -0.9956 0.9852
2.5704 2.5146 -0.9956 0.9852
2.5333 2.5520 -0.9956 0.9852
2.4958 2.5886 -0.9956 0.9852
2.4190 2.6604 -0.9956 0.9852
2.3799 2.6955 -0.9956 0.9852
2.2594 2.7971 -0.9956 0.9852
2.0492 2.9545 -0.9955 0.9852
2.0058 2.9841 -0.9955 0.9852
1.9619 3.0130 -0.9955 0.9852
1.8280 3.0961 -0.9955 0.9852
1.6905 3.1732 -0.9955 0.9852
1.6439 3.1975 -0.9955 0.9852
1.5971 3.2212 -0.9955 0.9852
1.5022 3.2664 -0.9955 0.9852
1.4543 3.2880 -0.9954 0.9852
1.3576 3.3291 -0.9954 0.9852
1.3088 3.3485 -0.9954 0.9852
1.2597 3.3672 -0.9954 0.9852
1.1608 3.4025 -0.9954 0.9852
1.1110 3.4191 -0.9954 0.9852
1.0609 3.4350 -0.9954 0.9852
0.9600 3.4645 -0.9954 0.9852
0.9093 3.4781 -0.9954 0.9852
0.8073 3.5031 -0.9954 0.9852
0.7046 3.5252 -0.9953 0.9852
0.6529 3.5351 -0.9953 0.9852
0.6013 3.5442 -0.9953 0.9852
0.4453 3.5671 -0.9953 0.9852
0.3409 3.5785 -0.9953 0.9852
0.2886 3.5830 -0.9953 0.9852
0.1838 3.5899 -0.9953 0.9852
0.1313 3.5922 -0.9953 0.9852
0.0787 3.5937 -0.9952 0.9852
0.0262 3.5944 -0.9952 0.9852
-0.0262 3.5944 -0.9952 0.9852
-0.2362 3.5866 -0.9952 0.9852
-0.2886 3.5828 -0.9952 0.9852
-0.3409 3.5781 -0.9952 0.9852
-0.5493 3.5520 -0.9952 0.9852
-0.6528 3.5344 -0.9951 0.9852
-0.8071 3.5023 -0.9951 0.9852
-1.0102 3.4491 -0.9951 0.9852
-1.1106 3.4180 -0.9951 0.9852
-0.2857 0.7005 -0.2095 0.9969
-0.2753 0.6479 -0.1949 0.9971
-0.2662 0.6018 -0.1822 0.9973
-0.2644 0.5534 -0.1698 0.9975
-0.2787 0.5051 -0.1597 0.9976
-0.2849 0.4826 -0.1552 0.9977
-0.2879 0.4717 -0.1530 0.9977
-0.2907 0.4610 -0.1509 0.9977
-0.2936 0.4509 -0.1490 0.9978
-0.3056 0.4143 -0.1425 0.9979
-0.3083 0.4055 -0.1410 0.9979
-0.3110 0.3968 -0.1396 0.9979
-0.3233 0.3555 -0.1330 0.9980
-0.3277 0.3398 -0.1307 0.9980
-0.3309 0.3237 -0.1282 0.9981
-0.3377 0.2852 -0.1224 0.9982
-0.3411 0.2634 -0.1193 0.9982
-0.3421 0.2562 -0.1183 0.9982
-0.3464 0.2220 -0.1139 0.9983
-0.3499 0.1897 -0.1102 0.9983
-0.3508 0.1836 -0.1096 0.9984
-0.3517 0.1776 -0.1091 0.9984
-0.3534 0.1657 -0.1081 0.9984
-0.3541 0.1597 -0.1075 0.9984
-0.3546 0.1538 -0.1070 0.9984
-0.3552 0.1479 -0.1065 0.9984
-0.3566 0.1305 -0.1052 0.9984
-0.3578 0.1134 -0.1039 0.9984
-0.3588 0.0910 -0.1025 0.9985
-0.3590 0.0855 -0.1022 0.9985
-0.3592 0.0800 -0.1019 0.9985
-0.3594 0.0691 -0.1013 0.9985
-0.3594 0.0637 -0.1011 0.9985
-0.3594 0.0583 -0.1008 0.9985
-0.3594 0.0529 -0.1006 0.9985
-0.3594 0.0475 -0.1004 0.9985
-0.3593 0.0422 -0.1002 0.9985
-0.3593 0.0369 -0.1000 0.9985
-0.3589 0.0262 -0.0997 0.9985
-0.3587 0.0210 -0.0995 0.9985
-0.3583 0.0105 -0.0993 0.9985
-0.3580 0.0053 -0.0991 0.9985
-0.3518 0.0000 -0.1016 0.9985
-0.3521 -0.0052 -0.1017 0.9985
-0.3530 -0.0259 -0.1022 0.9985
-0.3533 -0.0415 -0.1028 0.9985
-0.3534 -0.0520 -0.1032 0.9985
-0.3529 -0.0841 -0.1048 0.9985
-0.3525 -0.0949 -0.1054 0.9985
-0.3522 -0.1004 -0.1058 0.9985
-0.3519 -0.1059 -0.1061 0.9985
-0.3516 -0.1114 -0.1065 0.9985
-0.3504 -0.1282 -0.1078 0.9984
-0.3483 -0.1510 -0.1097 0.9984
-0.3470 -0.1627 -0.1107 0.9984
-0.3462 -0.1685 -0.1112 0.9984
-0.3435 -0.1862 -0.1128 0.9984
-0.3425 -0.1922 -0.1134 0.9984
-0.3411 -0.2048 -0.1149 0.9983
-0.3404 -0.2112 -0.1157 0.9983
-0.3396 -0.2176 -0.1165 0.9983
-0.3388 -0.2241 -0.1173 0.9983
-0.3350 -0.2510 -0.1209 0.9983
-0.3329 -0.2649 -0.1229 0.9982
-0.3317 -0.2720 -0.1239 0.9982
-0.3305 -0.2792 -0.1250 0.9982
-0.3293 -0.2865 -0.1261 0.9982
-0.3279 -0.2938 -0.1272 0.9982
-0.3265 -0.3013 -0.1283 0.9982
-0.3251 -0.3089 -0.1295 0.9981
-0.3183 -0.3399 -0.1345 0.9981
-0.3160 -0.3476 -0.1357 0.9980
-0.3088 -0.3711 -0.1394 0.9980
-0.3009 -0.3957 -0.1436 0.9979
-0.2924 -0.4216 -0.1482 0.9979
-0.2893 -0.4305 -0.1498 0.9978
-0.2795 -0.4580 -0.1550 0.9978
-0.2762 -0.4679 -0.1569 0.9977
-0.2731 -0.4785 -0.1591 0.9977
-0.2666 -0.5003 -0.1637 0.9976
-0.2630 -0.5116 -0.1662 0.9976
-0.2594 -0.5232 -0.1687 0.9976
-0.2516 -0.5471 -0.1739 0.9975
-0.2474 -0.5595 -0.1767 0.9975
-0.2457 -0.5781 -0.1814 0.9974
-0.2528 -0.6200 -0.1934 0.9972
-0.2609 -0.6675 -0.2070 0.9970
-0.9078 -2.5389 -0.7788 0.9888
-0.6914 -2.6448 -0.7896 0.9887
-0.6547 -2.6627 -0.7920 0.9886
-0.6178 -2.6807 -0.7946 0.9886
-0.4523 -2.1029 -0.6213 0.9911
-0.4491 -2.2470 -0.6619 0.9905
-0.4405 -2.5969 -0.7608 0.9891
-0.3254 -2.3290 -0.6793 0.9903
-0.3494 -2.7985 -0.8146 0.9883
-0.3028 -2.7516 -0.7996 0.9885
-0.2578 -2.7061 -0.7852 0.9887
-0.2144 -2.6620 -0.7714 0.9889
-0.1725 -2.6190 -0.7581 0.9891
-0.1319 -2.5772 -0.7454 0.9893
-0.0547 -2.4970 -0.7214 0.9897
0.1808 -2.2452 -0.6506 0.9907
0.2399 -2.1802 -0.6335 0.9909
0.3490 -2.0575 -0.6028 0.9913
0.7136 -3.3173 -0.9801 0.9860
0.8102 -3.2950 -0.9801 0.9860
0.8583 -3.2829 -0.9801 0.9860
0.9062 -3.2700 -0.9801 0.9860
0.9538 -3.2564 -0.9801 0.9860
1.0956 -3.2116 -0.9801 0.9860
1.1425 -3.1952 -0.9802 0.9860
1.2814 -3.1422 -0.9802 0.9860
1.3272 -3.1231 -0.9802 0.9860
1.3727 -3.1034 -0.9802 0.9860
1.4179 -3.0831 -0.9802 0.9860
1.5074 -3.0404 -0.9802 0.9860
1.5517 -3.0180 -0.9802 0.9860
1.6392 -2.9714 -0.9802 0.9860
1.6825 -2.9472 -0.9802 0.9860
1.6573 -2.8071 -0.9416 0.9865
1.7679 -2.8968 -0.9802 0.9860
1.8100 -2.8707 -0.9803 0.9860
1.8518 -2.8440 -0.9803 0.9860
2.0089 -2.7230 -0.9774 0.9860
2.0545 -2.7013 -0.9803 0.9860
2.1326 -2.6402 -0.9803 0.9860
2.1710 -2.6087 -0.9803 0.9860
2.2832 -2.5111 -0.9803 0.9860
2.3911 -2.4087 -0.9803 0.9860
2.4261 -2.3734 -0.9803 0.9860
2.4605 -2.3378 -0.9803 0.9860
2.4944 -2.3016 -0.9803 0.9860
2.7101 -2.0927 -0.9890 0.9858
2.8748 -1.9020 -0.9956 0.9858
2.9023 -1.8597 -0.9956 0.9858
2.9291 -1.8171 -0.9957 0.9858
2.9554 -1.7741 -0.9957 0.9858
3.0060 -1.6870 -0.9957 0.9858
3.0303 -1.6430 -0.9957 0.9858
3.0771 -1.5537 -0.9957 0.9858
3.0995 -1.5086 -0.9957 0.9858
3.1212 -1.4632 -0.9957 0.9858
3.1422 -1.4174 -0.9957 0.9858
3.1823 -1.3250 -0.9957 0.9858
3.2373 -1.1843 -0.9957 0.9858
3.2543 -1.1368 -0.9957 0.9858
3.2706 -1.0892 -0.9957 0.9858
3.2862 -1.0412 -0.9957 0.9858
3.3011 -0.9931 -0.9957 0.9857
3.3152 -0.9448 -0.9957 0.9858
3.3414 -0.8475 -0.9957 0.9858
3.3535 -0.7986 -0.9957 0.9857
3.3753 -0.7003 -0.9957 0.9857
3.3944 -0.6013 -0.9957 0.9857
3.4028 -0.5517 -0.9957 0.9857
3.4105 -0.5019 -0.9957 0.9857
3.4175 -0.4520 -0.9957 0.9857
3.4237 -0.4021 -0.9957 0.9857
3.4293 -0.3520 -0.9957 0.9857
3.4340 -0.3018 -0.9957 0.9857
3.4380 -0.2516 -0.9957 0.9857
3.4414 -0.2014 -0.9957 0.9857
3.4439 -0.1511 -0.9957 0.9857
3.4469 -0.0504 -0.9957 0.9857
3.4473 0.0000 -0.9957 0.9857
3.4458 0.1007 -0.9957 0.9857
3.4440 0.1511 -0.9957 0.9857
3.4414 0.2013 -0.9957 0.9857
3.4380 0.2516 -0.9957 0.9857
3.4293 0.3520 -0.9957 0.9857
3.4237 0.4020 -0.9957 0.9857
3.4175 0.4520 -0.9957 0.9857
3.4028 0.5516 -0.9957 0.9857
3.3852 0.6509 -0.9957 0.9857
3.3754 0.7003 -0.9957 0.9857
3.3648 0.7495 -0.9957 0.9857
3.3534 0.7986 -0.9957 0.9858
3.3414 0.8475 -0.9957 0.9858
3.3287 0.8963 -0.9957 0.9857
3.3152 0.9448 -0.9957 0.9858
3.3010 0.9931 -0.9957 0.9858
3.2862 1.0413 -0.9957 0.9858
3.2706 1.0892 -0.9957 0.9858
3.2374 1.1843 -0.9957 0.9858
3.2197 1.2314 -0.9957 0.9858
3.2014 1.2783 -0.9957 0.9858
3.1823 1.3250 -0.9957 0.9858
3.1626 1.3713 -0.9957 0.9858
3.1422 1.4174 -0.9957 0.9858
3.0540 1.5985 -0.9957 0.9858
3.0303 1.6430 -0.9957 0.9858
3.0060 1.6871 -0.9957 0.9858
2.8748 1.9019 -0.9956 0.9858
2.8467 1.9437 -0.9956 0.9858
2.7886 2.0261 -0.9956 0.9858
2.6655 2.1855 -0.9956 0.9858
2.6332 2.2241 -0.9956 0.9858
2.5671 2.3002 -0.9956 0.9858
2.5332 2.3374 -0.9956 0.9858
2.4988 2.3742 -0.9956 0.9858
2.4638 2.4104 -0.9956 0.9858
2.4283 2.4461 -0.9956 0.9858
2.2047 2.6493 -0.9955 0.9858
2.0865 2.7433 -0.9955 0.9858
2.0054 2.8030 -0.9955 0.9858
1.9642 2.8320 -0.9955 0.9858
1.8806 2.8882 -0.9955 0.9858
1.8382 2.9153 -0.9955 0.9858
1.7954 2.9419 -0.9955 0.9858
1.7086 2.9930 -0.9955 0.9858
1.6647 3.0177 -0.9955 0.9858
1.5758 3.0650 -0.9955 0.9858
1.5309 3.0877 -0.9955 0.9858
1.4400 3.1311 -0.9954 0.9858
1.3479 3.1717 -0.9954 0.9858
1.3013 3.1910 -0.9954 0.9858
1.2546 3.2097 -0.9954 0.9858
1.2075 3.2277 -0.9954 0.9858
1.1602 3.2450 -0.9954 0.9858
0.9687 3.3071 -0.9954 0.9858
0.9202 3.3209 -0.9954 0.9858
0.7738 3.3580 -0.9953 0.9858
0.6754 3.3791 -0.9953 0.9858
0.6259 3.3886 -0.9953 0.9858
0.5763 3.3973 -0.9953 0.9858
0.5266 3.4053 -0.9953 0.9858
0.4269 3.4192 -0.9953 0.9858
0.2766 3.4346 -0.9953 0.9858
0.0252 3.4455 -0.9952 0.9858
-0.0755 3.4447 -0.9952 0.9858
-0.1258 3.4432 -0.9952 0.9858
-0.1761 3.4410 -0.9952 0.9858
-0.2264 3.4380 -0.9952 0.9858
-0.2766 3.4343 -0.9952 0.9858
-0.3268 3.4299 -0.9952 0.9858
-0.3768 3.4247 -0.9952 0.9858
-0.4268 3.4189 -0.9952 0.9858
-0.5265 3.4049 -0.9952 0.9858
-0.5762 3.3968 -0.9952 0.9858
-0.6258 3.3879 -0.9951 0.9858
-0.7736 3.3572 -0.9951 0.9858
-0.8226 3.3455 -0.9951 0.9858
-0.9200 3.3200 -0.9951 0.9858
-1.0166 3.2917 -0.9951 0.9858
-1.1123 3.2605 -0.9951 0.9858
-1.1599 3.2439 -0.9951 0.9858
-0.2609 0.6675 -0.2070 0.9970
-0.2529 0.6200 -0.1934 0.9972
-0.2556 0.5350 -0.1713 0.9975
-0.2630 0.5116 -0.1662 0.9976
-0.2699 0.4893 -0.1614 0.9977
-0.2731 0.4784 -0.1591 0.9977
-0.2762 0.4678 -0.1569 0.9977
-0.2796 0.4581 -0.1550 0.9978
-0.2862 0.4395 -0.1515 0.9978
-0.2894 0.4305 -0.1498 0.9978
-0.2954 0.4129 -0.1466 0.9979
-0.2982 0.4042 -0.1451 0.9979
-0.3010 0.3957 -0.1436 0.9979
-0.3036 0.3873 -0.1422 0.9980
-0.3183 0.3399 -0.1345 0.9981
-0.3203 0.3322 -0.1333 0.9981
-0.3220 0.3243 -0.1320 0.9981
-0.3235 0.3166 -0.1307 0.9981
-0.3265 0.3013 -0.1283 0.9982
-0.3279 0.2938 -0.1272 0.9982
-0.3305 0.2791 -0.1250 0.9982
-0.3317 0.2720 -0.1239 0.9982
-0.3340 0.2579 -0.1219 0.9982
-0.3370 0.2374 -0.1191 0.9983
-0.3396 0.2176 -0.1165 0.9983
-0.3404 0.2111 -0.1157 0.9983
-0.3417 0.1984 -0.1141 0.9984
-0.3453 0.1744 -0.1117 0.9984
-0.3471 0.1627 -0.1107 0.9984
-0.3483 0.1510 -0.1097 0.9984
-0.3489 0.1453 -0.1092 0.9984
-0.3494 0.1395 -0.1087 0.9984
-0.3504 0.1282 -0.1078 0.9984
-0.3508 0.1226 -0.1073 0.9985
-0.3519 0.1059 -0.1061 0.9985
-0.3522 0.1004 -0.1058 0.9985
-0.3527 0.0895 -0.1051 0.9985
-0.3533 0.0679 -0.1039 0.9985
-0.3534 0.0626 -0.1037 0.9985
-0.3534 0.0573 -0.1034 0.9985
-0.3534 0.0520 -0.1032 0.9985
-0.3534 0.0467 -0.1030 0.9985
-0.3532 0.0362 -0.1026 0.9985
-0.3531 0.0311 -0.1024 0.9985
-0.3530 0.0258 -0.1022 0.9985
-0.3524 0.0103 -0.1018 0.9985
-0.3521 0.0051 -0.1017 0.9985
-0.3475 -0.0408 -0.1053 0.9985
-0.3475 -0.0512 -0.1057 0.9985
-0.3475 -0.0563 -0.1059 0.9985
-0.3473 -0.0668 -0.1064 0.9985
-0.3473 -0.0721 -0.1067 0.9985
-0.3467 -0.0880 -0.1076 0.9985
-0.3465 -0.0933 -0.1080 0.9985
-0.3459 -0.1041 -0.1087 0.9985
-0.3456 -0.1095 -0.1091 0.9985
-0.3452 -0.1150 -0.1095 0.9985
-0.3438 -0.1315 -0.1108 0.9985
-0.3433 -0.1371 -0.1112 0.9985
-0.3422 -0.1484 -0.1122 0.9984
-0.3408 -0.1598 -0.1133 0.9984
-0.3391 -0.1713 -0.1143 0.9984
-0.3382 -0.1770 -0.1148 0.9984
-0.3372 -0.1828 -0.1154 0.9984
-0.3345 -0.2008 -0.1174 0.9984
-0.3337 -0.2070 -0.1182 0.9984
-0.3329 -0.2134 -0.1190 0.9983
-0.3303 -0.2327 -0.1216 0.9983
-0.3293 -0.2393 -0.1225 0.9983
-0.3283 -0.2459 -0.1234 0.9983
-0.3260 -0.2595 -0.1254 0.9983
-0.3248 -0.2664 -0.1264 0.9982
-0.3236 -0.2734 -0.1275 0.9982
-0.3148 -0.3171 -0.1345 0.9981
-0.3067 -0.3474 -0.1394 0.9981
-0.2966 -0.3784 -0.1446 0.9980
-0.2758 -0.4375 -0.1556 0.9978
-0.2724 -0.4464 -0.1574 0.9978
-0.2583 -0.4848 -0.1653 0.9977
-0.2473 -0.5176 -0.1726 0.9976
-0.2392 -0.5407 -0.1779 0.9975
-0.2304 -0.5649 -0.1836 0.9975
-0.2383 -0.6370 -0.2046 0.9972
-0.8721 -2.5564 -0.8127 0.9888
-0.8004 -2.5914 -0.8161 0.9887
-0.7642 -2.6091 -0.8180 0.9887
-0.7279 -2.6269 -0.8202 0.9887
-0.6914 -2.6447 -0.8225 0.9886
-0.6547 -2.6627 -0.8250 0.9886
-0.5806 -2.6990 -0.8307 0.9885
-0.4144 -2.0737 -0.6363 0.9912
-0.3340 -2.1596 -0.6575 0.9909
-0.2964 -2.6936 -0.8154 0.9887
-0.2525 -2.6501 -0.8010 0.9889
-0.1690 -2.5666 -0.7739 0.9893
-0.0909 -2.4875 -0.7490 0.9897
0.0174 -2.3760 -0.7149 0.9901
0.1163 -2.2721 -0.6846 0.9905
0.1475 -2.2390 -0.6752 0.9907
0.3089 -3.2425 -0.9800 0.9865
0.3562 -3.2376 -0.9800 0.9865
0.4035 -3.2321 -0.9801 0.9865
0.4507 -3.2259 -0.9801 0.9865
0.4978 -3.2190 -0.9801 0.9865
0.5448 -3.2113 -0.9801 0.9865
0.6384 -3.1941 -0.9801 0.9865
0.6850 -3.1845 -0.9801 0.9865
0.7315 -3.1741 -0.9801 0.9865
0.7778 -3.1631 -0.9801 0.9865
0.8699 -3.1391 -0.9801 0.9865
0.9157 -3.1261 -0.9801 0.9865
1.0967 -3.0673 -0.9801 0.9865
1.1414 -3.0510 -0.9802 0.9865
1.1859 -3.0340 -0.9802 0.9865
1.2301 -3.0164 -0.9802 0.9865
1.2741 -2.9981 -0.9802 0.9865
1.3177 -2.9792 -0.9802 0.9865
1.4042 -2.9395 -0.9802 0.9865
1.5317 -2.8752 -0.9802 0.9865
1.5736 -2.8525 -0.9802 0.9865
1.6151 -2.8292 -0.9802 0.9865
1.6971 -2.7809 -0.9802 0.9865
1.7376 -2.7557 -0.9802 0.9865
1.7777 -2.7301 -0.9802 0.9865
1.8567 -2.6770 -0.9803 0.9865
2.0100 -2.5641 -0.9803 0.9865
2.0472 -2.5344 -0.9803 0.9865
2.1204 -2.4735 -0.9803 0.9865
2.1563 -2.4423 -0.9803 0.9865
2.1918 -2.4105 -0.9803 0.9865
2.2268 -2.3782 -0.9803 0.9865
2.3289 -2.2784 -0.9803 0.9865
2.3620 -2.2441 -0.9803 0.9865
2.3945 -2.2095 -0.9803 0.9865
2.4935 -2.1062 -0.9821 0.9865
2.5482 -2.0893 -0.9915 0.9863
2.5891 -2.0604 -0.9956 0.9863
2.6190 -2.0223 -0.9956 0.9863
2.6769 -1.9449 -0.9956 0.9863
2.7597 -1.8257 -0.9956 0.9863
2.7860 -1.7853 -0.9956 0.9863
2.8616 -1.6614 -0.9956 0.9863
2.8856 -1.6195 -0.9956 0.9863
2.9317 -1.5345 -0.9957 0.9863
3.0731 -1.2271 -0.9957 0.9863
3.0908 -1.1821 -0.9957 0.9863
3.1240 -1.0913 -0.9957 0.9863
3.1396 -1.0455 -0.9957 0.9863
3.1546 -0.9995 -0.9957 0.9863
3.1688 -0.9533 -0.9957 0.9863
3.1954 -0.8603 -0.9957 0.9863
3.2300 -0.7195 -0.9957 0.9863
3.2402 -0.6722 -0.9957 0.9863
3.2584 -0.5773 -0.9957 0.9863
3.2665 -0.5296 -0.9957 0.9863
3.2739 -0.4818 -0.9957 0.9863
3.3004 -0.2416 -0.9957 0.9863
3.3060 -0.1450 -0.9957 0.9863
3.3092 -0.0000 -0.9957 0.9863
3.3089 0.0484 -0.9957 0.9863
3.3036 0.1933 -0.9957 0.9863
3.3004 0.2416 -0.9957 0.9863
3.2866 0.3859 -0.9957 0.9863
3.2739 0.4818 -0.9957 0.9863
3.2665 0.5296 -0.9957 0.9863
3.2584 0.5773 -0.9957 0.9863
3.2496 0.6248 -0.9957 0.9863
3.2402 0.6722 -0.9957 0.9863
3.2300 0.7195 -0.9957 0.9863
3.2076 0.8136 -0.9957 0.9863
3.1954 0.8604 -0.9957 0.9863
3.1688 0.9534 -0.9957 0.9863
3.1545 0.9995 -0.9957 0.9863
3.1240 1.0913 -0.9957 0.9863
3.1077 1.1368 -0.9957 0.9863
3.0907 1.1821 -0.9957 0.9863
3.0360 1.3164 -0.9957 0.9863
2.9962 1.4045 -0.9957 0.9863
2.9538 1.4915 -0.9957 0.9863
2.9317 1.5345 -0.9957 0.9863
2.9090 1.5771 -0.9956 0.9863
2.8856 1.6195 -0.9956 0.9863
2.8616 1.6615 -0.9956 0.9863
2.8371 1.7031 -0.9956 0.9863
2.7596 1.8257 -0.9956 0.9863
2.7327 1.8659 -0.9956 0.9863
2.7051 1.9056 -0.9956 0.9863
2.6770 1.9449 -0.9956 0.9863
2.6482 1.9838 -0.9956 0.9863
2.5891 2.0604 -0.9956 0.9863
2.5278 2.1351 -0.9956 0.9863
2.4963 2.1718 -0.9956 0.9863
2.4643 2.2080 -0.9956 0.9863
2.4318 2.2438 -0.9956 0.9863
2.3651 2.3139 -0.9956 0.9863
2.1164 2.5432 -0.9955 0.9863
2.0791 2.5738 -0.9955 0.9863
2.0029 2.6334 -0.9955 0.9863
1.9642 2.6624 -0.9955 0.9863
1.8457 2.7459 -0.9955 0.9863
1.8053 2.7725 -0.9955 0.9863
1.6821 2.8489 -0.9955 0.9863
1.6402 2.8732 -0.9955 0.9863
1.5556 2.9199 -0.9955 0.9863
1.4696 2.9641 -0.9954 0.9863
1.2939 3.0447 -0.9954 0.9863
1.0682 3.1310 -0.9954 0.9863
1.0223 3.1462 -0.9954 0.9863
0.9299 3.1747 -0.9954 0.9863
0.8834 3.1880 -0.9954 0.9863
0.6008 3.2529 -0.9953 0.9863
0.5533 3.2613 -0.9953 0.9863
0.4577 3.2760 -0.9953 0.9863
0.4098 3.2823 -0.9953 0.9863
0.3618 3.2880 -0.9953 0.9863
0.3137 3.2929 -0.9953 0.9863
0.2656 3.2971 -0.9953 0.9863
0.2174 3.3006 -0.9953 0.9863
0.1208 3.3055 -0.9953 0.9863
0.0725 3.3069 -0.9952 0.9863
-0.0242 3.3075 -0.9952 0.9863
-0.0725 3.3068 -0.9952 0.9863
-0.1208 3.3054 -0.9952 0.9863
-0.1691 3.3032 -0.9952 0.9863
-0.2173 3.3004 -0.9952 0.9863
-0.2655 3.2969 -0.9952 0.9863
-0.3137 3.2926 -0.9952 0.9863
-0.3617 3.2876 -0.9952 0.9863
-0.5054 3.2686 -0.9952 0.9863
-0.6007 3.2524 -0.9952 0.9863
-0.6955 3.2334 -0.9951 0.9863
-0.7426 3.2229 -0.9951 0.9863
-0.8365 3.1997 -0.9951 0.9863
-1.0220 3.1453 -0.9951 0.9863
-0.2451 0.6855 -0.2190 0.9970
-0.2383 0.6369 -0.2046 0.9972
-0.2349 0.5527 -0.1807 0.9975
-0.2392 0.5408 -0.1779 0.9975
-0.2511 0.5064 -0.1701 0.9976
-0.2583 0.4848 -0.1653 0.9977
-0.2653 0.4648 -0.1610 0.9978
-0.2724 0.4464 -0.1574 0.9978
-0.2822 0.4199 -0.1522 0.9979
-0.2882 0.4029 -0.1491 0.9979
-0.2966 0.3783 -0.1446 0.9980
-0.2993 0.3705 -0.1433 0.9980
-0.3018 0.3627 -0.1420 0.9980
-0.3043 0.3550 -0.1407 0.9980
-0.3067 0.3474 -0.1394 0.9981
-0.3091 0.3399 -0.1382 0.9981
-0.3113 0.3325 -0.1371 0.9981
-0.3132 0.3248 -0.1358 0.9981
-0.3148 0.3171 -0.1345 0.9981
-0.3165 0.3096 -0.1332 0.9982
-0.3180 0.3022 -0.1320 0.9982
-0.3209 0.2875 -0.1297 0.9982
-0.3223 0.2804 -0.1285 0.9982
-0.3248 0.2664 -0.1264 0.9982
-0.3261 0.2595 -0.1254 0.9983
-0.3283 0.2459 -0.1234 0.9983
-0.3293 0.2393 -0.1225 0.9983
-0.3321 0.2197 -0.1198 0.9983
-0.3329 0.2134 -0.1190 0.9983
-0.3362 0.1887 -0.1160 0.9984
-0.3381 0.1770 -0.1148 0.9984
-0.3400 0.1655 -0.1138 0.9984
-0.3415 0.1541 -0.1127 0.9984
-0.3421 0.1484 -0.1122 0.9984
-0.3427 0.1427 -0.1117 0.9985
-0.3433 0.1371 -0.1112 0.9985
-0.3438 0.1315 -0.1108 0.9985
-0.3443 0.1259 -0.1103 0.9985
-0.3447 0.1204 -0.1099 0.9985
-0.3452 0.1150 -0.1095 0.9985
-0.3456 0.1095 -0.1091 0.9985
-0.3459 0.1041 -0.1087 0.9985
-0.3462 0.0987 -0.1083 0.9985
-0.3465 0.0933 -0.1080 0.9985
-0.3469 0.0826 -0.1073 0.9985
-0.3471 0.0773 -0.1070 0.9985
-0.3472 0.0720 -0.1067 0.9985
-0.3475 0.0460 -0.1055 0.9985
-0.3470 0.0203 -0.1046 0.9985
-0.3468 0.0152 -0.1045 0.9986
-0.3466 0.0101 -0.1043 0.9986
-0.3463 0.0051 -0.1042 0.9986
-0.3412 -0.0150 -0.1069 0.9986
-0.3413 -0.0200 -0.1070 0.9986
-0.3415 -0.0250 -0.1072 0.9986
-0.3417 -0.0351 -0.1075 0.9986
-0.3418 -0.0503 -0.1081 0.9986
-0.3416 -0.0657 -0.1089 0.9985
-0.3413 -0.0760 -0.1095 0.9985
-0.3411 -0.0812 -0.1098 0.9985
-0.3407 -0.0917 -0.1104 0.9985
-0.3388 -0.1184 -0.1124 0.9985
-0.3384 -0.1238 -0.1128 0.9985
-0.3379 -0.1293 -0.1132 0.9985
-0.3374 -0.1347 -0.1137 0.9985
-0.3368 -0.1402 -0.1142 0.9985
-0.3362 -0.1458 -0.1147 0.9985
-0.3355 -0.1513 -0.1152 0.9985
-0.3348 -0.1570 -0.1157 0.9985
-0.3339 -0.1626 -0.1163 0.9984
-0.3321 -0.1738 -0.1173 0.9984
-0.3281 -0.1970 -0.1198 0.9984
-0.3273 -0.2031 -0.1206 0.9984
-0.3265 -0.2092 -0.1214 0.9984
-0.3247 -0.2217 -0.1231 0.9984
-0.3217 -0.2410 -0.1258 0.9983
-0.3206 -0.2475 -0.1268 0.9983
-0.3182 -0.2609 -0.1288 0.9983
-0.3142 -0.2815 -0.1321 0.9982
-0.3127 -0.2886 -0.1332 0.9982
-0.3112 -0.2957 -0.1344 0.9982
-0.3096 -0.3029 -0.1356 0.9982
-0.3063 -0.3177 -0.1381 0.9982
-0.3000 -0.3398 -0.1419 0.9981
-0.2925 -0.3621 -0.1457 0.9981
-0.2898 -0.3698 -0.1471 0.9980
-0.2871 -0.3775 -0.1484 0.9980
-0.2814 -0.3934 -0.1514 0.9980
-0.2723 -0.4182 -0.1562 0.9979
-0.2656 -0.4353 -0.1596 0.9979
-0.2622 -0.4441 -0.1614 0.9978
-0.2586 -0.4530 -0.1633 0.9978
-0.2549 -0.4620 -0.1652 0.9978
-0.2395 -0.5012 -0.1739 0.9977
-0.2355 -0.5121 -0.1764 0.9976
-0.2314 -0.5231 -0.1791 0.9976
-0.2226 -0.5459 -0.1846 0.9975
-0.2180 -0.5577 -0.1875 0.9975
-0.2132 -0.5698 -0.1904 0.9975
-0.2175 -0.6085 -0.2023 0.9973
-0.8004 -2.5915 -0.8490 0.9887
-0.7642 -2.6091 -0.8510 0.9887
-0.7279 -2.6269 -0.8532 0.9886
-0.6914 -2.6448 -0.8557 0.9886
-0.6547 -2.6627 -0.8583 0.9886
-0.6178 -2.6808 -0.8611 0.9885
-0.5806 -2.6990 -0.8641 0.9885
-0.3775 -2.0434 -0.6505 0.9913
-0.2969 -3.1166 -0.9800 0.9870
-0.2513 -3.1206 -0.9800 0.9870
-0.2057 -3.1239 -0.9800 0.9870
-0.1600 -3.1266 -0.9800 0.9870
0.0229 -3.1307 -0.9800 0.9870
0.1143 -3.1288 -0.9800 0.9870
0.1600 -3.1268 -0.9800 0.9870
0.2057 -3.1241 -0.9800 0.9870
0.2969 -3.1169 -0.9800 0.9870
0.3879 -3.1069 -0.9800 0.9870
0.4332 -3.1009 -0.9801 0.9870
0.5236 -3.0870 -0.9801 0.9870
0.6137 -3.0704 -0.9801 0.9870
0.7031 -3.0511 -0.9801 0.9870
0.7476 -3.0406 -0.9801 0.9870
0.7920 -3.0294 -0.9801 0.9870
0.8801 -3.0050 -0.9801 0.9870
0.9240 -2.9918 -0.9801 0.9870
1.0110 -2.9636 -0.9801 0.9870
1.0542 -2.9484 -0.9801 0.9870
1.0972 -2.9328 -0.9801 0.9870
1.1400 -2.9165 -0.9802 0.9870
1.1824 -2.8995 -0.9802 0.9870
1.2667 -2.8637 -0.9802 0.9870
1.3084 -2.8450 -0.9802 0.9870
1.4318 -2.7850 -0.9802 0.9870
1.5126 -2.7420 -0.9802 0.9870
1.5921 -2.6966 -0.9802 0.9870
1.6313 -2.6730 -0.9802 0.9870
2.0383 -2.3777 -0.9803 0.9870
2.0728 -2.3476 -0.9803 0.9870
2.1069 -2.3171 -0.9803 0.9870
2.1737 -2.2546 -0.9803 0.9870
2.2064 -2.2226 -0.9803 0.9870
2.3449 -2.1011 -0.9855 0.9869
2.3967 -2.0852 -0.9944 0.9868
2.4299 -2.0523 -0.9956 0.9868
2.4888 -1.9805 -0.9956 0.9868
2.5175 -1.9439 -0.9956 0.9868
2.6003 -1.8318 -0.9956 0.9868
2.6267 -1.7936 -0.9956 0.9868
2.6527 -1.7550 -0.9956 0.9868
2.6780 -1.7161 -0.9956 0.9868
2.7028 -1.6768 -0.9956 0.9868
2.7271 -1.6371 -0.9956 0.9868
2.7738 -1.5567 -0.9956 0.9868
2.7962 -1.5160 -0.9956 0.9868
2.8394 -1.4337 -0.9956 0.9868
2.9365 -1.2227 -0.9957 0.9868
2.9540 -1.1796 -0.9957 0.9868
2.9709 -1.1363 -0.9957 0.9868
2.9873 -1.0927 -0.9957 0.9868
3.0029 -1.0490 -0.9957 0.9868
3.0460 -0.9164 -0.9957 0.9868
3.0715 -0.8270 -0.9957 0.9868
3.0944 -0.7369 -0.9957 0.9868
3.1146 -0.6462 -0.9957 0.9868
3.1322 -0.5549 -0.9957 0.9868
3.1399 -0.5091 -0.9957 0.9868
3.1471 -0.4631 -0.9957 0.9868
3.1643 -0.3248 -0.9957 0.9868
3.1755 -0.1858 -0.9957 0.9868
3.1779 -0.1394 -0.9957 0.9868
3.1806 -0.0465 -0.9957 0.9868
3.1810 0.0000 -0.9957 0.9868
3.1806 0.0465 -0.9957 0.9868
3.1796 0.0930 -0.9957 0.9868
3.1755 0.1858 -0.9957 0.9868
3.1725 0.2322 -0.9957 0.9868
3.1687 0.2785 -0.9957 0.9868
3.1592 0.3710 -0.9957 0.9868
3.1535 0.4171 -0.9957 0.9868
3.1399 0.5091 -0.9957 0.9868
3.1048 0.6916 -0.9957 0.9868
3.0715 0.8270 -0.9957 0.9868
3.0323 0.9608 -0.9957 0.9868
3.0179 1.0050 -0.9957 0.9868
3.0029 1.0490 -0.9957 0.9868
2.9873 1.0927 -0.9957 0.9868
2.9710 1.1363 -0.9957 0.9868
2.9365 1.2227 -0.9957 0.9868
2.9183 1.2654 -0.9957 0.9868
2.8801 1.3502 -0.9956 0.9868
2.8600 1.3920 -0.9956 0.9868
2.7963 1.5160 -0.9956 0.9868
2.7738 1.5567 -0.9956 0.9868
2.7029 1.6768 -0.9956 0.9868
2.6527 1.7550 -0.9956 0.9868
2.6003 1.8318 -0.9956 0.9868
2.5732 1.8696 -0.9956 0.9868
2.5456 1.9070 -0.9956 0.9868
2.4596 2.0166 -0.9956 0.9868
2.3688 2.1225 -0.9956 0.9868
2.3375 2.1568 -0.9956 0.9868
2.3058 2.1907 -0.9956 0.9868
2.2735 2.2242 -0.9956 0.9868
2.2407 2.2572 -0.9956 0.9868
2.2075 2.2897 -0.9956 0.9868
2.1738 2.3216 -0.9955 0.9868
2.1396 2.3531 -0.9955 0.9868
2.1050 2.3842 -0.9955 0.9868
2.0700 2.4146 -0.9955 0.9868
1.9985 2.4741 -0.9955 0.9868
1.9253 2.5314 -0.9955 0.9868
1.7354 2.6651 -0.9955 0.9868
1.5362 2.7846 -0.9955 0.9868
1.4953 2.8067 -0.9954 0.9868
1.4126 2.8492 -0.9954 0.9868
1.3708 2.8695 -0.9954 0.9868
1.3288 2.8893 -0.9954 0.9868
1.2864 2.9083 -0.9954 0.9868
1.1577 2.9618 -0.9954 0.9868
1.1143 2.9784 -0.9954 0.9868
0.9384 3.0383 -0.9954 0.9868
0.8939 3.0517 -0.9954 0.9868
0.7140 3.0987 -0.9953 0.9868
0.6687 3.1087 -0.9953 0.9868
0.6232 3.1181 -0.9953 0.9868
0.5318 3.1349 -0.9953 0.9868
0.4859 3.1424 -0.9953 0.9868
0.4400 3.1491 -0.9953 0.9868
0.3478 3.1605 -0.9953 0.9868
0.2089 3.1728 -0.9953 0.9868
0.1161 3.1774 -0.9953 0.9868
0.0697 3.1788 -0.9952 0.9868
-0.1625 3.1753 -0.9952 0.9868
-0.2553 3.1691 -0.9952 0.9868
-0.3015 3.1650 -0.9952 0.9868
-0.3477 3.1603 -0.9952 0.9868
-0.3939 3.1548 -0.9952 0.9868
-0.4399 3.1487 -0.9952 0.9868
-0.5317 3.1345 -0.9952 0.9868
-0.5775 3.1264 -0.9952 0.9868
-0.6231 3.1175 -0.9951 0.9868
-0.6686 3.1081 -0.9951 0.9868
-0.7139 3.0980 -0.9951 0.9868
-0.7591 3.0872 -0.9951 0.9868
-0.8041 3.0758 -0.9951 0.9868
-0.9381 3.0375 -0.9951 0.9868
-0.2225 0.6521 -0.2157 0.9971
-0.2132 0.5698 -0.1904 0.9975
-0.2180 0.5578 -0.1874 0.9975
-0.2355 0.5121 -0.1764 0.9976
-0.2395 0.5012 -0.1739 0.9977
-0.2433 0.4906 -0.1714 0.9977
-0.2510 0.4712 -0.1671 0.9978
-0.2586 0.4530 -0.1633 0.9978
-0.2622 0.4441 -0.1614 0.9978
-0.2723 0.4182 -0.1562 0.9979
-0.2754 0.4098 -0.1545 0.9979
-0.2785 0.4015 -0.1529 0.9980
-0.2814 0.3934 -0.1514 0.9980
-0.2843 0.3853 -0.1499 0.9980
-0.2951 0.3546 -0.1444 0.9981
-0.3000 0.3398 -0.1419 0.9981
-0.3045 0.3252 -0.1394 0.9981
-0.3080 0.3103 -0.1368 0.9982
-0.3096 0.3029 -0.1356 0.9982
-0.3112 0.2957 -0.1344 0.9982
-0.3156 0.2746 -0.1309 0.9982
-0.3169 0.2677 -0.1299 0.9983
-0.3217 0.2410 -0.1258 0.9983
-0.3228 0.2345 -0.1249 0.9983
-0.3257 0.2154 -0.1222 0.9984
-0.3265 0.2092 -0.1214 0.9984
-0.3273 0.2031 -0.1206 0.9984
-0.3281 0.1970 -0.1198 0.9984
-0.3290 0.1910 -0.1191 0.9984
-0.3301 0.1853 -0.1185 0.9984
-0.3321 0.1738 -0.1173 0.9984
-0.3331 0.1682 -0.1168 0.9984
-0.3340 0.1625 -0.1163 0.9984
-0.3362 0.1458 -0.1147 0.9985
-0.3374 0.1347 -0.1137 0.9985
-0.3379 0.1292 -0.1132 0.9985
-0.3384 0.1238 -0.1128 0.9985
-0.3393 0.1130 -0.1119 0.9985
-0.3400 0.1023 -0.1112 0.9985
-0.3415 0.0709 -0.1092 0.9985
-0.3416 0.0657 -0.1089 0.9985
-0.3417 0.0605 -0.1086 0.9985
-0.3418 0.0554 -0.1084 0.9985
-0.3418 0.0452 -0.1079 0.9986
-0.3418 0.0401 -0.1077 0.9986
-0.3417 0.0351 -0.1075 0.9986
-0.3415 0.0250 -0.1072 0.9986
-0.3413 0.0200 -0.1070 0.9986
-0.3409 0.0100 -0.1068 0.9986
-0.3350 -0.0000 -0.1089 0.9986
-0.3352 -0.0049 -0.1090 0.9986
-0.3355 -0.0098 -0.1091 0.9986
-0.3360 -0.0246 -0.1096 0.9986
-0.3362 -0.0345 -0.1099 0.9986
-0.3362 -0.0395 -0.1101 0.9986
-0.3362 -0.0445 -0.1103 0.9986
-0.3362 -0.0495 -0.1105 0.9986
-0.3362 -0.0545 -0.1108 0.9986
-0.3360 -0.0646 -0.1113 0.9986
-0.3357 -0.0748 -0.1119 0.9986
-0.3343 -0.1006 -0.1136 0.9985
-0.3340 -0.1059 -0.1139 0.9985
-0.3336 -0.1111 -0.1143 0.9985
-0.3331 -0.1164 -0.1148 0.9985
-0.3326 -0.1217 -0.1152 0.9985
-0.3310 -0.1378 -0.1166 0.9985
-0.3290 -0.1542 -0.1182 0.9985
-0.3281 -0.1597 -0.1187 0.9985
-0.3272 -0.1652 -0.1192 0.9985
-0.3253 -0.1763 -0.1203 0.9984
-0.3242 -0.1820 -0.1209 0.9984
-0.3231 -0.1876 -0.1215 0.9984
-0.3212 -0.1992 -0.1229 0.9984
-0.3203 -0.2052 -0.1237 0.9984
-0.3194 -0.2113 -0.1246 0.9984
-0.3175 -0.2236 -0.1263 0.9984
-0.3154 -0.2362 -0.1281 0.9983
-0.3142 -0.2426 -0.1291 0.9983
-0.3130 -0.2491 -0.1301 0.9983
-0.3077 -0.2757 -0.1344 0.9983
-0.3030 -0.2965 -0.1379 0.9982
-0.2978 -0.3181 -0.1417 0.9982
-0.2959 -0.3254 -0.1430 0.9982
-0.2935 -0.3325 -0.1442 0.9981
-0.2911 -0.3396 -0.1455 0.9981
-0.2860 -0.3541 -0.1480 0.9981
-0.2833 -0.3615 -0.1494 0.9981
-0.2778 -0.3765 -0.1522 0.9980
-0.2719 -0.3921 -0.1552 0.9980
-0.2521 -0.4416 -0.1654 0.9979
-0.2281 -0.4960 -0.1776 0.9977
-0.2241 -0.5065 -0.1801 0.9977
-0.2154 -0.5281 -0.1855 0.9976
-0.2010 -0.5623 -0.1942 0.9975
-0.1985 -0.5820 -0.2000 0.9974
-0.2019 -0.6213 -0.2125 0.9973
-0.7642 -2.6091 -0.8842 0.9886
-0.6914 -2.6447 -0.8890 0.9886
-0.6547 -2.6627 -0.8918 0.9885
-0.5806 -2.6990 -0.8979 0.9885
-0.3191 -2.2841 -0.7501 0.9903
-0.3295 -2.9950 -0.9799 0.9874
-0.2858 -2.9995 -0.9800 0.9874
-0.2419 -3.0034 -0.9800 0.9874
-0.1540 -3.0093 -0.9800 0.9874
-0.0661 -3.0125 -0.9800 0.9874
-0.0220 -3.0132 -0.9800 0.9874
0.0660 -3.0126 -0.9800 0.9874
0.1100 -3.0113 -0.9800 0.9874
0.1541 -3.0094 -0.9800 0.9874
0.1980 -3.0068 -0.9800 0.9874
0.2858 -2.9998 -0.9800 0.9874
0.3733 -2.9902 -0.9800 0.9874
0.4605 -2.9780 -0.9801 0.9874
0.5040 -2.9711 -0.9801 0.9874
0.5474 -2.9634 -0.9801 0.9874
0.5906 -2.9551 -0.9801 0.9874
0.8048 -2.9042 -0.9801 0.9874
0.9313 -2.8662 -0.9801 0.9874
0.9731 -2.8523 -0.9801 0.9874
1.0146 -2.8378 -0.9801 0.9874
1.0560 -2.8227 -0.9801 0.9874
1.0971 -2.8070 -0.9801 0.9874
1.1380 -2.7907 -0.9802 0.9874
1.1787 -2.7737 -0.9802 0.9874
1.2191 -2.7562 -0.9802 0.9874
1.2593 -2.7381 -0.9802 0.9874
1.4171 -2.6600 -0.9802 0.9874
1.4558 -2.6390 -0.9802 0.9874
1.6446 -2.5257 -0.9802 0.9874
1.7177 -2.4766 -0.9802 0.9874
1.7537 -2.4513 -0.9802 0.9874
1.8595 -2.3721 -0.9803 0.9874
1.9280 -2.3168 -0.9803 0.9874
1.9949 -2.2595 -0.9803 0.9874
2.0602 -2.2002 -0.9803 0.9874
2.1236 -2.1391 -0.9803 0.9874
2.1566 -2.1099 -0.9812 0.9874
2.2799 -2.0428 -0.9956 0.9872
2.3095 -2.0092 -0.9956 0.9872
2.4229 -1.8709 -0.9956 0.9872
2.5281 -1.7262 -0.9956 0.9872
2.5531 -1.6891 -0.9956 0.9872
2.5775 -1.6516 -0.9956 0.9872
2.6014 -1.6137 -0.9956 0.9872
2.6247 -1.5756 -0.9956 0.9872
2.6474 -1.5371 -0.9956 0.9872
2.7123 -1.4196 -0.9956 0.9872
2.7526 -1.3398 -0.9956 0.9872
2.8431 -1.1353 -0.9956 0.9872
2.9046 -0.9673 -0.9956 0.9872
2.9184 -0.9247 -0.9956 0.9872
2.9316 -0.8820 -0.9957 0.9872
2.9562 -0.7960 -0.9957 0.9872
2.9675 -0.7527 -0.9957 0.9872
2.9781 -0.7093 -0.9957 0.9872
2.9882 -0.6657 -0.9957 0.9872
2.9976 -0.6219 -0.9957 0.9872
3.0064 -0.5780 -0.9957 0.9872
3.0406 -0.3571 -0.9957 0.9872
3.0563 -0.1788 -0.9957 0.9872
3.0602 -0.0894 -0.9957 0.9872
3.0615 0.0000 -0.9957 0.9872
3.0602 0.0895 -0.9957 0.9872
3.0585 0.1341 -0.9957 0.9872
3.0533 0.2235 -0.9957 0.9872
3.0455 0.3126 -0.9957 0.9872
3.0406 0.3570 -0.9957 0.9872
3.0350 0.4014 -0.9957 0.9872
3.0288 0.4457 -0.9957 0.9872
3.0064 0.5780 -0.9957 0.9872
2.9976 0.6220 -0.9957 0.9872
2.9882 0.6656 -0.9957 0.9872
2.9782 0.7093 -0.9957 0.9872
2.9562 0.7960 -0.9957 0.9872
2.9442 0.8391 -0.9957 0.9872
2.8594 1.0937 -0.9956 0.9872
2.8431 1.1353 -0.9956 0.9872
2.8262 1.1767 -0.9956 0.9872
2.7719 1.2994 -0.9956 0.9872
2.7526 1.3398 -0.9956 0.9872
2.6247 1.5756 -0.9956 0.9872
2.5775 1.6516 -0.9956 0.9872
2.5281 1.7262 -0.9956 0.9872
2.5026 1.7629 -0.9956 0.9872
2.4766 1.7993 -0.9956 0.9872
2.4500 1.8353 -0.9956 0.9872
2.3953 1.9061 -0.9956 0.9872
2.3386 1.9753 -0.9956 0.9872
2.2798 2.0427 -0.9956 0.9872
2.1881 2.1407 -0.9955 0.9872
2.1566 2.1724 -0.9955 0.9872
2.1246 2.2037 -0.9955 0.9872
2.0922 2.2344 -0.9955 0.9872
2.0593 2.2648 -0.9955 0.9872
2.0260 2.2946 -0.9955 0.9872
1.9580 2.3528 -0.9955 0.9872
1.9234 2.3812 -0.9955 0.9872
1.8172 2.4631 -0.9955 0.9872
1.7811 2.4894 -0.9955 0.9872
1.7445 2.5152 -0.9955 0.9872
1.6325 2.5891 -0.9955 0.9872
1.5175 2.6581 -0.9955 0.9872
1.4391 2.7013 -0.9954 0.9872
1.3995 2.7220 -0.9954 0.9872
1.3596 2.7422 -0.9954 0.9872
1.3194 2.7618 -0.9954 0.9872
1.2381 2.7991 -0.9954 0.9872
1.1557 2.8341 -0.9954 0.9872
1.0724 2.8666 -0.9954 0.9872
1.0304 2.8820 -0.9954 0.9872
0.9882 2.8967 -0.9954 0.9872
0.9457 2.9107 -0.9954 0.9872
0.9031 2.9242 -0.9954 0.9872
0.8603 2.9371 -0.9954 0.9872
0.8173 2.9493 -0.9954 0.9872
0.7308 2.9720 -0.9953 0.9872
0.5998 3.0011 -0.9953 0.9872
0.4235 3.0309 -0.9953 0.9872
0.3791 3.0368 -0.9953 0.9872
0.3347 3.0419 -0.9953 0.9872
0.2902 3.0464 -0.9953 0.9872
0.2457 3.0504 -0.9953 0.9872
0.2011 3.0536 -0.9953 0.9872
0.1118 3.0581 -0.9953 0.9872
0.0671 3.0595 -0.9952 0.9872
-0.0224 3.0600 -0.9952 0.9872
-0.1564 3.0561 -0.9952 0.9872
-0.5117 3.0169 -0.9952 0.9872
-0.5997 3.0005 -0.9952 0.9872
-0.6435 2.9914 -0.9951 0.9872
-0.6871 2.9817 -0.9951 0.9872
-0.7306 2.9713 -0.9951 0.9872
-0.8171 2.9487 -0.9951 0.9872
-0.8601 2.9364 -0.9951 0.9872
-0.2055 0.6654 -0.2265 0.9971
-0.2019 0.6212 -0.2124 0.9973
-0.1985 0.5819 -0.2000 0.9974
-0.2010 0.5622 -0.1942 0.9975
-0.2060 0.5506 -0.1912 0.9975
-0.2108 0.5393 -0.1883 0.9976
-0.2154 0.5281 -0.1855 0.9976
-0.2324 0.4864 -0.1753 0.9977
-0.2366 0.4772 -0.1732 0.9978
-0.2406 0.4681 -0.1712 0.9978
-0.2446 0.4591 -0.1692 0.9978
-0.2557 0.4330 -0.1636 0.9979
-0.2591 0.4246 -0.1618 0.9979
-0.2625 0.4163 -0.1601 0.9979
-0.2657 0.4081 -0.1584 0.9980
-0.2749 0.3842 -0.1536 0.9980
-0.2778 0.3765 -0.1522 0.9980
-0.2806 0.3690 -0.1508 0.9981
-0.2833 0.3615 -0.1494 0.9981
-0.2860 0.3541 -0.1480 0.9981
-0.2978 0.3181 -0.1417 0.9982
-0.2996 0.3108 -0.1404 0.9982
-0.3014 0.3036 -0.1391 0.9982
-0.3062 0.2826 -0.1355 0.9982
-0.3118 0.2557 -0.1311 0.9983
-0.3130 0.2491 -0.1301 0.9983
-0.3142 0.2427 -0.1291 0.9983
-0.3164 0.2299 -0.1272 0.9984
-0.3175 0.2237 -0.1263 0.9984
-0.3194 0.2113 -0.1246 0.9984
-0.3220 0.1933 -0.1221 0.9984
-0.3252 0.1763 -0.1203 0.9984
-0.3262 0.1708 -0.1198 0.9985
-0.3272 0.1652 -0.1192 0.9985
-0.3290 0.1542 -0.1182 0.9985
-0.3321 0.1270 -0.1156 0.9985
-0.3326 0.1217 -0.1152 0.9985
-0.3336 0.1111 -0.1143 0.9985
-0.3339 0.1058 -0.1139 0.9985
-0.3343 0.1005 -0.1136 0.9985
-0.3352 0.0850 -0.1125 0.9985
-0.3355 0.0799 -0.1122 0.9986
-0.3357 0.0748 -0.1119 0.9986
-0.3362 0.0545 -0.1108 0.9986
-0.3362 0.0495 -0.1105 0.9986
-0.3363 0.0445 -0.1103 0.9986
-0.3358 0.0196 -0.1094 0.9986
-0.3357 0.0147 -0.1093 0.9986
-0.3352 0.0049 -0.1090 0.9986
-0.3296 0.0000 -0.1113 0.9986
-0.3303 -0.0145 -0.1116 0.9986
-0.3306 -0.0242 -0.1119 0.9986
-0.3307 -0.0339 -0.1122 0.9986
-0.3304 -0.0685 -0.1139 0.9986
-0.3302 -0.0736 -0.1142 0.9986
-0.3300 -0.0786 -0.1145 0.9986
-0.3297 -0.0836 -0.1148 0.9986
-0.3291 -0.0938 -0.1155 0.9986
-0.3288 -0.0989 -0.1159 0.9986
-0.3284 -0.1041 -0.1163 0.9985
-0.3265 -0.1249 -0.1180 0.9985
-0.3260 -0.1302 -0.1185 0.9985
-0.3254 -0.1355 -0.1190 0.9985
-0.3247 -0.1408 -0.1195 0.9985
-0.3240 -0.1462 -0.1200 0.9985
-0.3233 -0.1516 -0.1205 0.9985
-0.3224 -0.1570 -0.1210 0.9985
-0.3215 -0.1623 -0.1216 0.9985
-0.3205 -0.1677 -0.1221 0.9985
-0.3195 -0.1732 -0.1227 0.9985
-0.3185 -0.1787 -0.1233 0.9985
-0.3143 -0.2014 -0.1260 0.9984
-0.3134 -0.2073 -0.1268 0.9984
-0.3124 -0.2133 -0.1277 0.9984
-0.3092 -0.2316 -0.1304 0.9984
-0.3055 -0.2505 -0.1334 0.9983
-0.3042 -0.2570 -0.1344 0.9983
-0.3028 -0.2635 -0.1355 0.9983
-0.3014 -0.2701 -0.1366 0.9983
-0.2999 -0.2767 -0.1377 0.9983
-0.2950 -0.2972 -0.1413 0.9982
-0.2895 -0.3184 -0.1453 0.9982
-0.2873 -0.3254 -0.1465 0.9982
-0.2849 -0.3323 -0.1477 0.9982
-0.2771 -0.3536 -0.1516 0.9981
-0.2715 -0.3681 -0.1544 0.9981
-0.2686 -0.3755 -0.1558 0.9981
-0.2656 -0.3830 -0.1573 0.9980
-0.2626 -0.3907 -0.1589 0.9980
-0.2422 -0.4391 -0.1693 0.9979
-0.2220 -0.4828 -0.1794 0.9978
-0.2176 -0.4920 -0.1816 0.9977
-0.2130 -0.5012 -0.1838 0.9977
-0.2085 -0.5113 -0.1864 0.9977
-0.2040 -0.5218 -0.1891 0.9976
-0.1830 -0.5927 -0.2094 0.9974
-0.1852 -0.6322 -0.2224 0.9972
-0.5806 -2.6990 -0.9318 0.9884
-0.5431 -2.7173 -0.9353 0.9884
-0.3063 -1.9806 -0.6765 0.9916
-0.2938 -2.1033 -0.7168 0.9911
-0.2797 -2.2405 -0.7621 0.9905
-0.3175 -2.8859 -0.9799 0.9878
-0.2754 -2.8903 -0.9800 0.9878
-0.1908 -2.8971 -0.9800 0.9878
-0.0212 -2.9034 -0.9800 0.9878
0.0212 -2.9034 -0.9800 0.9878
0.0636 -2.9028 -0.9800 0.9878
0.1060 -2.9016 -0.9800 0.9878
0.1908 -2.8973 -0.9800 0.9878
0.2754 -2.8905 -0.9800 0.9878
0.3176 -2.8862 -0.9800 0.9878
0.4018 -2.8757 -0.9801 0.9878
0.4437 -2.8695 -0.9801 0.9878
0.4856 -2.8628 -0.9801 0.9878
0.6521 -2.8296 -0.9801 0.9878
0.6933 -2.8198 -0.9801 0.9878
0.7345 -2.8094 -0.9801 0.9878
0.8162 -2.7868 -0.9801 0.9878
0.8569 -2.7745 -0.9801 0.9878
0.9376 -2.7484 -0.9801 0.9878
0.9776 -2.7344 -0.9801 0.9878
1.0966 -2.6889 -0.9801 0.9878
1.1747 -2.6557 -0.9802 0.9878
1.2134 -2.6383 -0.9802 0.9878
1.2518 -2.6204 -0.9802 0.9878
1.2900 -2.6018 -0.9802 0.9878
1.3655 -2.5630 -0.9802 0.9878
1.4028 -2.5428 -0.9802 0.9878
1.4398 -2.5221 -0.9802 0.9878
1.4765 -2.5007 -0.9802 0.9878
1.5490 -2.4566 -0.9802 0.9878
1.5847 -2.4337 -0.9802 0.9878
1.6551 -2.3864 -0.9802 0.9878
1.6898 -2.3620 -0.9802 0.9878
1.7581 -2.3116 -0.9802 0.9878
1.7917 -2.2856 -0.9802 0.9878
1.8578 -2.2323 -0.9803 0.9878
1.8902 -2.2050 -0.9803 0.9878
1.9539 -2.1488 -0.9803 0.9878
2.0272 -2.1027 -0.9858 0.9877
2.1083 -2.0627 -0.9955 0.9876
2.1383 -2.0316 -0.9955 0.9876
2.2533 -1.9033 -0.9956 0.9876
2.2809 -1.8702 -0.9956 0.9876
2.3080 -1.8366 -0.9956 0.9876
2.3346 -1.8027 -0.9956 0.9876
2.3607 -1.7684 -0.9956 0.9876
2.3863 -1.7338 -0.9956 0.9876
2.4360 -1.6633 -0.9956 0.9876
2.4835 -1.5914 -0.9956 0.9876
2.5065 -1.5549 -0.9956 0.9876
2.5290 -1.5182 -0.9956 0.9876
2.5509 -1.4811 -0.9956 0.9876
2.5723 -1.4436 -0.9956 0.9876
2.5931 -1.4059 -0.9956 0.9876
2.6523 -1.2909 -0.9956 0.9876
2.6709 -1.2520 -0.9956 0.9876
2.6889 -1.2129 -0.9956 0.9876
2.7232 -1.1338 -0.9956 0.9876
2.7395 -1.0939 -0.9956 0.9876
2.7552 -1.0537 -0.9956 0.9876
2.7848 -0.9728 -0.9956 0.9876
2.8120 -0.8910 -0.9956 0.9876
2.8593 -0.7252 -0.9956 0.9876
2.8793 -0.6414 -0.9956 0.9876
2.9185 -0.4295 -0.9956 0.9876
2.9244 -0.3868 -0.9957 0.9876
2.9386 -0.2583 -0.9957 0.9876
2.9420 -0.2154 -0.9957 0.9876
2.9448 -0.1723 -0.9957 0.9876
2.9495 -0.0431 -0.9957 0.9876
2.9499 0.0000 -0.9957 0.9876
2.9420 0.2153 -0.9957 0.9876
2.9385 0.2583 -0.9957 0.9876
2.9344 0.3012 -0.9957 0.9876
2.9244 0.3868 -0.9957 0.9876
2.9184 0.4295 -0.9956 0.9876
2.9046 0.5146 -0.9956 0.9876
2.8968 0.5570 -0.9956 0.9876
2.8696 0.6834 -0.9956 0.9876
2.8484 0.7670 -0.9956 0.9876
2.8369 0.8085 -0.9956 0.9876
2.8248 0.8498 -0.9956 0.9876
2.8120 0.8910 -0.9956 0.9876
2.7848 0.9728 -0.9956 0.9876
2.7703 1.0134 -0.9956 0.9876
2.7551 1.0537 -0.9956 0.9876
2.7394 1.0939 -0.9956 0.9876
2.7063 1.1735 -0.9956 0.9876
2.6708 1.2520 -0.9956 0.9876
2.6523 1.2909 -0.9956 0.9876
2.6331 1.3295 -0.9956 0.9876
2.6134 1.3679 -0.9956 0.9876
2.5723 1.4436 -0.9956 0.9876
2.5290 1.5182 -0.9956 0.9876
2.5065 1.5550 -0.9956 0.9876
2.4835 1.5914 -0.9956 0.9876
2.4600 1.6275 -0.9956 0.9876
2.4114 1.6987 -0.9956 0.9876
2.3863 1.7337 -0.9956 0.9876
2.3607 1.7684 -0.9956 0.9876
2.3080 1.8366 -0.9956 0.9876
2.2809 1.8702 -0.9956 0.9876
2.2253 1.9360 -0.9956 0.9876
2.1967 1.9683 -0.9955 0.9876
2.1678 2.0002 -0.9955 0.9876
2.0780 2.0932 -0.9955 0.9876
1.9522 2.2110 -0.9955 0.9876
1.9196 2.2393 -0.9955 0.9876
1.8867 2.2671 -0.9955 0.9876
1.8196 2.3212 -0.9955 0.9876
1.7855 2.3475 -0.9955 0.9876
1.7161 2.3987 -0.9955 0.9876
1.6809 2.4235 -0.9955 0.9876
1.6452 2.4478 -0.9955 0.9876
1.5730 2.4948 -0.9955 0.9876
1.4622 2.5613 -0.9954 0.9876
1.4246 2.5824 -0.9954 0.9876
1.3485 2.6229 -0.9954 0.9876
1.2713 2.6611 -0.9954 0.9876
1.2323 2.6794 -0.9954 0.9876
1.0736 2.7467 -0.9954 0.9876
0.9929 2.7769 -0.9954 0.9876
0.8702 2.8177 -0.9954 0.9876
0.8290 2.8301 -0.9954 0.9876
0.7875 2.8419 -0.9953 0.9876
0.7459 2.8530 -0.9953 0.9876
0.7041 2.8636 -0.9953 0.9876
0.6622 2.8736 -0.9953 0.9876
0.4080 2.9205 -0.9953 0.9876
0.3225 2.9311 -0.9953 0.9876
0.2796 2.9355 -0.9953 0.9876
0.1938 2.9423 -0.9953 0.9876
0.1508 2.9448 -0.9953 0.9876
0.1077 2.9467 -0.9953 0.9876
0.0646 2.9480 -0.9952 0.9876
0.0215 2.9485 -0.9952 0.9876
-0.0646 2.9479 -0.9952 0.9876
-0.1077 2.9466 -0.9952 0.9876
-0.1507 2.9447 -0.9952 0.9876
-0.1938 2.9422 -0.9952 0.9876
-0.2367 2.9391 -0.9952 0.9876
-0.3225 2.9308 -0.9952 0.9876
-0.3653 2.9258 -0.9952 0.9876
-0.4506 2.9138 -0.9952 0.9876
-0.5356 2.8994 -0.9952 0.9876
-0.5779 2.8912 -0.9952 0.9876
-0.6200 2.8825 -0.9951 0.9876
-0.7457 2.8524 -0.9951 0.9876
-0.7873 2.8412 -0.9951 0.9876
-0.1852 0.6322 -0.2223 0.9972
-0.1943 0.5435 -0.1948 0.9976
-0.1992 0.5325 -0.1919 0.9976
-0.2040 0.5218 -0.1891 0.9976
-0.2085 0.5112 -0.1864 0.9977
-0.2176 0.4920 -0.1816 0.9977
-0.2221 0.4828 -0.1794 0.9978
-0.2305 0.4649 -0.1751 0.9978
-0.2459 0.4307 -0.1674 0.9979
-0.2495 0.4225 -0.1656 0.9979
-0.2529 0.4144 -0.1639 0.9980
-0.2626 0.3907 -0.1589 0.9980
-0.2686 0.3755 -0.1558 0.9981
-0.2715 0.3681 -0.1544 0.9981
-0.2798 0.3464 -0.1503 0.9981
-0.2824 0.3393 -0.1490 0.9981
-0.2873 0.3254 -0.1465 0.9982
-0.2914 0.3113 -0.1439 0.9982
-0.2967 0.2902 -0.1401 0.9982
-0.2983 0.2834 -0.1389 0.9983
-0.2999 0.2767 -0.1377 0.9983
-0.3029 0.2635 -0.1355 0.9983
-0.3068 0.2441 -0.1324 0.9983
-0.3080 0.2379 -0.1314 0.9984
-0.3092 0.2316 -0.1304 0.9984
-0.3103 0.2255 -0.1295 0.9984
-0.3114 0.2193 -0.1286 0.9984
-0.3124 0.2133 -0.1277 0.9984
-0.3133 0.2073 -0.1268 0.9984
-0.3143 0.2014 -0.1260 0.9984
-0.3151 0.1955 -0.1252 0.9984
-0.3195 0.1732 -0.1227 0.9985
-0.3233 0.1516 -0.1205 0.9985
-0.3240 0.1462 -0.1200 0.9985
-0.3271 0.1196 -0.1175 0.9985
-0.3275 0.1144 -0.1171 0.9985
-0.3280 0.1092 -0.1167 0.9985
-0.3288 0.0989 -0.1159 0.9986
-0.3295 0.0887 -0.1152 0.9986
-0.3300 0.0786 -0.1145 0.9986
-0.3306 0.0586 -0.1133 0.9986
-0.3307 0.0536 -0.1131 0.9986
-0.3308 0.0487 -0.1129 0.9986
-0.3308 0.0437 -0.1126 0.9986
-0.3308 0.0388 -0.1124 0.9986
-0.3308 0.0340 -0.1122 0.9986
-0.3244 0.0000 -0.1135 0.9986
-0.3246 -0.0047 -0.1136 0.9986
-0.3250 -0.0143 -0.1139 0.9986
-0.3252 -0.0190 -0.1140 0.9986
-0.3254 -0.0286 -0.1143 0.9986
-0.3255 -0.0334 -0.1145 0.9986
-0.3255 -0.0382 -0.1147 0.9986
-0.3255 -0.0479 -0.1151 0.9986
-0.3253 -0.0577 -0.1156 0.9986
-0.3241 -0.0873 -0.1174 0.9986
-0.3237 -0.0923 -0.1178 0.9986
-0.3234 -0.0973 -0.1182 0.9986
-0.3221 -0.1125 -0.1194 0.9986
-0.3216 -0.1177 -0.1198 0.9985
-0.3211 -0.1228 -0.1203 0.9985
-0.3192 -0.1384 -0.1217 0.9985
-0.3150 -0.1648 -0.1244 0.9985
-0.3129 -0.1756 -0.1256 0.9985
-0.3107 -0.1865 -0.1268 0.9985
-0.3095 -0.1920 -0.1274 0.9985
-0.3065 -0.2093 -0.1299 0.9984
-0.3054 -0.2152 -0.1307 0.9984
-0.3044 -0.2212 -0.1317 0.9984
-0.3021 -0.2332 -0.1335 0.9984
-0.2995 -0.2456 -0.1355 0.9984
-0.2968 -0.2582 -0.1377 0.9983
-0.2953 -0.2646 -0.1388 0.9983
-0.2922 -0.2777 -0.1410 0.9983
-0.2905 -0.2843 -0.1422 0.9983
-0.2833 -0.3116 -0.1474 0.9982
-0.2763 -0.3321 -0.1512 0.9982
-0.2711 -0.3459 -0.1538 0.9981
-0.2684 -0.3529 -0.1551 0.9981
-0.2656 -0.3600 -0.1565 0.9981
-0.2597 -0.3744 -0.1594 0.9981
-0.2565 -0.3817 -0.1609 0.9981
-0.2534 -0.3893 -0.1625 0.9980
-0.2469 -0.4045 -0.1658 0.9980
-0.2435 -0.4124 -0.1676 0.9980
-0.2363 -0.4284 -0.1712 0.9979
-0.2325 -0.4365 -0.1731 0.9979
-0.2247 -0.4531 -0.1770 0.9979
-0.2074 -0.4879 -0.1855 0.9978
-0.1928 -0.5155 -0.1926 0.9977
-0.1778 -0.5472 -0.2013 0.9976
-0.1667 -0.5694 -0.2076 0.9975
-0.6914 -2.6448 -0.9565 0.9885
-0.5889 -2.7378 -0.9799 0.9882
-0.5087 -2.7538 -0.9799 0.9882
-0.4684 -2.7611 -0.9799 0.9882
-0.2722 -1.9480 -0.6882 0.9917
-0.2656 -2.7879 -0.9800 0.9882
-0.1840 -2.7945 -0.9800 0.9882
-0.1432 -2.7970 -0.9800 0.9882
-0.1023 -2.7987 -0.9800 0.9882
-0.0205 -2.8006 -0.9800 0.9882
0.0614 -2.8000 -0.9800 0.9882
0.1023 -2.7988 -0.9800 0.9882
0.1432 -2.7971 -0.9800 0.9882
0.2248 -2.7917 -0.9800 0.9882
0.3063 -2.7840 -0.9800 0.9882
0.5088 -2.7543 -0.9801 0.9882
0.5890 -2.7383 -0.9801 0.9882
0.7084 -2.7098 -0.9801 0.9882
0.7873 -2.6880 -0.9801 0.9882
0.8265 -2.6762 -0.9801 0.9882
0.8655 -2.6639 -0.9801 0.9882
0.9044 -2.6510 -0.9801 0.9882
0.9430 -2.6375 -0.9801 0.9882
1.0955 -2.5780 -0.9801 0.9882
1.1331 -2.5617 -0.9802 0.9882
1.1704 -2.5449 -0.9802 0.9882
1.2075 -2.5276 -0.9802 0.9882
1.2808 -2.4912 -0.9802 0.9882
1.4242 -2.4122 -0.9802 0.9882
1.4593 -2.3911 -0.9802 0.9882
1.5286 -2.3475 -0.9802 0.9882
1.5627 -2.3249 -0.9802 0.9882
1.6631 -2.2543 -0.9802 0.9882
1.7283 -2.2047 -0.9802 0.9882
1.7920 -2.1533 -0.9802 0.9882
1.8607 -2.1074 -0.9837 0.9882
1.9445 -2.0768 -0.9955 0.9880
2.0337 -1.9896 -0.9955 0.9880
2.0626 -1.9596 -0.9955 0.9880
2.0910 -1.9293 -0.9955 0.9880
2.1189 -1.8986 -0.9955 0.9880
2.1735 -1.8359 -0.9955 0.9880
2.2001 -1.8039 -0.9955 0.9880
2.2519 -1.7389 -0.9956 0.9880
2.2771 -1.7057 -0.9956 0.9880
2.3018 -1.6723 -0.9956 0.9880
2.3260 -1.6385 -0.9956 0.9880
2.3497 -1.6044 -0.9956 0.9880
2.3956 -1.5350 -0.9956 0.9880
2.5013 -1.3561 -0.9956 0.9880
2.5936 -1.1699 -0.9956 0.9880
2.6267 -1.0936 -0.9956 0.9880
2.6721 -0.9775 -0.9956 0.9880
2.6861 -0.9384 -0.9956 0.9880
2.6996 -0.8990 -0.9956 0.9880
2.7124 -0.8595 -0.9956 0.9880
2.7773 -0.6187 -0.9956 0.9880
2.7860 -0.5780 -0.9956 0.9880
2.7941 -0.5373 -0.9956 0.9880
2.8017 -0.4964 -0.9956 0.9880
2.8208 -0.3731 -0.9956 0.9880
2.8405 -0.1662 -0.9956 0.9880
2.8426 -0.1247 -0.9956 0.9880
2.8451 -0.0416 -0.9956 0.9880
2.8451 0.0416 -0.9956 0.9880
2.8426 0.1247 -0.9956 0.9880
2.8378 0.2077 -0.9956 0.9880
2.8345 0.2491 -0.9956 0.9880
2.8208 0.3731 -0.9956 0.9880
2.8150 0.4143 -0.9956 0.9880
2.8087 0.4554 -0.9956 0.9880
2.7860 0.5780 -0.9956 0.9880
2.7679 0.6592 -0.9956 0.9880
2.7247 0.8197 -0.9956 0.9880
2.7124 0.8595 -0.9956 0.9880
2.6996 0.8990 -0.9956 0.9880
2.6861 0.9384 -0.9956 0.9880
2.6721 0.9775 -0.9956 0.9880
2.6575 1.0164 -0.9956 0.9880
2.5937 1.1700 -0.9956 0.9880
2.5583 1.2452 -0.9956 0.9880
2.5399 1.2824 -0.9956 0.9880
2.5208 1.3194 -0.9956 0.9880
2.5013 1.3561 -0.9956 0.9880
2.4811 1.3925 -0.9956 0.9880
2.3497 1.6044 -0.9956 0.9880
2.3018 1.6723 -0.9956 0.9880
2.2519 1.7389 -0.9956 0.9880
2.2263 1.7716 -0.9956 0.9880
2.2001 1.8039 -0.9955 0.9880
2.1735 1.8359 -0.9955 0.9880
2.1465 1.8674 -0.9955 0.9880
2.0910 1.9293 -0.9955 0.9880
2.0626 1.9597 -0.9955 0.9880
2.0337 1.9896 -0.9955 0.9880
2.0044 2.0191 -0.9955 0.9880
1.8830 2.1327 -0.9955 0.9880
1.7877 2.2131 -0.9955 0.9880
1.6890 2.2893 -0.9955 0.9880
1.6554 2.3138 -0.9955 0.9880
1.6213 2.3377 -0.9955 0.9880
1.5523 2.3840 -0.9955 0.9880
1.5173 2.4064 -0.9955 0.9880
1.4820 2.4283 -0.9954 0.9880
1.4104 2.4705 -0.9954 0.9880
1.3741 2.4909 -0.9954 0.9880
1.3376 2.5107 -0.9954 0.9880
1.2636 2.5487 -0.9954 0.9880
1.2263 2.5669 -0.9954 0.9880
1.1886 2.5845 -0.9954 0.9880
1.1507 2.6016 -0.9954 0.9880
1.0742 2.6340 -0.9954 0.9880
1.0356 2.6495 -0.9954 0.9880
0.9577 2.6785 -0.9954 0.9880
0.9185 2.6923 -0.9954 0.9880
0.7596 2.7412 -0.9953 0.9880
0.7195 2.7520 -0.9953 0.9880
0.6792 2.7622 -0.9953 0.9880
0.6388 2.7718 -0.9953 0.9880
0.4347 2.8110 -0.9953 0.9880
0.3936 2.8170 -0.9953 0.9880
0.3111 2.8273 -0.9953 0.9880
0.1869 2.8382 -0.9953 0.9880
0.1454 2.8405 -0.9953 0.9880
0.0208 2.8441 -0.9952 0.9880
-0.0208 2.8441 -0.9952 0.9880
-0.0623 2.8435 -0.9952 0.9880
-0.1869 2.8380 -0.9952 0.9880
-0.2697 2.8313 -0.9952 0.9880
-0.4757 2.8039 -0.9952 0.9880
-0.5574 2.7888 -0.9952 0.9880
-0.5980 2.7804 -0.9952 0.9880
-0.6386 2.7713 -0.9951 0.9880
-0.6790 2.7617 -0.9951 0.9880
-0.7193 2.7514 -0.9951 0.9880
-0.1667 0.6015 -0.2184 0.9974
-0.1724 0.5582 -0.2044 0.9975
-0.1978 0.5062 -0.1902 0.9977
-0.2027 0.4970 -0.1878 0.9977
-0.2163 0.4703 -0.1811 0.9978
-0.2205 0.4616 -0.1790 0.9978
-0.2247 0.4531 -0.1770 0.9979
-0.2435 0.4124 -0.1676 0.9980
-0.2502 0.3969 -0.1642 0.9980
-0.2534 0.3892 -0.1625 0.9980
-0.2627 0.3671 -0.1580 0.9981
-0.2684 0.3529 -0.1551 0.9981
-0.2788 0.3253 -0.1499 0.9982
-0.2813 0.3186 -0.1487 0.9982
-0.2871 0.2978 -0.1447 0.9982
-0.2938 0.2711 -0.1399 0.9983
-0.2968 0.2582 -0.1377 0.9983
-0.2995 0.2456 -0.1355 0.9984
-0.3033 0.2272 -0.1326 0.9984
-0.3044 0.2212 -0.1317 0.9984
-0.3054 0.2152 -0.1307 0.9984
-0.3065 0.2093 -0.1299 0.9984
-0.3095 0.1920 -0.1274 0.9985
-0.3107 0.1865 -0.1268 0.9985
-0.3129 0.1756 -0.1256 0.9985
-0.3139 0.1702 -0.1250 0.9985
-0.3159 0.1595 -0.1238 0.9985
-0.3168 0.1542 -0.1233 0.9985
-0.3178 0.1490 -0.1228 0.9985
-0.3192 0.1384 -0.1217 0.9985
-0.3216 0.1177 -0.1198 0.9985
-0.3221 0.1125 -0.1194 0.9986
