ply
format ascii 1.0
element vertex 1582
property float32 x
property float32 y
property float32 z
property float32 I
end_header
-2.6464 4.1971 -0.1857 0.9803
-2.6651 4.0930 -0.1828 0.9806
-2.6846 3.9942 -0.1801 0.9809
-2.7784 3.6530 -0.1717 0.9818
-2.8013 3.5736 -0.1699 0.9820
-2.8866 3.4687 -0.1689 0.9821
-2.9788 3.4749 -0.1713 0.9818
-3.1714 3.4879 -0.1764 0.9813
-3.2724 3.4950 -0.1791 0.9810
-3.3772 3.5029 -0.1821 0.9807
-3.4855 3.5111 -0.1851 0.9804
-3.6134 3.5351 -0.1891 0.9800
-4.0561 3.6342 -0.2038 0.9784
-6.7588 5.8802 -0.3352 0.9648
-0.7381 0.5362 -0.0341 0.9964
-0.7333 0.5007 -0.0332 0.9965
-0.7310 0.4836 -0.0328 0.9965
-0.7286 0.4669 -0.0324 0.9965
-0.7175 0.3890 -0.0305 0.9967
-0.7153 0.3744 -0.0302 0.9968
-0.7099 0.3455 -0.0295 0.9968
-0.7071 0.3314 -0.0292 0.9969
-0.7016 0.3042 -0.0286 0.9969
-0.6989 0.2909 -0.0283 0.9970
-0.6900 0.2524 -0.0275 0.9971
-0.6842 0.2278 -0.0270 0.9971
-0.6765 0.1928 -0.0263 0.9972
-0.6733 0.1707 -0.0260 0.9972
-0.6717 0.1599 -0.0258 0.9972
-0.6701 0.1492 -0.0257 0.9973
-0.6653 0.1179 -0.0253 0.9973
-0.6637 0.1076 -0.0252 0.9973
-0.6621 0.0974 -0.0250 0.9973
-0.6588 0.0773 -0.0248 0.9973
-0.6556 0.0576 -0.0246 0.9974
-0.6539 0.0478 -0.0245 0.9974
-0.6523 0.0381 -0.0244 0.9974
-0.6479 0.0095 -0.0242 0.9974
-0.6209 -0.0000 -0.0301 0.9975
-0.6246 -0.0274 -0.0303 0.9975
-0.6258 -0.0366 -0.0304 0.9975
-0.6271 -0.0459 -0.0305 0.9975
-0.6286 -0.0553 -0.0306 0.9975
-0.6315 -0.0742 -0.0309 0.9975
-0.6330 -0.0837 -0.0310 0.9974
-0.6344 -0.0934 -0.0311 0.9974
-0.6373 -0.1129 -0.0314 0.9974
-0.6386 -0.1228 -0.0316 0.9974
-0.6400 -0.1328 -0.0317 0.9974
-0.6428 -0.1531 -0.0321 0.9974
-0.6455 -0.1738 -0.0324 0.9973
-0.6483 -0.1951 -0.0328 0.9973
-0.6500 -0.2060 -0.0331 0.9973
-0.6540 -0.2285 -0.0336 0.9972
-0.6589 -0.2520 -0.0342 0.9972
-0.6664 -0.2890 -0.0352 0.9971
-0.6741 -0.3281 -0.0364 0.9970
-0.6793 -0.3555 -0.0372 0.9969
-0.6879 -0.4130 -0.0389 0.9968
-0.6913 -0.4430 -0.0398 0.9967
-0.6948 -0.4744 -0.0408 0.9966
-0.6983 -0.5073 -0.0419 0.9965
-0.7017 -0.5419 -0.0430 0.9965
-3.6172 -3.0553 -0.2297 0.9812
-3.6526 -3.2728 -0.2380 0.9806
-3.5125 -3.2409 -0.2319 0.9810
-3.6536 -3.5744 -0.2480 0.9797
-14.1496 -14.2534 -0.9745 0.9227
-13.5132 -14.8618 -0.9746 0.9227
-13.3329 -15.1010 -0.9774 0.9225
-8.4727 -9.8837 -0.6316 0.9492
-8.1774 -9.8262 -0.6203 0.9501
-7.8970 -9.7763 -0.6098 0.9509
-7.6595 -9.7710 -0.6024 0.9515
-6.9841 -9.7620 -0.5824 0.9531
-10.9974 -16.8895 -0.9779 0.9225
-10.7500 -17.0493 -0.9779 0.9225
-10.2483 -17.3579 -0.9780 0.9224
-9.9942 -17.5067 -0.9781 0.9224
-9.7378 -17.6518 -0.9781 0.9224
-9.4793 -17.7931 -0.9782 0.9224
-9.2188 -17.9307 -0.9782 0.9224
-3.8510 -8.3734 -0.4472 0.9638
-3.1300 -8.3665 -0.4334 0.9649
-2.0513 -8.3426 -0.4168 0.9662
-1.9220 -8.3404 -0.4153 0.9663
-1.5375 -8.3236 -0.4107 0.9667
-1.0378 -8.3129 -0.4065 0.9670
-0.2336 -2.8998 -0.1412 0.9884
-0.1037 -2.8372 -0.1377 0.9887
-0.0626 -2.8577 -0.1387 0.9886
-0.0208 -2.8410 -0.1378 0.9887
0.0211 -2.8870 -0.1401 0.9885
0.1075 -2.9428 -0.1429 0.9883
0.1518 -2.9649 -0.1440 0.9882
0.1718 -2.6089 -0.1269 0.9896
0.2231 -2.7709 -0.1349 0.9889
0.2512 -2.6375 -0.1285 0.9894
0.3670 -2.9396 -0.1437 0.9882
0.5269 -2.8527 -0.1407 0.9884
0.6341 -2.7518 -0.1370 0.9888
0.6698 -2.7243 -0.1361 0.9888
0.7005 -2.6794 -0.1344 0.9890
0.7585 -2.7374 -0.1378 0.9887
0.8818 -3.0106 -0.1522 0.9875
0.9282 -3.0055 -0.1526 0.9875
0.9749 -3.0004 -0.1531 0.9874
3.2024 -8.5600 -0.4434 0.9641
3.4911 -8.5606 -0.4486 0.9637
3.7867 -8.5612 -0.4542 0.9632
4.3602 -8.4807 -0.4627 0.9625
4.4581 -8.3681 -0.4600 0.9627
4.5900 -8.3204 -0.4610 0.9627
5.0729 -8.5922 -0.4841 0.9608
7.3143 -9.9142 -0.5978 0.9519
7.3097 -9.3247 -0.5749 0.9537
7.3225 -9.0651 -0.5654 0.9544
7.3921 -8.8826 -0.5607 0.9548
7.7776 -8.8091 -0.5702 0.9540
8.0553 -8.8592 -0.5810 0.9532
8.3050 -8.8698 -0.5896 0.9525
8.8533 -8.9183 -0.6097 0.9509
9.1622 -8.9636 -0.6219 0.9500
14.6472 -13.9168 -0.9803 0.9223
14.8497 -13.7018 -0.9803 0.9223
11.0563 -9.9066 -0.7203 0.9423
11.0175 -9.5852 -0.7086 0.9432
10.9818 -9.2757 -0.6975 0.9441
11.0211 -8.7703 -0.6834 0.9452
11.0498 -8.5324 -0.6774 0.9456
11.1812 -8.3760 -0.6778 0.9456
4.6749 -3.3966 -0.2804 0.9771
4.7451 -3.3427 -0.2816 0.9770
4.8314 -3.1964 -0.2811 0.9771
4.8152 -2.9873 -0.2749 0.9776
5.0190 -3.0130 -0.2840 0.9768
4.9476 -2.8726 -0.2776 0.9773
5.0447 -2.8312 -0.2807 0.9771
5.2414 -2.7434 -0.2870 0.9766
7.5292 -3.8018 -0.4092 0.9668
7.6422 -3.7197 -0.4124 0.9665
7.6831 -3.6017 -0.4117 0.9666
7.8230 -3.1238 -0.4087 0.9668
8.0087 -3.0631 -0.4160 0.9662
7.9933 -2.9241 -0.4130 0.9665
8.3345 -2.7755 -0.4262 0.9654
8.3844 -2.6567 -0.4267 0.9654
8.4343 -2.5375 -0.4273 0.9653
9.0601 -2.4395 -0.4552 0.9631
12.0241 -2.8636 -0.5997 0.9517
11.9959 -2.6722 -0.5963 0.9520
12.3347 -2.3717 -0.6094 0.9509
12.3284 -2.1842 -0.6075 0.9511
15.7209 -2.3137 -0.7710 0.9383
20.1461 -2.3658 -0.9842 0.9220
20.5453 -1.5037 -0.9995 0.9208
20.5807 -0.9027 -0.9995 0.9208
20.5653 1.2034 -0.9995 0.9208
20.5454 1.5037 -0.9995 0.9208
20.5211 1.8037 -0.9995 0.9208
20.4594 2.4026 -0.9995 0.9208
20.4220 2.7012 -0.9995 0.9208
20.2285 3.8894 -0.9995 0.9208
12.8224 2.6603 -0.6354 0.9489
12.1747 2.7121 -0.6052 0.9513
11.7767 2.8046 -0.5874 0.9527
11.4643 2.9079 -0.5738 0.9537
11.3591 3.0585 -0.5708 0.9540
11.3072 3.2224 -0.5705 0.9540
8.6334 3.0159 -0.4437 0.9640
8.3716 3.0624 -0.4325 0.9649
7.9304 3.3019 -0.4168 0.9662
7.9108 3.4302 -0.4184 0.9661
7.8943 3.5609 -0.4202 0.9659
7.7468 3.7706 -0.4180 0.9661
7.7883 3.9326 -0.4233 0.9657
8.0036 4.1892 -0.4383 0.9645
8.0243 4.3505 -0.4429 0.9641
8.1350 5.2127 -0.4688 0.9620
8.2079 5.7821 -0.4871 0.9606
8.2336 5.9820 -0.4938 0.9601
8.2599 6.1875 -0.5007 0.9595
6.7950 5.4074 -0.4213 0.9658
6.5209 5.6733 -0.4194 0.9660
6.4356 5.7665 -0.4193 0.9660
6.2693 5.9567 -0.4196 0.9660
6.1878 6.0538 -0.4200 0.9659
6.0243 6.2486 -0.4211 0.9658
5.8598 6.4446 -0.4226 0.9657
5.7770 6.5432 -0.4235 0.9656
8.1532 9.5109 -0.6078 0.9511
12.9577 15.5704 -0.9828 0.9221
12.7283 15.7573 -0.9828 0.9221
12.4962 15.9411 -0.9828 0.9221
12.2615 16.1213 -0.9827 0.9221
12.0242 16.2981 -0.9827 0.9221
11.7843 16.4714 -0.9827 0.9221
10.8002 17.1289 -0.9825 0.9221
10.2942 17.4356 -0.9824 0.9221
10.0379 17.5834 -0.9824 0.9221
9.7794 17.7274 -0.9823 0.9221
8.9920 18.1364 -0.9822 0.9221
4.4753 9.3679 -0.5037 0.9593
4.3067 9.3644 -0.5001 0.9596
7.6423 18.7398 -0.9819 0.9221
7.3672 18.8484 -0.9819 0.9222
7.0907 18.9531 -0.9818 0.9222
6.8126 19.0537 -0.9818 0.9222
5.9702 19.3309 -0.9816 0.9222
5.6867 19.4150 -0.9816 0.9222
5.4022 19.4950 -0.9815 0.9222
4.8297 19.6423 -0.9814 0.9222
4.2532 19.7729 -0.9813 0.9222
3.3821 19.9369 -0.9811 0.9222
3.0902 19.9831 -0.9811 0.9222
2.5047 20.0625 -0.9810 0.9222
1.9172 20.1246 -0.9809 0.9222
0.7382 20.1975 -0.9806 0.9223
0.0689 9.4251 -0.4573 0.9630
-0.1476 20.2067 -0.9804 0.9223
-1.0328 20.1771 -0.9803 0.9223
-1.3275 20.1586 -0.9802 0.9223
-1.6218 20.1358 -0.9801 0.9223
-1.9157 20.1087 -0.9801 0.9223
-2.2091 20.0773 -0.9800 0.9223
-2.5021 20.0416 -0.9800 0.9223
-3.6672 19.8559 -0.9797 0.9223
-3.9572 19.7994 -0.9796 0.9223
-4.5334 19.6727 -0.9795 0.9223
-4.8201 19.6032 -0.9795 0.9223
-5.1057 19.5295 -0.9794 0.9223
-5.3901 19.4515 -0.9793 0.9223
-5.6734 19.3695 -0.9793 0.9224
-5.9555 19.2833 -0.9792 0.9224
-2.2619 6.6304 -0.3399 0.9723
-2.2861 6.3937 -0.3295 0.9732
-2.3221 6.2070 -0.3215 0.9738
-2.3521 6.0177 -0.3135 0.9745
-2.3806 5.8377 -0.3059 0.9751
-2.4337 5.5023 -0.2919 0.9762
-2.4585 5.3459 -0.2855 0.9767
-2.5050 5.0524 -0.2736 0.9777
-2.5267 4.9146 -0.2681 0.9781
-2.6240 4.2996 -0.2444 0.9800
-2.6608 4.0864 -0.2366 0.9807
-2.7226 3.8056 -0.2270 0.9814
-2.7462 3.7223 -0.2244 0.9816
-2.7697 3.6416 -0.2220 0.9818
-2.7927 3.5626 -0.2196 0.9820
-2.8183 3.4891 -0.2176 0.9822
-3.1588 3.4740 -0.2278 0.9814
-3.2597 3.4814 -0.2314 0.9811
-3.4716 3.4970 -0.2391 0.9805
-3.5955 3.5176 -0.2441 0.9801
-3.7338 3.5476 -0.2499 0.9796
-3.8790 3.5791 -0.2561 0.9791
-4.0330 3.6136 -0.2627 0.9785
-6.7285 5.8537 -0.4327 0.9649
-6.7710 5.7192 -0.4300 0.9651
-0.7347 0.5846 -0.0456 0.9962
-0.7017 0.5418 -0.0430 0.9965
-0.7000 0.5243 -0.0424 0.9965
-0.6982 0.5073 -0.0419 0.9965
-0.6948 0.4744 -0.0408 0.9966
-0.6914 0.4430 -0.0398 0.9967
-0.6880 0.4130 -0.0389 0.9968
-0.6793 0.3555 -0.0372 0.9969
-0.6767 0.3417 -0.0368 0.9970
-0.6741 0.3281 -0.0364 0.9970
-0.6715 0.3148 -0.0360 0.9970
-0.6689 0.3017 -0.0356 0.9971
-0.6639 0.2764 -0.0349 0.9971
-0.6614 0.2641 -0.0346 0.9972
-0.6500 0.2059 -0.0331 0.9973
-0.6468 0.1843 -0.0326 0.9973
-0.6441 0.1634 -0.0322 0.9973
-0.6400 0.1328 -0.0317 0.9974
-0.6373 0.1129 -0.0314 0.9974
-0.6359 0.1030 -0.0313 0.9974
-0.6330 0.0837 -0.0310 0.9974
-0.6315 0.0741 -0.0309 0.9975
-0.6301 0.0646 -0.0307 0.9975
-0.6271 0.0459 -0.0305 0.9975
-0.5984 -0.0088 -0.0357 0.9976
-0.5995 -0.0176 -0.0358 0.9976
-0.6051 -0.0621 -0.0363 0.9976
-0.6064 -0.0712 -0.0364 0.9976
-0.6077 -0.0804 -0.0366 0.9975
-0.6102 -0.0989 -0.0369 0.9975
-0.6139 -0.1273 -0.0374 0.9975
-0.6150 -0.1370 -0.0376 0.9975
-0.6207 -0.1868 -0.0387 0.9974
-0.6220 -0.1971 -0.0389 0.9974
-0.6250 -0.2183 -0.0395 0.9974
-0.6280 -0.2402 -0.0401 0.9973
-0.6301 -0.2516 -0.0405 0.9973
-0.6322 -0.2632 -0.0408 0.9973
-0.6343 -0.2750 -0.0412 0.9972
-0.6364 -0.2870 -0.0416 0.9972
-0.6406 -0.3118 -0.0425 0.9971
-0.6470 -0.3508 -0.0439 0.9971
-0.6491 -0.3643 -0.0444 0.9970
-0.6514 -0.3782 -0.0449 0.9970
-0.6536 -0.3924 -0.0455 0.9969
-0.6557 -0.4068 -0.0460 0.9969
-0.6570 -0.4210 -0.0465 0.9969
-0.6594 -0.4502 -0.0476 0.9968
-0.6665 -0.5465 -0.0514 0.9966
-3.5300 -3.2571 -0.2864 0.9809
-3.4844 -3.4089 -0.2907 0.9807
-11.5189 -11.6034 -0.9750 0.9366
-11.3485 -11.7709 -0.9750 0.9366
-11.1757 -11.9359 -0.9751 0.9366
-11.0005 -12.0984 -0.9751 0.9366
-10.8229 -12.2582 -0.9751 0.9366
-6.6164 -9.8438 -0.7073 0.9536
-8.9263 -13.7088 -0.9755 0.9366
-8.5226 -13.9650 -0.9756 0.9365
-8.3180 -14.0886 -0.9756 0.9365
-4.1774 -8.4257 -0.5608 0.9630
-4.0018 -8.3767 -0.5536 0.9635
-3.8510 -8.3734 -0.5496 0.9637
-3.4123 -8.3675 -0.5389 0.9644
-3.1295 -8.3651 -0.5326 0.9648
-2.9898 -8.3620 -0.5296 0.9650
-2.5798 -8.3533 -0.5213 0.9656
-2.4459 -8.3504 -0.5189 0.9657
-2.3132 -8.3476 -0.5166 0.9659
-2.1816 -8.3447 -0.5143 0.9660
-2.0511 -8.3420 -0.5123 0.9662
-1.7933 -8.3369 -0.5085 0.9664
-1.5375 -8.3237 -0.5048 0.9667
-1.4115 -8.3209 -0.5033 0.9667
-0.1850 -2.8098 -0.1679 0.9888
-0.1449 -2.8300 -0.1690 0.9887
-0.1042 -2.8504 -0.1701 0.9886
0.0212 -2.8989 -0.1729 0.9885
0.1525 -2.9793 -0.1779 0.9881
0.1954 -2.9682 -0.1774 0.9882
0.2268 -2.8160 -0.1685 0.9887
0.2551 -2.6784 -0.1604 0.9893
0.2809 -2.5532 -0.1532 0.9898
0.3761 -2.6921 -0.1621 0.9892
0.5294 -2.8662 -0.1738 0.9884
0.6363 -2.7614 -0.1690 0.9887
0.6678 -2.7157 -0.1668 0.9889
0.9308 -3.0139 -0.1881 0.9874
3.6363 -8.5569 -0.5544 0.9634
3.9356 -8.5575 -0.5617 0.9630
4.0894 -8.5602 -0.5657 0.9627
4.2458 -8.5636 -0.5700 0.9624
4.5647 -8.2745 -0.5635 0.9628
8.5529 -14.0145 -0.9791 0.9363
8.7571 -13.8886 -0.9791 0.9363
9.1600 -13.6279 -0.9792 0.9363
9.3585 -13.4932 -0.9792 0.9363
9.5551 -13.3555 -0.9793 0.9363
7.3005 -9.0379 -0.6928 0.9545
7.3799 -8.8679 -0.6880 0.9548
7.7777 -8.8091 -0.7008 0.9540
8.5747 -8.8938 -0.7367 0.9517
9.2151 -9.0153 -0.7688 0.9497
12.0752 -11.1418 -0.9798 0.9363
12.7071 -10.4187 -0.9799 0.9363
4.6867 -3.4051 -0.3455 0.9771
4.7571 -3.3512 -0.3470 0.9770
4.8282 -3.2968 -0.3486 0.9768
4.9726 -3.1864 -0.3522 0.9766
4.8497 -3.0086 -0.3403 0.9774
5.0359 -2.9239 -0.3473 0.9769
5.0951 -2.7624 -0.3456 0.9770
7.8295 -3.6704 -0.5157 0.9659
7.8148 -3.5251 -0.5112 0.9662
7.9596 -3.1784 -0.5111 0.9662
8.1708 -3.1251 -0.5217 0.9656
7.9642 -2.9134 -0.5057 0.9666
8.4265 -2.8062 -0.5296 0.9650
8.4700 -2.6839 -0.5298 0.9650
10.2170 -2.5915 -0.6286 0.9586
12.0584 -2.6862 -0.7367 0.9517
16.2783 -2.6393 -0.9834 0.9361
16.6029 -2.1961 -0.9987 0.9351
16.7032 -1.2225 -0.9987 0.9351
16.7194 -0.9784 -0.9987 0.9351
16.7409 -0.4895 -0.9987 0.9351
16.7463 0.2447 -0.9987 0.9351
16.7033 1.2225 -0.9987 0.9351
16.6835 1.4664 -0.9987 0.9351
16.6603 1.7100 -0.9987 0.9351
16.6334 1.9532 -0.9987 0.9351
16.5315 2.6802 -0.9987 0.9351
16.4905 2.9215 -0.9987 0.9351
12.2079 2.7195 -0.7458 0.9511
11.4793 2.9117 -0.7062 0.9537
11.3598 3.0587 -0.7015 0.9540
11.1964 3.3685 -0.6972 0.9542
11.0590 3.5041 -0.6918 0.9546
8.9755 2.9890 -0.5641 0.9628
8.6732 3.0298 -0.5479 0.9639
8.3949 3.0709 -0.5331 0.9648
8.1510 3.1175 -0.5204 0.9656
8.0070 3.1973 -0.5141 0.9660
7.9161 3.4324 -0.5145 0.9660
7.8217 3.5282 -0.5117 0.9662
7.7295 3.6234 -0.5091 0.9664
7.6855 3.7408 -0.5097 0.9663
8.0201 4.3482 -0.5440 0.9641
8.0412 4.5129 -0.5499 0.9637
8.0627 4.6813 -0.5560 0.9633
8.1073 5.0295 -0.5689 0.9625
8.1304 5.2098 -0.5758 0.9620
8.1540 5.3946 -0.5830 0.9616
8.2287 5.9785 -0.6065 0.9601
8.2550 6.1838 -0.6151 0.9595
8.0745 6.4254 -0.6154 0.9595
6.7150 5.5058 -0.5178 0.9658
6.6217 5.5931 -0.5169 0.9659
6.5308 5.6819 -0.5162 0.9659
6.4454 5.7752 -0.5161 0.9659
6.3609 5.8693 -0.5161 0.9659
6.2775 5.9645 -0.5164 0.9659
6.1950 6.0608 -0.5168 0.9659
6.1132 6.1581 -0.5174 0.9658
6.0313 6.2558 -0.5182 0.9658
5.9491 6.3537 -0.5190 0.9657
5.8666 6.4521 -0.5200 0.9657
5.7837 6.5509 -0.5211 0.9656
8.1580 9.5166 -0.7475 0.9510
10.5364 12.6608 -0.9823 0.9361
10.3499 12.8129 -0.9822 0.9361
10.1612 12.9623 -0.9822 0.9361
9.9703 13.1088 -0.9821 0.9361
9.7770 13.2522 -0.9821 0.9361
9.5821 13.3932 -0.9820 0.9361
9.3850 13.5314 -0.9820 0.9361
8.9850 13.7988 -0.9819 0.9361
8.7821 13.9283 -0.9819 0.9361
8.5774 14.0546 -0.9819 0.9362
8.1625 14.2982 -0.9818 0.9362
7.9524 14.4154 -0.9818 0.9362
7.3122 14.7483 -0.9817 0.9362
4.4729 9.3629 -0.6188 0.9593
4.2107 9.5196 -0.6207 0.9591
6.4371 15.1479 -0.9815 0.9362
5.9913 15.3283 -0.9814 0.9362
5.7665 15.4136 -0.9814 0.9362
5.0848 15.6495 -0.9813 0.9362
4.1612 15.9169 -0.9811 0.9362
3.6940 16.0302 -0.9810 0.9362
3.4593 16.0818 -0.9809 0.9362
3.2238 16.1298 -0.9809 0.9362
2.9876 16.1745 -0.9809 0.9362
2.5134 16.2534 -0.9808 0.9362
2.0373 16.3183 -0.9807 0.9362
1.5594 16.3694 -0.9806 0.9362
1.3200 16.3896 -0.9805 0.9362
0.6005 16.4292 -0.9804 0.9362
-0.6004 16.4253 -0.9801 0.9363
-0.8402 16.4139 -0.9801 0.9363
-1.0799 16.3990 -0.9800 0.9363
-1.7972 16.3335 -0.9799 0.9363
-2.0356 16.3046 -0.9798 0.9363
-2.2735 16.2723 -0.9798 0.9363
-3.6884 16.0058 -0.9795 0.9363
-3.9217 15.9494 -0.9794 0.9363
-4.1541 15.8896 -0.9794 0.9363
-4.3856 15.8263 -0.9793 0.9363
-4.6161 15.7598 -0.9793 0.9363
-5.0741 15.6166 -0.9792 0.9363
-2.1547 6.3159 -0.3980 0.9736
-2.3170 6.1932 -0.3943 0.9739
-2.3756 5.8254 -0.3752 0.9751
-2.4029 5.6545 -0.3664 0.9757
-2.4288 5.4913 -0.3581 0.9762
-2.4775 5.1861 -0.3427 0.9772
-2.5002 5.0430 -0.3357 0.9777
-2.5633 4.6466 -0.3165 0.9790
-2.5827 4.5242 -0.3107 0.9793
-2.6196 4.2923 -0.2999 0.9801
-2.6564 4.0798 -0.2903 0.9807
-2.6746 3.9793 -0.2859 0.9810
-2.7841 3.5516 -0.2691 0.9821
-2.8123 3.4816 -0.2669 0.9822
-2.8703 3.4490 -0.2676 0.9822
-2.9559 3.4482 -0.2708 0.9820
-3.0497 3.4541 -0.2748 0.9817
-3.3507 3.4754 -0.2879 0.9808
-3.4577 3.4830 -0.2927 0.9805
-3.5778 3.5002 -0.2985 0.9801
-0.7164 0.6051 -0.0559 0.9962
-0.6665 0.5464 -0.0514 0.9966
-0.6642 0.5128 -0.0500 0.9966
-0.6630 0.4967 -0.0494 0.9967
-0.6618 0.4808 -0.0488 0.9967
-0.6606 0.4654 -0.0482 0.9968
-0.6594 0.4502 -0.0476 0.9968
-0.6582 0.4355 -0.0471 0.9968
-0.6570 0.4209 -0.0465 0.9969
-0.6536 0.3924 -0.0455 0.9969
-0.6514 0.3782 -0.0449 0.9970
-0.6470 0.3507 -0.0439 0.9971
-0.6448 0.3375 -0.0434 0.9971
-0.6427 0.3245 -0.0429 0.9971
-0.6406 0.3118 -0.0425 0.9971
-0.6343 0.2750 -0.0412 0.9972
-0.6301 0.2516 -0.0405 0.9973
-0.6280 0.2402 -0.0401 0.9973
-0.6250 0.2183 -0.0395 0.9974
-0.6235 0.2076 -0.0392 0.9974
-0.6174 0.1566 -0.0380 0.9975
-0.6150 0.1370 -0.0376 0.9975
-0.6138 0.1273 -0.0374 0.9975
-0.6102 0.0989 -0.0369 0.9975
-0.6089 0.0896 -0.0367 0.9975
-0.6076 0.0804 -0.0366 0.9975
-0.6028 0.0441 -0.0360 0.9976
-0.6017 0.0352 -0.0359 0.9976
-0.5763 -0.0085 -0.0408 0.9977
-0.5784 -0.0254 -0.0410 0.9977
-0.5794 -0.0339 -0.0411 0.9977
-0.5804 -0.0425 -0.0412 0.9977
-0.5813 -0.0511 -0.0413 0.9977
-0.5832 -0.0685 -0.0416 0.9976
-0.5886 -0.1132 -0.0424 0.9976
-0.5897 -0.1223 -0.0426 0.9976
-0.5917 -0.1409 -0.0430 0.9976
-0.5964 -0.1890 -0.0443 0.9975
-0.5975 -0.1990 -0.0446 0.9975
-0.5988 -0.2092 -0.0449 0.9975
-0.6000 -0.2195 -0.0452 0.9974
-0.6011 -0.2299 -0.0455 0.9974
-0.6035 -0.2513 -0.0463 0.9974
-0.6103 -0.2970 -0.0480 0.9973
-0.6120 -0.3090 -0.0485 0.9973
-0.6137 -0.3212 -0.0490 0.9972
-0.6154 -0.3337 -0.0495 0.9972
-0.6188 -0.3593 -0.0506 0.9971
-0.6258 -0.4141 -0.0531 0.9970
-0.6274 -0.4284 -0.0538 0.9970
-0.6290 -0.4570 -0.0550 0.9969
-0.6297 -0.4717 -0.0557 0.9968
-0.6317 -0.5180 -0.0578 0.9967
-0.6330 -0.5507 -0.0594 0.9966
-0.7910 -0.7299 -0.0762 0.9957
-3.4650 -3.2921 -0.3382 0.9810
-3.5288 -3.4523 -0.3493 0.9804
-9.7436 -10.1062 -0.9934 0.9453
-9.5952 -10.2478 -0.9934 0.9453
-9.2922 -10.5244 -0.9935 0.9453
-8.2208 -9.8783 -0.9094 0.9498
-8.5059 -10.8508 -0.9756 0.9462
-8.1857 -11.0954 -0.9757 0.9462
-6.9011 -9.9500 -0.8569 0.9526
-7.5247 -11.5562 -0.9758 0.9462
-7.3553 -11.6654 -0.9758 0.9462
-6.8377 -11.9778 -0.9760 0.9462
-6.4853 -12.1734 -0.9760 0.9462
-4.1768 -8.4245 -0.6654 0.9630
-3.8510 -8.3734 -0.6522 0.9637
-3.7023 -8.3703 -0.6476 0.9640
-3.4109 -8.3640 -0.6392 0.9644
-3.1295 -8.3651 -0.6320 0.9648
-2.7150 -8.3558 -0.6217 0.9654
-2.4458 -8.3500 -0.6157 0.9657
-2.1815 -8.3444 -0.6103 0.9660
-1.7931 -8.3360 -0.6034 0.9664
-1.4115 -8.3209 -0.5972 0.9667
-1.1618 -8.3155 -0.5941 0.9669
-1.0378 -8.3129 -0.5928 0.9670
-0.3971 -3.6095 -0.2570 0.9855
-0.2257 -2.8028 -0.1990 0.9888
-0.1859 -2.8228 -0.2002 0.9887
-0.1455 -2.8431 -0.2014 0.9886
-0.1047 -2.8637 -0.2028 0.9886
-0.0632 -2.8845 -0.2042 0.9885
0.0213 -2.9109 -0.2060 0.9884
0.0646 -2.9490 -0.2087 0.9882
0.1086 -2.9712 -0.2104 0.9881
0.2852 -2.5917 -0.1845 0.9896
0.3708 -2.6543 -0.1896 0.9893
0.4564 -2.9516 -0.2113 0.9881
0.5686 -2.8451 -0.2053 0.9884
0.9803 -3.0171 -0.2245 0.9874
3.0577 -8.5520 -0.6427 0.9642
3.4879 -8.5527 -0.6536 0.9636
3.6358 -8.5559 -0.6578 0.9634
3.7858 -8.5591 -0.6623 0.9632
3.9378 -8.5624 -0.6669 0.9629
4.0920 -8.5657 -0.6717 0.9626
4.2486 -8.5692 -0.6768 0.9624
4.3271 -8.4163 -0.6697 0.9628
4.4288 -8.3131 -0.6665 0.9629
4.5582 -8.2627 -0.6678 0.9629
4.7249 -8.2766 -0.6744 0.9625
5.1077 -8.6511 -0.7109 0.9605
7.2058 -11.8072 -0.9788 0.9460
7.3778 -11.7011 -0.9788 0.9460
7.5483 -11.5924 -0.9789 0.9460
7.8843 -11.3677 -0.9789 0.9460
8.0498 -11.2516 -0.9790 0.9460
7.5061 -10.1741 -0.8947 0.9506
7.8535 -10.0185 -0.9008 0.9502
8.6945 -10.7636 -0.9791 0.9460
7.4370 -8.9366 -0.8227 0.9544
7.5556 -8.8138 -0.8215 0.9545
7.7777 -8.8091 -0.8315 0.9540
9.4811 -10.4273 -0.9973 0.9451
9.1325 -9.7537 -0.9455 0.9478
9.7824 -10.1464 -0.9973 0.9451
9.2151 -9.0153 -0.9122 0.9496
10.2185 -9.7089 -0.9974 0.9450
10.3596 -9.5588 -0.9974 0.9450
10.4984 -9.4066 -0.9975 0.9450
10.6350 -9.2525 -0.9975 0.9450
10.9015 -8.9383 -0.9976 0.9450
11.0312 -8.7783 -0.9976 0.9450
11.1585 -8.6164 -0.9976 0.9450
4.7692 -3.3596 -0.4128 0.9769
4.8405 -3.3051 -0.4148 0.9768
4.9853 -3.1946 -0.4190 0.9765
4.8847 -3.0303 -0.4068 0.9772
5.0540 -3.0339 -0.4171 0.9766
5.0878 -2.9540 -0.4163 0.9767
5.0754 -2.8485 -0.4118 0.9769
7.9062 -3.9921 -0.6267 0.9651
7.8214 -3.5281 -0.6072 0.9662
7.7403 -3.3563 -0.5970 0.9667
8.0094 -3.1983 -0.6103 0.9660
8.5749 -2.8556 -0.6395 0.9644
8.9172 -2.6828 -0.6589 0.9633
9.3694 -2.5228 -0.6866 0.9618
9.9017 -2.5115 -0.7229 0.9599
13.5116 -3.2177 -0.9828 0.9458
13.5573 -3.0200 -0.9829 0.9458
13.8493 -2.2454 -0.9928 0.9453
14.0326 -1.4404 -0.9982 0.9450
14.0522 -1.2352 -0.9982 0.9450
14.1005 -0.4122 -0.9982 0.9450
14.1051 -0.2062 -0.9982 0.9450
14.1066 0.0000 -0.9982 0.9450
14.1006 0.4122 -0.9982 0.9450
14.0930 0.6182 -0.9982 0.9450
14.0689 1.0297 -0.9982 0.9450
14.0522 1.2352 -0.9982 0.9450
13.9558 2.0538 -0.9982 0.9450
13.9242 2.2575 -0.9982 0.9450
13.8117 2.8655 -0.9982 0.9450
12.9960 3.4992 -0.9524 0.9475
13.5650 3.8659 -0.9981 0.9450
11.2272 3.3777 -0.8296 0.9541
9.0164 3.0026 -0.6725 0.9626
8.4319 3.0845 -0.6353 0.9646
8.1688 3.1243 -0.6189 0.9655
8.0144 3.2003 -0.6107 0.9660
7.9214 3.4347 -0.6110 0.9660
7.7914 3.5145 -0.6048 0.9663
7.7029 3.6109 -0.6020 0.9665
7.6583 3.7275 -0.6027 0.9664
7.6624 3.8689 -0.6074 0.9662
8.0256 4.3512 -0.6460 0.9641
8.0632 4.6815 -0.6598 0.9633
8.1258 5.2069 -0.6829 0.9620
8.1984 5.7753 -0.7096 0.9606
8.2264 5.9768 -0.7195 0.9600
8.2574 6.1857 -0.7301 0.9595
8.1425 6.2873 -0.7280 0.9596
8.0794 6.4293 -0.7306 0.9594
8.1237 6.6607 -0.7434 0.9587
6.6363 5.6054 -0.6147 0.9658
6.5431 5.6925 -0.6137 0.9658
6.3706 5.8783 -0.6134 0.9658
6.2035 6.0691 -0.6141 0.9658
5.9560 6.3612 -0.6166 0.9657
5.8734 6.4596 -0.6178 0.9656
9.1848 10.4027 -0.9820 0.9459
8.1674 9.5275 -0.8880 0.9509
8.5603 10.9201 -0.9819 0.9459
8.2370 11.1648 -0.9818 0.9459
7.9057 11.3985 -0.9816 0.9459
7.7381 11.5124 -0.9816 0.9459
7.5688 11.6239 -0.9815 0.9459
7.3980 11.7330 -0.9815 0.9459
7.2255 11.8395 -0.9815 0.9459
6.8761 12.0448 -0.9814 0.9459
6.5208 12.2398 -0.9814 0.9459
6.3410 12.3334 -0.9813 0.9459
6.1599 12.4243 -0.9813 0.9459
4.4705 9.3580 -0.7339 0.9593
4.6676 13.0544 -0.9810 0.9459
4.0905 13.2449 -0.9809 0.9459
3.8965 13.3028 -0.9809 0.9459
3.7016 13.3581 -0.9809 0.9459
3.5059 13.4103 -0.9808 0.9459
2.7162 13.5897 -0.9807 0.9459
2.5172 13.6274 -0.9806 0.9459
2.3174 13.6625 -0.9806 0.9459
2.1177 13.6941 -0.9805 0.9459
1.9173 13.7231 -0.9805 0.9460
1.7165 13.7491 -0.9805 0.9460
1.3139 13.7922 -0.9804 0.9460
1.1122 13.8094 -0.9803 0.9460
0.9103 13.8236 -0.9803 0.9460
0.5059 13.8431 -0.9802 0.9460
0.3036 13.8484 -0.9802 0.9460
0.0691 9.4652 -0.6698 0.9628
-0.1012 13.8502 -0.9801 0.9460
-0.5058 13.8402 -0.9800 0.9460
-0.9099 13.8184 -0.9799 0.9460
-1.5144 13.7635 -0.9798 0.9460
-1.7153 13.7393 -0.9798 0.9460
-2.1158 13.6822 -0.9797 0.9460
-2.3154 13.6492 -0.9796 0.9460
-2.5145 13.6133 -0.9796 0.9460
-2.7130 13.5746 -0.9796 0.9460
-3.1083 13.4883 -0.9795 0.9460
-3.3049 13.4409 -0.9794 0.9460
-3.5008 13.3905 -0.9794 0.9460
-3.6959 13.3374 -0.9793 0.9460
-3.8902 13.2814 -0.9793 0.9460
-2.0683 6.3655 -0.4736 0.9735
-2.2969 6.1396 -0.4639 0.9741
-2.3434 5.9954 -0.4555 0.9745
-2.3987 5.6447 -0.4340 0.9757
-2.4491 5.3254 -0.4148 0.9768
-2.5587 4.6384 -0.3748 0.9790
-2.5782 4.5164 -0.3680 0.9794
-2.6333 4.1764 -0.3494 0.9804
-2.6410 3.9291 -0.3350 0.9812
-2.7312 3.7020 -0.3255 0.9817
-2.7525 3.6190 -0.3217 0.9819
-2.7755 3.5407 -0.3184 0.9821
-2.8063 3.4742 -0.3160 0.9823
-2.9446 3.4350 -0.3202 0.9820
-3.0379 3.4408 -0.3248 0.9818
-3.1347 3.4476 -0.3297 0.9815
-3.6963 3.5119 -0.3608 0.9798
-0.7910 0.7299 -0.0762 0.9957
-0.6971 0.6246 -0.0662 0.9963
-0.6330 0.5507 -0.0594 0.9966
-0.6324 0.5341 -0.0586 0.9967
-0.6317 0.5179 -0.0578 0.9967
-0.6311 0.5022 -0.0571 0.9968
-0.6304 0.4868 -0.0564 0.9968
-0.6282 0.4425 -0.0544 0.9969
-0.6274 0.4284 -0.0538 0.9970
-0.6171 0.3463 -0.0501 0.9972
-0.6085 0.2852 -0.0476 0.9973
-0.6023 0.2405 -0.0459 0.9974
-0.6000 0.2195 -0.0452 0.9974
-0.5987 0.2091 -0.0449 0.9975
-0.5975 0.1989 -0.0446 0.9975
-0.5955 0.1791 -0.0440 0.9975
-0.5946 0.1695 -0.0437 0.9975
-0.5927 0.1503 -0.0433 0.9976
-0.5887 0.1132 -0.0424 0.9976
-0.5876 0.1041 -0.0422 0.9976
-0.5865 0.0951 -0.0420 0.9976
-0.5854 0.0861 -0.0419 0.9976
-0.5842 0.0773 -0.0417 0.9976
-0.5832 0.0685 -0.0416 0.9976
-0.5823 0.0598 -0.0414 0.9977
-0.5814 0.0511 -0.0413 0.9977
-0.5784 0.0253 -0.0410 0.9977
-0.5774 0.0169 -0.0409 0.9977
-0.5763 0.0084 -0.0408 0.9977
-0.5548 -0.0000 -0.0454 0.9978
-0.5558 -0.0081 -0.0455 0.9978
-0.5586 -0.0327 -0.0458 0.9978
-0.5612 -0.0576 -0.0462 0.9977
-0.5621 -0.0660 -0.0464 0.9977
-0.5645 -0.0916 -0.0468 0.9977
-0.5664 -0.1089 -0.0472 0.9977
-0.5673 -0.1177 -0.0475 0.9977
-0.5699 -0.1446 -0.0482 0.9976
-0.5707 -0.1537 -0.0484 0.9976
-0.5714 -0.1629 -0.0487 0.9976
-0.5722 -0.1721 -0.0489 0.9976
-0.5746 -0.2007 -0.0499 0.9976
-0.5766 -0.2205 -0.0506 0.9975
-0.5785 -0.2409 -0.0513 0.9975
-0.5794 -0.2512 -0.0517 0.9975
-0.5802 -0.2618 -0.0521 0.9974
-0.5826 -0.2836 -0.0531 0.9974
-0.5853 -0.3064 -0.0541 0.9974
-0.5867 -0.3181 -0.0547 0.9973
-0.5893 -0.3421 -0.0558 0.9973
-0.5919 -0.3672 -0.0570 0.9972
-0.5932 -0.3801 -0.0577 0.9972
-0.5945 -0.3934 -0.0584 0.9971
-0.5958 -0.4068 -0.0591 0.9971
-0.5971 -0.4206 -0.0598 0.9971
-0.6767 -0.6429 -0.0765 0.9963
-3.2494 -3.1789 -0.3723 0.9819
-3.6261 -3.7611 -0.4279 0.9793
-8.1616 -8.9761 -0.9937 0.9525
-7.8963 -9.2112 -0.9937 0.9525
-7.6242 -9.4385 -0.9938 0.9525
-7.4857 -9.5492 -0.9938 0.9525
-7.2038 -9.7644 -0.9939 0.9525
-7.0606 -9.8689 -0.9939 0.9525
-6.7696 -10.0716 -0.9940 0.9525
-6.3223 -10.3595 -0.9941 0.9525
-5.6038 -10.5187 -0.9762 0.9533
-5.4497 -10.5998 -0.9762 0.9533
-4.1806 -8.4320 -0.7709 0.9629
-4.0018 -8.3767 -0.7604 0.9634
-3.2718 -8.3707 -0.7361 0.9646
-3.1302 -8.3669 -0.7317 0.9648
-2.7150 -8.3558 -0.7196 0.9654
-2.4458 -8.3500 -0.7127 0.9657
-2.3130 -8.3472 -0.7095 0.9658
-2.0510 -8.3416 -0.7036 0.9661
-1.9216 -8.3387 -0.7009 0.9662
-1.6655 -8.3332 -0.6961 0.9665
-1.5375 -8.3236 -0.6933 0.9666
-1.4115 -8.3209 -0.6913 0.9667
-1.2864 -8.3182 -0.6894 0.9668
-1.1618 -8.3155 -0.6877 0.9669
-0.3406 -3.5755 -0.2942 0.9857
-0.1867 -2.8359 -0.2328 0.9887
-0.1462 -2.8564 -0.2343 0.9886
0.0215 -2.9412 -0.2409 0.9883
0.0649 -2.9633 -0.2428 0.9882
0.1091 -2.9857 -0.2447 0.9881
0.1996 -3.0318 -0.2489 0.9879
0.2276 -2.8256 -0.2322 0.9887
0.2895 -2.6313 -0.2168 0.9894
0.3134 -2.5102 -0.2072 0.9899
0.3657 -2.6175 -0.2165 0.9894
0.4587 -2.9662 -0.2458 0.9880
0.5333 -2.8873 -0.2405 0.9883
0.6002 -2.7905 -0.2338 0.9886
0.6323 -2.7441 -0.2306 0.9888
0.8426 -3.0407 -0.2584 0.9874
0.9831 -3.0256 -0.2606 0.9873
1.0304 -3.0205 -0.2614 0.9873
3.1993 -8.5517 -0.7479 0.9640
3.4900 -8.5580 -0.7570 0.9636
4.5311 -9.8523 -0.8882 0.9574
5.3061 -10.7021 -0.9784 0.9532
4.7441 -8.3103 -0.7838 0.9623
6.3386 -10.3862 -0.9966 0.9523
7.3675 -9.6868 -0.9968 0.9523
7.6479 -9.4680 -0.9969 0.9523
7.7856 -9.3555 -0.9969 0.9523
7.5556 -8.8138 -0.9509 0.9545
7.7777 -8.8091 -0.9625 0.9539
8.3197 -8.8857 -0.9970 0.9523
8.4489 -8.7633 -0.9971 0.9523
8.7018 -8.5131 -0.9971 0.9523
8.9473 -8.2557 -0.9972 0.9523
9.1851 -7.9911 -0.9972 0.9523
9.5271 -7.5814 -0.9973 0.9523
9.7450 -7.3001 -0.9973 0.9523
4.7813 -3.3682 -0.4790 0.9768
4.9813 -3.1920 -0.4846 0.9765
4.8695 -2.9232 -0.4652 0.9775
5.0909 -2.8571 -0.4782 0.9768
10.7901 -5.6477 -0.9975 0.9523
7.8084 -3.3858 -0.6971 0.9664
8.9196 -2.8263 -0.7664 0.9631
9.5893 -2.7329 -0.8167 0.9608
10.1748 -2.7396 -0.8631 0.9586
11.6064 -2.9439 -0.9808 0.9531
11.6685 -2.7788 -0.9825 0.9530
11.7080 -2.6081 -0.9825 0.9530
11.7449 -2.4368 -0.9825 0.9530
12.0247 -1.9496 -0.9978 0.9523
12.0520 -1.7737 -0.9978 0.9523
12.0767 -1.5975 -0.9978 0.9523
12.0988 -1.4208 -0.9978 0.9523
12.1183 -1.2439 -0.9978 0.9523
12.1496 -0.8893 -0.9978 0.9523
12.1613 -0.7116 -0.9978 0.9523
12.1770 -0.3560 -0.9978 0.9523
12.1822 -0.0000 -0.9978 0.9523
12.1770 0.3559 -0.9978 0.9523
12.1613 0.7116 -0.9978 0.9523
12.1496 0.8892 -0.9978 0.9523
12.1183 1.2438 -0.9978 0.9523
12.0767 1.5974 -0.9978 0.9523
12.0521 1.7737 -0.9978 0.9523
11.9950 2.1250 -0.9978 0.9523
11.8900 2.6486 -0.9978 0.9523
11.7146 3.3385 -0.9977 0.9523
11.6645 3.5093 -0.9977 0.9523
11.1614 3.5366 -0.9590 0.9541
11.1143 3.7012 -0.9595 0.9541
9.3632 3.2708 -0.8124 0.9610
7.9600 3.3142 -0.7062 0.9660
7.9267 3.4370 -0.7077 0.9659
7.7901 3.5139 -0.7000 0.9663
7.7009 3.6100 -0.6966 0.9664
7.6565 3.7266 -0.6975 0.9664
7.6618 3.8687 -0.7030 0.9661
10.6201 5.9603 -0.9975 0.9523
9.6876 6.2077 -0.9424 0.9549
10.1558 6.7190 -0.9974 0.9523
9.9547 7.0126 -0.9974 0.9523
9.8509 7.1571 -0.9974 0.9523
8.3123 6.2268 -0.8507 0.9592
8.1822 6.3180 -0.8467 0.9594
8.1270 6.4671 -0.8507 0.9592
9.1330 7.7139 -0.9792 0.9532
9.0190 7.8464 -0.9792 0.9532
6.3804 5.8873 -0.7111 0.9658
6.2130 6.0784 -0.7119 0.9657
7.9104 8.9592 -0.9789 0.9532
7.7785 9.0736 -0.9789 0.9532
7.5096 9.2965 -0.9789 0.9532
7.3728 9.4050 -0.9788 0.9532
7.2343 9.5114 -0.9788 0.9532
7.0944 9.6158 -0.9788 0.9532
6.9529 9.7182 -0.9788 0.9532
6.8100 9.8184 -0.9787 0.9532
6.0914 10.3171 -0.9814 0.9531
5.9398 10.4046 -0.9813 0.9531
5.7869 10.4900 -0.9813 0.9531
5.6328 10.5731 -0.9813 0.9531
5.4776 10.6539 -0.9812 0.9531
4.4682 9.3531 -0.8490 0.9593
4.6845 11.0236 -0.9811 0.9531
4.3601 11.1550 -0.9810 0.9531
4.1965 11.2171 -0.9810 0.9531
4.0320 11.2769 -0.9809 0.9531
3.8667 11.3342 -0.9809 0.9531
3.3659 11.4916 -0.9808 0.9531
3.1976 11.5391 -0.9808 0.9531
3.0285 11.5842 -0.9807 0.9531
2.3463 11.7397 -0.9806 0.9531
1.6563 11.8550 -0.9805 0.9531
1.4829 11.8775 -0.9804 0.9531
1.1351 11.9149 -0.9803 0.9531
-0.0874 11.9643 -0.9800 0.9531
-0.4369 11.9558 -0.9799 0.9531
-1.1344 11.9081 -0.9798 0.9531
-1.4818 11.8690 -0.9797 0.9531
-1.6550 11.8456 -0.9797 0.9531
-2.0003 11.7913 -0.9796 0.9531
-2.1723 11.7604 -0.9796 0.9531
-2.8551 11.6117 -0.9794 0.9531
-3.0243 11.5683 -0.9794 0.9531
-3.1930 11.5224 -0.9794 0.9531
-2.3417 5.9913 -0.5269 0.9745
-2.3694 5.8101 -0.5139 0.9751
-2.3963 5.6389 -0.5019 0.9757
-2.4221 5.4760 -0.4904 0.9763
-2.4467 5.3202 -0.4796 0.9768
-2.4703 5.1710 -0.4694 0.9773
-2.4929 5.0281 -0.4597 0.9777
-2.5748 4.5102 -0.4254 0.9794
-2.6113 4.2788 -0.4106 0.9801
-2.6290 4.1696 -0.4037 0.9804
-2.5740 3.8295 -0.3779 0.9817
-2.6231 3.7820 -0.3770 0.9817
-2.6852 3.7533 -0.3780 0.9816
-2.7670 3.5298 -0.3674 0.9822
-2.8003 3.4668 -0.3650 0.9823
-3.1228 3.4345 -0.3802 0.9815
-3.3245 3.4482 -0.3923 0.9810
-0.6767 0.6429 -0.0765 0.9963
-0.6008 0.5226 -0.0652 0.9968
-0.6006 0.5073 -0.0644 0.9968
-0.6002 0.4775 -0.0628 0.9969
-0.5999 0.4632 -0.0621 0.9970
-0.5995 0.4491 -0.0614 0.9970
-0.5958 0.4068 -0.0591 0.9971
-0.5945 0.3933 -0.0584 0.9971
-0.5867 0.3180 -0.0547 0.9973
-0.5793 0.2512 -0.0517 0.9975
-0.5766 0.2205 -0.0506 0.9975
-0.5715 0.1629 -0.0487 0.9976
-0.5699 0.1445 -0.0482 0.9976
-0.5691 0.1355 -0.0479 0.9977
-0.5682 0.1266 -0.0477 0.9977
-0.5673 0.1177 -0.0475 0.9977
-0.5664 0.1089 -0.0472 0.9977
-0.5645 0.0915 -0.0468 0.9977
-0.5636 0.0829 -0.0467 0.9977
-0.5628 0.0744 -0.0465 0.9977
-0.5612 0.0576 -0.0462 0.9977
-0.5595 0.0409 -0.0460 0.9978
-0.5587 0.0327 -0.0458 0.9978
-0.5577 0.0245 -0.0457 0.9978
-0.5568 0.0162 -0.0456 0.9978
-0.5558 0.0081 -0.0455 0.9978
-0.5375 -0.0157 -0.0501 0.9978
-0.5393 -0.0316 -0.0503 0.9978
-0.5409 -0.0476 -0.0505 0.9978
-0.5416 -0.0556 -0.0507 0.9978
-0.5437 -0.0800 -0.0512 0.9978
-0.5487 -0.1392 -0.0527 0.9977
-0.5500 -0.1568 -0.0532 0.9977
-0.5512 -0.1747 -0.0538 0.9977
-0.5517 -0.1837 -0.0541 0.9977
-0.5523 -0.1929 -0.0545 0.9977
-0.5531 -0.2023 -0.0548 0.9976
-0.5539 -0.2119 -0.0552 0.9976
-0.5560 -0.2412 -0.0564 0.9976
-0.5573 -0.2613 -0.0573 0.9975
-0.5579 -0.2716 -0.0578 0.9975
-0.5594 -0.2928 -0.0588 0.9975
-0.5615 -0.3151 -0.0599 0.9974
-0.5643 -0.3501 -0.0618 0.9973
-0.5652 -0.3622 -0.0625 0.9973
-0.5670 -0.3872 -0.0639 0.9972
-0.5679 -0.4001 -0.0647 0.9972
-0.5688 -0.4133 -0.0654 0.9972
-0.5696 -0.4268 -0.0662 0.9971
-0.5712 -0.4545 -0.0679 0.9971
-0.5719 -0.4689 -0.0688 0.9970
-0.5713 -0.5120 -0.0714 0.9969
-0.5710 -0.5269 -0.0723 0.9969
-0.5706 -0.5422 -0.0733 0.9968
-0.6550 -0.6598 -0.0865 0.9963
-3.4006 -3.5271 -0.4560 0.9805
-7.1839 -7.9007 -0.9939 0.9580
-7.0678 -8.0051 -0.9939 0.9580
-6.9503 -8.1077 -0.9939 0.9580
-6.7107 -8.3077 -0.9940 0.9580
-6.5888 -8.4051 -0.9940 0.9580
-6.3407 -8.5945 -0.9941 0.9580
-6.2146 -8.6864 -0.9941 0.9580
-6.0871 -8.7765 -0.9941 0.9580
-5.8284 -8.9511 -0.9942 0.9580
-5.6972 -9.0355 -0.9942 0.9580
-5.5647 -9.1181 -0.9942 0.9580
-5.4310 -9.1987 -0.9942 0.9580
-5.1602 -9.3539 -0.9943 0.9580
-5.0231 -9.4286 -0.9943 0.9580
-4.7458 -9.5719 -0.9944 0.9580
-4.0017 -8.3767 -0.8641 0.9634
-3.7023 -8.3703 -0.8519 0.9639
-3.4878 -8.5524 -0.8597 0.9636
-3.8901 -9.9524 -0.9946 0.9580
-3.7443 -10.0085 -0.9946 0.9580
-3.4505 -10.1142 -0.9946 0.9580
-3.3024 -10.1638 -0.9947 0.9580
-2.7034 -10.3407 -0.9948 0.9580
-1.1618 -8.3155 -0.7815 0.9668
-1.0378 -8.3129 -0.7797 0.9669
-0.9333 -8.4826 -0.7943 0.9663
-0.3418 -3.5876 -0.3354 0.9856
-0.2278 -2.8287 -0.2641 0.9887
-0.1876 -2.8491 -0.2658 0.9886
-0.1057 -2.8907 -0.2692 0.9884
0.0653 -2.9778 -0.2772 0.9881
0.1097 -3.0004 -0.2794 0.9880
0.2676 -2.8094 -0.2627 0.9887
0.4183 -2.9939 -0.2814 0.9879
0.4964 -2.9261 -0.2762 0.9881
0.5983 -2.7816 -0.2648 0.9886
0.6615 -2.6904 -0.2579 0.9889
0.8917 -3.0442 -0.2952 0.9873
0.9386 -3.0391 -0.2960 0.9873
0.9858 -3.0341 -0.2969 0.9873
3.8962 -9.9682 -0.9961 0.9579
4.0416 -9.9105 -0.9962 0.9579
4.1861 -9.8507 -0.9962 0.9579
4.4724 -9.7247 -0.9963 0.9579
4.6141 -9.6586 -0.9963 0.9579
4.4704 -8.3912 -0.8849 0.9625
4.6054 -8.3484 -0.8874 0.9624
6.1022 -8.7983 -0.9966 0.9579
6.2303 -8.7084 -0.9966 0.9579
6.4824 -8.5231 -0.9967 0.9579
6.7291 -8.3305 -0.9967 0.9579
6.8502 -8.2315 -0.9967 0.9579
6.9700 -8.1307 -0.9968 0.9579
7.3201 -7.8180 -0.9968 0.9579
7.4337 -7.7104 -0.9969 0.9579
7.5458 -7.6011 -0.9969 0.9579
7.6562 -7.4902 -0.9969 0.9579
7.7650 -7.3777 -0.9969 0.9579
7.8721 -7.2636 -0.9969 0.9579
8.0814 -7.0308 -0.9970 0.9579
8.1834 -6.9121 -0.9970 0.9579
8.2837 -6.7920 -0.9970 0.9579
8.3822 -6.6703 -0.9970 0.9579
8.5739 -6.4228 -0.9971 0.9579
4.8653 -3.3221 -0.5483 0.9766
4.9379 -3.2669 -0.5511 0.9765
4.9564 -3.0748 -0.5429 0.9768
5.1065 -2.8659 -0.5450 0.9768
9.4930 -4.9688 -0.9973 0.9579
9.5648 -4.8296 -0.9973 0.9579
9.6344 -4.6894 -0.9973 0.9579
9.7021 -4.5482 -0.9973 0.9579
7.9016 -3.2899 -0.7966 0.9662
7.6573 -2.9287 -0.7631 0.9676
8.2974 -2.8986 -0.8180 0.9653
8.8850 -2.9589 -0.8716 0.9631
10.1484 -2.8922 -0.9822 0.9585
10.1897 -2.7436 -0.9822 0.9585
10.3004 -2.2945 -0.9822 0.9585
10.4935 -2.1771 -0.9975 0.9579
10.5243 -2.0236 -0.9975 0.9579
10.5528 -1.8696 -0.9975 0.9579
10.6030 -1.5605 -0.9975 0.9579
10.6247 -1.4054 -0.9975 0.9579
10.6441 -1.2500 -0.9975 0.9579
10.6613 -1.0943 -0.9975 0.9579
10.7071 -0.4697 -0.9975 0.9579
10.7129 -0.3132 -0.9975 0.9579
10.7174 0.0000 -0.9975 0.9579
10.7163 0.1566 -0.9975 0.9579
10.6991 0.6260 -0.9975 0.9579
10.6888 0.7823 -0.9975 0.9579
10.6442 1.2500 -0.9975 0.9579
10.6247 1.4053 -0.9975 0.9579
10.6030 1.5605 -0.9975 0.9579
10.5790 1.7152 -0.9975 0.9579
10.4605 2.3302 -0.9975 0.9579
10.3878 2.6348 -0.9975 0.9579
10.3062 2.9371 -0.9974 0.9579
10.2621 3.0874 -0.9974 0.9579
10.2158 3.2370 -0.9974 0.9579
10.1673 3.3859 -0.9974 0.9579
10.1167 3.5340 -0.9974 0.9579
9.3037 3.4034 -0.9221 0.9610
9.2332 3.5314 -0.9201 0.9611
9.8925 4.1188 -0.9974 0.9579
7.8200 3.5274 -0.7985 0.9661
7.6817 3.7389 -0.7952 0.9663
9.4193 5.1068 -0.9973 0.9579
9.1043 5.6480 -0.9972 0.9579
9.0207 5.7803 -0.9972 0.9579
8.6670 6.2970 -0.9971 0.9579
8.5739 6.4227 -0.9971 0.9579
8.3823 6.6703 -0.9971 0.9579
7.9777 7.1480 -0.9970 0.9579
7.8722 7.2636 -0.9970 0.9579
7.5458 7.6012 -0.9969 0.9579
7.1878 7.6764 -0.9788 0.9586
6.9600 7.8828 -0.9788 0.9586
6.8440 7.9835 -0.9787 0.9586
6.4870 8.2751 -0.9787 0.9586
5.7367 8.8100 -0.9785 0.9586
5.2117 9.1290 -0.9784 0.9586
4.6690 9.4168 -0.9783 0.9587
4.4658 9.3481 -0.9643 0.9592
3.6823 9.8423 -0.9781 0.9587
3.5379 9.8948 -0.9781 0.9587
3.3929 9.9452 -0.9780 0.9587
3.1094 10.0680 -0.9807 0.9586
2.9619 10.1120 -0.9807 0.9586
2.8137 10.1539 -0.9807 0.9586
2.5156 10.2312 -0.9806 0.9586
2.0647 10.3306 -0.9805 0.9586
1.9135 10.3594 -0.9805 0.9586
1.7618 10.3859 -0.9805 0.9586
0.9989 10.4852 -0.9803 0.9586
0.3846 10.5242 -0.9802 0.9586
0.2084 9.5055 -0.8849 0.9625
-0.0770 10.5300 -0.9801 0.9586
-0.2308 10.5274 -0.9801 0.9586
-0.3846 10.5226 -0.9800 0.9586
-0.5383 10.5155 -0.9800 0.9586
-1.1515 10.4648 -0.9799 0.9586
-1.3042 10.4465 -0.9799 0.9586
-1.4567 10.4260 -0.9798 0.9586
-1.6088 10.4033 -0.9798 0.9586
-1.7606 10.3783 -0.9798 0.9586
-1.9120 10.3512 -0.9797 0.9586
-2.2135 10.2903 -0.9797 0.9586
-2.5131 10.2206 -0.9796 0.9586
-2.8105 10.1421 -0.9795 0.9586
-2.9583 10.0996 -0.9795 0.9586
-2.0395 6.2769 -0.6143 0.9738
-2.1073 6.1770 -0.6075 0.9741
-2.1872 6.1172 -0.6047 0.9742
-2.3689 5.8089 -0.5839 0.9751
-2.3952 5.6365 -0.5700 0.9757
-2.4203 5.4720 -0.5569 0.9762
-2.4906 5.0234 -0.5219 0.9777
-2.5123 4.8864 -0.5114 0.9782
-2.5331 4.7549 -0.5014 0.9786
-2.5532 4.6283 -0.4920 0.9790
-2.5725 4.5063 -0.4830 0.9794
-2.6091 4.2752 -0.4662 0.9801
-2.5015 3.8416 -0.4267 0.9818
-2.5907 3.7352 -0.4231 0.9819
-2.6504 3.7046 -0.4240 0.9819
-2.7394 3.6017 -0.4212 0.9820
-2.7943 3.4594 -0.4139 0.9823
-2.8519 3.4269 -0.4150 0.9822
-2.9223 3.4089 -0.4179 0.9821
-3.0155 3.4154 -0.4241 0.9819
-3.1133 3.4240 -0.4307 0.9816
-3.3183 3.4419 -0.4450 0.9810
-0.6550 0.6598 -0.0865 0.9963
-0.5702 0.5578 -0.0742 0.9968
-0.5710 0.5269 -0.0723 0.9969
-0.5716 0.4973 -0.0705 0.9970
-0.5718 0.4829 -0.0697 0.9970
-0.5719 0.4689 -0.0688 0.9970
-0.5704 0.4405 -0.0671 0.9971
-0.5696 0.4267 -0.0662 0.9971
-0.5688 0.4132 -0.0654 0.9972
-0.5670 0.3871 -0.0639 0.9972
-0.5661 0.3745 -0.0632 0.9973
-0.5652 0.3621 -0.0625 0.9973
-0.5573 0.2612 -0.0573 0.9975
-0.5560 0.2411 -0.0564 0.9976
-0.5553 0.2312 -0.0560 0.9976
-0.5546 0.2214 -0.0556 0.9976
-0.5518 0.1837 -0.0541 0.9977
-0.5512 0.1746 -0.0538 0.9977
-0.5506 0.1656 -0.0535 0.9977
-0.5494 0.1479 -0.0530 0.9977
-0.5487 0.1391 -0.0527 0.9977
-0.5473 0.1219 -0.0522 0.9977
-0.5437 0.0800 -0.0512 0.9978
-0.5424 0.0637 -0.0508 0.9978
-0.5393 0.0315 -0.0503 0.9978
-0.5384 0.0236 -0.0502 0.9978
-0.5367 0.0078 -0.0500 0.9978
-0.5179 -0.0000 -0.0540 0.9979
-0.5188 -0.0076 -0.0541 0.9979
-0.5196 -0.0152 -0.0542 0.9979
-0.5212 -0.0305 -0.0544 0.9979
-0.5240 -0.0615 -0.0550 0.9979
-0.5278 -0.1176 -0.0564 0.9978
-0.5285 -0.1259 -0.0566 0.9978
-0.5301 -0.1511 -0.0575 0.9978
-0.5314 -0.1770 -0.0584 0.9977
-0.5322 -0.1947 -0.0591 0.9977
-0.5340 -0.2223 -0.0603 0.9977
-0.5345 -0.2318 -0.0607 0.9977
-0.5354 -0.2510 -0.0617 0.9976
-0.5358 -0.2608 -0.0621 0.9976
-0.5365 -0.2808 -0.0631 0.9976
-0.5368 -0.2911 -0.0637 0.9975
-0.5398 -0.3459 -0.0668 0.9974
-0.5403 -0.3575 -0.0676 0.9974
-0.5409 -0.3693 -0.0683 0.9974
-0.5424 -0.4063 -0.0707 0.9973
-0.5433 -0.4323 -0.0724 0.9972
-0.5436 -0.4457 -0.0733 0.9972
-0.5444 -0.4878 -0.0762 0.9971
-0.5424 -0.5307 -0.0791 0.9970
-0.5416 -0.5456 -0.0802 0.9969
-0.6320 -0.6750 -0.0964 0.9963
-6.0990 -7.3287 -0.9941 0.9624
-5.8825 -7.5041 -0.9942 0.9624
-5.6610 -7.6731 -0.9942 0.9624
-5.4346 -7.8357 -0.9942 0.9624
-5.2036 -7.9915 -0.9943 0.9624
-5.0864 -8.0669 -0.9943 0.9624
-4.9681 -8.1405 -0.9943 0.9624
-4.7283 -8.2827 -0.9944 0.9624
-4.6069 -8.3510 -0.9944 0.9624
-4.4845 -8.4177 -0.9944 0.9624
-4.3612 -8.4825 -0.9945 0.9624
-4.2369 -8.5455 -0.9945 0.9624
-3.7023 -8.3702 -0.9543 0.9639
-3.7308 -8.7794 -0.9946 0.9624
-3.4729 -8.8851 -0.9946 0.9624
-3.3428 -8.9351 -0.9947 0.9624
-3.0804 -9.0295 -0.9947 0.9624
-2.6820 -9.1565 -0.9948 0.9624
-2.4134 -9.2315 -0.9949 0.9624
-2.2783 -9.2660 -0.9949 0.9624
-2.1428 -9.2986 -0.9949 0.9624
-2.0067 -9.3291 -0.9949 0.9624
-1.8703 -9.3577 -0.9950 0.9623
-1.7334 -9.3843 -0.9950 0.9623
-1.4116 -8.3209 -0.8800 0.9666
-1.1618 -8.3155 -0.8754 0.9668
-1.0378 -8.3129 -0.8735 0.9669
-1.0439 -9.4871 -0.9951 0.9623
-0.3429 -3.5998 -0.3770 0.9856
-0.1885 -2.8625 -0.2991 0.9885
-0.1062 -2.9045 -0.3030 0.9884
-0.0641 -2.9259 -0.3051 0.9883
-0.0216 -2.9477 -0.3073 0.9882
0.0217 -2.9698 -0.3096 0.9881
0.0656 -2.9923 -0.3121 0.9880
0.1102 -3.0152 -0.3146 0.9879
0.2154 -2.6741 -0.2797 0.9893
0.2987 -2.7146 -0.2847 0.9891
0.4223 -3.0225 -0.3182 0.9878
0.5298 -2.8683 -0.3041 0.9883
0.5964 -2.7727 -0.2957 0.9887
0.6283 -2.7268 -0.2918 0.9888
0.6595 -2.6820 -0.2880 0.9890
0.8473 -3.0577 -0.3308 0.9873
0.9886 -3.0427 -0.3336 0.9872
3.2161 -8.9950 -0.9960 0.9623
3.4778 -8.8977 -0.9961 0.9623
3.6075 -8.8461 -0.9961 0.9623
3.8647 -8.7374 -0.9961 0.9623
3.9920 -8.6802 -0.9962 0.9623
4.1185 -8.6212 -0.9962 0.9623
4.3689 -8.4976 -0.9962 0.9623
4.4927 -8.4331 -0.9963 0.9623
4.6156 -8.3667 -0.9963 0.9623
4.7374 -8.2986 -0.9963 0.9623
4.8583 -8.2287 -0.9963 0.9623
4.9782 -8.1570 -0.9964 0.9623
5.0969 -8.0836 -0.9964 0.9623
5.4467 -7.8530 -0.9965 0.9623
5.5610 -7.7728 -0.9965 0.9623
5.7860 -7.6073 -0.9965 0.9623
6.3265 -7.1655 -0.9966 0.9623
6.4307 -7.0724 -0.9967 0.9623
6.5335 -6.9779 -0.9967 0.9623
6.6349 -6.8818 -0.9967 0.9623
6.7349 -6.7843 -0.9967 0.9623
7.0261 -6.4830 -0.9968 0.9623
7.1202 -6.3797 -0.9968 0.9623
7.2128 -6.2752 -0.9968 0.9623
7.7354 -5.6201 -0.9969 0.9623
4.8058 -3.3855 -0.6129 0.9766
5.0068 -3.2083 -0.6200 0.9764
5.1245 -3.0763 -0.6232 0.9762
5.1223 -2.8748 -0.6124 0.9767
5.1935 -2.8158 -0.6160 0.9765
8.5365 -4.3104 -0.9971 0.9623
8.5987 -4.1852 -0.9971 0.9623
7.7972 -3.5172 -0.8919 0.9662
7.2315 -3.1357 -0.8218 0.9688
7.3114 -3.0442 -0.8257 0.9687
7.7368 -2.8302 -0.8590 0.9674
8.3291 -2.9097 -0.9199 0.9651
9.0185 -2.7133 -0.9819 0.9628
9.0572 -2.5812 -0.9819 0.9628
9.0941 -2.4486 -0.9820 0.9628
9.3926 -1.8060 -0.9973 0.9623
9.4181 -1.6686 -0.9973 0.9623
9.4415 -1.5308 -0.9973 0.9623
9.4629 -1.3927 -0.9973 0.9623
9.4823 -1.2543 -0.9973 0.9623
9.5282 -0.8376 -0.9973 0.9623
9.5487 -0.5587 -0.9973 0.9623
9.5558 -0.4192 -0.9973 0.9623
9.5609 -0.2795 -0.9973 0.9623
9.5640 -0.1398 -0.9973 0.9623
9.5650 0.0000 -0.9973 0.9623
9.5640 0.1398 -0.9973 0.9623
9.5609 0.2795 -0.9973 0.9623
9.5395 0.6982 -0.9973 0.9623
9.5282 0.8375 -0.9973 0.9623
9.5149 0.9766 -0.9973 0.9623
9.4181 1.6685 -0.9973 0.9623
9.3652 1.9430 -0.9973 0.9623
9.3358 2.0796 -0.9972 0.9623
9.2709 2.3515 -0.9972 0.9623
9.1588 2.7554 -0.9972 0.9623
9.1175 2.8890 -0.9972 0.9623
9.0742 3.0218 -0.9972 0.9623
8.9818 3.2856 -0.9972 0.9623
8.9328 3.4165 -0.9972 0.9623
8.8818 3.5466 -0.9972 0.9623
8.8289 3.6759 -0.9971 0.9623
7.7891 3.6513 -0.8969 0.9660
8.5366 4.3104 -0.9971 0.9623
8.2697 4.8014 -0.9970 0.9623
8.0510 5.1589 -0.9970 0.9623
7.9747 5.2760 -0.9970 0.9623
7.7354 5.6201 -0.9969 0.9623
7.6524 5.7324 -0.9969 0.9623
7.4813 5.9534 -0.9969 0.9623
7.3934 6.0620 -0.9969 0.9623
7.3039 6.1692 -0.9968 0.9623
7.2129 6.2752 -0.9968 0.9623
7.1203 6.3798 -0.9968 0.9623
6.8334 6.6852 -0.9967 0.9623
6.7349 6.7843 -0.9967 0.9623
6.6349 6.8818 -0.9967 0.9623
6.5335 6.9779 -0.9967 0.9623
6.4307 7.0725 -0.9967 0.9623
6.3266 7.1655 -0.9966 0.9623
6.0061 7.4354 -0.9966 0.9623
5.5715 7.5516 -0.9785 0.9630
5.3482 7.7109 -0.9784 0.9630
5.0048 7.9373 -0.9784 0.9630
4.6518 8.1484 -0.9783 0.9630
4.5322 8.2152 -0.9783 0.9630
4.4115 8.2804 -0.9782 0.9630
4.0441 8.4651 -0.9782 0.9630
3.7948 8.5792 -0.9781 0.9630
3.6690 8.6335 -0.9781 0.9630
3.5423 8.6860 -0.9781 0.9630
3.4150 8.7366 -0.9780 0.9630
3.2868 8.7853 -0.9780 0.9630
3.1581 8.8321 -0.9780 0.9630
3.0285 8.8771 -0.9780 0.9630
2.7677 8.9613 -0.9779 0.9630
2.6364 9.0005 -0.9779 0.9630
2.2393 9.1067 -0.9778 0.9630
1.9721 9.1677 -0.9777 0.9630
1.8379 9.1953 -0.9777 0.9630
1.7033 9.2209 -0.9777 0.9630
1.2975 9.2860 -0.9776 0.9630
1.1616 9.3037 -0.9776 0.9630
0.8892 9.3331 -0.9775 0.9630
0.7527 9.3448 -0.9775 0.9630
0.6160 9.3545 -0.9775 0.9630
0.4793 9.3623 -0.9774 0.9630
0.3424 9.3680 -0.9774 0.9630
0.2055 9.3718 -0.9774 0.9630
-0.0685 9.3732 -0.9773 0.9630
-0.3423 9.3667 -0.9773 0.9630
-0.7524 9.3419 -0.9772 0.9630
-0.8888 9.3296 -0.9772 0.9630
-1.0250 9.3155 -0.9771 0.9630
-1.1609 9.2992 -0.9771 0.9630
-1.4321 9.2607 -0.9771 0.9630
-1.7020 9.2144 -0.9770 0.9630
-1.8364 9.1883 -0.9770 0.9630
-2.1039 9.1302 -0.9769 0.9630
-2.2371 9.0983 -0.9769 0.9630
-2.3697 9.0644 -0.9769 0.9630
-2.5018 9.0285 -0.9768 0.9630
-2.7645 8.9511 -0.9768 0.9630
-2.0389 6.2751 -0.6879 0.9738
-2.1861 6.1139 -0.6770 0.9742
-2.3684 5.8078 -0.6540 0.9751
-2.4198 5.4709 -0.6237 0.9762
-2.4667 5.1636 -0.5967 0.9772
-2.5309 4.7506 -0.5612 0.9786
-2.5890 4.3850 -0.5309 0.9797
-2.5186 3.7470 -0.4707 0.9820
-2.6273 3.6723 -0.4708 0.9820
-2.6960 3.6542 -0.4735 0.9819
-2.7536 3.5127 -0.4654 0.9822
-2.7953 3.4605 -0.4638 0.9823
-2.9240 3.4109 -0.4684 0.9821
-0.5416 0.5455 -0.0802 0.9969
-0.5424 0.5306 -0.0791 0.9970
-0.5432 0.5161 -0.0781 0.9970
-0.5439 0.5018 -0.0772 0.9970
-0.5444 0.4877 -0.0762 0.9971
-0.5439 0.4594 -0.0742 0.9971
-0.5432 0.4323 -0.0724 0.9972
-0.5429 0.4191 -0.0715 0.9972
-0.5424 0.4063 -0.0707 0.9973
-0.5414 0.3814 -0.0690 0.9973
-0.5403 0.3575 -0.0676 0.9974
-0.5398 0.3459 -0.0668 0.9974
-0.5392 0.3345 -0.0662 0.9975
-0.5386 0.3233 -0.0655 0.9975
-0.5379 0.3123 -0.0648 0.9975
-0.5372 0.3015 -0.0642 0.9975
-0.5368 0.2910 -0.0637 0.9975
-0.5365 0.2808 -0.0631 0.9976
-0.5362 0.2707 -0.0626 0.9976
-0.5358 0.2608 -0.0621 0.9976
-0.5345 0.2318 -0.0607 0.9977
-0.5340 0.2223 -0.0603 0.9977
-0.5334 0.2130 -0.0599 0.9977
-0.5329 0.2038 -0.0595 0.9977
-0.5314 0.1770 -0.0584 0.9977
-0.5267 0.1013 -0.0559 0.9978
-0.5262 0.0932 -0.0557 0.9979
-0.5257 0.0852 -0.0555 0.9979
-0.5240 0.0615 -0.0550 0.9979
-0.5233 0.0537 -0.0548 0.9979
-0.5226 0.0459 -0.0547 0.9979
-0.5212 0.0305 -0.0544 0.9979
-0.5204 0.0228 -0.0543 0.9979
-0.5188 0.0076 -0.0541 0.9979
-0.5027 -0.0147 -0.0581 0.9980
-0.5042 -0.0295 -0.0583 0.9980
-0.5049 -0.0370 -0.0585 0.9980
-0.5055 -0.0445 -0.0586 0.9980
-0.5061 -0.0520 -0.0588 0.9980
-0.5073 -0.0671 -0.0591 0.9979
-0.5083 -0.0824 -0.0595 0.9979
-0.5095 -0.1057 -0.0601 0.9979
-0.5102 -0.1215 -0.0606 0.9979
-0.5107 -0.1296 -0.0608 0.9979
-0.5111 -0.1377 -0.0611 0.9979
-0.5115 -0.1458 -0.0614 0.9979
-0.5119 -0.1540 -0.0617 0.9978
-0.5122 -0.1623 -0.0620 0.9978
-0.5125 -0.1707 -0.0624 0.9978
-0.5128 -0.1791 -0.0627 0.9978
-0.5130 -0.1877 -0.0631 0.9978
-0.5133 -0.1964 -0.0635 0.9978
-0.5145 -0.2231 -0.0648 0.9977
-0.5148 -0.2323 -0.0652 0.9977
-0.5151 -0.2415 -0.0657 0.9977
-0.5154 -0.2509 -0.0662 0.9977
-0.5157 -0.2699 -0.0672 0.9977
-0.5160 -0.2996 -0.0689 0.9976
-0.5159 -0.3097 -0.0695 0.9976
-0.5161 -0.3202 -0.0701 0.9976
-0.5168 -0.3420 -0.0716 0.9975
-0.5174 -0.3760 -0.0739 0.9974
-0.5176 -0.3877 -0.0747 0.9974
-0.5178 -0.4121 -0.0764 0.9973
-0.5179 -0.4246 -0.0773 0.9973
-0.5179 -0.4374 -0.0783 0.9973
-0.5175 -0.4775 -0.0813 0.9972
-0.5172 -0.4914 -0.0824 0.9971
-0.5169 -0.5057 -0.0835 0.9971
-0.5160 -0.5199 -0.0846 0.9971
-0.5206 -0.5726 -0.0894 0.9969
-0.6077 -0.6883 -0.1060 0.9963
-5.2124 -6.8532 -0.9943 0.9659
-5.1118 -6.9288 -0.9943 0.9659
-5.0101 -7.0028 -0.9943 0.9659
-4.9074 -7.0755 -0.9944 0.9659
-4.6987 -7.2162 -0.9944 0.9659
-4.4860 -7.3507 -0.9944 0.9659
-4.3783 -7.4156 -0.9945 0.9659
-4.2696 -7.4789 -0.9945 0.9659
-4.0493 -7.6009 -0.9945 0.9659
-3.8257 -7.7162 -0.9946 0.9659
-3.5988 -7.8251 -0.9946 0.9659
-3.2526 -7.9759 -0.9947 0.9659
-3.1358 -8.0227 -0.9947 0.9659
-2.9002 -8.1113 -0.9948 0.9659
-2.5421 -8.2312 -0.9948 0.9659
-2.1792 -8.3353 -0.9949 0.9659
-1.9347 -8.3959 -0.9950 0.9659
-1.4412 -8.4954 -0.9951 0.9659
-1.2864 -8.3182 -0.9720 0.9667
-1.1924 -8.5343 -0.9951 0.9659
-0.8173 -8.5790 -0.9952 0.9659
-0.1479 -2.8886 -0.3340 0.9884
0.0218 -2.9843 -0.3446 0.9881
0.0659 -3.0071 -0.3473 0.9880
0.2027 -3.0777 -0.3562 0.9877
0.2097 -2.6041 -0.3017 0.9895
0.3500 -2.5051 -0.2921 0.9899
0.5281 -2.8589 -0.3357 0.9884
0.5617 -2.8107 -0.3310 0.9885
0.5945 -2.7638 -0.3265 0.9887
0.6264 -2.7182 -0.3221 0.9888
0.6574 -2.6737 -0.3180 0.9890
0.9439 -3.0563 -0.3694 0.9872
0.9914 -3.0513 -0.3705 0.9872
2.9036 -8.1209 -0.9959 0.9659
3.0220 -8.0778 -0.9960 0.9659
3.1398 -8.0330 -0.9960 0.9659
3.3733 -7.9382 -0.9960 0.9659
3.4890 -7.8882 -0.9961 0.9659
3.6040 -7.8366 -0.9961 0.9659
3.9442 -7.6717 -0.9961 0.9659
4.7077 -7.2299 -0.9963 0.9659
4.8130 -7.1605 -0.9963 0.9659
4.9171 -7.0896 -0.9963 0.9659
5.1224 -6.9431 -0.9964 0.9659
5.2234 -6.8677 -0.9964 0.9659
5.3233 -6.7908 -0.9964 0.9659
5.4221 -6.7124 -0.9964 0.9659
5.5197 -6.6327 -0.9965 0.9659
5.9897 -6.2127 -0.9966 0.9658
6.1689 -6.0352 -0.9966 0.9658
6.3429 -5.8526 -0.9966 0.9658
6.6744 -5.4724 -0.9967 0.9658
6.7537 -5.3744 -0.9967 0.9658
6.9081 -5.1749 -0.9967 0.9658
6.9830 -5.0735 -0.9968 0.9658
4.8182 -3.3942 -0.6806 0.9765
4.8905 -3.3393 -0.6838 0.9764
7.6970 -3.6082 -0.9817 0.9664
7.7491 -3.4955 -0.9817 0.9663
7.7994 -3.3819 -0.9817 0.9663
7.8480 -3.2676 -0.9817 0.9663
7.8950 -3.1526 -0.9817 0.9663
7.9595 -2.9117 -0.9787 0.9664
8.0258 -2.8037 -0.9817 0.9663
8.0660 -2.6861 -0.9817 0.9663
8.1411 -2.4493 -0.9818 0.9663
8.3370 -2.2448 -0.9970 0.9658
8.3690 -2.1227 -0.9970 0.9658
8.4275 -1.8773 -0.9971 0.9658
8.4541 -1.7540 -0.9971 0.9658
8.4789 -1.6303 -0.9971 0.9658
8.5423 -1.2572 -0.9971 0.9658
8.5754 -1.0071 -0.9971 0.9658
8.5892 -0.8816 -0.9971 0.9658
8.6114 -0.6303 -0.9971 0.9658
8.6261 -0.3784 -0.9971 0.9658
8.6307 -0.2523 -0.9971 0.9658
8.6335 -0.1262 -0.9971 0.9658
8.6344 -0.0000 -0.9971 0.9658
8.6307 0.2523 -0.9971 0.9658
