ply
format ascii 1.0
element vertex 1595
property float32 x
property float32 y
property float32 z
property float32 I
end_header
3.9475 -2.6116 -0.9773 0.9809
4.1273 -2.3163 -0.9773 0.9809
4.1931 -2.1947 -0.9772 0.9809
4.2247 -2.1332 -0.9772 0.9809
4.2851 -2.0088 -0.9772 0.9809
4.4094 -1.9120 -0.9924 0.9806
4.4369 -1.8473 -0.9924 0.9806
4.4633 -1.7823 -0.9924 0.9806
4.4888 -1.7168 -0.9924 0.9806
4.5370 -1.5849 -0.9923 0.9806
4.6217 -1.3171 -0.9923 0.9806
4.6404 -1.2495 -0.9923 0.9806
4.6581 -1.1815 -0.9923 0.9806
4.6906 -1.0449 -0.9923 0.9806
4.7054 -0.9762 -0.9923 0.9806
4.7191 -0.9073 -0.9923 0.9806
4.7318 -0.8383 -0.9923 0.9806
4.7542 -0.6997 -0.9922 0.9806
4.7869 -0.4207 -0.9922 0.9806
4.7925 -0.3507 -0.9922 0.9806
4.8008 -0.2106 -0.9922 0.9806
4.8033 -0.1404 -0.9922 0.9806
4.8049 0.0702 -0.9922 0.9806
4.7972 0.2807 -0.9922 0.9806
4.7803 0.4907 -0.9922 0.9806
4.7726 0.5604 -0.9922 0.9806
4.7318 0.8383 -0.9923 0.9806
4.7190 0.9074 -0.9923 0.9806
4.7053 0.9762 -0.9923 0.9806
4.6906 1.0449 -0.9923 0.9806
4.6749 1.1133 -0.9923 0.9806
4.6581 1.1815 -0.9923 0.9806
4.6217 1.3171 -0.9923 0.9806
4.5813 1.4516 -0.9923 0.9806
4.5596 1.5184 -0.9923 0.9806
4.5371 1.5849 -0.9923 0.9806
4.5134 1.6511 -0.9923 0.9806
4.4888 1.7168 -0.9924 0.9806
4.4369 1.8473 -0.9924 0.9806
4.4095 1.9120 -0.9924 0.9806
4.3518 2.0401 -0.9924 0.9806
4.3216 2.1034 -0.9924 0.9806
4.2904 2.1664 -0.9924 0.9806
4.2584 2.2289 -0.9924 0.9806
4.2254 2.2909 -0.9925 0.9806
4.1916 2.3524 -0.9925 0.9806
4.1212 2.4739 -0.9925 0.9806
3.9698 2.7106 -0.9926 0.9806
3.8050 2.9381 -0.9926 0.9806
3.7176 3.0482 -0.9927 0.9806
3.5807 3.2084 -0.9927 0.9806
3.4369 3.3623 -0.9928 0.9806
3.3874 3.4123 -0.9928 0.9806
3.3373 3.4615 -0.9928 0.9806
3.2864 3.5100 -0.9928 0.9806
3.2348 3.5576 -0.9929 0.9806
3.0760 3.6962 -0.9929 0.9806
3.0217 3.7408 -0.9929 0.9806
2.9669 3.7847 -0.9930 0.9805
2.9113 3.8278 -0.9930 0.9805
2.8551 3.8700 -0.9930 0.9805
2.7409 3.9519 -0.9931 0.9805
2.6244 4.0305 -0.9931 0.9805
2.4454 4.1420 -0.9932 0.9805
2.3847 4.1774 -0.9932 0.9805
2.3235 4.2118 -0.9932 0.9805
2.1369 4.3100 -0.9933 0.9805
2.0737 4.3409 -0.9933 0.9805
1.8168 4.4550 -0.9934 0.9805
1.7515 4.4812 -0.9935 0.9805
1.2231 3.5853 -0.7822 0.9846
1.1674 3.5928 -0.7800 0.9847
1.2172 4.6560 -0.9937 0.9805
0.7356 4.7568 -0.9939 0.9805
0.5963 4.7765 -0.9939 0.9805
0.4565 4.7922 -0.9940 0.9805
0.2461 4.8080 -0.9941 0.9805
0.1055 4.8135 -0.9941 0.9805
0.0352 4.8146 -0.9942 0.9805
-0.0837 3.8164 -0.7882 0.9845
-0.1387 3.7961 -0.7843 0.9846
-0.2513 3.8161 -0.7897 0.9845
-0.3082 3.8264 -0.7927 0.9844
-0.5966 4.7789 -0.9944 0.9805
-0.6664 4.7698 -0.9944 0.9805
-0.7361 4.7597 -0.9945 0.9805
-1.0817 4.6939 -0.9946 0.9805
-1.2864 4.6424 -0.9947 0.9805
-1.4216 4.6031 -0.9948 0.9805
-1.4888 4.5820 -0.9948 0.9805
-1.5556 4.5598 -0.9948 0.9805
-1.6221 4.5368 -0.9948 0.9805
-1.7541 4.4877 -0.9949 0.9805
-1.9492 4.4068 -0.9950 0.9805
-2.0134 4.3780 -0.9950 0.9805
-1.9939 3.8782 -0.9004 0.9823
-2.0257 3.6720 -0.8659 0.9830
-0.4157 0.7281 -0.1731 0.9966
-0.3589 0.5339 -0.1328 0.9974
-0.3609 0.5203 -0.1308 0.9974
-0.3645 0.4941 -0.1268 0.9975
-0.3662 0.4815 -0.1249 0.9975
-0.3745 0.4118 -0.1149 0.9977
-0.3778 0.3919 -0.1124 0.9978
-0.3842 0.3545 -0.1079 0.9979
-0.3862 0.3361 -0.1057 0.9979
-0.3896 0.3009 -0.1016 0.9980
-0.3903 0.2924 -0.1007 0.9980
-0.3916 0.2759 -0.0989 0.9980
-0.3922 0.2678 -0.0981 0.9981
-0.3927 0.2598 -0.0972 0.9981
-0.3932 0.2520 -0.0964 0.9981
-0.3937 0.2442 -0.0957 0.9981
-0.3948 0.2215 -0.0935 0.9982
-0.3951 0.2142 -0.0928 0.9982
-0.3953 0.2070 -0.0921 0.9982
-0.3956 0.1997 -0.0915 0.9982
-0.3958 0.1926 -0.0909 0.9982
-0.3962 0.1857 -0.0904 0.9982
-0.3967 0.1789 -0.0899 0.9982
-0.3971 0.1722 -0.0894 0.9982
-0.3976 0.1655 -0.0889 0.9982
-0.3979 0.1589 -0.0885 0.9983
-0.3991 0.1329 -0.0869 0.9983
-0.3993 0.1265 -0.0865 0.9983
-0.4000 0.1077 -0.0855 0.9983
-0.4002 0.1015 -0.0853 0.9983
-0.4004 0.0954 -0.0850 0.9983
-0.4005 0.0892 -0.0847 0.9983
-0.4002 0.0529 -0.0834 0.9984
-0.4000 0.0470 -0.0832 0.9984
-0.3998 0.0411 -0.0830 0.9984
-0.3995 0.0351 -0.0828 0.9984
-0.3992 0.0293 -0.0827 0.9984
-0.3988 0.0233 -0.0825 0.9984
-0.3907 -0.0114 -0.0852 0.9984
-0.3915 -0.0286 -0.0856 0.9984
-0.3918 -0.0344 -0.0858 0.9984
-0.3926 -0.0695 -0.0869 0.9984
-0.3926 -0.0755 -0.0872 0.9984
-0.3926 -0.0814 -0.0874 0.9984
-0.3926 -0.0874 -0.0877 0.9984
-0.3925 -0.0935 -0.0880 0.9983
-0.3924 -0.0995 -0.0883 0.9983
-0.3920 -0.1179 -0.0893 0.9983
-0.3918 -0.1241 -0.0896 0.9983
-0.3899 -0.1623 -0.0921 0.9983
-0.3895 -0.1689 -0.0926 0.9983
-0.3890 -0.1754 -0.0931 0.9983
-0.3874 -0.1956 -0.0946 0.9982
-0.3868 -0.2097 -0.0959 0.9982
-0.3864 -0.2169 -0.0966 0.9982
-0.3852 -0.2389 -0.0988 0.9981
-0.3835 -0.2618 -0.1013 0.9981
-0.3822 -0.2777 -0.1030 0.9981
-0.3807 -0.2939 -0.1049 0.9980
-0.3780 -0.3193 -0.1079 0.9980
-0.3760 -0.3369 -0.1101 0.9979
-0.3749 -0.3459 -0.1112 0.9979
-0.3738 -0.3551 -0.1124 0.9979
-0.3723 -0.3641 -0.1136 0.9979
-0.3704 -0.3730 -0.1146 0.9979
-0.3684 -0.3821 -0.1157 0.9978
-0.3665 -0.3914 -0.1169 0.9978
-0.3645 -0.4009 -0.1182 0.9978
-0.3624 -0.4105 -0.1194 0.9978
-0.3594 -0.4318 -0.1225 0.9977
-0.3562 -0.4545 -0.1259 0.9976
-0.3546 -0.4662 -0.1277 0.9976
-0.3528 -0.4782 -0.1296 0.9976
-0.3509 -0.4904 -0.1315 0.9975
-0.3445 -0.5291 -0.1377 0.9974
-0.3422 -0.5427 -0.1399 0.9974
-0.3582 -0.6275 -0.1576 0.9970
-0.3769 -0.6832 -0.1702 0.9968
-2.0864 -4.0581 -0.9950 0.9815
-2.0268 -4.0880 -0.9950 0.9815
-1.9668 -4.1171 -0.9950 0.9815
-1.9064 -4.1453 -0.9950 0.9815
-1.8456 -4.1726 -0.9949 0.9815
-1.6609 -4.2491 -0.9949 0.9815
-1.5359 -4.2957 -0.9948 0.9815
-1.4096 -4.3385 -0.9948 0.9815
-1.3461 -4.3585 -0.9947 0.9815
-1.2181 -4.3957 -0.9947 0.9815
-0.9592 -4.4589 -0.9946 0.9815
-0.8938 -4.4723 -0.9945 0.9815
-0.8284 -4.4848 -0.9945 0.9815
-0.6310 -4.5164 -0.9944 0.9815
-0.2996 -4.5498 -0.9943 0.9815
-0.2331 -4.5536 -0.9943 0.9815
-0.1665 -4.5564 -0.9942 0.9815
-0.0999 -4.5582 -0.9942 0.9815
-0.0333 -4.5591 -0.9942 0.9815
0.0333 -4.5589 -0.9942 0.9815
0.0999 -4.5579 -0.9941 0.9815
0.2996 -4.5487 -0.9941 0.9815
0.3660 -4.5437 -0.9940 0.9815
0.4985 -4.5308 -0.9940 0.9815
0.5647 -4.5229 -0.9940 0.9815
0.6965 -4.5043 -0.9939 0.9815
0.7622 -4.4935 -0.9939 0.9815
0.8277 -3.1659 -0.7136 0.9867
0.8683 -3.1334 -0.7090 0.9868
0.9680 -2.9793 -0.6831 0.9873
0.9388 -2.7518 -0.6340 0.9882
1.0597 -2.8327 -0.6595 0.9877
1.1154 -2.8537 -0.6681 0.9875
1.1507 -2.8217 -0.6645 0.9876
1.2029 -2.5179 -0.6085 0.9886
1.3466 -2.6193 -0.6422 0.9880
2.2002 -3.9884 -0.9933 0.9815
2.4471 -3.7582 -0.9779 0.9818
2.6622 -3.6085 -0.9779 0.9818
2.7664 -3.5290 -0.9778 0.9818
2.8176 -3.4882 -0.9778 0.9818
2.9676 -3.3611 -0.9777 0.9818
3.0644 -3.2729 -0.9777 0.9818
3.1586 -3.1818 -0.9777 0.9818
3.3821 -2.9424 -0.9776 0.9818
3.4665 -2.8423 -0.9775 0.9818
3.5077 -2.7912 -0.9775 0.9818
3.5480 -2.7396 -0.9775 0.9818
3.5876 -2.6875 -0.9775 0.9818
3.6644 -2.5814 -0.9775 0.9818
3.7017 -2.5275 -0.9774 0.9818
3.8088 -2.3628 -0.9774 0.9818
3.8428 -2.3069 -0.9774 0.9818
3.8761 -2.2504 -0.9774 0.9818
3.9085 -2.1935 -0.9774 0.9818
3.9401 -2.1362 -0.9773 0.9818
3.9708 -2.0784 -0.9773 0.9818
4.0312 -1.9621 -0.9777 0.9818
4.1211 -1.9319 -0.9925 0.9815
4.1488 -1.8714 -0.9925 0.9815
4.2509 -1.6258 -0.9925 0.9815
4.3580 -1.3111 -0.9924 0.9815
4.3767 -1.2473 -0.9924 0.9815
4.4112 -1.1188 -0.9924 0.9815
4.4420 -0.9895 -0.9924 0.9815
4.4559 -0.9245 -0.9924 0.9815
4.5022 -0.6626 -0.9923 0.9815
4.5114 -0.5967 -0.9923 0.9815
4.5196 -0.5307 -0.9923 0.9815
4.5385 -0.3321 -0.9923 0.9815
4.5429 -0.2658 -0.9923 0.9815
4.5463 -0.1994 -0.9923 0.9815
4.5487 -0.1330 -0.9923 0.9815
4.5463 0.1994 -0.9923 0.9815
4.5332 0.3985 -0.9923 0.9815
4.5114 0.5968 -0.9923 0.9815
4.5022 0.6626 -0.9923 0.9815
4.4921 0.7283 -0.9924 0.9815
4.4810 0.7939 -0.9924 0.9815
4.4559 0.9245 -0.9924 0.9815
4.4420 0.9895 -0.9924 0.9815
4.4270 1.0543 -0.9924 0.9815
4.3580 1.3111 -0.9924 0.9815
4.3179 1.4380 -0.9924 0.9815
4.2965 1.5009 -0.9924 0.9815
4.2509 1.6258 -0.9925 0.9815
4.2267 1.6878 -0.9925 0.9815
4.1488 1.8714 -0.9925 0.9815
4.1211 1.9319 -0.9925 0.9815
4.0630 2.0516 -0.9925 0.9815
4.0326 2.1107 -0.9925 0.9815
3.9693 2.2277 -0.9926 0.9815
3.9364 2.2855 -0.9926 0.9815
3.9027 2.3428 -0.9926 0.9815
3.8680 2.3996 -0.9926 0.9815
3.6032 2.7823 -0.9927 0.9815
3.5622 2.8347 -0.9927 0.9815
3.5205 2.8865 -0.9927 0.9815
3.4780 2.9377 -0.9928 0.9815
3.3908 3.0382 -0.9928 0.9815
3.3007 3.1361 -0.9928 0.9815
3.2078 3.2313 -0.9929 0.9815
3.1603 3.2779 -0.9929 0.9815
3.0138 3.4134 -0.9930 0.9815
2.9636 3.4571 -0.9930 0.9815
2.9129 3.5002 -0.9930 0.9815
2.8614 3.5425 -0.9930 0.9815
2.7037 3.6647 -0.9931 0.9815
2.4852 3.8167 -0.9932 0.9815
2.4292 3.8527 -0.9932 0.9815
2.3157 3.9222 -0.9932 0.9815
2.2582 3.9557 -0.9933 0.9815
2.2002 3.9884 -0.9933 0.9815
2.1417 4.0202 -0.9933 0.9815
2.0234 4.0812 -0.9934 0.9815
1.8428 4.1663 -0.9934 0.9815
1.7818 4.1929 -0.9935 0.9815
1.6586 4.2434 -0.9935 0.9815
1.2879 3.6022 -0.8342 0.9845
1.2314 3.6096 -0.8317 0.9845
1.1752 3.6170 -0.8293 0.9846
1.1537 3.9387 -0.8950 0.9833
1.2169 4.3914 -0.9937 0.9815
1.1526 4.4088 -0.9937 0.9815
1.0881 4.4253 -0.9937 0.9815
0.6966 4.5043 -0.9939 0.9815
0.6307 4.5141 -0.9939 0.9815
0.4985 4.5308 -0.9940 0.9815
0.4323 4.5377 -0.9940 0.9815
0.2995 4.5487 -0.9941 0.9815
0.0999 4.5579 -0.9941 0.9815
0.0333 4.5589 -0.9942 0.9815
-0.1397 3.8218 -0.8340 0.9845
-0.2530 3.8422 -0.8397 0.9844
-0.3103 3.8527 -0.8428 0.9843
-0.4988 4.5327 -0.9944 0.9815
-0.6970 4.5068 -0.9945 0.9815
-0.8938 4.4724 -0.9945 0.9815
-1.0242 4.4445 -0.9946 0.9815
-1.0891 4.4292 -0.9946 0.9815
-1.1537 4.4129 -0.9946 0.9815
-1.2181 4.3957 -0.9947 0.9815
-1.2822 4.3776 -0.9947 0.9815
-1.4096 4.3385 -0.9947 0.9815
-1.4730 4.3175 -0.9948 0.9815
-1.5359 4.2956 -0.9948 0.9815
-1.6608 4.2492 -0.9949 0.9815
-1.9668 4.1171 -0.9950 0.9815
-2.0268 4.0880 -0.9950 0.9815
-1.9939 3.8781 -0.9509 0.9823
-0.4094 0.7685 -0.1899 0.9964
-0.3583 0.6276 -0.1576 0.9970
-0.3420 0.5793 -0.1467 0.9972
-0.3422 0.5427 -0.1399 0.9974
-0.3446 0.5291 -0.1377 0.9974
-0.3509 0.4904 -0.1315 0.9975
-0.3528 0.4782 -0.1296 0.9976
-0.3562 0.4545 -0.1259 0.9976
-0.3579 0.4430 -0.1242 0.9977
-0.3608 0.4209 -0.1209 0.9977
-0.3738 0.3551 -0.1124 0.9979
-0.3760 0.3369 -0.1101 0.9979
-0.3790 0.3107 -0.1069 0.9980
-0.3829 0.2697 -0.1021 0.9981
-0.3835 0.2619 -0.1013 0.9981
-0.3841 0.2541 -0.1004 0.9981
-0.3846 0.2465 -0.0996 0.9981
-0.3852 0.2390 -0.0988 0.9981
-0.3868 0.2097 -0.0959 0.9982
-0.3871 0.2026 -0.0953 0.9982
-0.3874 0.1956 -0.0946 0.9982
-0.3910 0.1430 -0.0908 0.9983
-0.3913 0.1367 -0.0904 0.9983
-0.3920 0.1180 -0.0893 0.9983
-0.3922 0.1118 -0.0889 0.9983
-0.3925 0.0996 -0.0883 0.9983
-0.3925 0.0935 -0.0880 0.9983
-0.3926 0.0874 -0.0877 0.9984
-0.3926 0.0814 -0.0874 0.9984
-0.3926 0.0696 -0.0869 0.9984
-0.3925 0.0636 -0.0867 0.9984
-0.3924 0.0577 -0.0865 0.9984
-0.3918 0.0344 -0.0858 0.9984
-0.3916 0.0286 -0.0856 0.9984
-0.3907 0.0114 -0.0852 0.9984
-0.3832 0.0000 -0.0880 0.9984
-0.3835 -0.0056 -0.0881 0.9984
-0.3838 -0.0112 -0.0882 0.9984
-0.3841 -0.0169 -0.0883 0.9984
-0.3844 -0.0225 -0.0884 0.9984
-0.3850 -0.0395 -0.0889 0.9984
-0.3856 -0.0741 -0.0902 0.9984
-0.3855 -0.0859 -0.0907 0.9984
-0.3846 -0.1218 -0.0927 0.9983
-0.3843 -0.1280 -0.0930 0.9983
-0.3837 -0.1404 -0.0938 0.9983
-0.3833 -0.1466 -0.0943 0.9983
-0.3829 -0.1529 -0.0947 0.9983
-0.3803 -0.1851 -0.0972 0.9983
-0.3795 -0.1916 -0.0977 0.9983
-0.3784 -0.2124 -0.0997 0.9982
-0.3775 -0.2266 -0.1011 0.9982
-0.3770 -0.2338 -0.1019 0.9982
-0.3764 -0.2412 -0.1027 0.9982
-0.3752 -0.2562 -0.1044 0.9981
-0.3738 -0.2715 -0.1061 0.9981
-0.3703 -0.3036 -0.1100 0.9980
-0.3683 -0.3204 -0.1121 0.9980
-0.3672 -0.3289 -0.1132 0.9980
-0.3635 -0.3555 -0.1168 0.9979
-0.3555 -0.3909 -0.1214 0.9978
-0.3512 -0.4096 -0.1239 0.9978
-0.3488 -0.4192 -0.1253 0.9978
-0.3436 -0.4517 -0.1304 0.9977
-0.3376 -0.4867 -0.1361 0.9976
-0.3354 -0.4989 -0.1381 0.9975
-0.3330 -0.5114 -0.1402 0.9975
-0.3306 -0.5243 -0.1424 0.9975
-0.3280 -0.5375 -0.1446 0.9974
-1.9241 -3.8808 -0.9950 0.9824
-1.8671 -3.9083 -0.9949 0.9824
-1.8098 -3.9351 -0.9949 0.9824
-1.7520 -3.9611 -0.9949 0.9824
-1.6939 -3.9862 -0.9949 0.9824
-1.5175 -4.0563 -0.9948 0.9824
-1.4580 -4.0779 -0.9948 0.9824
-1.3983 -4.0986 -0.9947 0.9824
-1.2778 -4.1375 -0.9947 0.9824
-1.2172 -4.1557 -0.9947 0.9824
-1.0339 -4.2047 -0.9946 0.9824
-0.9105 -4.2329 -0.9946 0.9824
-0.8486 -4.2457 -0.9945 0.9824
-0.6616 -4.2785 -0.9945 0.9824
-0.5363 -4.2957 -0.9944 0.9824
-0.4105 -4.3093 -0.9943 0.9824
-0.2213 -4.3229 -0.9943 0.9824
-0.0316 -4.3280 -0.9942 0.9824
0.0316 -4.3280 -0.9942 0.9824
0.1581 -4.3250 -0.9941 0.9824
0.2844 -4.3183 -0.9941 0.9824
0.6612 -4.2762 -0.9939 0.9824
0.7236 -4.2659 -0.9939 0.9824
0.9715 -4.2159 -0.9938 0.9824
1.0330 -4.2012 -0.9938 0.9824
1.0943 -4.1855 -0.9937 0.9824
0.9109 -3.1100 -0.7444 0.9868
0.9507 -3.0782 -0.7400 0.9869
0.9900 -3.0468 -0.7359 0.9869
0.9340 -2.7377 -0.6644 0.9882
0.9929 -2.7768 -0.6774 0.9880
1.0540 -2.8174 -0.6910 0.9877
1.1154 -2.8537 -0.7038 0.9875
1.1856 -2.7900 -0.6963 0.9876
1.8071 -3.9293 -0.9934 0.9824
1.3154 -2.6532 -0.6802 0.9879
1.3430 -2.6122 -0.6747 0.9880
2.0568 -3.7285 -0.9781 0.9827
2.2181 -3.6345 -0.9780 0.9827
2.3232 -3.5680 -0.9780 0.9827
2.4264 -3.4984 -0.9780 0.9827
2.5772 -3.3885 -0.9779 0.9827
2.6264 -3.3504 -0.9779 0.9827
2.6750 -3.3116 -0.9779 0.9827
2.7231 -3.2721 -0.9778 0.9827
2.7706 -3.2319 -0.9778 0.9827
2.8174 -3.1910 -0.9778 0.9827
2.8637 -3.1495 -0.9778 0.9827
3.0425 -2.9765 -0.9777 0.9827
3.0856 -2.9318 -0.9777 0.9827
3.1281 -2.8863 -0.9777 0.9827
3.2514 -2.7463 -0.9776 0.9827
3.2912 -2.6984 -0.9776 0.9827
3.3302 -2.6500 -0.9776 0.9827
3.3685 -2.6011 -0.9776 0.9827
3.4061 -2.5515 -0.9776 0.9827
3.4429 -2.5014 -0.9775 0.9827
3.4791 -2.4508 -0.9775 0.9827
3.5145 -2.3997 -0.9775 0.9827
3.5491 -2.3480 -0.9775 0.9827
3.5830 -2.2959 -0.9775 0.9827
3.6800 -2.1366 -0.9774 0.9827
3.7108 -2.0825 -0.9774 0.9827
3.7407 -2.0281 -0.9774 0.9827
3.7700 -1.9732 -0.9774 0.9827
3.9126 -1.8342 -0.9926 0.9824
3.9645 -1.7190 -0.9926 0.9824
3.9891 -1.6609 -0.9926 0.9824
4.0129 -1.6024 -0.9925 0.9824
4.0579 -1.4844 -0.9925 0.9824
4.0996 -1.3652 -0.9925 0.9824
4.1376 -1.2448 -0.9925 0.9824
4.1553 -1.1843 -0.9925 0.9824
4.1721 -1.1234 -0.9925 0.9824
4.1881 -1.0623 -0.9925 0.9824
4.2306 -0.8777 -0.9925 0.9824
4.2429 -0.8158 -0.9925 0.9824
4.2544 -0.7537 -0.9925 0.9824
4.2745 -0.6291 -0.9924 0.9824
4.2833 -0.5665 -0.9924 0.9824
4.3040 -0.3783 -0.9924 0.9824
4.3131 -0.2524 -0.9924 0.9824
4.3164 0.1894 -0.9924 0.9824
4.3090 0.3154 -0.9924 0.9824
4.2979 0.4411 -0.9924 0.9824
4.2910 0.5039 -0.9924 0.9824
4.2832 0.5666 -0.9924 0.9824
4.2429 0.8158 -0.9925 0.9824
4.2305 0.8777 -0.9925 0.9824
4.2173 0.9395 -0.9925 0.9824
4.1553 1.1843 -0.9925 0.9824
4.0995 1.3652 -0.9925 0.9824
4.0792 1.4250 -0.9925 0.9824
4.0579 1.4845 -0.9925 0.9824
4.0129 1.6024 -0.9925 0.9824
3.9390 1.7768 -0.9926 0.9824
3.8575 1.9478 -0.9926 0.9824
3.8286 2.0039 -0.9926 0.9824
3.7372 2.1698 -0.9927 0.9824
3.7052 2.2243 -0.9927 0.9824
3.6724 2.2782 -0.9927 0.9824
3.6387 2.3317 -0.9927 0.9824
3.5691 2.4370 -0.9927 0.9824
3.5332 2.4890 -0.9927 0.9824
3.4965 2.5404 -0.9928 0.9824
3.4591 2.5913 -0.9928 0.9824
3.4209 2.6416 -0.9928 0.9824
3.3020 2.7891 -0.9928 0.9824
3.2192 2.8845 -0.9929 0.9824
3.1768 2.9312 -0.9929 0.9824
3.1337 2.9774 -0.9929 0.9824
3.0899 3.0229 -0.9929 0.9824
3.0004 3.1120 -0.9930 0.9824
2.9546 3.1556 -0.9930 0.9824
2.9082 3.1985 -0.9930 0.9824
2.6173 3.4412 -0.9931 0.9824
2.5668 3.4792 -0.9931 0.9824
2.5158 3.5164 -0.9932 0.9824
2.4121 3.5886 -0.9932 0.9824
2.2526 3.6911 -0.9933 0.9824
2.1985 3.7237 -0.9933 0.9824
2.0888 3.7865 -0.9933 0.9824
1.9210 3.8746 -0.9934 0.9824
1.7495 3.9554 -0.9935 0.9824
1.6916 3.9807 -0.9935 0.9824
1.6333 4.0050 -0.9935 0.9824
1.5746 4.0286 -0.9935 0.9824
1.3044 3.6482 -0.8900 0.9842
1.0330 4.2012 -0.9938 0.9824
0.9715 4.2159 -0.9938 0.9824
0.9098 4.2298 -0.9938 0.9824
0.7859 4.2548 -0.9939 0.9824
0.6612 4.2762 -0.9939 0.9824
0.5987 4.2855 -0.9939 0.9824
0.3474 4.3136 -0.9940 0.9824
0.1581 4.3250 -0.9941 0.9824
0.0316 4.3280 -0.9942 0.9824
-0.1414 3.8701 -0.8896 0.9842
-0.1987 3.8823 -0.8929 0.9842
-0.2565 3.8949 -0.8966 0.9841
-0.3147 3.9079 -0.9005 0.9840
-0.4735 4.3030 -0.9944 0.9824
-0.6616 4.2785 -0.9944 0.9824
-0.7241 4.2685 -0.9945 0.9824
-0.7864 4.2575 -0.9945 0.9824
-0.8486 4.2457 -0.9945 0.9824
-0.9105 4.2329 -0.9945 0.9824
-1.0952 4.1893 -0.9946 0.9824
-1.2172 4.1557 -0.9947 0.9824
-1.3983 4.0986 -0.9947 0.9824
-1.4580 4.0779 -0.9948 0.9824
-1.7521 3.9611 -0.9949 0.9824
-1.8671 3.9084 -0.9949 0.9824
-1.9241 3.8807 -0.9950 0.9824
-0.3493 0.6556 -0.1706 0.9970
-0.3335 0.6046 -0.1586 0.9972
-0.3280 0.5375 -0.1446 0.9974
-0.3330 0.5115 -0.1402 0.9975
-0.3436 0.4517 -0.1304 0.9977
-0.3471 0.4296 -0.1269 0.9977
-0.3534 0.4002 -0.1226 0.9978
-0.3555 0.3909 -0.1214 0.9978
-0.3596 0.3730 -0.1190 0.9979
-0.3635 0.3556 -0.1168 0.9979
-0.3648 0.3466 -0.1156 0.9979
-0.3683 0.3204 -0.1121 0.9980
-0.3693 0.3120 -0.1110 0.9980
-0.3713 0.2954 -0.1090 0.9981
-0.3730 0.2794 -0.1070 0.9981
-0.3738 0.2716 -0.1061 0.9981
-0.3745 0.2639 -0.1052 0.9981
-0.3770 0.2339 -0.1019 0.9982
-0.3775 0.2267 -0.1011 0.9982
-0.3780 0.2195 -0.1004 0.9982
-0.3792 0.1985 -0.0983 0.9982
-0.3795 0.1917 -0.0977 0.9983
-0.3803 0.1851 -0.0972 0.9983
-0.3821 0.1657 -0.0957 0.9983
-0.3829 0.1529 -0.0947 0.9983
-0.3833 0.1466 -0.0943 0.9983
-0.3837 0.1404 -0.0938 0.9983
-0.3843 0.1280 -0.0930 0.9983
-0.3848 0.1158 -0.0923 0.9984
-0.3850 0.1097 -0.0920 0.9984
-0.3852 0.1037 -0.0916 0.9984
-0.3853 0.0977 -0.0913 0.9984
-0.3854 0.0918 -0.0910 0.9984
-0.3855 0.0859 -0.0907 0.9984
-0.3855 0.0800 -0.0904 0.9984
-0.3855 0.0625 -0.0897 0.9984
-0.3854 0.0568 -0.0895 0.9984
-0.3852 0.0452 -0.0891 0.9984
-0.3849 0.0338 -0.0887 0.9984
-0.3846 0.0282 -0.0886 0.9984
-0.3841 0.0169 -0.0883 0.9984
-0.3839 0.0112 -0.0882 0.9984
-0.3835 0.0056 -0.0881 0.9984
-0.3772 -0.0111 -0.0911 0.9984
-0.3777 -0.0221 -0.0913 0.9984
-0.3779 -0.0277 -0.0915 0.9984
-0.3781 -0.0332 -0.0916 0.9984
-0.3785 -0.0444 -0.0920 0.9984
-0.3787 -0.0728 -0.0931 0.9984
-0.3787 -0.0786 -0.0934 0.9984
-0.3784 -0.0960 -0.0942 0.9984
-0.3783 -0.1018 -0.0946 0.9984
-0.3778 -0.1136 -0.0952 0.9984
-0.3776 -0.1196 -0.0956 0.9984
-0.3770 -0.1316 -0.0964 0.9984
-0.3758 -0.1501 -0.0977 0.9983
-0.3749 -0.1625 -0.0986 0.9983
-0.3744 -0.1689 -0.0991 0.9983
-0.3738 -0.1752 -0.0997 0.9983
-0.3730 -0.1815 -0.1002 0.9983
-0.3712 -0.2012 -0.1019 0.9983
-0.3703 -0.2150 -0.1033 0.9982
-0.3697 -0.2219 -0.1041 0.9982
-0.3665 -0.2581 -0.1082 0.9982
-0.3656 -0.2657 -0.1091 0.9981
-0.3648 -0.2733 -0.1100 0.9981
-0.3639 -0.2810 -0.1110 0.9981
-0.3630 -0.2888 -0.1120 0.9981
-0.3620 -0.2968 -0.1130 0.9981
-0.3609 -0.3048 -0.1141 0.9981
-0.3599 -0.3130 -0.1151 0.9980
-0.3587 -0.3214 -0.1163 0.9980
-0.3575 -0.3298 -0.1174 0.9980
-0.3548 -0.3471 -0.1198 0.9980
-0.3531 -0.3557 -0.1210 0.9979
-0.3511 -0.3641 -0.1221 0.9979
-0.3468 -0.3814 -0.1244 0.9979
-0.3447 -0.3904 -0.1257 0.9979
-0.3424 -0.3995 -0.1270 0.9978
-0.3401 -0.4087 -0.1284 0.9978
-0.3377 -0.4181 -0.1297 0.9978
-0.3332 -0.4380 -0.1329 0.9977
-0.3312 -0.4489 -0.1347 0.9977
-0.3291 -0.4600 -0.1365 0.9977
-0.3269 -0.4714 -0.1385 0.9976
-0.3246 -0.4830 -0.1405 0.9976
-0.3171 -0.5195 -0.1469 0.9975
-0.3083 -0.5588 -0.1541 0.9974
-0.3560 -0.7453 -0.1994 0.9966
-1.6956 -3.6869 -0.9796 0.9834
-1.5323 -3.7574 -0.9796 0.9834
-1.4772 -3.7793 -0.9795 0.9834
-1.3305 -3.8999 -0.9947 0.9832
-1.2733 -3.9189 -0.9947 0.9832
-1.2159 -3.9370 -0.9947 0.9832
-1.0421 -3.9862 -0.9946 0.9832
-0.9252 -4.0148 -0.9946 0.9832
-0.8664 -4.0278 -0.9945 0.9832
-0.7483 -4.0511 -0.9945 0.9832
-0.6890 -4.0616 -0.9945 0.9832
-0.6296 -4.0711 -0.9944 0.9832
-0.2707 -4.1100 -0.9943 0.9832
-0.2106 -4.1134 -0.9943 0.9832
-0.0903 -4.1176 -0.9942 0.9832
0.3905 -4.0992 -0.9940 0.9832
0.6292 -4.0690 -0.9939 0.9832
0.7478 -4.0486 -0.9939 0.9832
0.8657 -4.0249 -0.9938 0.9832
0.9245 -4.0117 -0.9938 0.9832
0.9829 -3.9977 -0.9938 0.9832
0.9135 -3.1189 -0.7845 0.9867
1.3290 -3.8957 -0.9936 0.9832
0.9876 -2.7622 -0.7081 0.9880
1.0797 -2.8860 -0.7438 0.9874
1.1154 -2.8536 -0.7396 0.9875
1.6393 -3.7062 -0.9783 0.9835
1.9053 -3.5762 -0.9782 0.9835
1.9572 -3.5479 -0.9781 0.9835
2.0089 -3.5189 -0.9781 0.9835
2.0600 -3.4891 -0.9781 0.9835
2.1107 -3.4586 -0.9781 0.9835
2.2601 -3.3625 -0.9780 0.9835
2.3573 -3.2950 -0.9780 0.9835
2.4052 -3.2600 -0.9780 0.9835
2.4525 -3.2245 -0.9779 0.9835
2.5912 -3.1137 -0.9779 0.9835
2.6365 -3.0755 -0.9779 0.9835
2.7251 -2.9971 -0.9778 0.9835
2.7685 -2.9568 -0.9778 0.9835
2.8953 -2.8325 -0.9778 0.9835
2.9363 -2.7899 -0.9777 0.9835
2.9767 -2.7466 -0.9777 0.9835
3.0556 -2.6584 -0.9777 0.9835
3.1319 -2.5679 -0.9777 0.9835
3.2055 -2.4752 -0.9776 0.9835
3.3774 -2.2344 -0.9776 0.9835
3.4412 -2.1347 -0.9775 0.9835
3.4719 -2.0842 -0.9775 0.9835
3.5019 -2.0332 -0.9775 0.9835
3.5313 -1.9818 -0.9775 0.9835
3.5913 -1.9471 -0.9862 0.9833
3.7233 -1.7454 -0.9927 0.9832
3.7484 -1.6908 -0.9927 0.9832
3.7961 -1.5805 -0.9926 0.9832
3.8188 -1.5249 -0.9926 0.9832
3.8616 -1.4127 -0.9926 0.9832
3.9012 -1.2992 -0.9926 0.9832
3.9198 -1.2420 -0.9926 0.9832
3.9703 -1.0691 -0.9926 0.9832
4.0133 -0.8940 -0.9925 0.9832
4.0377 -0.7763 -0.9925 0.9832
4.0486 -0.7173 -0.9925 0.9832
4.0586 -0.6580 -0.9925 0.9832
4.0677 -0.5986 -0.9925 0.9832
4.0760 -0.5391 -0.9925 0.9832
4.0901 -0.4198 -0.9925 0.9832
4.1045 -0.2402 -0.9925 0.9832
4.1005 0.3001 -0.9925 0.9832
4.0835 0.4796 -0.9925 0.9832
4.0678 0.5987 -0.9925 0.9832
4.0586 0.6580 -0.9925 0.9832
4.0259 0.8353 -0.9925 0.9832
3.9855 1.0109 -0.9926 0.9832
3.9703 1.0690 -0.9926 0.9832
3.9374 1.1846 -0.9926 0.9832
3.9197 1.2420 -0.9926 0.9832
3.8819 1.3561 -0.9926 0.9832
3.8188 1.5249 -0.9926 0.9832
3.7961 1.5805 -0.9926 0.9832
3.7484 1.6908 -0.9927 0.9832
3.7233 1.7455 -0.9927 0.9832
3.6975 1.7997 -0.9927 0.9832
3.6708 1.8536 -0.9927 0.9832
3.6434 1.9070 -0.9927 0.9832
3.5862 2.0127 -0.9927 0.9832
3.5259 2.1166 -0.9927 0.9832
3.4627 2.2189 -0.9928 0.9832
3.3623 2.3686 -0.9928 0.9832
3.3273 2.4175 -0.9928 0.9832
3.2917 2.4659 -0.9928 0.9832
3.2554 2.5137 -0.9929 0.9832
3.1032 2.6998 -0.9929 0.9832
2.9820 2.8333 -0.9930 0.9832
2.9404 2.8766 -0.9930 0.9832
2.8980 2.9193 -0.9930 0.9832
2.8552 2.9614 -0.9930 0.9832
2.7228 3.0839 -0.9931 0.9832
2.5382 3.2379 -0.9931 0.9832
2.4426 3.3108 -0.9932 0.9832
2.3449 3.3809 -0.9932 0.9832
2.1946 3.4806 -0.9933 0.9832
2.0401 3.5737 -0.9933 0.9832
1.9877 3.6032 -0.9934 0.9832
1.7740 3.7135 -0.9935 0.9832
1.7196 3.7390 -0.9935 0.9832
1.6648 3.7639 -0.9935 0.9832
1.5542 3.8111 -0.9935 0.9832
1.4983 3.8335 -0.9936 0.9832
1.4422 3.8550 -0.9936 0.9832
1.2799 3.7518 -0.9569 0.9838
1.2191 3.7520 -0.9523 0.9839
1.1590 3.7529 -0.9482 0.9840
1.1571 3.9505 -0.9937 0.9832
1.0412 3.9828 -0.9938 0.9832
0.9244 4.0118 -0.9938 0.9832
0.8658 4.0249 -0.9938 0.9832
0.8069 4.0372 -0.9938 0.9832
0.7478 4.0487 -0.9939 0.9832
0.6293 4.0690 -0.9939 0.9832
0.5697 4.0779 -0.9939 0.9832
0.5101 4.0859 -0.9940 0.9832
0.4504 4.0930 -0.9940 0.9832
0.2706 4.1091 -0.9941 0.9832
0.2105 4.1127 -0.9941 0.9832
0.1504 4.1154 -0.9941 0.9832
-0.0301 4.1184 -0.9942 0.9832
-0.1454 3.9786 -0.9611 0.9838
-0.2706 4.1100 -0.9943 0.9832
-0.3307 4.1057 -0.9943 0.9832
-0.3906 4.1005 -0.9943 0.9832
-0.5103 4.0875 -0.9944 0.9832
-0.5700 4.0798 -0.9944 0.9832
-0.6296 4.0711 -0.9944 0.9832
-0.8074 4.0399 -0.9945 0.9832
-0.9837 4.0009 -0.9946 0.9832
-1.1003 3.9706 -0.9946 0.9832
-1.2733 3.9189 -0.9947 0.9832
-1.3874 3.8802 -0.9947 0.9832
-1.4439 3.8596 -0.9948 0.9832
-1.5002 3.8382 -0.9948 0.9832
-1.7220 3.7443 -0.9949 0.9832
-0.3237 0.6297 -0.1709 0.9971
-0.3143 0.5323 -0.1492 0.9975
-0.3171 0.5195 -0.1469 0.9975
-0.3246 0.4830 -0.1405 0.9976
-0.3291 0.4600 -0.1365 0.9977
-0.3332 0.4381 -0.1329 0.9977
-0.3401 0.4087 -0.1284 0.9978
-0.3447 0.3904 -0.1257 0.9979
-0.3468 0.3814 -0.1244 0.9979
-0.3548 0.3471 -0.1198 0.9980
-0.3562 0.3384 -0.1186 0.9980
-0.3575 0.3298 -0.1174 0.9980
-0.3598 0.3131 -0.1151 0.9980
-0.3610 0.3049 -0.1141 0.9981
-0.3630 0.2889 -0.1120 0.9981
-0.3639 0.2810 -0.1110 0.9981
-0.3648 0.2733 -0.1100 0.9981
-0.3685 0.2362 -0.1057 0.9982
-0.3702 0.2150 -0.1033 0.9982
-0.3707 0.2080 -0.1026 0.9983
-0.3712 0.2013 -0.1019 0.9983
-0.3716 0.1945 -0.1012 0.9983
-0.3722 0.1880 -0.1007 0.9983
-0.3738 0.1752 -0.0997 0.9983
-0.3754 0.1563 -0.0982 0.9983
-0.3762 0.1439 -0.0972 0.9983
-0.3766 0.1378 -0.0968 0.9984
-0.3770 0.1317 -0.0964 0.9984
-0.3776 0.1196 -0.0956 0.9984
-0.3778 0.1137 -0.0952 0.9984
-0.3784 0.0960 -0.0942 0.9984
-0.3785 0.0902 -0.0939 0.9984
-0.3786 0.0843 -0.0936 0.9984
-0.3787 0.0786 -0.0934 0.9984
-0.3787 0.0728 -0.0931 0.9984
-0.3786 0.0501 -0.0922 0.9984
-0.3785 0.0445 -0.0920 0.9984
-0.3779 0.0277 -0.0915 0.9984
-0.3777 0.0221 -0.0913 0.9984
-0.3775 0.0165 -0.0912 0.9984
-0.3772 0.0110 -0.0911 0.9984
-0.3701 0.0000 -0.0937 0.9985
-0.3704 -0.0054 -0.0938 0.9985
-0.3707 -0.0108 -0.0939 0.9985
-0.3718 -0.0382 -0.0946 0.9985
-0.3719 -0.0437 -0.0948 0.9985
-0.3720 -0.0492 -0.0950 0.9985
-0.3721 -0.0604 -0.0954 0.9984
-0.3721 -0.0659 -0.0957 0.9984
-0.3721 -0.0715 -0.0959 0.9984
-0.3720 -0.0771 -0.0962 0.9984
-0.3718 -0.0885 -0.0968 0.9984
-0.3715 -0.1000 -0.0974 0.9984
-0.3711 -0.1116 -0.0981 0.9984
-0.3705 -0.1234 -0.0989 0.9984
-0.3701 -0.1293 -0.0993 0.9984
-0.3694 -0.1412 -0.1001 0.9984
-0.3679 -0.1595 -0.1015 0.9983
-0.3674 -0.1657 -0.1020 0.9983
-0.3668 -0.1719 -0.1026 0.9983
-0.3660 -0.1781 -0.1031 0.9983
-0.3643 -0.1907 -0.1041 0.9983
-0.3637 -0.1972 -0.1047 0.9983
-0.3633 -0.2039 -0.1055 0.9983
-0.3627 -0.2106 -0.1062 0.9983
-0.3616 -0.2243 -0.1077 0.9982
-0.3609 -0.2312 -0.1085 0.9982
-0.3595 -0.2454 -0.1102 0.9982
-0.3587 -0.2527 -0.1111 0.9982
-0.3578 -0.2600 -0.1120 0.9982
-0.3560 -0.2749 -0.1139 0.9981
-0.3550 -0.2825 -0.1149 0.9981
-0.3540 -0.2902 -0.1159 0.9981
-0.3529 -0.2981 -0.1169 0.9981
-0.3505 -0.3141 -0.1191 0.9981
-0.3479 -0.3305 -0.1215 0.9980
-0.3450 -0.3475 -0.1240 0.9980
-0.3364 -0.3810 -0.1287 0.9979
-0.3341 -0.3897 -0.1300 0.9979
-0.3317 -0.3986 -0.1313 0.9979
-0.3268 -0.4168 -0.1341 0.9978
-0.3242 -0.4262 -0.1356 0.9978
-0.3192 -0.4461 -0.1389 0.9977
-0.3169 -0.4569 -0.1408 0.9977
-0.3121 -0.4793 -0.1448 0.9976
-0.3095 -0.4908 -0.1469 0.9976
-0.3067 -0.5027 -0.1491 0.9976
-0.3039 -0.5147 -0.1513 0.9975
-0.3009 -0.5271 -0.1537 0.9975
-0.2978 -0.5398 -0.1561 0.9975
-0.2911 -0.5662 -0.1612 0.9974
-0.3001 -0.6053 -0.1710 0.9972
-0.3267 -0.7103 -0.1979 0.9968
-1.5133 -3.5611 -0.9796 0.9842
-1.4611 -3.5828 -0.9795 0.9842
-1.3557 -3.6238 -0.9795 0.9842
-1.1955 -3.6795 -0.9794 0.9842
-1.1416 -3.6965 -0.9794 0.9842
-1.0874 -3.7127 -0.9794 0.9842
-0.9237 -3.7565 -0.9793 0.9842
-0.8687 -3.7695 -0.9793 0.9842
-0.7581 -3.7931 -0.9792 0.9842
-0.7135 -3.8629 -0.9945 0.9839
-0.6003 -3.8820 -0.9944 0.9839
-0.5435 -3.8902 -0.9944 0.9839
-0.4866 -3.8977 -0.9944 0.9839
-0.4296 -3.9043 -0.9944 0.9839
-0.3725 -3.9100 -0.9943 0.9839
-0.1434 -3.9247 -0.9942 0.9839
-0.0287 -3.9271 -0.9942 0.9839
0.0287 -3.9270 -0.9942 0.9839
0.2007 -3.9216 -0.9941 0.9839
0.2580 -3.9182 -0.9941 0.9839
0.3724 -3.9088 -0.9940 0.9839
0.4864 -3.8961 -0.9940 0.9839
0.6000 -3.8800 -0.9939 0.9839
0.7694 -3.8498 -0.9939 0.9839
0.8680 -3.7668 -0.9786 0.9842
0.9230 -3.7536 -0.9786 0.9842
0.9777 -3.7396 -0.9785 0.9842
1.0322 -3.7249 -0.9785 0.9842
1.0865 -3.7094 -0.9785 0.9842
1.1405 -3.6930 -0.9785 0.9842
1.1943 -3.6758 -0.9785 0.9842
1.2479 -3.6579 -0.9784 0.9842
0.9824 -2.7477 -0.7387 0.9880
1.1154 -2.8536 -0.7756 0.9874
1.1507 -2.8216 -0.7714 0.9875
1.1856 -2.7900 -0.7674 0.9876
1.5632 -3.5342 -0.9783 0.9842
1.6146 -3.5109 -0.9783 0.9842
1.7669 -3.4365 -0.9782 0.9842
1.8168 -3.4102 -0.9782 0.9842
1.9156 -3.3556 -0.9782 0.9842
1.9644 -3.3271 -0.9781 0.9842
2.0607 -3.2682 -0.9781 0.9842
2.2018 -3.1746 -0.9780 0.9842
2.2479 -3.1420 -0.9780 0.9842
2.2936 -3.1087 -0.9780 0.9842
2.3833 -3.0403 -0.9780 0.9842
2.4274 -3.0051 -0.9780 0.9842
2.6401 -2.8196 -0.9779 0.9842
2.6809 -2.7807 -0.9779 0.9842
2.7610 -2.7011 -0.9778 0.9842
2.8386 -2.6192 -0.9778 0.9842
2.8766 -2.5774 -0.9778 0.9842
2.9139 -2.5350 -0.9778 0.9842
2.9505 -2.4921 -0.9777 0.9842
3.0220 -2.4048 -0.9777 0.9842
3.0568 -2.3604 -0.9777 0.9842
3.0909 -2.3154 -0.9777 0.9842
3.1893 -2.1777 -0.9776 0.9842
3.2207 -2.1308 -0.9776 0.9842
3.3623 -1.9521 -0.9843 0.9841
3.4198 -1.9193 -0.9928 0.9839
3.5006 -1.7675 -0.9928 0.9839
3.5260 -1.7162 -0.9927 0.9839
3.5507 -1.6645 -0.9927 0.9839
3.5746 -1.6124 -0.9927 0.9839
3.5977 -1.5600 -0.9927 0.9839
3.6417 -1.4542 -0.9927 0.9840
3.6825 -1.3471 -0.9927 0.9840
3.7203 -1.2389 -0.9927 0.9840
3.7379 -1.1844 -0.9927 0.9840
3.7548 -1.1296 -0.9927 0.9840
3.7862 -1.0194 -0.9926 0.9840
3.8007 -0.9640 -0.9926 0.9840
3.8143 -0.9084 -0.9926 0.9840
3.8504 -0.7403 -0.9926 0.9840
3.8608 -0.6840 -0.9926 0.9840
3.8941 -0.4573 -0.9926 0.9840
3.9004 -0.4004 -0.9926 0.9840
3.9192 -0.1146 -0.9926 0.9840
3.9208 0.0000 -0.9926 0.9840
3.9141 0.2290 -0.9926 0.9840
3.9104 0.2862 -0.9926 0.9840
3.9058 0.3433 -0.9926 0.9840
3.9004 0.4004 -0.9926 0.9840
3.8941 0.4573 -0.9926 0.9840
3.8791 0.5709 -0.9926 0.9840
3.8704 0.6275 -0.9926 0.9840
3.8608 0.6840 -0.9926 0.9840
3.8272 0.8525 -0.9926 0.9840
3.7709 1.0746 -0.9926 0.9840
3.7548 1.1297 -0.9927 0.9840
3.7380 1.1845 -0.9927 0.9840
3.7203 1.2389 -0.9927 0.9840
3.6825 1.3471 -0.9927 0.9840
3.6625 1.4008 -0.9927 0.9840
3.6417 1.4542 -0.9927 0.9840
3.5977 1.5600 -0.9927 0.9839
3.5506 1.6645 -0.9927 0.9839
3.5260 1.7162 -0.9927 0.9839
3.4199 1.9193 -0.9928 0.9839
3.3624 2.0185 -0.9928 0.9839
3.3326 2.0674 -0.9928 0.9839
3.3021 2.1159 -0.9928 0.9839
3.2708 2.1640 -0.9928 0.9839
3.2389 2.2116 -0.9929 0.9839
3.1390 2.3515 -0.9929 0.9839
3.1043 2.3971 -0.9929 0.9839
3.0690 2.4422 -0.9929 0.9839
2.9592 2.5745 -0.9930 0.9839
2.8039 2.7432 -0.9930 0.9839
2.7636 2.7838 -0.9931 0.9839
2.6812 2.8636 -0.9931 0.9839
2.5533 2.9784 -0.9931 0.9839
2.5095 3.0155 -0.9932 0.9839
2.4652 3.0519 -0.9932 0.9839
2.4204 3.0876 -0.9932 0.9839
2.3751 3.1228 -0.9932 0.9839
2.3292 3.1571 -0.9932 0.9839
2.2829 3.1909 -0.9932 0.9839
2.2361 3.2240 -0.9933 0.9839
2.1410 3.2881 -0.9933 0.9839
2.0928 3.3191 -0.9933 0.9839
1.9950 3.3789 -0.9934 0.9839
1.9454 3.4078 -0.9934 0.9839
1.8955 3.4359 -0.9934 0.9839
1.7432 3.5159 -0.9935 0.9839
1.6917 3.5411 -0.9935 0.9839
1.6398 3.5655 -0.9935 0.9839
1.5349 3.6121 -0.9936 0.9839
1.3753 3.6761 -0.9936 0.9839
1.3215 3.6959 -0.9936 0.9839
1.2674 3.7149 -0.9937 0.9839
1.2129 3.7331 -0.9937 0.9839
1.1583 3.7505 -0.9937 0.9839
1.1034 3.7671 -0.9937 0.9839
0.9373 3.8121 -0.9938 0.9839
0.8256 3.8380 -0.9938 0.9839
0.7694 3.8497 -0.9939 0.9839
0.6566 3.8707 -0.9939 0.9839
0.6000 3.8800 -0.9939 0.9839
0.5433 3.8885 -0.9940 0.9839
0.4294 3.9029 -0.9940 0.9839
0.3723 3.9088 -0.9940 0.9839
0.2007 3.9217 -0.9941 0.9839
-0.0287 3.9271 -0.9942 0.9839
-0.3153 3.9150 -0.9943 0.9839
-0.6570 3.8729 -0.9944 0.9839
-0.7135 3.8629 -0.9945 0.9839
-0.7699 3.8522 -0.9945 0.9839
-0.8822 3.8282 -0.9945 0.9839
-0.9380 3.8150 -0.9946 0.9839
-1.2141 3.7368 -0.9947 0.9839
-1.5369 3.6166 -0.9948 0.9839
-0.3126 0.6543 -0.1836 0.9970
-0.3002 0.6054 -0.1711 0.9972
-0.2946 0.5529 -0.1586 0.9974
-0.3039 0.5147 -0.1513 0.9975
-0.3068 0.5026 -0.1491 0.9976
-0.3121 0.4793 -0.1448 0.9976
-0.3146 0.4679 -0.1427 0.9977
-0.3169 0.4569 -0.1408 0.9977
-0.3215 0.4357 -0.1371 0.9978
-0.3242 0.4263 -0.1356 0.9978
-0.3268 0.4169 -0.1341 0.9978
-0.3450 0.3476 -0.1240 0.9980
-0.3479 0.3306 -0.1215 0.9980
-0.3493 0.3223 -0.1203 0.9980
-0.3517 0.3061 -0.1180 0.9981
-0.3529 0.2981 -0.1169 0.9981
-0.3561 0.2749 -0.1139 0.9981
-0.3579 0.2600 -0.1120 0.9982
-0.3595 0.2455 -0.1102 0.9982
-0.3616 0.2243 -0.1077 0.9982
-0.3622 0.2175 -0.1069 0.9983
-0.3633 0.2039 -0.1055 0.9983
-0.3652 0.1844 -0.1036 0.9983
-0.3660 0.1782 -0.1031 0.9983
-0.3689 0.1473 -0.1006 0.9984
-0.3698 0.1353 -0.0997 0.9984
-0.3701 0.1293 -0.0993 0.9984
-0.3705 0.1234 -0.0989 0.9984
-0.3711 0.1117 -0.0981 0.9984
-0.3719 0.0829 -0.0965 0.9984
-0.3720 0.0772 -0.0962 0.9984
-0.3721 0.0604 -0.0954 0.9984
-0.3720 0.0492 -0.0950 0.9985
-0.3714 0.0272 -0.0943 0.9985
-0.3712 0.0217 -0.0941 0.9985
-0.3704 0.0054 -0.0938 0.9985
-0.3644 -0.0107 -0.0966 0.9985
-0.3647 -0.0160 -0.0967 0.9985
-0.3649 -0.0213 -0.0969 0.9985
-0.3653 -0.0321 -0.0972 0.9985
-0.3655 -0.0429 -0.0975 0.9985
-0.3656 -0.0484 -0.0977 0.9985
-0.3657 -0.0538 -0.0979 0.9985
-0.3657 -0.0593 -0.0982 0.9985
-0.3656 -0.0703 -0.0987 0.9985
-0.3656 -0.0758 -0.0989 0.9985
-0.3655 -0.0814 -0.0992 0.9985
-0.3650 -0.0982 -0.1002 0.9984
-0.3648 -0.1039 -0.1005 0.9984
-0.3645 -0.1096 -0.1009 0.9984
-0.3642 -0.1154 -0.1012 0.9984
-0.3627 -0.1387 -0.1029 0.9984
-0.3612 -0.1566 -0.1043 0.9984
-0.3600 -0.1688 -0.1054 0.9984
-0.3584 -0.1809 -0.1064 0.9983
-0.3575 -0.1871 -0.1069 0.9983
-0.3566 -0.1933 -0.1075 0.9983
-0.3561 -0.1998 -0.1082 0.9983
-0.3528 -0.2334 -0.1121 0.9983
-0.3521 -0.2404 -0.1130 0.9982
-0.3512 -0.2474 -0.1138 0.9982
-0.3494 -0.2617 -0.1157 0.9982
-0.3484 -0.2690 -0.1166 0.9982
-0.3463 -0.2839 -0.1187 0.9981
-0.3452 -0.2915 -0.1197 0.9981
-0.3439 -0.2992 -0.1208 0.9981
-0.3427 -0.3070 -0.1219 0.9981
-0.3386 -0.3312 -0.1255 0.9980
-0.3371 -0.3395 -0.1268 0.9980
-0.3352 -0.3476 -0.1280 0.9980
-0.3330 -0.3557 -0.1291 0.9980
-0.3308 -0.3638 -0.1303 0.9980
-0.3261 -0.3804 -0.1328 0.9979
-0.3213 -0.3978 -0.1355 0.9979
-0.3105 -0.4340 -0.1414 0.9978
-0.3050 -0.4537 -0.1449 0.9977
-0.2998 -0.4754 -0.1489 0.9977
-0.2911 -0.5099 -0.1556 0.9976
-0.2880 -0.5220 -0.1580 0.9975
-0.2812 -0.5469 -0.1629 0.9975
-0.2776 -0.5598 -0.1656 0.9974
-0.2999 -0.6779 -0.1964 0.9969
-1.3958 -3.4228 -0.9795 0.9848
-1.2952 -3.4620 -0.9795 0.9848
-1.2444 -3.4805 -0.9794 0.9848
-1.1934 -3.4982 -0.9794 0.9848
-1.0907 -3.5314 -0.9794 0.9848
-1.0389 -3.5470 -0.9794 0.9848
-0.9870 -3.5617 -0.9793 0.9848
-0.9348 -3.5756 -0.9793 0.9848
-0.6712 -3.6339 -0.9792 0.9848
-0.4578 -3.6666 -0.9791 0.9848
-0.4041 -3.6728 -0.9791 0.9848
-0.2966 -3.6829 -0.9791 0.9848
-0.1889 -3.6898 -0.9790 0.9848
0.1349 -3.6917 -0.9789 0.9848
0.1888 -3.6893 -0.9789 0.9848
0.2966 -3.6820 -0.9788 0.9848
0.3503 -3.6772 -0.9788 0.9848
0.4040 -3.6716 -0.9788 0.9848
0.7238 -3.6216 -0.9786 0.9848
0.8293 -3.5987 -0.9786 0.9848
0.9862 -3.5588 -0.9785 0.9848
1.0897 -3.5282 -0.9785 0.9848
1.1922 -3.4948 -0.9785 0.9848
1.0436 -2.9186 -0.8213 0.9873
1.0797 -2.8859 -0.8165 0.9873
1.1154 -2.8536 -0.8119 0.9874
1.1856 -2.7900 -0.8033 0.9875
1.5426 -3.3543 -0.9783 0.9848
1.6399 -3.3076 -0.9783 0.9848
2.2344 -2.9377 -0.9780 0.9848
2.3192 -2.8711 -0.9780 0.9848
2.3609 -2.8369 -0.9780 0.9848
2.4020 -2.8020 -0.9780 0.9848
2.4427 -2.7666 -0.9779 0.9848
2.4828 -2.7306 -0.9779 0.9848
2.5224 -2.6939 -0.9779 0.9848
2.5614 -2.6567 -0.9779 0.9848
2.5999 -2.6190 -0.9779 0.9848
2.6753 -2.5418 -0.9779 0.9848
2.7121 -2.5024 -0.9778 0.9848
2.8190 -2.3811 -0.9778 0.9848
2.8535 -2.3396 -0.9778 0.9848
2.8873 -2.2976 -0.9778 0.9848
3.0164 -2.1249 -0.9777 0.9848
3.0471 -2.0806 -0.9777 0.9848
3.0771 -2.0358 -0.9777 0.9848
3.1527 -1.9558 -0.9831 0.9848
3.2125 -1.9286 -0.9929 0.9846
3.2674 -1.8338 -0.9929 0.9846
3.2939 -1.7858 -0.9928 0.9846
3.3196 -1.7375 -0.9928 0.9846
3.3688 -1.6397 -0.9928 0.9846
3.3924 -1.5902 -0.9928 0.9846
3.4153 -1.5405 -0.9928 0.9846
3.4374 -1.4904 -0.9928 0.9846
3.5714 -1.1316 -0.9927 0.9846
3.6029 -1.0268 -0.9927 0.9846
3.6175 -0.9740 -0.9927 0.9846
3.6313 -0.9211 -0.9927 0.9846
3.6566 -0.8145 -0.9927 0.9846
3.6888 -0.6535 -0.9927 0.9846
3.6979 -0.5995 -0.9927 0.9846
3.7063 -0.5454 -0.9927 0.9846
3.7206 -0.4370 -0.9927 0.9846
3.7266 -0.3825 -0.9927 0.9846
3.7361 -0.2735 -0.9927 0.9846
3.7397 -0.2188 -0.9927 0.9846
3.7425 -0.1641 -0.9927 0.9846
3.7458 -0.0547 -0.9927 0.9846
3.7461 0.0000 -0.9927 0.9846
3.7445 0.1095 -0.9927 0.9846
3.7063 0.5455 -0.9927 0.9846
3.6888 0.6535 -0.9927 0.9846
3.6681 0.7611 -0.9927 0.9846
3.6444 0.8679 -0.9927 0.9846
3.6313 0.9211 -0.9927 0.9846
3.6029 1.0268 -0.9927 0.9846
3.5875 1.0793 -0.9927 0.9846
3.5545 1.1837 -0.9927 0.9846
3.4993 1.3384 -0.9928 0.9846
3.4374 1.4905 -0.9928 0.9846
3.3924 1.5903 -0.9928 0.9846
3.3688 1.6397 -0.9928 0.9846
3.3195 1.7375 -0.9928 0.9846
3.2939 1.7858 -0.9928 0.9846
3.2675 1.8338 -0.9929 0.9846
3.1549 2.0216 -0.9929 0.9846
3.1250 2.0675 -0.9929 0.9846
3.0945 2.1130 -0.9929 0.9846
2.9660 2.2903 -0.9930 0.9846
2.9322 2.3334 -0.9930 0.9846
2.8629 2.4182 -0.9930 0.9846
2.7543 2.5414 -0.9931 0.9846
2.7169 2.5814 -0.9931 0.9846
2.6789 2.6209 -0.9931 0.9846
2.6013 2.6981 -0.9931 0.9846
2.5617 2.7359 -0.9931 0.9846
2.5214 2.7730 -0.9932 0.9846
2.3553 2.9158 -0.9932 0.9846
2.3125 2.9500 -0.9932 0.9846
2.1811 3.0486 -0.9933 0.9846
2.1364 3.0802 -0.9933 0.9846
1.9994 3.1711 -0.9934 0.9846
1.9060 3.2283 -0.9934 0.9846
1.8109 3.2827 -0.9934 0.9846
1.7143 3.3344 -0.9935 0.9846
1.6162 3.3832 -0.9935 0.9846
1.5667 3.4065 -0.9935 0.9846
1.5167 3.4291 -0.9936 0.9846
1.4159 3.4721 -0.9936 0.9846
1.3139 3.5121 -0.9936 0.9846
1.2625 3.5310 -0.9937 0.9846
1.2108 3.5492 -0.9937 0.9846
1.1588 3.5666 -0.9937 0.9846
0.9486 3.6285 -0.9938 0.9846
0.8422 3.6548 -0.9938 0.9846
0.7887 3.6668 -0.9939 0.9846
0.6274 3.6981 -0.9939 0.9846
0.5732 3.7069 -0.9939 0.9846
0.4647 3.7223 -0.9940 0.9846
0.4103 3.7288 -0.9940 0.9846
0.1918 3.7467 -0.9941 0.9846
-0.1371 3.7496 -0.9942 0.9846
-0.1918 3.7473 -0.9943 0.9846
-0.4104 3.7300 -0.9943 0.9846
-0.4649 3.7237 -0.9944 0.9846
-0.7355 3.6803 -0.9945 0.9846
-1.1076 3.5864 -0.9946 0.9846
-1.1599 3.5700 -0.9946 0.9846
-1.2120 3.5527 -0.9947 0.9846
-1.3154 3.5159 -0.9947 0.9846
-0.2999 0.6780 -0.1964 0.9969
-0.2846 0.5343 -0.1604 0.9975
-0.2911 0.5100 -0.1556 0.9976
-0.3025 0.4645 -0.1469 0.9977
-0.3050 0.4537 -0.1449 0.9977
-0.3076 0.4436 -0.1430 0.9978
-0.3134 0.4248 -0.1399 0.9978
-0.3213 0.3977 -0.1355 0.9979
-0.3261 0.3804 -0.1328 0.9979
-0.3330 0.3557 -0.1291 0.9980
-0.3352 0.3476 -0.1280 0.9980
-0.3385 0.3312 -0.1255 0.9980
-0.3414 0.3150 -0.1231 0.9981
-0.3427 0.3071 -0.1219 0.9981
-0.3452 0.2916 -0.1197 0.9981
-0.3463 0.2839 -0.1187 0.9981
-0.3474 0.2764 -0.1176 0.9982
-0.3484 0.2691 -0.1166 0.9982
-0.3503 0.2545 -0.1147 0.9982
-0.3528 0.2334 -0.1121 0.9983
-0.3549 0.2130 -0.1097 0.9983
-0.3555 0.2064 -0.1089 0.9983
-0.3561 0.1998 -0.1082 0.9983
-0.3592 0.1749 -0.1059 0.9983
-0.3600 0.1688 -0.1054 0.9984
-0.3606 0.1627 -0.1048 0.9984
-0.3612 0.1566 -0.1043 0.9984
-0.3618 0.1506 -0.1038 0.9984
-0.3622 0.1447 -0.1034 0.9984
-0.3639 0.1212 -0.1016 0.9984
-0.3642 0.1154 -0.1012 0.9984
-0.3652 0.0926 -0.0998 0.9984
-0.3653 0.0870 -0.0995 0.9984
-0.3656 0.0759 -0.0989 0.9985
-0.3657 0.0593 -0.0982 0.9985
-0.3657 0.0539 -0.0979 0.9985
-0.3656 0.0484 -0.0977 0.9985
-0.3655 0.0429 -0.0975 0.9985
-0.3647 0.0160 -0.0967 0.9985
-0.3645 0.0107 -0.0966 0.9985
-0.3641 0.0054 -0.0965 0.9985
-0.3581 -0.0052 -0.0991 0.9985
-0.3586 -0.0157 -0.0994 0.9985
-0.3590 -0.0263 -0.0997 0.9985
-0.3591 -0.0316 -0.0998 0.9985
-0.3593 -0.0369 -0.1000 0.9985
-0.3594 -0.0475 -0.1004 0.9985
-0.3595 -0.0529 -0.1006 0.9985
-0.3595 -0.0582 -0.1008 0.9985
-0.3595 -0.0637 -0.1011 0.9985
-0.3594 -0.0691 -0.1013 0.9985
-0.3592 -0.0800 -0.1019 0.9985
-0.3584 -0.1021 -0.1032 0.9985
-0.3581 -0.1077 -0.1035 0.9984
-0.3578 -0.1134 -0.1039 0.9984
-0.3571 -0.1247 -0.1047 0.9984
-0.3546 -0.1538 -0.1070 0.9984
-0.3541 -0.1597 -0.1075 0.9984
-0.3535 -0.1657 -0.1081 0.9984
-0.3517 -0.1776 -0.1091 0.9984
-0.3509 -0.1836 -0.1096 0.9984
-0.3485 -0.2024 -0.1116 0.9983
-0.3479 -0.2088 -0.1123 0.9983
-0.3472 -0.2154 -0.1131 0.9983
-0.3449 -0.2355 -0.1156 0.9983
-0.3421 -0.2563 -0.1184 0.9982
-0.3411 -0.2634 -0.1193 0.9982
-0.3400 -0.2705 -0.1203 0.9982
-0.3389 -0.2779 -0.1213 0.9982
-0.3378 -0.2853 -0.1224 0.9982
-0.3352 -0.3003 -0.1246 0.9981
-0.3294 -0.3318 -0.1294 0.9981
-0.3255 -0.3477 -0.1319 0.9980
-0.3233 -0.3555 -0.1330 0.9980
-0.3161 -0.3798 -0.1368 0.9980
-0.3136 -0.3882 -0.1382 0.9979
-0.3110 -0.3968 -0.1396 0.9979
-0.3084 -0.4055 -0.1410 0.9979
-0.3028 -0.4232 -0.1441 0.9978
-0.2936 -0.4510 -0.1490 0.9978
-0.2907 -0.4610 -0.1509 0.9977
-0.2879 -0.4717 -0.1530 0.9977
-0.2849 -0.4826 -0.1552 0.9977
-0.2753 -0.5168 -0.1621 0.9976
-0.2682 -0.5409 -0.1672 0.9975
-0.2644 -0.5534 -0.1698 0.9975
-0.2857 -0.7005 -0.2095 0.9969
-1.2395 -3.3132 -0.9794 0.9854
-0.9943 -3.3945 -0.9793 0.9854
-0.9446 -3.4086 -0.9793 0.9854
-0.8946 -3.4219 -0.9793 0.9854
-0.6931 -3.4681 -0.9792 0.9854
-0.5405 -3.4949 -0.9792 0.9854
-0.4893 -3.5023 -0.9791 0.9854
-0.3868 -3.5150 -0.9791 0.9854
-0.3354 -3.5202 -0.9791 0.9854
-0.2839 -3.5246 -0.9791 0.9854
-0.1808 -3.5313 -0.9790 0.9854
-0.0775 -3.5349 -0.9790 0.9854
0.0775 -3.5346 -0.9789 0.9854
0.2323 -3.5277 -0.9788 0.9854
0.3353 -3.5192 -0.9788 0.9854
0.3867 -3.5139 -0.9788 0.9854
0.4379 -3.5078 -0.9788 0.9854
0.5402 -3.4933 -0.9787 0.9854
0.6927 -3.4661 -0.9787 0.9854
0.7433 -3.4555 -0.9786 0.9854
0.7937 -3.4442 -0.9786 0.9854
0.8939 -3.4194 -0.9786 0.9854
0.9935 -3.3917 -0.9785 0.9854
1.0429 -3.3767 -0.9785 0.9854
1.1411 -3.3447 -0.9785 0.9854
1.0435 -2.9186 -0.8582 0.9872
1.0796 -2.8859 -0.8531 0.9873
1.1154 -2.8536 -0.8483 0.9874
1.1856 -2.7900 -0.8393 0.9875
1.4764 -3.2102 -0.9783 0.9854
1.5231 -3.1882 -0.9783 0.9854
1.5695 -3.1656 -0.9783 0.9854
1.6613 -3.1183 -0.9783 0.9854
1.7962 -3.0423 -0.9782 0.9854
1.8843 -2.9884 -0.9782 0.9854
2.0133 -2.9029 -0.9781 0.9854
2.0555 -2.8731 -0.9781 0.9854
2.0972 -2.8427 -0.9781 0.9854
2.1385 -2.8116 -0.9781 0.9854
2.2989 -2.6818 -0.9780 0.9854
2.3379 -2.6479 -0.9780 0.9854
2.3762 -2.6134 -0.9780 0.9854
2.4141 -2.5783 -0.9780 0.9854
2.4515 -2.5427 -0.9779 0.9854
2.4884 -2.5066 -0.9779 0.9854
2.5957 -2.3950 -0.9779 0.9854
2.6980 -2.2789 -0.9778 0.9854
2.7310 -2.2392 -0.9778 0.9854
2.7952 -2.1584 -0.9778 0.9854
2.8264 -2.1173 -0.9778 0.9854
2.8570 -2.0757 -0.9778 0.9854
2.8870 -2.0338 -0.9778 0.9854
2.9164 -1.9913 -0.9778 0.9855
2.9597 -1.9581 -0.9826 0.9854
3.0195 -1.9348 -0.9930 0.9852
3.0474 -1.8905 -0.9929 0.9852
3.1272 -1.7551 -0.9929 0.9852
3.1771 -1.6629 -0.9929 0.9852
3.2243 -1.5693 -0.9929 0.9852
3.3104 -1.3782 -0.9928 0.9852
3.3492 -1.2810 -0.9928 0.9852
3.3675 -1.2319 -0.9928 0.9852
3.4182 -1.0831 -0.9928 0.9852
3.4336 -1.0330 -0.9928 0.9852
3.4483 -0.9827 -0.9928 0.9852
3.4755 -0.8815 -0.9928 0.9852
3.5210 -0.6770 -0.9927 0.9852
3.5305 -0.6255 -0.9927 0.9852
3.5393 -0.5738 -0.9927 0.9852
3.5473 -0.5221 -0.9927 0.9852
3.5610 -0.4182 -0.9927 0.9852
3.5667 -0.3661 -0.9927 0.9852
3.5759 -0.2617 -0.9927 0.9852
3.5851 0.0524 -0.9927 0.9852
3.5839 0.1048 -0.9927 0.9852
3.5793 0.2095 -0.9927 0.9852
3.5759 0.2618 -0.9927 0.9852
3.5717 0.3140 -0.9927 0.9852
3.5667 0.3661 -0.9927 0.9852
3.5545 0.4702 -0.9927 0.9852
3.5473 0.5221 -0.9927 0.9852
3.5393 0.5739 -0.9927 0.9852
3.5305 0.6255 -0.9927 0.9852
3.5210 0.6770 -0.9927 0.9852
3.4880 0.8307 -0.9928 0.9852
3.4755 0.8816 -0.9928 0.9852
3.3675 1.2319 -0.9928 0.9852
3.3492 1.2810 -0.9928 0.9852
3.3301 1.3298 -0.9928 0.9852
3.3104 1.3783 -0.9928 0.9852
3.2899 1.4265 -0.9928 0.9852
3.2469 1.5221 -0.9929 0.9852
3.2243 1.5694 -0.9929 0.9852
3.2011 1.6163 -0.9929 0.9852
3.1525 1.7092 -0.9929 0.9852
3.1272 1.7551 -0.9929 0.9852
3.1013 1.8006 -0.9929 0.9852
3.0747 1.8457 -0.9929 0.9852
3.0195 1.9348 -0.9930 0.9852
2.9910 1.9788 -0.9930 0.9852
2.9618 2.0223 -0.9930 0.9852
2.9014 2.1080 -0.9930 0.9852
2.8704 2.1502 -0.9930 0.9852
2.8064 2.2332 -0.9930 0.9852
2.7735 2.2741 -0.9931 0.9852
2.7059 2.3542 -0.9931 0.9852
2.6713 2.3936 -0.9931 0.9852
2.6003 2.4706 -0.9931 0.9852
2.4517 2.6185 -0.9932 0.9852
2.4132 2.6540 -0.9932 0.9852
2.2947 2.7574 -0.9932 0.9852
2.2132 2.8233 -0.9933 0.9852
2.0447 2.9480 -0.9933 0.9852
1.8691 3.0627 -0.9934 0.9852
1.7789 3.1161 -0.9935 0.9852
1.6871 3.1668 -0.9935 0.9852
1.6407 3.1912 -0.9935 0.9852
1.5939 3.2149 -0.9935 0.9852
1.5468 3.2379 -0.9935 0.9852
1.4516 3.2818 -0.9936 0.9852
1.4035 3.3028 -0.9936 0.9852
1.3551 3.3230 -0.9936 0.9852
1.3065 3.3425 -0.9936 0.9852
1.2083 3.3794 -0.9937 0.9852
1.0591 3.4293 -0.9937 0.9852
0.9585 3.4589 -0.9938 0.9852
0.8570 3.4856 -0.9938 0.9852
0.8060 3.4979 -0.9938 0.9852
0.6004 3.5392 -0.9939 0.9852
0.4967 3.5554 -0.9940 0.9852
0.3927 3.5686 -0.9940 0.9852
0.2359 3.5826 -0.9941 0.9852
0.0787 3.5897 -0.9941 0.9852
0.0262 3.5905 -0.9942 0.9852
-0.0263 3.5906 -0.9942 0.9852
-0.1311 3.5885 -0.9942 0.9852
-0.2883 3.5795 -0.9943 0.9852
-0.3928 3.5697 -0.9943 0.9852
-0.4449 3.5637 -0.9944 0.9852
-0.4970 3.5569 -0.9944 0.9852
-0.5489 3.5493 -0.9944 0.9852
-0.6007 3.5410 -0.9944 0.9852
-0.7039 3.5221 -0.9945 0.9852
-0.8576 3.4880 -0.9945 0.9852
-0.9085 3.4752 -0.9945 0.9852
-1.1101 3.4165 -0.9946 0.9852
-1.1599 3.4000 -0.9946 0.9852
-1.2095 3.3827 -0.9947 0.9852
-1.2588 3.3648 -0.9947 0.9852
-1.3079 3.3461 -0.9947 0.9852
-0.2754 0.6480 -0.1949 0.9971
-0.2604 0.5663 -0.1726 0.9974
-0.2718 0.5287 -0.1646 0.9975
-0.2787 0.5052 -0.1597 0.9976
-0.2907 0.4610 -0.1509 0.9977
-0.2968 0.4416 -0.1473 0.9978
-0.2998 0.4323 -0.1457 0.9978
-0.3028 0.4232 -0.1441 0.9978
-0.3084 0.4054 -0.1410 0.9979
-0.3110 0.3968 -0.1396 0.9979
-0.3161 0.3798 -0.1368 0.9980
-0.3186 0.3716 -0.1355 0.9980
-0.3277 0.3398 -0.1307 0.9980
-0.3309 0.3237 -0.1282 0.9981
-0.3324 0.3158 -0.1269 0.9981
-0.3338 0.3080 -0.1258 0.9981
-0.3389 0.2779 -0.1213 0.9982
-0.3400 0.2706 -0.1203 0.9982
-0.3431 0.2493 -0.1174 0.9982
-0.3440 0.2423 -0.1165 0.9983
-0.3472 0.2154 -0.1131 0.9983
-0.3479 0.2089 -0.1123 0.9983
-0.3485 0.2024 -0.1116 0.9983
-0.3499 0.1897 -0.1102 0.9983
-0.3508 0.1836 -0.1096 0.9984
-0.3518 0.1776 -0.1091 0.9984
-0.3526 0.1716 -0.1086 0.9984
-0.3534 0.1657 -0.1081 0.9984
-0.3552 0.1479 -0.1065 0.9984
-0.3562 0.1363 -0.1056 0.9984
-0.3567 0.1305 -0.1052 0.9984
-0.3581 0.1077 -0.1035 0.9984
-0.3584 0.1021 -0.1032 0.9985
-0.3593 0.0745 -0.1016 0.9985
-0.3594 0.0691 -0.1013 0.9985
-0.3594 0.0475 -0.1004 0.9985
-0.3591 0.0316 -0.0998 0.9985
-0.3586 0.0157 -0.0994 0.9985
-0.3521 -0.0051 -0.1017 0.9985
-0.3526 -0.0154 -0.1019 0.9985
-0.3528 -0.0206 -0.1021 0.9985
-0.3530 -0.0258 -0.1022 0.9985
-0.3531 -0.0311 -0.1024 0.9985
-0.3533 -0.0362 -0.1026 0.9985
-0.3533 -0.0415 -0.1028 0.9985
-0.3534 -0.0520 -0.1032 0.9985
-0.3534 -0.0573 -0.1034 0.9985
-0.3534 -0.0626 -0.1037 0.9985
-0.3531 -0.0786 -0.1045 0.9985
-0.3529 -0.0840 -0.1048 0.9985
-0.3508 -0.1225 -0.1073 0.9985
-0.3504 -0.1282 -0.1078 0.9984
-0.3499 -0.1338 -0.1082 0.9984
-0.3494 -0.1395 -0.1087 0.9984
-0.3489 -0.1452 -0.1092 0.9984
-0.3483 -0.1510 -0.1097 0.9984
-0.3477 -0.1568 -0.1102 0.9984
-0.3462 -0.1685 -0.1112 0.9984
-0.3453 -0.1743 -0.1117 0.9984
-0.3444 -0.1802 -0.1123 0.9984
-0.3425 -0.1922 -0.1134 0.9984
-0.3379 -0.2307 -0.1182 0.9983
-0.3370 -0.2374 -0.1191 0.9983
-0.3351 -0.2510 -0.1209 0.9983
-0.3329 -0.2649 -0.1229 0.9982
-0.3318 -0.2720 -0.1239 0.9982
-0.3293 -0.2864 -0.1261 0.9982
-0.3265 -0.3013 -0.1283 0.9982
-0.3236 -0.3165 -0.1307 0.9981
-0.3183 -0.3400 -0.1345 0.9981
-0.3160 -0.3475 -0.1357 0.9980
-0.3137 -0.3553 -0.1369 0.9980
-0.3010 -0.3957 -0.1436 0.9979
-0.2982 -0.4042 -0.1451 0.9979
-0.2954 -0.4129 -0.1466 0.9979
-0.2924 -0.4216 -0.1482 0.9979
-0.2894 -0.4305 -0.1498 0.9978
-0.2862 -0.4395 -0.1515 0.9978
-0.2762 -0.4679 -0.1569 0.9977
-0.2699 -0.4893 -0.1614 0.9977
-0.2666 -0.5004 -0.1637 0.9976
-0.2631 -0.5116 -0.1662 0.9976
-0.2594 -0.5231 -0.1687 0.9976
-0.2556 -0.5350 -0.1713 0.9975
-0.2475 -0.5595 -0.1767 0.9975
-0.2457 -0.5781 -0.1814 0.9974
-0.2609 -0.6675 -0.2070 0.9970
-1.1881 -3.1758 -0.9794 0.9860
-1.1416 -3.1928 -0.9794 0.9860
-1.0948 -3.2091 -0.9794 0.9860
-1.0478 -3.2246 -0.9794 0.9860
-1.0005 -3.2396 -0.9793 0.9860
-0.9054 -3.2673 -0.9793 0.9860
-0.8095 -3.2922 -0.9793 0.9860
-0.5181 -3.3500 -0.9792 0.9860
-0.4690 -3.3572 -0.9791 0.9860
-0.4199 -3.3636 -0.9791 0.9860
-0.3707 -3.3693 -0.9791 0.9860
-0.3215 -3.3743 -0.9791 0.9860
-0.2721 -3.3786 -0.9791 0.9860
-0.1733 -3.3850 -0.9790 0.9860
0.0248 -3.3890 -0.9789 0.9860
0.1733 -3.3845 -0.9789 0.9860
0.2227 -3.3815 -0.9789 0.9860
0.2720 -3.3778 -0.9788 0.9860
0.3706 -3.3683 -0.9788 0.9860
0.4198 -3.3625 -0.9788 0.9860
0.4689 -3.3559 -0.9788 0.9860
0.5178 -3.3486 -0.9787 0.9860
0.5667 -3.3406 -0.9787 0.9860
0.6154 -3.3319 -0.9787 0.9860
0.6641 -3.3225 -0.9787 0.9860
0.7125 -3.3124 -0.9787 0.9860
0.7608 -3.3015 -0.9786 0.9860
0.8090 -3.2900 -0.9786 0.9860
0.8570 -3.2778 -0.9786 0.9860
0.9047 -3.2648 -0.9786 0.9860
0.9523 -3.2512 -0.9786 0.9860
1.0469 -3.2218 -0.9785 0.9860
