ply
format ascii 1.0
element vertex 1580
property float32 x
property float32 y
property float32 z
property float32 I
end_header
5.9881 -3.1342 -0.1030 0.9733
6.2911 -2.9492 -0.1059 0.9726
6.4594 -2.6895 -0.1066 0.9724
58.5495 -22.3934 -0.9552 0.7782
59.1639 -20.6678 -0.9550 0.7782
9.3398 -2.9594 -0.1493 0.9616
9.3227 -2.6569 -0.1477 0.9620
35.8435 -9.6511 -0.5656 0.8620
12.0486 -3.0560 -0.1894 0.9515
11.8229 -2.8155 -0.1852 0.9525
12.1828 -2.5275 -0.1896 0.9514
12.5462 -2.4123 -0.1947 0.9502
12.4219 -2.2007 -0.1922 0.9508
62.8929 -9.2560 -0.9687 0.7755
63.1303 -7.4136 -0.9686 0.7755
31.2482 -2.7467 -0.4780 0.8821
38.8871 -2.2755 -0.5936 0.8557
63.5525 -0.0000 -0.9684 0.7755
63.4464 3.7125 -0.9685 0.7755
56.8842 4.1634 -0.8691 0.7960
40.8692 3.5923 -0.6252 0.8486
31.2290 4.5959 -0.4810 0.8814
22.9410 3.7194 -0.3541 0.9112
31.7900 6.1124 -0.4933 0.8785
14.0863 3.3546 -0.2207 0.9437
10.7671 2.8990 -0.1699 0.9564
10.3752 2.9568 -0.1644 0.9578
9.6964 3.0724 -0.1550 0.9601
9.3908 3.4352 -0.1524 0.9608
9.4464 3.7720 -0.1550 0.9601
9.5186 4.1273 -0.1581 0.9593
9.3941 4.2374 -0.1570 0.9596
9.4225 4.4171 -0.1586 0.9592
9.5114 4.8026 -0.1624 0.9583
9.7451 5.2834 -0.1689 0.9566
9.7844 5.4912 -0.1710 0.9561
9.9101 6.1478 -0.1777 0.9544
10.0541 6.4425 -0.1820 0.9534
9.9303 6.7804 -0.1832 0.9530
9.9697 7.0231 -0.1858 0.9524
10.0046 7.2687 -0.1884 0.9517
10.3203 7.7309 -0.1965 0.9497
48.6767 39.9106 -0.9592 0.7774
48.1005 40.6279 -0.9594 0.7773
47.5134 41.3366 -0.9597 0.7773
46.3091 42.7292 -0.9602 0.7772
45.6913 43.4123 -0.9604 0.7771
44.4268 44.7526 -0.9609 0.7770
43.1241 46.0570 -0.9614 0.7769
41.0993 47.9435 -0.9623 0.7768
40.4059 48.5527 -0.9625 0.7767
39.7041 49.1527 -0.9628 0.7766
6.0469 7.7138 -0.1494 0.9615
5.5094 7.7006 -0.1443 0.9628
5.2249 8.0241 -0.1459 0.9624
4.9592 7.8651 -0.1417 0.9635
4.7342 8.0183 -0.1419 0.9634
4.2643 7.7299 -0.1345 0.9653
4.1631 8.0972 -0.1387 0.9642
4.0498 8.1681 -0.1389 0.9642
3.7758 8.2100 -0.1377 0.9645
1.5904 3.5955 -0.0599 0.9844
1.5088 3.5504 -0.0588 0.9847
1.4476 3.5495 -0.0584 0.9848
1.2772 3.5720 -0.0578 0.9849
1.1653 3.5864 -0.0575 0.9850
1.1096 3.5929 -0.0573 0.9851
1.0543 3.5993 -0.0572 0.9851
0.9445 3.6127 -0.0569 0.9852
0.8369 3.6318 -0.0568 0.9852
0.7835 3.6422 -0.0568 0.9852
0.6766 3.6629 -0.0568 0.9852
0.5157 3.6910 -0.0568 0.9852
0.4620 3.7006 -0.0568 0.9852
0.3556 3.7329 -0.0571 0.9851
3.2826 64.1288 -0.9785 0.7735
0.4698 64.2909 -0.9797 0.7732
-0.4699 64.3178 -0.9801 0.7731
-1.4102 64.3308 -0.9805 0.7730
-2.3510 64.3296 -0.9809 0.7730
-3.2921 64.3152 -0.9813 0.7729
-6.1149 64.1882 -0.9825 0.7726
-7.9944 64.0348 -0.9833 0.7725
-8.9328 63.9372 -0.9838 0.7724
-0.9782 6.3260 -0.0975 0.9747
-1.0324 6.0859 -0.0941 0.9756
-1.0762 5.8263 -0.0903 0.9766
-1.1475 5.3348 -0.0832 0.9784
-1.2106 4.9236 -0.0773 0.9799
-1.2419 4.7503 -0.0748 0.9805
-1.3279 4.2998 -0.0686 0.9822
-1.3536 4.1658 -0.0667 0.9826
-1.3972 3.7348 -0.0608 0.9842
-1.4605 3.5813 -0.0589 0.9846
-1.5048 3.5410 -0.0586 0.9847
-1.6091 3.4989 -0.0587 0.9847
-1.6667 3.4888 -0.0589 0.9847
-1.7277 3.4848 -0.0593 0.9846
-1.7968 3.4948 -0.0599 0.9844
-1.8671 3.5047 -0.0605 0.9842
-1.9367 3.5106 -0.0611 0.9841
-2.6779 3.6296 -0.0687 0.9821
-4.4797 5.7146 -0.1106 0.9714
-4.5004 5.5713 -0.1091 0.9718
-4.5213 5.4329 -0.1077 0.9721
-4.5435 5.3001 -0.1064 0.9725
-4.6221 4.7941 -0.1015 0.9737
-4.6587 4.5577 -0.0993 0.9743
-4.6799 4.4465 -0.0984 0.9745
-4.7271 4.1125 -0.0955 0.9752
-4.7670 3.9085 -0.0939 0.9756
-4.8158 3.7186 -0.0927 0.9760
-4.8812 3.5464 -0.0919 0.9762
-0.8104 0.5361 -0.0148 0.9961
-0.8016 0.4654 -0.0141 0.9963
-0.7948 0.4309 -0.0138 0.9964
-0.7915 0.4142 -0.0136 0.9964
-0.7851 0.3821 -0.0133 0.9965
-0.7594 0.2777 -0.0123 0.9968
-0.7524 0.2505 -0.0121 0.9968
-0.7419 0.1997 -0.0117 0.9969
-0.7404 0.1878 -0.0116 0.9969
-0.7333 0.1521 -0.0114 0.9970
-0.7312 0.1405 -0.0113 0.9970
-0.7270 0.1178 -0.0112 0.9971
-0.7229 0.0956 -0.0111 0.9971
-0.7188 0.0737 -0.0110 0.9971
-0.7107 0.0311 -0.0108 0.9972
-0.7087 0.0207 -0.0108 0.9972
-0.7066 0.0103 -0.0108 0.9972
-0.6794 -0.0298 -0.0179 0.9973
-0.6830 -0.0500 -0.0180 0.9973
-0.6849 -0.0603 -0.0181 0.9973
-0.6867 -0.0705 -0.0182 0.9972
-0.6885 -0.0809 -0.0183 0.9972
-0.6904 -0.0914 -0.0183 0.9972
-0.6923 -0.1019 -0.0184 0.9972
-0.6959 -0.1233 -0.0186 0.9972
-0.6977 -0.1342 -0.0187 0.9972
-0.6995 -0.1452 -0.0188 0.9971
-0.7014 -0.1562 -0.0189 0.9971
-0.7032 -0.1675 -0.0190 0.9971
-0.7050 -0.1788 -0.0191 0.9971
-0.7071 -0.1905 -0.0193 0.9971
-0.7175 -0.2390 -0.0199 0.9970
-0.7205 -0.2517 -0.0201 0.9970
-0.7235 -0.2647 -0.0203 0.9969
-0.7297 -0.2914 -0.0207 0.9969
-0.7328 -0.3052 -0.0209 0.9968
-0.7393 -0.3335 -0.0214 0.9968
-0.7460 -0.3631 -0.0218 0.9967
-0.7515 -0.3934 -0.0223 0.9966
-0.7569 -0.4248 -0.0228 0.9965
-0.7596 -0.4411 -0.0231 0.9965
-0.7625 -0.4577 -0.0234 0.9964
-0.7653 -0.4748 -0.0237 0.9964
-0.7683 -0.4924 -0.0240 0.9964
-0.7740 -0.5453 -0.0249 0.9962
-12.3866 -9.2789 -0.4074 0.9400
-10.2129 -8.1271 -0.3436 0.9491
-9.5684 -8.0820 -0.3297 0.9511
-9.0093 -8.0724 -0.3184 0.9527
-8.4832 -8.0601 -0.3080 0.9543
-8.2329 -8.0545 -0.3032 0.9550
-7.9970 -8.0557 -0.2988 0.9556
-7.7675 -8.0566 -0.2946 0.9562
-7.5342 -8.0467 -0.2902 0.9568
-7.2915 -8.0192 -0.2853 0.9576
-7.1145 -8.0580 -0.2830 0.9579
-6.9118 -8.3055 -0.2844 0.9577
-6.8897 -8.5294 -0.2886 0.9571
-6.8719 -9.0352 -0.2988 0.9556
-6.8624 -9.3016 -0.3043 0.9548
-1.9369 -2.7074 -0.0876 0.9868
-1.7113 -2.4674 -0.0790 0.9881
-1.6655 -2.5580 -0.0804 0.9879
-1.5802 -2.5893 -0.0799 0.9879
-1.5607 -2.6435 -0.0808 0.9878
-1.3970 -2.7173 -0.0804 0.9878
-1.2368 -2.6894 -0.0779 0.9882
-1.2114 -2.7389 -0.0788 0.9881
-1.1355 -2.6722 -0.0764 0.9884
-1.0642 -2.6096 -0.0742 0.9888
-1.0726 -2.7441 -0.0776 0.9883
-1.0253 -2.7407 -0.0770 0.9884
-2.6352 -8.1105 -0.2245 0.9665
-2.5057 -8.1133 -0.2235 0.9666
-2.2459 -8.1050 -0.2214 0.9669
-2.1161 -8.0944 -0.2202 0.9671
-1.8608 -8.0749 -0.2181 0.9674
-1.5419 -8.3479 -0.2235 0.9666
-1.2906 -8.3457 -0.2223 0.9668
-1.1657 -8.3434 -0.2218 0.9669
-0.8823 -8.0184 -0.2124 0.9682
-0.5313 -8.0689 -0.2129 0.9682
-0.4554 -8.8969 -0.2345 0.9650
-0.3251 -8.8965 -0.2344 0.9650
-0.7659 -34.9375 -0.9199 0.8695
2.3537 -29.2245 -0.7718 0.8893
1.2017 -10.9220 -0.2892 0.9570
2.1430 -10.7222 -0.2878 0.9572
7.7952 -36.2391 -0.9758 0.8622
8.3220 -36.1135 -0.9756 0.8622
8.8469 -35.9801 -0.9754 0.8622
9.3696 -35.8392 -0.9752 0.8622
3.7072 -10.8668 -0.3022 0.9551
3.8612 -10.7990 -0.3019 0.9551
4.0446 -10.8111 -0.3039 0.9549
3.6692 -9.3875 -0.2653 0.9605
3.9837 -9.3744 -0.2681 0.9601
4.1435 -9.3677 -0.2696 0.9598
4.8036 -9.3431 -0.2766 0.9588
4.9768 -9.3418 -0.2786 0.9585
5.1545 -9.3436 -0.2809 0.9582
5.3443 -9.3616 -0.2838 0.9578
7.0799 -11.6009 -0.3578 0.9471
7.0899 -11.2445 -0.3499 0.9482
7.1290 -10.6062 -0.3364 0.9501
7.3140 -10.5454 -0.3378 0.9499
7.2919 -10.1923 -0.3299 0.9511
7.3108 -9.6123 -0.3179 0.9528
7.4799 -9.5418 -0.3192 0.9526
2.5328 -2.9546 -0.1024 0.9845
2.6231 -2.8850 -0.1026 0.9845
2.6684 -2.8500 -0.1028 0.9845
2.6308 -2.7287 -0.0998 0.9849
2.7038 -2.7237 -0.1010 0.9848
2.7812 -2.5663 -0.0996 0.9850
2.8802 -2.3616 -0.0980 0.9852
3.1738 -2.3060 -0.1033 0.9844
3.4708 -2.4451 -0.1118 0.9832
11.6439 -7.9506 -0.3712 0.9451
12.3908 -7.9398 -0.3874 0.9428
13.2185 -7.9352 -0.4059 0.9402
13.6676 -7.9355 -0.4160 0.9387
5.9755 -3.2398 -0.1789 0.9732
6.1132 -2.9755 -0.1790 0.9732
6.1516 -2.8837 -0.1788 0.9732
6.2232 -2.8072 -0.1797 0.9731
6.2942 -2.7292 -0.1806 0.9729
6.4444 -2.5734 -0.1827 0.9726
8.5790 -3.1383 -0.2405 0.9641
8.8119 -2.7922 -0.2433 0.9637
8.8375 -2.6588 -0.2429 0.9637
8.7179 -2.4845 -0.2386 0.9644
9.5528 -2.2750 -0.2585 0.9615
11.8859 -2.4660 -0.3196 0.9526
12.3803 -2.1934 -0.3310 0.9509
12.6298 -2.0477 -0.3368 0.9501
36.8775 -4.8779 -0.9792 0.8617
26.4942 -2.7195 -0.7011 0.8989
36.4850 -3.2070 -0.9642 0.8637
36.5273 -2.6736 -0.9641 0.8637
36.5620 -2.1395 -0.9641 0.8637
37.1586 -1.6300 -0.9791 0.8617
37.1780 -1.0869 -0.9791 0.8617
37.1897 0.5434 -0.9791 0.8617
37.1587 1.6299 -0.9791 0.8617
37.0960 2.7150 -0.9791 0.8617
37.0530 3.2569 -0.9792 0.8617
37.0023 3.7980 -0.9792 0.8617
36.9437 4.3383 -0.9792 0.8617
31.3093 4.6077 -0.8331 0.8811
23.1231 3.7489 -0.6167 0.9105
36.6319 6.4898 -0.9793 0.8617
36.5347 7.0246 -0.9794 0.8617
11.5827 2.7584 -0.3134 0.9535
10.3357 2.9455 -0.2829 0.9579
9.6763 3.0660 -0.2672 0.9602
9.3748 3.1219 -0.2601 0.9612
9.4189 3.6023 -0.2655 0.9605
9.3663 4.0612 -0.2687 0.9600
9.4265 4.4189 -0.2741 0.9592
9.5150 4.8044 -0.2806 0.9582
9.7029 5.0786 -0.2883 0.9571
9.7421 5.2818 -0.2917 0.9566
9.7821 5.4900 -0.2953 0.9561
9.9745 7.0265 -0.3212 0.9524
10.0079 7.2711 -0.3256 0.9517
10.3623 8.0015 -0.3446 0.9490
28.7519 22.8798 -0.9673 0.8633
28.0790 23.7169 -0.9676 0.8632
27.3820 24.5343 -0.9678 0.8632
27.0247 24.9356 -0.9680 0.8632
26.2924 25.7223 -0.9683 0.8631
25.9178 26.1078 -0.9684 0.8631
25.1520 26.8627 -0.9687 0.8631
23.9626 27.9530 -0.9692 0.8630
23.5556 28.3050 -0.9694 0.8630
6.0158 7.6741 -0.2567 0.9617
5.5562 7.7661 -0.2514 0.9625
4.9187 7.8009 -0.2428 0.9638
4.5497 7.9698 -0.2416 0.9639
4.4257 8.0225 -0.2412 0.9640
3.9330 8.2327 -0.2402 0.9641
1.6696 3.6304 -0.1052 0.9841
1.5008 3.5315 -0.1010 0.9848
1.4431 3.5387 -0.1006 0.9848
1.2172 3.5678 -0.0992 0.9850
1.1059 3.5809 -0.0987 0.9851
1.0508 3.5874 -0.0984 0.9852
0.8876 3.6098 -0.0979 0.9852
0.8342 3.6201 -0.0978 0.9852
0.5142 3.6801 -0.0978 0.9852
0.4071 3.6993 -0.0980 0.9852
0.3039 3.7734 -0.0997 0.9850
0.8150 37.1772 -0.9789 0.8617
0.2718 37.1941 -0.9791 0.8617
-1.9032 37.1823 -0.9801 0.8616
-2.4469 37.1593 -0.9803 0.8616
-2.9903 37.1283 -0.9805 0.8615
-0.9175 6.5670 -0.1746 0.9738
-0.9725 6.2885 -0.1675 0.9749
-1.0255 6.0453 -0.1614 0.9758
-1.0716 5.8018 -0.1553 0.9767
-1.1779 5.1115 -0.1381 0.9792
-1.2088 4.9164 -0.1333 0.9799
-1.2401 4.7434 -0.1291 0.9806
-1.2671 4.5728 -0.1249 0.9812
-1.2901 4.4044 -0.1208 0.9818
-1.3393 4.1219 -0.1141 0.9828
-1.3448 3.9420 -0.1096 0.9835
-1.4209 3.6351 -0.1027 0.9845
-1.6629 3.4808 -0.1015 0.9847
-1.7909 3.4834 -0.1031 0.9844
-1.8612 3.4935 -0.1042 0.9843
-2.0793 3.5218 -0.1077 0.9838
-2.1572 3.5347 -0.1090 0.9836
-2.2365 3.5470 -0.1104 0.9834
-2.4865 3.5851 -0.1149 0.9827
-2.5763 3.6010 -0.1166 0.9824
-2.6682 3.6165 -0.1183 0.9822
-4.4685 5.5318 -0.1872 0.9719
-4.4881 5.3930 -0.1847 0.9723
-4.5275 5.1278 -0.1801 0.9730
-4.5879 4.7586 -0.1740 0.9739
-4.6068 4.6405 -0.1721 0.9742
-4.6421 4.4105 -0.1686 0.9747
-4.7189 3.9858 -0.1626 0.9756
-4.7326 3.8803 -0.1611 0.9758
-4.7520 3.7814 -0.1599 0.9760
-4.7835 3.6937 -0.1591 0.9761
-4.8188 3.6098 -0.1585 0.9762
-0.7743 0.5287 -0.0247 0.9963
-0.7683 0.4923 -0.0240 0.9964
-0.7596 0.4410 -0.0231 0.9965
-0.7569 0.4247 -0.0228 0.9965
-0.7542 0.4089 -0.0226 0.9966
-0.7515 0.3933 -0.0223 0.9966
-0.7460 0.3630 -0.0218 0.9967
-0.7360 0.3191 -0.0211 0.9968
-0.7297 0.2914 -0.0207 0.9969
-0.7266 0.2779 -0.0205 0.9969
-0.7175 0.2389 -0.0199 0.9970
-0.7116 0.2141 -0.0196 0.9970
-0.7071 0.1903 -0.0193 0.9971
-0.7014 0.1562 -0.0189 0.9971
-0.6996 0.1451 -0.0188 0.9971
-0.6959 0.1233 -0.0186 0.9972
-0.6941 0.1125 -0.0185 0.9972
-0.6922 0.1018 -0.0184 0.9972
-0.6885 0.0808 -0.0183 0.9972
-0.6867 0.0704 -0.0182 0.9972
-0.6849 0.0602 -0.0181 0.9973
-0.6775 0.0198 -0.0178 0.9973
-0.6464 -0.0001 -0.0242 0.9974
-0.6492 -0.0190 -0.0243 0.9974
-0.6506 -0.0286 -0.0244 0.9974
-0.6522 -0.0382 -0.0244 0.9974
-0.6539 -0.0479 -0.0245 0.9974
-0.6555 -0.0577 -0.0246 0.9974
-0.6604 -0.0874 -0.0249 0.9973
-0.6621 -0.0975 -0.0250 0.9973
-0.6637 -0.1077 -0.0252 0.9973
-0.6653 -0.1179 -0.0253 0.9973
-0.6669 -0.1283 -0.0254 0.9973
-0.6685 -0.1388 -0.0255 0.9973
-0.6701 -0.1493 -0.0257 0.9973
-0.6749 -0.1818 -0.0262 0.9972
-0.6765 -0.1928 -0.0263 0.9972
-0.6842 -0.2279 -0.0270 0.9971
-0.6929 -0.2651 -0.0278 0.9970
-0.6988 -0.2910 -0.0283 0.9970
-0.7016 -0.3042 -0.0286 0.9969
-0.7043 -0.3177 -0.0289 0.9969
-0.7070 -0.3315 -0.0292 0.9969
-0.7218 -0.4191 -0.0312 0.9967
-0.7263 -0.4507 -0.0320 0.9966
-0.7286 -0.4670 -0.0324 0.9965
-0.7309 -0.4836 -0.0328 0.9965
-0.7357 -0.5183 -0.0337 0.9964
-0.7381 -0.5363 -0.0341 0.9964
-0.7540 -0.5648 -0.0353 0.9962
-0.8644 -0.6675 -0.0409 0.9956
-9.2764 -8.0705 -0.4601 0.9520
-8.7329 -8.0579 -0.4446 0.9536
-7.7502 -8.0387 -0.4178 0.9563
-7.2915 -8.0192 -0.4055 0.9575
-7.0761 -8.0145 -0.4000 0.9581
-6.8526 -8.2344 -0.4008 0.9580
-6.7933 -8.9318 -0.4199 0.9561
-6.7916 -9.2057 -0.4280 0.9552
-1.9752 -2.7609 -0.1270 0.9865
-1.6940 -2.5203 -0.1136 0.9879
-1.5892 -2.6040 -0.1141 0.9879
-1.5436 -2.7040 -0.1165 0.9876
-1.4040 -2.6355 -0.1117 0.9881
-1.3506 -2.7241 -0.1138 0.9879
-1.2431 -2.7030 -0.1113 0.9882
-1.2039 -2.7218 -0.1114 0.9882
-1.1287 -2.6561 -0.1080 0.9885
-1.1237 -2.7555 -0.1113 0.9882
-1.0757 -2.7521 -0.1106 0.9882
-0.9815 -2.7452 -0.1091 0.9884
-2.6350 -8.1098 -0.3191 0.9664
-2.3741 -8.1055 -0.3160 0.9668
-1.9846 -8.0712 -0.3110 0.9673
-1.8577 -8.0616 -0.3095 0.9674
-1.7318 -8.0513 -0.3081 0.9676
-0.7652 -8.0328 -0.3019 0.9682
-0.6471 -8.0341 -0.3016 0.9683
-0.3324 -9.0962 -0.3406 0.9642
-0.5735 -26.1630 -0.9792 0.9005
0.1911 -26.1602 -0.9789 0.9006
0.9552 -26.1354 -0.9786 0.9006
1.3367 -26.1144 -0.9784 0.9006
1.7179 -26.0879 -0.9783 0.9006
1.1900 -10.8154 -0.4071 0.9574
1.4613 -10.4592 -0.3952 0.9586
1.6107 -10.4158 -0.3944 0.9587
1.7692 -10.4288 -0.3958 0.9585
2.1104 -10.5594 -0.4029 0.9578
5.4894 -25.5200 -0.9767 0.9008
5.8608 -25.4330 -0.9766 0.9008
6.2309 -25.3409 -0.9764 0.9008
7.3320 -25.0319 -0.9760 0.9009
7.6958 -24.9184 -0.9758 0.9009
3.8813 -10.8555 -0.4314 0.9549
3.9885 -9.3859 -0.3816 0.9600
4.1486 -9.3793 -0.3837 0.9598
4.3105 -9.3727 -0.3860 0.9595
5.3587 -9.3868 -0.4044 0.9577
13.2287 -22.4059 -0.9736 0.9011
7.1465 -11.7100 -0.5133 0.9466
7.0178 -11.1301 -0.4923 0.9487
7.0742 -10.8644 -0.4851 0.9494
6.9472 -10.3359 -0.4660 0.9514
7.1051 -10.2442 -0.4665 0.9513
7.4213 -10.0592 -0.4677 0.9512
7.4432 -9.4951 -0.4514 0.9529
2.4937 -2.9965 -0.1459 0.9845
2.5388 -2.9617 -0.1460 0.9845
2.5841 -2.9268 -0.1461 0.9845
2.6749 -2.8569 -0.1464 0.9845
2.7168 -2.7368 -0.1443 0.9847
2.7064 -2.6477 -0.1417 0.9850
2.6735 -2.5402 -0.1380 0.9853
2.7927 -2.5769 -0.1422 0.9849
2.8837 -2.4358 -0.1412 0.9850
2.8923 -2.3715 -0.1399 0.9851
2.8775 -2.2899 -0.1376 0.9854
3.1629 -2.2980 -0.1463 0.9845
3.4615 -2.4385 -0.1584 0.9832
11.6514 -7.9557 -0.5279 0.9451
12.0175 -7.9507 -0.5392 0.9440
12.3861 -7.9369 -0.5504 0.9428
12.7878 -7.9331 -0.5631 0.9415
5.8128 -3.3750 -0.2515 0.9735
5.8756 -3.2976 -0.2521 0.9734
5.6253 -3.0499 -0.2394 0.9747
5.6274 -2.9455 -0.2377 0.9749
5.6296 -2.8426 -0.2360 0.9751
5.6318 -2.7413 -0.2344 0.9752
5.6342 -2.6412 -0.2328 0.9754
5.6393 -2.4453 -0.2300 0.9757
5.9587 -2.1798 -0.2374 0.9749
6.4468 -2.2521 -0.2555 0.9730
8.9309 -2.6869 -0.3490 0.9634
9.2382 -2.3432 -0.3566 0.9626
9.4805 -2.1119 -0.3634 0.9619
12.0140 -2.4925 -0.4591 0.9521
12.2794 -2.3611 -0.4679 0.9512
12.3310 -2.1846 -0.4686 0.9511
12.3714 -2.0058 -0.4689 0.9511
26.0082 -3.8277 -0.9836 0.9001
25.6352 -3.3908 -0.9676 0.9017
22.1493 -2.6011 -0.8345 0.9146
25.7578 -2.2641 -0.9675 0.9017
25.8142 -1.8894 -0.9685 0.9016
26.2604 -1.1520 -0.9835 0.9001
26.2742 -0.7681 -0.9835 0.9001
26.2826 -0.3841 -0.9835 0.9001
26.2854 -0.0000 -0.9835 0.9001
26.2826 0.3840 -0.9835 0.9001
26.2742 0.7680 -0.9835 0.9001
26.2603 1.1519 -0.9835 0.9001
26.2410 1.5354 -0.9835 0.9001
26.2160 1.9187 -0.9836 0.9001
26.1079 3.0659 -0.9836 0.9001
26.0608 3.4470 -0.9836 0.9001
25.1982 5.6130 -0.9660 0.9018
11.5462 2.7497 -0.4441 0.9536
10.6608 2.8704 -0.4131 0.9568
9.4032 3.2848 -0.3727 0.9609
9.4248 3.4477 -0.3755 0.9606
9.3376 3.8877 -0.3785 0.9603
9.4009 4.2405 -0.3859 0.9596
9.4546 4.6018 -0.3934 0.9588
9.8638 5.9213 -0.4305 0.9550
10.0182 6.4195 -0.4452 0.9535
9.9370 6.7850 -0.4502 0.9530
10.2770 7.6986 -0.4805 0.9499
10.2653 7.9266 -0.4853 0.9494
20.2997 16.1537 -0.9707 0.9014
20.0636 16.4504 -0.9708 0.9014
19.8229 16.7434 -0.9709 0.9013
19.0762 17.6014 -0.9712 0.9013
18.5577 18.1553 -0.9714 0.9013
18.2925 18.4266 -0.9715 0.9013
17.7502 18.9575 -0.9717 0.9013
17.4733 19.2170 -0.9719 0.9013
16.9083 19.7240 -0.9721 0.9012
6.2309 7.7137 -0.3710 0.9611
6.0728 7.7468 -0.3683 0.9614
5.9169 7.7795 -0.3657 0.9616
5.7633 7.8117 -0.3632 0.9619
5.2328 7.7851 -0.3510 0.9631
5.0948 7.8244 -0.3494 0.9633
4.7050 7.7093 -0.3379 0.9645
4.5921 8.0439 -0.3466 0.9636
4.4668 8.0970 -0.3460 0.9637
3.9694 8.3088 -0.3446 0.9638
1.6643 3.6187 -0.1490 0.9842
1.5758 3.5625 -0.1458 0.9845
1.4386 3.5275 -0.1425 0.9849
1.3817 3.5350 -0.1420 0.9849
1.3253 3.5423 -0.1415 0.9850
1.0476 3.5766 -0.1395 0.9852
0.9929 3.5831 -0.1391 0.9852
0.9384 3.5895 -0.1388 0.9853
0.8850 3.5991 -0.1387 0.9853
0.8317 3.6092 -0.1386 0.9853
0.7786 3.6194 -0.1385 0.9853
0.7254 3.6296 -0.1385 0.9853
0.5659 3.6593 -0.1386 0.9853
0.3530 3.7048 -0.1393 0.9852
0.5733 26.1513 -0.9788 0.9006
0.1912 26.1613 -0.9789 0.9006
-0.1912 26.1657 -0.9791 0.9006
-0.5735 26.1646 -0.9792 0.9005
-0.9560 26.1578 -0.9794 0.9005
-1.3383 26.1454 -0.9796 0.9005
-1.7204 26.1276 -0.9797 0.9005
-2.1024 26.1040 -0.9799 0.9005
-2.8652 26.0401 -0.9802 0.9004
-3.2459 25.9998 -0.9804 0.9004
-0.9102 6.5149 -0.2461 0.9740
-0.9688 6.2652 -0.2372 0.9749
-1.0250 6.0425 -0.2293 0.9758
-1.1121 5.5644 -0.2123 0.9775
-1.1463 5.3294 -0.2040 0.9784
-1.1773 5.1091 -0.1962 0.9792
-1.2070 4.9091 -0.1892 0.9800
-1.2383 4.7366 -0.1832 0.9806
-1.3811 3.6916 -0.1475 0.9843
-1.4165 3.6240 -0.1456 0.9845
-1.7190 3.4671 -0.1448 0.9846
-1.7851 3.4720 -0.1461 0.9845
-1.9259 3.4911 -0.1492 0.9842
-2.3094 3.5467 -0.1584 0.9832
-2.4781 3.5729 -0.1627 0.9827
-2.6585 3.6035 -0.1676 0.9822
-2.7763 3.6502 -0.1716 0.9818
-4.4335 5.6556 -0.2689 0.9716
-4.5529 4.8626 -0.2493 0.9737
-4.5910 4.6246 -0.2438 0.9743
-4.6127 4.5126 -0.2415 0.9745
-4.6334 4.4023 -0.2391 0.9747
-4.6531 4.2934 -0.2369 0.9750
-4.6683 4.1828 -0.2345 0.9752
-4.7139 3.8650 -0.2281 0.9759
-4.7328 3.7661 -0.2263 0.9761
-0.8644 0.6674 -0.0409 0.9956
-0.7539 0.5648 -0.0352 0.9962
-0.7381 0.5362 -0.0341 0.9964
-0.7333 0.5006 -0.0332 0.9965
-0.7309 0.4836 -0.0328 0.9965
-0.7263 0.4505 -0.0320 0.9966
-0.7241 0.4346 -0.0316 0.9966
-0.7196 0.4038 -0.0309 0.9967
-0.7153 0.3743 -0.0302 0.9968
-0.6871 0.2400 -0.0272 0.9971
-0.6732 0.1707 -0.0260 0.9972
-0.6717 0.1599 -0.0258 0.9972
-0.6701 0.1492 -0.0257 0.9973
-0.6685 0.1387 -0.0255 0.9973
-0.6669 0.1282 -0.0254 0.9973
-0.6637 0.1075 -0.0252 0.9973
-0.6621 0.0974 -0.0250 0.9973
-0.6604 0.0873 -0.0249 0.9973
-0.6572 0.0674 -0.0247 0.9974
-0.6555 0.0576 -0.0246 0.9974
-0.6539 0.0478 -0.0245 0.9974
-0.6522 0.0381 -0.0244 0.9974
-0.6478 0.0094 -0.0242 0.9974
-0.6221 -0.0091 -0.0302 0.9975
-0.6246 -0.0274 -0.0303 0.9975
-0.6258 -0.0366 -0.0304 0.9975
-0.6286 -0.0553 -0.0306 0.9975
-0.6300 -0.0647 -0.0307 0.9975
-0.6315 -0.0742 -0.0309 0.9975
-0.6358 -0.1031 -0.0313 0.9974
-0.6386 -0.1229 -0.0316 0.9974
-0.6400 -0.1329 -0.0317 0.9974
-0.6468 -0.1844 -0.0326 0.9973
-0.6482 -0.1950 -0.0328 0.9973
-0.6518 -0.2171 -0.0333 0.9973
-0.6588 -0.2520 -0.0342 0.9972
-0.6613 -0.2641 -0.0346 0.9972
-0.6689 -0.3018 -0.0356 0.9971
-0.6714 -0.3148 -0.0360 0.9970
-0.6741 -0.3281 -0.0364 0.9970
-0.6766 -0.3417 -0.0368 0.9970
-0.6819 -0.3698 -0.0376 0.9969
-0.6846 -0.3842 -0.0381 0.9969
-0.6862 -0.3985 -0.0385 0.9968
-0.6879 -0.4130 -0.0389 0.9968
-0.8411 -0.6897 -0.0528 0.9957
-9.5518 -8.0680 -0.6066 0.9512
-8.4743 -8.0516 -0.5672 0.9543
-8.2245 -8.0462 -0.5583 0.9550
-7.9827 -8.0413 -0.5498 0.9556
-7.7486 -8.0370 -0.5417 0.9563
-7.2915 -8.0191 -0.5259 0.9575
-7.0761 -8.0145 -0.5187 0.9581
-6.8372 -8.2158 -0.5186 0.9581
-6.7829 -8.6529 -0.5334 0.9569
-6.7730 -8.9051 -0.5428 0.9562
-1.8950 -2.7324 -0.1613 0.9868
-1.6886 -2.5122 -0.1469 0.9880
-1.6601 -2.6329 -0.1510 0.9876
-1.5982 -2.6188 -0.1489 0.9878
-1.5269 -2.6746 -0.1494 0.9877
-1.4154 -2.7530 -0.1502 0.9877
-1.2494 -2.7168 -0.1451 0.9881
-1.1964 -2.7049 -0.1435 0.9882
-1.0788 -2.7601 -0.1438 0.9882
-2.5015 -8.0997 -0.4113 0.9666
-2.3717 -8.0971 -0.4094 0.9668
-2.2410 -8.0871 -0.4072 0.9670
-2.1107 -8.0736 -0.4049 0.9671
-1.9819 -8.0603 -0.4027 0.9673
-1.8546 -8.0483 -0.4007 0.9675
-1.7287 -8.0366 -0.3988 0.9676
-1.6308 -8.1599 -0.4037 0.9672
-1.4796 -8.0105 -0.3952 0.9679
-1.3584 -8.0079 -0.3941 0.9680
-1.2379 -8.0053 -0.3930 0.9681
-1.1181 -8.0027 -0.3921 0.9682
-0.9030 -8.2067 -0.4006 0.9675
-0.5274 -8.0104 -0.3895 0.9684
-0.4152 -8.1112 -0.3941 0.9680
0.7367 -20.1568 -0.9787 0.9224
1.1790 -10.7146 -0.5230 0.9578
1.3030 -10.4369 -0.5103 0.9588
1.4512 -10.3867 -0.5089 0.9589
1.5995 -10.3434 -0.5078 0.9590
1.7560 -10.3516 -0.5094 0.9588
1.9128 -10.3557 -0.5109 0.9587
2.0920 -10.4671 -0.5179 0.9582
2.2925 -10.6576 -0.5289 0.9573
4.5223 -19.6244 -0.9771 0.9225
3.3499 -11.4368 -0.5782 0.9534
3.5968 -11.0699 -0.5647 0.9545
3.7021 -10.8517 -0.5563 0.9551
4.0076 -10.7120 -0.5549 0.9552
4.8191 -9.3732 -0.5114 0.9587
4.9957 -9.3772 -0.5155 0.9583
5.1814 -9.3924 -0.5205 0.9580
7.1841 -11.7716 -0.6691 0.9463
6.9315 -10.3125 -0.6029 0.9515
8.0436 -9.9578 -0.6211 0.9500
2.5450 -2.9688 -0.1897 0.9845
2.6358 -2.8989 -0.1901 0.9844
2.6814 -2.8638 -0.1903 0.9844
2.6559 -2.7548 -0.1857 0.9848
2.7299 -2.7500 -0.1880 0.9846
2.6500 -2.5927 -0.1799 0.9853
2.8043 -2.5876 -0.1851 0.9848
2.8760 -2.5770 -0.1874 0.9847
2.8986 -2.4484 -0.1841 0.9849
2.8877 -2.2980 -0.1791 0.9853
3.1246 -2.4128 -0.1915 0.9843
3.1506 -2.3602 -0.1910 0.9844
11.3473 -7.9936 -0.6735 0.9459
11.6519 -7.9561 -0.6846 0.9451
5.4545 -3.4952 -0.3143 0.9744
5.7067 -3.3133 -0.3202 0.9739
5.7794 -3.2436 -0.3216 0.9738
5.4760 -2.7651 -0.2976 0.9757
5.6114 -2.7313 -0.3028 0.9753
5.6986 -2.6714 -0.3054 0.9751
5.7412 -2.1959 -0.2982 0.9757
5.8252 -2.1309 -0.3009 0.9755
6.1772 -2.1579 -0.3175 0.9741
6.1571 -2.0505 -0.3149 0.9743
8.8248 -2.7962 -0.4492 0.9636
8.8644 -2.6669 -0.4491 0.9636
9.5533 -2.1281 -0.4749 0.9616
12.3143 -2.1816 -0.6068 0.9512
12.5228 -2.0303 -0.6155 0.9505
19.8176 -2.6213 -0.9699 0.9231
19.8534 -2.3315 -0.9699 0.9231
20.2432 -1.7794 -0.9860 0.9218
20.3013 -0.8905 -0.9860 0.9218
20.3120 -0.5938 -0.9859 0.9218
20.3185 -0.2970 -0.9859 0.9218
20.3186 0.2969 -0.9859 0.9218
20.2862 1.1870 -0.9860 0.9218
20.2669 1.4833 -0.9860 0.9218
20.1466 2.6648 -0.9860 0.9218
20.0609 3.2524 -0.9860 0.9218
20.0116 3.5453 -0.9861 0.9218
10.7646 2.8984 -0.5409 0.9563
10.3626 2.9532 -0.5228 0.9578
9.3575 3.1162 -0.4785 0.9613
9.4197 3.6027 -0.4893 0.9604
9.3394 3.8884 -0.4908 0.9603
9.3696 4.0627 -0.4955 0.9599
9.4029 4.2414 -0.5005 0.9595
9.4560 4.6025 -0.5103 0.9588
9.6944 5.0741 -0.5309 0.9571
9.8193 5.7011 -0.5509 0.9555
9.8631 5.9209 -0.5582 0.9550
10.1636 6.5126 -0.5857 0.9528
10.0101 7.2727 -0.6003 0.9517
15.8645 12.2501 -0.9725 0.9229
15.6850 12.4816 -0.9726 0.9229
15.3160 12.9365 -0.9727 0.9229
14.7379 13.5986 -0.9730 0.9228
14.3366 14.0257 -0.9731 0.9228
14.1313 14.2349 -0.9732 0.9228
13.7118 14.6443 -0.9734 0.9228
13.0604 15.2353 -0.9736 0.9228
6.4537 7.7548 -0.4895 0.9604
6.0815 7.7579 -0.4783 0.9613
5.9732 7.8534 -0.4787 0.9613
5.6379 7.8803 -0.4701 0.9619
5.4671 7.8825 -0.4654 0.9623
4.8410 7.9322 -0.4509 0.9635
4.7208 7.9957 -0.4505 0.9635
4.5521 7.9737 -0.4455 0.9639
4.5087 8.1729 -0.4529 0.9633
3.9715 8.3132 -0.4470 0.9638
1.5686 3.5463 -0.1881 0.9846
1.3774 3.5239 -0.1836 0.9850
1.3212 3.5314 -0.1829 0.9850
1.2653 3.5387 -0.1823 0.9851
1.1544 3.5527 -0.1812 0.9852
0.9899 3.5723 -0.1799 0.9853
0.9356 3.5787 -0.1795 0.9853
0.5642 3.6482 -0.1791 0.9853
0.4579 3.6673 -0.1793 0.9853
0.4049 3.6792 -0.1796 0.9853
0.3017 3.7455 -0.1823 0.9851
1.0310 20.1411 -0.9785 0.9224
0.4421 20.1675 -0.9788 0.9224
-0.1474 20.1768 -0.9790 0.9224
-0.7371 20.1688 -0.9792 0.9224
-1.0318 20.1583 -0.9794 0.9223
-1.3264 20.1436 -0.9795 0.9223
-1.9149 20.1005 -0.9797 0.9223
-2.2087 20.0730 -0.9798 0.9223
-2.5020 20.0411 -0.9799 0.9223
-0.9114 6.5232 -0.3196 0.9740
-0.9655 6.2438 -0.3065 0.9750
-1.0238 6.0352 -0.2970 0.9758
-1.1768 5.1066 -0.2543 0.9792
-1.2061 4.9053 -0.2451 0.9800
-1.2365 4.7298 -0.2372 0.9806
-1.2764 4.3577 -0.2203 0.9820
-1.2984 4.2041 -0.2135 0.9825
-1.3252 3.8845 -0.1991 0.9837
-1.3768 3.6802 -0.1906 0.9844
-1.5979 3.4745 -0.1856 0.9848
-1.7146 3.4583 -0.1873 0.9847
-1.7793 3.4607 -0.1888 0.9845
-1.8490 3.4706 -0.1908 0.9844
-1.9202 3.4806 -0.1929 0.9842
-1.9923 3.4900 -0.1950 0.9840
-2.3023 3.5358 -0.2047 0.9832
-2.5572 3.5744 -0.2132 0.9826
-4.5827 4.6163 -0.3156 0.9743
-4.6234 4.3928 -0.3094 0.9748
-4.6727 4.0652 -0.3005 0.9755
-4.6707 3.9451 -0.2966 0.9758
-0.7017 0.5418 -0.0430 0.9965
-0.7000 0.5243 -0.0424 0.9965
-0.6982 0.5073 -0.0419 0.9965
-0.6965 0.4906 -0.0413 0.9966
-0.6948 0.4743 -0.0408 0.9966
-0.6896 0.4278 -0.0394 0.9968
-0.6862 0.3984 -0.0385 0.9968
-0.6820 0.3697 -0.0376 0.9969
-0.6740 0.3280 -0.0364 0.9970
-0.6689 0.3017 -0.0356 0.9971
-0.6638 0.2764 -0.0349 0.9971
-0.6588 0.2520 -0.0342 0.9972
-0.6539 0.2284 -0.0336 0.9972
-0.6517 0.2170 -0.0333 0.9973
-0.6500 0.2059 -0.0331 0.9973
-0.6482 0.1950 -0.0328 0.9973
-0.6468 0.1843 -0.0326 0.9973
-0.6454 0.1737 -0.0324 0.9973
-0.6428 0.1530 -0.0321 0.9974
-0.6414 0.1428 -0.0319 0.9974
-0.6372 0.1128 -0.0314 0.9974
-0.6358 0.1030 -0.0313 0.9974
-0.6344 0.0934 -0.0311 0.9974
-0.6285 0.0552 -0.0306 0.9975
-0.6258 0.0366 -0.0304 0.9975
-0.6234 0.0182 -0.0303 0.9975
-0.5971 -0.0000 -0.0356 0.9976
-0.5983 -0.0088 -0.0357 0.9976
-0.6006 -0.0264 -0.0359 0.9976
-0.6028 -0.0441 -0.0360 0.9976
-0.6038 -0.0531 -0.0361 0.9976
-0.6050 -0.0621 -0.0363 0.9976
-0.6063 -0.0712 -0.0364 0.9976
-0.6076 -0.0804 -0.0366 0.9975
-0.6089 -0.0896 -0.0367 0.9975
-0.6102 -0.0990 -0.0369 0.9975
-0.6126 -0.1178 -0.0372 0.9975
-0.6150 -0.1370 -0.0376 0.9975
-0.6162 -0.1468 -0.0378 0.9975
-0.6207 -0.1868 -0.0387 0.9974
-0.6234 -0.2077 -0.0392 0.9974
-0.6264 -0.2292 -0.0398 0.9973
-0.6300 -0.2516 -0.0405 0.9973
-0.6427 -0.3246 -0.0429 0.9971
-0.6448 -0.3375 -0.0434 0.9971
-0.6470 -0.3508 -0.0439 0.9971
-0.6491 -0.3643 -0.0444 0.9970
-0.6513 -0.3782 -0.0449 0.9970
-0.6569 -0.4210 -0.0465 0.9969
-0.6582 -0.4355 -0.0471 0.9968
-0.6630 -0.4967 -0.0494 0.9967
-0.6641 -0.5129 -0.0500 0.9966
-0.6665 -0.5465 -0.0514 0.9966
-0.8167 -0.7105 -0.0646 0.9957
-8.4742 -8.0516 -0.6971 0.9542
-7.0761 -8.0145 -0.6376 0.9581
-6.9255 -8.0787 -0.6346 0.9583
-6.8319 -8.2094 -0.6369 0.9581
-6.7911 -8.6633 -0.6564 0.9568
-6.7879 -9.4877 -0.6957 0.9543
-1.8987 -2.7376 -0.1987 0.9867
-1.6622 -2.5528 -0.1817 0.9879
-1.5879 -2.6895 -0.1862 0.9876
-1.4172 -2.4825 -0.1705 0.9886
-1.4195 -2.5733 -0.1753 0.9883
-1.4247 -2.7712 -0.1858 0.9876
-1.2993 -2.7198 -0.1797 0.9880
-1.1890 -2.6882 -0.1753 0.9883
-1.1303 -2.7717 -0.1785 0.9881
-1.0342 -2.7645 -0.1760 0.9882
-2.7585 -8.0860 -0.5095 0.9663
-2.4961 -8.0821 -0.5044 0.9667
-2.2382 -8.0771 -0.4998 0.9670
-1.9795 -8.0505 -0.4944 0.9673
-1.8521 -8.0374 -0.4919 0.9675
-1.4796 -8.0105 -0.4858 0.9679
-1.2379 -8.0053 -0.4831 0.9681
-0.9987 -8.0002 -0.4808 0.9682
-0.8800 -7.9976 -0.4798 0.9683
-0.7630 -8.0098 -0.4798 0.9683
-0.6465 -8.0270 -0.4802 0.9682
-0.5275 -8.0110 -0.4788 0.9683
-0.3598 -16.4146 -0.9791 0.9363
-0.1199 -16.4165 -0.9790 0.9363
0.2721 -12.4123 -0.7404 0.9515
0.5994 -16.4011 -0.9787 0.9364
0.8389 -16.3890 -0.9786 0.9364
1.0782 -16.3734 -0.9785 0.9364
1.2934 -10.3600 -0.6226 0.9590
1.8985 -10.2785 -0.6233 0.9590
3.4473 -16.0261 -0.9775 0.9364
3.6807 -15.9725 -0.9775 0.9364
4.1451 -15.8552 -0.9773 0.9364
3.4300 -11.7102 -0.7277 0.9523
3.5408 -11.4649 -0.7156 0.9531
3.6535 -11.2444 -0.7050 0.9537
4.2256 -10.8109 -0.6922 0.9546
3.8397 -9.4154 -0.6064 0.9601
4.4874 -9.3933 -0.6208 0.9591
4.6556 -9.3902 -0.6250 0.9589
4.8273 -9.3892 -0.6296 0.9586
8.0885 -14.1686 -0.9729 0.9367
8.4976 -13.9238 -0.9727 0.9367
7.1964 -11.4133 -0.8046 0.9474
7.1068 -10.9144 -0.7767 0.9491
7.2277 -10.7532 -0.7726 0.9494
7.4157 -10.6921 -0.7760 0.9492
7.4574 -10.4236 -0.7643 0.9499
7.3709 -9.4029 -0.7125 0.9533
8.0572 -9.9747 -0.7646 0.9499
8.2068 -9.8615 -0.7651 0.9499
2.5511 -2.9760 -0.2337 0.9844
2.6687 -2.7680 -0.2293 0.9847
2.8160 -2.5984 -0.2285 0.9848
2.8912 -2.5906 -0.2315 0.9846
2.8023 -2.4380 -0.2215 0.9852
2.9137 -2.4610 -0.2274 0.9848
2.8980 -2.3062 -0.2209 0.9853
3.1397 -2.3520 -0.2339 0.9844
11.5961 -8.1688 -0.8459 0.9447
11.6456 -7.9518 -0.8409 0.9451
13.9572 -8.9436 -0.9885 0.9357
5.7367 -3.5589 -0.4026 0.9733
5.7562 -3.4555 -0.4004 0.9735
5.7051 -3.3124 -0.3934 0.9739
5.5429 -2.7988 -0.3703 0.9754
5.4796 -2.6671 -0.3634 0.9759
5.6926 -2.5679 -0.3724 0.9753
5.7643 -2.2047 -0.3680 0.9756
5.8821 -2.1518 -0.3735 0.9752
6.1803 -2.1590 -0.3904 0.9741
8.8524 -2.9480 -0.5564 0.9633
8.5447 -2.5708 -0.5321 0.9649
8.8566 -2.5241 -0.5492 0.9638
8.9178 -2.4012 -0.5507 0.9637
9.0498 -2.1552 -0.5548 0.9634
9.6022 -1.9922 -0.5848 0.9615
11.9735 -2.3022 -0.7271 0.9523
16.0800 -2.6071 -0.9714 0.9368
16.1162 -2.3718 -0.9714 0.9368
16.1946 -1.9018 -0.9724 0.9367
16.5152 -1.2088 -0.9875 0.9358
16.5432 -0.7257 -0.9875 0.9358
16.5520 -0.4839 -0.9875 0.9358
16.5573 -0.2420 -0.9875 0.9358
16.5573 0.2419 -0.9875 0.9358
16.5520 0.4838 -0.9875 0.9358
16.5432 0.7256 -0.9875 0.9358
16.5310 0.9673 -0.9875 0.9358
16.4959 1.4499 -0.9875 0.9358
16.4730 1.6908 -0.9875 0.9358
16.4468 1.9313 -0.9875 0.9358
16.3837 2.4111 -0.9875 0.9358
16.3469 2.6503 -0.9876 0.9358
16.3068 2.8889 -0.9876 0.9358
16.2160 3.3643 -0.9876 0.9358
16.1655 3.6009 -0.9876 0.9358
11.5142 3.8344 -0.7237 0.9525
11.5765 4.2348 -0.7351 0.9518
11.6024 4.4375 -0.7408 0.9514
15.3857 6.1436 -0.9879 0.9358
9.4322 4.4216 -0.6212 0.9591
9.4555 4.6022 -0.6271 0.9587
11.8231 6.6354 -0.8085 0.9471
13.9536 8.3762 -0.9705 0.9369
10.2089 6.5416 -0.7231 0.9526
9.9751 7.0269 -0.7276 0.9523
10.0081 7.2712 -0.7377 0.9516
13.0304 9.7609 -0.9709 0.9368
12.8872 9.9509 -0.9709 0.9368
12.7412 10.1387 -0.9710 0.9368
12.4762 10.5380 -0.9739 0.9367
12.1646 10.8995 -0.9740 0.9366
12.0048 11.0768 -0.9741 0.9366
11.6776 11.4244 -0.9742 0.9366
11.5102 11.5945 -0.9743 0.9366
11.3403 11.7623 -0.9743 0.9366
11.1681 11.9276 -0.9744 0.9366
6.3524 7.8641 -0.6028 0.9603
5.5368 7.9830 -0.5793 0.9618
5.1885 7.7192 -0.5546 0.9634
4.9933 7.6685 -0.5457 0.9640
4.8014 7.8673 -0.5496 0.9637
4.6075 7.8038 -0.5404 0.9643
4.5189 8.1914 -0.5579 0.9632
4.3689 8.2006 -0.5541 0.9635
4.0787 7.9330 -0.5319 0.9649
1.6537 3.5956 -0.2360 0.9843
1.3731 3.5130 -0.2249 0.9850
1.2613 3.5278 -0.2234 0.9851
1.2059 3.5348 -0.2227 0.9851
1.1508 3.5418 -0.2221 0.9852
1.0413 3.5551 -0.2209 0.9853
0.9328 3.5680 -0.2199 0.9853
0.8797 3.5777 -0.2197 0.9853
0.8268 3.5878 -0.2196 0.9854
0.7740 3.5980 -0.2195 0.9854
0.4565 3.6562 -0.2197 0.9853
0.4040 3.6718 -0.2203 0.9853
0.3513 3.6877 -0.2209 0.9853
0.2499 3.7947 -0.2268 0.9849
0.8389 16.3887 -0.9786 0.9364
0.3597 16.4095 -0.9788 0.9363
-0.5997 16.4090 -0.9792 0.9363
-0.8395 16.4001 -0.9793 0.9363
-1.0791 16.3877 -0.9794 0.9363
-0.8536 6.8369 -0.4109 0.9728
-0.9653 6.2417 -0.3766 0.9750
-1.0225 6.0279 -0.3646 0.9758
-1.0705 5.7959 -0.3515 0.9767
-1.1448 5.3223 -0.3246 0.9784
-1.1762 5.1041 -0.3124 0.9792
-1.2056 4.9031 -0.3011 0.9800
-1.2591 4.5440 -0.2812 0.9813
-1.2738 4.3489 -0.2702 0.9820
-1.2888 4.1730 -0.2605 0.9827
-1.3220 3.8751 -0.2442 0.9837
-1.3421 3.7536 -0.2377 0.9842
-1.3717 3.6666 -0.2335 0.9844
-1.4079 3.6020 -0.2306 0.9846
-1.4471 3.5485 -0.2285 0.9848
-1.4931 3.5136 -0.2277 0.9848
-1.6515 3.4571 -0.2285 0.9848
-1.7103 3.4496 -0.2296 0.9847
-1.8410 3.4556 -0.2335 0.9844
-1.9122 3.4662 -0.2361 0.9843
-2.0579 3.4855 -0.2414 0.9839
-2.1332 3.4954 -0.2442 0.9837
-2.2103 3.5055 -0.2471 0.9835
-2.2891 3.5155 -0.2502 0.9833
-2.6248 3.5578 -0.2637 0.9824
-2.7308 3.5904 -0.2690 0.9821
-4.4605 5.3598 -0.4158 0.9724
-4.4810 5.2271 -0.4106 0.9728
-4.5010 5.0978 -0.4055 0.9731
-4.5205 4.9716 -0.4007 0.9734
-4.5396 4.8483 -0.3961 0.9737
-4.5582 4.7278 -0.3916 0.9740
-4.5766 4.6100 -0.3874 0.9743
-4.6333 4.2751 -0.3759 0.9751
-0.8166 0.7104 -0.0645 0.9957
-0.7163 0.6049 -0.0559 0.9963
-0.6665 0.5464 -0.0514 0.9966
-0.6642 0.5128 -0.0500 0.9966
-0.6630 0.4966 -0.0494 0.9967
-0.6618 0.4808 -0.0488 0.9967
-0.6606 0.4654 -0.0482 0.9968
-0.6581 0.4354 -0.0471 0.9968
-0.6569 0.4209 -0.0465 0.9969
-0.6536 0.3923 -0.0455 0.9970
-0.6513 0.3781 -0.0449 0.9970
-0.6491 0.3643 -0.0444 0.9970
-0.6448 0.3375 -0.0434 0.9971
-0.6427 0.3245 -0.0429 0.9971
-0.6405 0.3118 -0.0425 0.9971
-0.6384 0.2993 -0.0420 0.9972
-0.6300 0.2516 -0.0405 0.9973
-0.6280 0.2402 -0.0401 0.9973
-0.6249 0.2183 -0.0395 0.9974
-0.6196 0.1765 -0.0384 0.9974
-0.6173 0.1565 -0.0380 0.9975
-0.6162 0.1467 -0.0378 0.9975
-0.6150 0.1370 -0.0376 0.9975
-0.6138 0.1273 -0.0374 0.9975
-0.6126 0.1177 -0.0372 0.9975
-0.6089 0.0896 -0.0367 0.9975
-0.6076 0.0803 -0.0366 0.9975
-0.6063 0.0712 -0.0364 0.9976
-0.6050 0.0621 -0.0363 0.9976
-0.6028 0.0441 -0.0360 0.9976
-0.6006 0.0263 -0.0359 0.9976
-0.5983 0.0087 -0.0357 0.9976
-0.5763 -0.0084 -0.0408 0.9977
-0.5822 -0.0598 -0.0414 0.9977
-0.5831 -0.0685 -0.0415 0.9976
-0.5842 -0.0773 -0.0417 0.9976
-0.5854 -0.0862 -0.0419 0.9976
-0.5864 -0.0951 -0.0420 0.9976
-0.5876 -0.1041 -0.0422 0.9976
-0.5886 -0.1132 -0.0424 0.9976
-0.5907 -0.1316 -0.0428 0.9976
-0.5926 -0.1504 -0.0433 0.9976
-0.5963 -0.1890 -0.0443 0.9975
-0.5975 -0.1990 -0.0446 0.9975
-0.5987 -0.2092 -0.0449 0.9975
-0.5999 -0.2195 -0.0452 0.9974
-0.6023 -0.2405 -0.0459 0.9974
-0.6102 -0.2971 -0.0480 0.9973
-0.6119 -0.3090 -0.0485 0.9973
-0.6171 -0.3464 -0.0501 0.9972
-0.6187 -0.3593 -0.0506 0.9971
-0.6222 -0.3860 -0.0518 0.9971
-0.6240 -0.3999 -0.0524 0.9970
-0.6258 -0.4141 -0.0531 0.9970
-0.6274 -0.4284 -0.0538 0.9970
-0.6282 -0.4425 -0.0544 0.9969
-0.6297 -0.4718 -0.0557 0.9968
-0.6317 -0.5180 -0.0578 0.9967
-0.6323 -0.5341 -0.0586 0.9967
-0.6329 -0.5507 -0.0594 0.9966
-0.7910 -0.7298 -0.0762 0.9957
-10.0842 -9.8656 -0.9983 0.9450
-9.7768 -9.8486 -0.9820 0.9459
-7.7475 -8.0359 -0.7899 0.9562
-7.5129 -8.0240 -0.7778 0.9569
-6.8427 -8.2224 -0.7570 0.9580
-7.0136 -9.8033 -0.8530 0.9528
-1.9022 -2.7427 -0.2362 0.9867
-1.6778 -2.4962 -0.2128 0.9880
-1.6526 -2.6211 -0.2193 0.9877
-1.6166 -2.6490 -0.2196 0.9876
-1.5971 -2.7052 -0.2223 0.9875
-1.4259 -2.4977 -0.2035 0.9885
-1.4342 -2.7897 -0.2220 0.9875
-1.3879 -2.7994 -0.2211 0.9875
-1.3043 -2.7302 -0.2141 0.9879
-1.2596 -2.7389 -0.2133 0.9880
-1.1817 -2.6718 -0.2067 0.9884
-1.1337 -2.7799 -0.2124 0.9880
-2.6172 -8.0551 -0.5993 0.9666
-2.4867 -8.0519 -0.5963 0.9668
-2.3574 -8.0486 -0.5935 0.9669
-2.2302 -8.0482 -0.5910 0.9671
-2.1042 -8.0486 -0.5887 0.9672
-1.8495 -8.0259 -0.5828 0.9675
-1.7255 -8.0218 -0.5806 0.9676
-1.6495 -8.2530 -0.5955 0.9668
-1.4796 -8.0105 -0.5764 0.9679
-0.8800 -7.9976 -0.5693 0.9683
-0.7625 -8.0045 -0.5690 0.9683
-0.7360 -11.1772 -0.7926 0.9561
-0.5760 -11.2536 -0.7974 0.9558
0.7051 -13.7732 -0.9759 0.9462
1.1071 -13.7445 -0.9757 0.9462
1.3076 -13.7257 -0.9756 0.9462
1.5079 -13.7040 -0.9756 0.9462
1.7079 -13.6793 -0.9755 0.9462
1.7137 -11.0815 -0.7935 0.9560
2.3051 -13.5880 -0.9752 0.9462
2.5032 -13.5518 -0.9752 0.9462
3.0939 -13.4257 -0.9749 0.9463
3.2895 -13.3780 -0.9748 0.9463
3.4843 -13.3275 -0.9748 0.9463
3.6784 -13.2741 -0.9747 0.9463
3.8716 -13.2178 -0.9746 0.9463
3.6553 -11.2498 -0.8370 0.9537
3.8164 -11.1870 -0.8364 0.9537
4.1093 -10.9841 -0.8299 0.9541
4.2528 -10.8805 -0.8266 0.9542
4.0033 -9.4206 -0.7243 0.9598
4.1643 -9.4148 -0.7285 0.9596
4.4949 -9.4090 -0.7379 0.9590
5.6151 -10.9214 -0.8690 0.9519
5.7870 -10.8626 -0.8709 0.9518
5.9965 -10.8699 -0.8785 0.9514
6.8200 -11.9467 -0.9734 0.9463
6.9934 -11.8448 -0.9733 0.9463
7.1652 -11.7406 -0.9733 0.9463
7.4492 -10.4121 -0.9059 0.9500
7.2717 -9.5608 -0.8500 0.9530
2.6486 -2.9129 -0.2786 0.9843
2.7566 -2.7768 -0.2769 0.9844
2.9065 -2.6043 -0.2762 0.9845
2.8550 -2.4839 -0.2678 0.9849
2.9255 -2.3987 -0.2677 0.9849
2.9084 -2.3145 -0.2630 0.9852
3.1272 -2.4148 -0.2796 0.9843
11.6617 -7.7154 -0.9895 0.9455
11.7726 -7.5438 -0.9894 0.9455
5.7958 -3.4793 -0.4783 0.9733
5.6045 -3.1454 -0.4548 0.9746
5.3838 -2.3345 -0.4152 0.9767
5.4305 -2.2611 -0.4163 0.9767
5.4764 -2.1868 -0.4173 0.9766
5.5214 -2.1118 -0.4183 0.9766
5.5655 -2.0360 -0.4193 0.9765
8.8716 -2.9545 -0.6617 0.9632
8.9599 -2.8391 -0.6651 0.9630
8.6098 -2.5903 -0.6362 0.9646
8.5526 -2.4374 -0.6293 0.9650
8.6879 -2.3393 -0.6367 0.9646
8.9932 -2.2811 -0.6565 0.9635
12.3089 -2.3667 -0.8870 0.9510
13.5792 -2.2016 -0.9734 0.9463
13.8497 -1.8320 -0.9886 0.9455
13.8971 -1.4265 -0.9885 0.9455
13.9326 -1.0198 -0.9885 0.9455
13.9637 -0.4083 -0.9885 0.9455
13.9696 0.0000 -0.9885 0.9455
13.9637 0.4082 -0.9885 0.9455
13.9326 1.0197 -0.9885 0.9455
13.8748 1.6293 -0.9886 0.9455
13.7906 2.2359 -0.9886 0.9455
13.7197 2.6379 -0.9886 0.9455
13.6800 2.8382 -0.9886 0.9455
13.5432 3.4351 -0.9887 0.9455
13.4918 3.6327 -0.9887 0.9455
13.4377 3.8295 -0.9887 0.9455
13.3805 4.0255 -0.9888 0.9455
11.7914 3.7362 -0.8753 0.9516
11.5107 3.8332 -0.8585 0.9525
11.5434 4.0324 -0.8652 0.9522
13.0528 4.9922 -0.9889 0.9455
12.9788 5.1826 -0.9889 0.9455
9.5206 3.9639 -0.7298 0.9595
9.3679 4.0619 -0.7225 0.9599
9.3995 4.2398 -0.7297 0.9595
9.4284 4.4198 -0.7368 0.9591
12.4778 6.3004 -0.9891 0.9455
12.3848 6.4822 -0.9892 0.9455
11.9869 7.1958 -0.9893 0.9455
11.8811 7.3705 -0.9894 0.9455
10.0566 6.6534 -0.8533 0.9528
9.9705 7.0237 -0.8630 0.9523
10.9905 8.2328 -0.9717 0.9464
10.7463 8.5513 -0.9718 0.9464
10.6208 8.7079 -0.9719 0.9464
10.4929 8.8626 -0.9719 0.9464
10.0962 9.3154 -0.9721 0.9464
9.9596 9.4625 -0.9721 0.9464
9.6799 9.7506 -0.9722 0.9464
9.5370 9.8916 -0.9723 0.9464
9.2450 10.1673 -0.9724 0.9464
9.0960 10.3019 -0.9725 0.9464
6.6089 7.9414 -0.7311 0.9594
6.0546 7.7236 -0.6945 0.9614
5.6815 7.9412 -0.6909 0.9616
5.2329 7.7853 -0.6638 0.9631
4.5976 7.7870 -0.6399 0.9644
4.6639 8.1696 -0.6657 0.9630
4.5694 8.2830 -0.6694 0.9628
4.4651 8.3812 -0.6720 0.9626
4.0575 7.8919 -0.6279 0.9650
1.6484 3.5841 -0.2792 0.9843
1.5544 3.5142 -0.2719 0.9847
1.4879 3.5012 -0.2692 0.9849
1.4282 3.5021 -0.2676 0.9849
1.3130 3.5095 -0.2652 0.9851
1.2575 3.5168 -0.2643 0.9851
1.2022 3.5239 -0.2635 0.9852
1.1472 3.5308 -0.2627 0.9852
1.0926 3.5377 -0.2620 0.9853
1.0382 3.5444 -0.2613 0.9853
0.9840 3.5509 -0.2607 0.9853
0.9300 3.5573 -0.2602 0.9854
0.7189 3.5971 -0.2596 0.9854
0.5608 3.6262 -0.2596 0.9854
0.4555 3.6487 -0.2602 0.9854
0.3506 3.6802 -0.2616 0.9853
0.2994 3.7180 -0.2639 0.9852
0.5052 13.8220 -0.9787 0.9460
0.3032 13.8291 -0.9788 0.9460
0.1011 13.8332 -0.9789 0.9460
-0.1010 13.8343 -0.9790 0.9460
-0.7074 13.8202 -0.9792 0.9460
-0.9093 13.8095 -0.9793 0.9460
-1.3127 13.7793 -0.9795 0.9460
-1.5140 13.7598 -0.9795 0.9460
-0.8456 6.7732 -0.4830 0.9730
-1.0213 6.0205 -0.4321 0.9758
-1.0703 5.7946 -0.4170 0.9766
-1.1088 5.5481 -0.4004 0.9776
-1.1438 5.3172 -0.3849 0.9784
-1.1756 5.1017 -0.3705 0.9792
-1.2330 4.7163 -0.3450 0.9806
-1.2565 4.5345 -0.3330 0.9813
-1.2713 4.3402 -0.3200 0.9820
-1.2849 4.1605 -0.3081 0.9827
-1.3024 4.0084 -0.2982 0.9832
-1.3204 3.8704 -0.2894 0.9837
-1.3397 3.7470 -0.2816 0.9842
-1.3610 3.6380 -0.2749 0.9845
-1.6398 3.4325 -0.2692 0.9849
-1.7615 3.4261 -0.2726 0.9847
-1.8965 3.4378 -0.2778 0.9844
-1.9672 3.4459 -0.2808 0.9842
-2.0399 3.4551 -0.2839 0.9840
-2.1144 3.4645 -0.2872 0.9839
-2.1906 3.4743 -0.2906 0.9837
-2.2686 3.4839 -0.2942 0.9835
-2.3483 3.4937 -0.2979 0.9833
-2.4301 3.5037 -0.3017 0.9830
-2.5146 3.5148 -0.3058 0.9828
-2.6949 3.5432 -0.3150 0.9823
-2.7996 3.5713 -0.3211 0.9820
-4.4601 5.3593 -0.4934 0.9724
-4.4806 5.2267 -0.4872 0.9728
-4.5006 5.0974 -0.4812 0.9731
-4.5201 4.9712 -0.4754 0.9734
-4.5392 4.8479 -0.4699 0.9737
-4.6119 4.3819 -0.4502 0.9748
-0.7909 0.7297 -0.0761 0.9957
-0.6330 0.5506 -0.0594 0.9966
-0.6323 0.5341 -0.0586 0.9967
-0.6311 0.5021 -0.0571 0.9968
-0.6304 0.4867 -0.0564 0.9968
-0.6289 0.4569 -0.0550 0.9969
-0.6274 0.4284 -0.0538 0.9970
-0.6222 0.3859 -0.0518 0.9971
-0.6204 0.3724 -0.0512 0.9971
-0.6153 0.3336 -0.0495 0.9972
-0.6102 0.2970 -0.0480 0.9973
-0.6085 0.2852 -0.0476 0.9973
-0.6050 0.2623 -0.0467 0.9974
-0.6035 0.2512 -0.0463 0.9974
-0.5999 0.2194 -0.0452 0.9974
-0.5987 0.2091 -0.0449 0.9975
-0.5975 0.1989 -0.0446 0.9975
-0.5963 0.1889 -0.0443 0.9975
-0.5946 0.1694 -0.0437 0.9975
-0.5936 0.1598 -0.0435 0.9975
-0.5927 0.1503 -0.0433 0.9976
-0.5907 0.1316 -0.0428 0.9976
-0.5896 0.1223 -0.0426 0.9976
-0.5875 0.1041 -0.0422 0.9976
-0.5865 0.0950 -0.0420 0.9976
-0.5853 0.0861 -0.0419 0.9976
-0.5842 0.0773 -0.0417 0.9976
-0.5831 0.0684 -0.0415 0.9976
-0.5804 0.0425 -0.0412 0.9977
-0.5794 0.0339 -0.0411 0.9977
-0.5773 0.0168 -0.0409 0.9977
-0.5763 0.0084 -0.0408 0.9977
-0.5577 -0.0245 -0.0457 0.9978
-0.5595 -0.0409 -0.0460 0.9978
-0.5620 -0.0660 -0.0464 0.9977
-0.5636 -0.0830 -0.0467 0.9977
-0.5645 -0.0916 -0.0468 0.9977
-0.5655 -0.1002 -0.0470 0.9977
-0.5664 -0.1089 -0.0472 0.9977
-0.5673 -0.1177 -0.0475 0.9977
-0.5682 -0.1266 -0.0477 0.9977
-0.5690 -0.1355 -0.0479 0.9977
-0.5706 -0.1537 -0.0484 0.9976
-0.5722 -0.1722 -0.0489 0.9976
-0.5729 -0.1816 -0.0492 0.9976
-0.5775 -0.2306 -0.0509 0.9975
-0.5793 -0.2512 -0.0517 0.9975
-0.5880 -0.3300 -0.0552 0.9973
-0.5893 -0.3422 -0.0558 0.9973
-0.5906 -0.3546 -0.0564 0.9972
-0.5918 -0.3672 -0.0570 0.9972
-0.5931 -0.3801 -0.0577 0.9972
-0.5945 -0.3933 -0.0584 0.9971
-0.5984 -0.4348 -0.0606 0.9970
-0.5998 -0.4632 -0.0621 0.9970
-0.6001 -0.4776 -0.0628 0.9969
-0.6005 -0.5073 -0.0644 0.9968
-0.6007 -0.5227 -0.0652 0.9968
-0.6009 -0.5545 -0.0670 0.9967
-7.5129 -8.0240 -0.9003 0.9568
-7.2915 -8.0192 -0.8878 0.9574
-7.6508 -9.4716 -0.9973 0.9523
-7.5112 -9.5819 -0.9972 0.9523
-7.2272 -9.7961 -0.9971 0.9523
-7.0829 -9.9001 -0.9971 0.9523
-1.9117 -2.7563 -0.2748 0.9866
-1.6439 -2.6072 -0.2525 0.9877
-1.6260 -2.6644 -0.2557 0.9876
-1.4376 -2.6059 -0.2438 0.9881
-1.4439 -2.8085 -0.2587 0.9874
-1.3922 -2.8080 -0.2567 0.9875
-1.2516 -2.7216 -0.2454 0.9880
-1.1745 -2.6555 -0.2378 0.9884
-1.1864 -2.7920 -0.2485 0.9879
-1.1370 -2.7881 -0.2466 0.9880
-2.6071 -8.0240 -0.6910 0.9667
-2.4771 -8.0208 -0.6876 0.9669
-2.3484 -8.0177 -0.6843 0.9670
-1.9716 -8.0187 -0.6764 0.9674
-1.6519 -8.2650 -0.6904 0.9667
-1.4796 -8.0105 -0.6672 0.9678
-1.2379 -8.0053 -0.6635 0.9680
-0.9987 -8.0002 -0.6604 0.9682
-0.9140 -9.5941 -0.7894 0.9621
-0.9082 -11.2766 -0.9266 0.9556
-0.4171 -11.4127 -0.9354 0.9552
-0.0870 -11.9181 -0.9762 0.9533
0.0871 -11.9173 -0.9761 0.9533
0.2612 -11.9139 -0.9761 0.9533
0.4353 -11.9080 -0.9760 0.9533
1.1298 -11.8587 -0.9757 0.9533
1.3028 -11.8402 -0.9756 0.9533
1.4756 -11.8190 -0.9756 0.9533
1.7150 -11.0900 -0.9192 0.9560
2.1629 -11.7093 -0.9753 0.9533
2.6733 -11.6008 -0.9751 0.9533
3.1785 -11.4701 -0.9749 0.9534
3.3455 -11.4216 -0.9748 0.9534
3.6773 -11.3174 -0.9747 0.9534
4.4921 -11.0151 -0.9744 0.9534
4.6522 -10.9476 -0.9743 0.9534
4.9695 -10.8055 -0.9742 0.9534
5.1265 -10.7311 -0.9741 0.9534
5.2824 -10.6543 -0.9740 0.9534
5.5907 -10.4941 -0.9739 0.9534
5.8942 -10.3249 -0.9738 0.9534
6.1926 -10.1470 -0.9737 0.9534
6.3399 -10.0548 -0.9736 0.9534
6.8980 -9.9457 -0.9914 0.9526
7.0422 -9.8432 -0.9913 0.9526
7.4655 -9.5236 -0.9912 0.9526
7.7397 -9.3003 -0.9910 0.9526
2.5635 -2.9905 -0.3226 0.9843
2.7010 -2.8848 -0.3237 0.9843
2.7701 -2.7905 -0.3221 0.9843
2.9442 -2.4869 -0.3157 0.9847
2.9362 -2.4075 -0.3110 0.9849
2.9190 -2.3229 -0.3055 0.9851
3.1163 -2.4064 -0.3225 0.9843
3.3780 -2.4543 -0.3420 0.9834
5.9862 -3.7136 -0.5770 0.9721
5.9750 -3.5869 -0.5708 0.9724
5.7607 -3.2332 -0.5411 0.9738
5.6456 -3.0609 -0.5260 0.9746
5.6341 -2.9489 -0.5209 0.9748
5.6134 -2.4341 -0.5011 0.9757
6.2251 -2.3809 -0.5459 0.9736
6.3313 -2.3161 -0.5522 0.9733
6.4019 -2.2364 -0.5554 0.9732
6.4076 -2.0304 -0.5506 0.9734
9.0450 -2.2942 -0.7643 0.9632
11.5709 -2.7556 -0.9743 0.9534
11.6097 -2.5862 -0.9742 0.9534
11.6461 -2.4163 -0.9742 0.9534
11.7114 -2.0749 -0.9742 0.9534
11.9742 -1.5839 -0.9893 0.9527
11.9960 -1.4087 -0.9893 0.9527
12.0665 -0.5293 -0.9893 0.9527
12.0729 -0.3530 -0.9893 0.9527
12.0767 -0.1766 -0.9893 0.9527
12.0780 -0.0000 -0.9893 0.9527
12.0767 0.1764 -0.9893 0.9527
12.0729 0.3529 -0.9893 0.9527
12.0664 0.5293 -0.9893 0.9527
12.0459 0.8816 -0.9893 0.9527
12.0319 1.0575 -0.9893 0.9527
12.0152 1.2332 -0.9893 0.9527
11.9960 1.4086 -0.9893 0.9527
11.9742 1.5838 -0.9893 0.9527
11.9499 1.7586 -0.9893 0.9527
11.8937 2.1071 -0.9894 0.9527
11.8274 2.4537 -0.9894 0.9527
11.7904 2.6264 -0.9894 0.9527
11.7510 2.7984 -0.9894 0.9527
11.7090 2.9699 -0.9894 0.9527
11.6646 3.1407 -0.9895 0.9527
11.6177 3.3109 -0.9895 0.9527
11.5165 3.6491 -0.9895 0.9527
11.4054 3.9842 -0.9896 0.9527
11.3463 4.1505 -0.9896 0.9527
11.2847 4.3160 -0.9896 0.9527
11.2207 4.4805 -0.9896 0.9527
9.6909 4.0348 -0.8598 0.9587
9.4245 4.4180 -0.8526 0.9591
9.4501 4.5996 -0.8609 0.9587
10.7872 5.4468 -0.9898 0.9527
10.6241 5.7600 -0.9899 0.9527
10.5392 5.9148 -0.9899 0.9527
10.4521 6.0684 -0.9899 0.9527
10.2711 6.3718 -0.9900 0.9526
10.0812 6.6696 -0.9901 0.9526
9.8829 6.9619 -0.9902 0.9526
9.6760 7.2483 -0.9903 0.9526
9.5695 7.3893 -0.9903 0.9526
8.8436 7.9236 -0.9726 0.9535
8.6091 8.1794 -0.9727 0.9535
8.4891 8.3047 -0.9727 0.9535
7.9911 8.7883 -0.9729 0.9534
7.7317 9.0190 -0.9730 0.9534
6.4765 7.7822 -0.8293 0.9602
6.0393 7.7041 -0.8018 0.9615
5.9503 7.8234 -0.8051 0.9613
5.7410 8.0245 -0.8082 0.9612
5.2782 7.8527 -0.7750 0.9627
5.2164 8.0112 -0.7830 0.9624
4.5272 8.2064 -0.7677 0.9631
4.4665 8.3838 -0.7781 0.9626
4.0366 7.8511 -0.7231 0.9652
3.9842 8.0360 -0.7347 0.9646
3.9302 8.2269 -0.7468 0.9641
1.5474 3.4983 -0.3133 0.9848
1.4252 3.4946 -0.3091 0.9850
1.3663 3.4956 -0.3074 0.9850
1.3089 3.4986 -0.3060 0.9851
1.2536 3.5060 -0.3050 0.9852
1.0893 3.5269 -0.3023 0.9853
0.9811 3.5403 -0.3009 0.9854
0.8745 3.5565 -0.3000 0.9854
0.7168 3.5862 -0.2996 0.9854
0.5591 3.6152 -0.2996 0.9854
0.4546 3.6413 -0.3006 0.9854
0.4024 3.6571 -0.3014 0.9853
0.2984 3.7044 -0.3044 0.9852
0.2488 3.7775 -0.3101 0.9849
0.1978 3.8633 -0.3169 0.9846
0.4364 11.9414 -0.9788 0.9532
0.0873 11.9508 -0.9789 0.9532
-0.2619 11.9500 -0.9790 0.9532
-0.4366 11.9458 -0.9791 0.9532
-1.3079 11.8863 -0.9795 0.9531
-0.8456 6.7732 -0.5591 0.9730
-0.8984 6.4305 -0.5318 0.9743
-0.9631 6.2280 -0.5162 0.9750
-1.0193 6.0088 -0.4992 0.9758
-1.0703 5.7946 -0.4827 0.9766
-1.2045 4.8986 -0.4132 0.9800
-1.2816 3.9446 -0.3397 0.9835
-1.3016 3.8153 -0.3302 0.9840
-1.4622 3.4409 -0.3062 0.9851
-1.5659 3.4049 -0.3070 0.9851
-1.6836 3.3957 -0.3105 0.9849
-1.9516 3.4186 -0.3224 0.9843
-2.1756 3.4504 -0.3341 0.9838
-2.2540 3.4616 -0.3383 0.9836
-2.3346 3.4734 -0.3428 0.9833
-2.4173 3.4853 -0.3474 0.9831
-2.5021 3.4972 -0.3522 0.9829
-2.9049 3.5961 -0.3786 0.9816
-4.4801 5.2262 -0.5638 0.9728
-4.5002 5.0969 -0.5569 0.9731
-4.5387 4.8474 -0.5439 0.9737
-4.5756 4.6091 -0.5320 0.9743
-4.5934 4.4938 -0.5263 0.9745
-0.6765 0.6428 -0.0764 0.9963
-0.6009 0.5544 -0.0670 0.9967
-0.6008 0.5383 -0.0661 0.9968
-0.6007 0.5226 -0.0652 0.9968
-0.6004 0.4922 -0.0636 0.9969
-0.6001 0.4775 -0.0628 0.9969
-0.5998 0.4631 -0.0621 0.9970
-0.5995 0.4491 -0.0614 0.9970
-0.5984 0.4347 -0.0606 0.9970
-0.5958 0.4068 -0.0591 0.9971
-0.5944 0.3933 -0.0584 0.9971
-0.5931 0.3800 -0.0577 0.9972
-0.5918 0.3671 -0.0570 0.9972
-0.5853 0.3063 -0.0541 0.9974
-0.5839 0.2948 -0.0536 0.9974
-0.5812 0.2724 -0.0526 0.9974
-0.5802 0.2616 -0.0521 0.9974
-0.5793 0.2512 -0.0517 0.9975
-0.5784 0.2408 -0.0513 0.9975
-0.5775 0.2306 -0.0509 0.9975
-0.5765 0.2205 -0.0506 0.9975
-0.5736 0.1910 -0.0495 0.9976
-0.5729 0.1815 -0.0492 0.9976
-0.5722 0.1721 -0.0489 0.9976
-0.5714 0.1628 -0.0487 0.9976
-0.5698 0.1445 -0.0482 0.9976
-0.5690 0.1355 -0.0479 0.9977
-0.5682 0.1265 -0.0477 0.9977
-0.5664 0.1089 -0.0472 0.9977
-0.5645 0.0915 -0.0468 0.9977
-0.5628 0.0744 -0.0465 0.9977
-0.5620 0.0660 -0.0464 0.9977
-0.5586 0.0327 -0.0458 0.9978
-0.5577 0.0244 -0.0457 0.9978
-0.5567 0.0162 -0.0456 0.9978
-0.5357 -0.0000 -0.0499 0.9979
-0.5366 -0.0079 -0.0500 0.9978
-0.5408 -0.0476 -0.0505 0.9978
-0.5423 -0.0637 -0.0508 0.9978
-0.5437 -0.0801 -0.0511 0.9978
-0.5443 -0.0883 -0.0513 0.9978
-0.5449 -0.0966 -0.0515 0.9978
-0.5465 -0.1134 -0.0520 0.9978
-0.5487 -0.1392 -0.0527 0.9977
-0.5493 -0.1480 -0.0530 0.9977
-0.5500 -0.1568 -0.0532 0.9977
-0.5506 -0.1657 -0.0535 0.9977
-0.5512 -0.1747 -0.0538 0.9977
-0.5523 -0.1930 -0.0544 0.9977
-0.5546 -0.2215 -0.0556 0.9976
-0.5553 -0.2312 -0.0560 0.9976
-0.5560 -0.2411 -0.0564 0.9976
-0.5567 -0.2512 -0.0568 0.9975
-0.5573 -0.2613 -0.0573 0.9975
-0.5579 -0.2716 -0.0578 0.9975
-0.5594 -0.2928 -0.0588 0.9975
-0.5634 -0.3382 -0.0612 0.9974
-0.5652 -0.3622 -0.0625 0.9973
-0.5670 -0.3872 -0.0639 0.9972
-0.5679 -0.4001 -0.0647 0.9972
