ply
format ascii 1.0
element vertex 1578
property float32 x
property float32 y
property float32 z
property float32 I
end_header
3.4022 3.4271 -0.0736 0.9809
3.4436 3.6778 -0.0768 0.9800
3.4657 3.8115 -0.0785 0.9796
3.4585 3.9171 -0.0796 0.9793
3.3858 4.0685 -0.0807 0.9790
3.4302 4.3757 -0.0847 0.9780
3.5196 4.6275 -0.0886 0.9770
3.7996 5.4782 -0.1016 0.9737
3.8946 5.9811 -0.1088 0.9719
3.9473 6.2602 -0.1128 0.9708
4.1367 6.7782 -0.1210 0.9687
3.9738 6.9609 -0.1221 0.9684
28.2000 56.8779 -0.9674 0.7757
24.8670 58.5167 -0.9689 0.7754
24.0184 58.8962 -0.9692 0.7753
23.1643 59.2638 -0.9696 0.7753
22.3045 59.6192 -0.9700 0.7752
21.4395 59.9625 -0.9704 0.7751
20.5689 60.2923 -0.9707 0.7750
18.8133 60.9157 -0.9715 0.7749
17.9282 61.2084 -0.9719 0.7748
15.2471 62.0097 -0.9731 0.7746
14.3452 62.2510 -0.9735 0.7745
13.4395 62.4792 -0.9738 0.7744
11.6175 62.8958 -0.9746 0.7742
9.7827 63.2598 -0.9754 0.7741
1.2005 9.6160 -0.1477 0.9620
6.0806 63.8275 -0.9770 0.7738
0.7711 9.5745 -0.1464 0.9623
0.6277 9.5320 -0.1456 0.9625
0.1743 7.9512 -0.1212 0.9687
0.0563 7.7044 -0.1174 0.9696
-0.2790 7.6341 -0.1164 0.9699
-0.3921 7.6596 -0.1169 0.9698
-0.5061 7.6854 -0.1174 0.9697
-0.8981 8.1624 -0.1251 0.9677
-1.3667 8.0565 -0.1245 0.9678
-1.5872 7.9416 -0.1234 0.9681
-1.6811 7.8157 -0.1218 0.9685
-1.8117 7.8619 -0.1229 0.9682
-2.4438 8.3432 -0.1325 0.9658
-2.8547 8.3678 -0.1347 0.9652
-22.7483 60.8056 -0.9893 0.7713
-23.6433 60.4896 -0.9897 0.7712
-4.0230 9.8648 -0.1623 0.9583
-26.3011 59.4625 -0.9908 0.7710
-28.0478 58.7116 -0.9915 0.7708
-28.9131 58.3166 -0.9919 0.7707
-29.7729 57.9088 -0.9922 0.7707
-30.6270 57.4884 -0.9926 0.7706
-31.4748 57.0548 -0.9929 0.7705
-32.3164 56.6088 -0.9933 0.7705
-3.8994 6.1843 -0.1114 0.9712
-3.9314 6.0378 -0.1098 0.9716
-3.9754 5.7317 -0.1063 0.9725
-4.0176 5.4457 -0.1031 0.9733
-4.0766 5.0467 -0.0989 0.9744
-4.1142 4.7993 -0.0963 0.9750
-4.2222 4.0116 -0.0887 0.9770
-4.2550 3.8125 -0.0871 0.9774
-4.2816 3.7250 -0.0865 0.9776
-4.3838 3.5943 -0.0864 0.9776
-4.7671 3.5711 -0.0908 0.9765
-0.8549 0.5838 -0.0158 0.9959
-0.8103 0.5361 -0.0148 0.9961
-0.8107 0.5195 -0.0147 0.9962
-0.8088 0.5017 -0.0145 0.9962
-0.8052 0.4834 -0.0143 0.9963
-0.8017 0.4654 -0.0141 0.9963
-0.7851 0.3821 -0.0133 0.9965
-0.7741 0.3357 -0.0129 0.9966
-0.7703 0.3207 -0.0127 0.9967
-0.7629 0.2918 -0.0124 0.9967
-0.7594 0.2778 -0.0123 0.9968
-0.7524 0.2505 -0.0121 0.9968
-0.7489 0.2373 -0.0120 0.9969
-0.7423 0.2116 -0.0118 0.9969
-0.7377 0.1757 -0.0116 0.9970
-0.7333 0.1521 -0.0114 0.9970
-0.7291 0.1291 -0.0113 0.9970
-0.7270 0.1179 -0.0112 0.9971
-0.7229 0.0956 -0.0111 0.9971
-0.7167 0.0630 -0.0110 0.9971
-0.7127 0.0417 -0.0109 0.9971
-0.7107 0.0312 -0.0108 0.9972
-0.7086 0.0207 -0.0108 0.9972
-0.6742 0.0000 -0.0177 0.9973
-0.6794 -0.0298 -0.0179 0.9973
-0.6831 -0.0500 -0.0180 0.9973
-0.6849 -0.0602 -0.0181 0.9973
-0.6922 -0.1019 -0.0184 0.9972
-0.6941 -0.1126 -0.0185 0.9972
-0.6959 -0.1233 -0.0186 0.9972
-0.6977 -0.1342 -0.0187 0.9972
-0.6996 -0.1452 -0.0188 0.9971
-0.7014 -0.1562 -0.0189 0.9971
-0.7032 -0.1675 -0.0190 0.9971
-0.7051 -0.1788 -0.0191 0.9971
-0.7071 -0.1904 -0.0193 0.9971
-0.7088 -0.2020 -0.0194 0.9971
-0.7205 -0.2517 -0.0201 0.9970
-0.7266 -0.2779 -0.0205 0.9969
-0.7361 -0.3192 -0.0211 0.9968
-0.7393 -0.3335 -0.0214 0.9968
-0.7460 -0.3631 -0.0218 0.9967
-0.7542 -0.4089 -0.0226 0.9966
-0.7625 -0.4578 -0.0234 0.9964
-0.7683 -0.4923 -0.0240 0.9964
-0.7743 -0.5287 -0.0247 0.9963
-2.8074 -2.3019 -0.0956 0.9856
-2.8099 -2.4446 -0.0980 0.9852
-2.8111 -2.5188 -0.0994 0.9850
-2.8008 -2.5843 -0.1003 0.9849
-2.6307 -2.4995 -0.0955 0.9856
-2.4680 -2.5599 -0.0936 0.9859
-2.3916 -2.5543 -0.0921 0.9861
-2.5424 -2.7962 -0.0995 0.9850
-6.7018 -8.0531 -0.2758 0.9589
-6.4769 -8.0182 -0.2713 0.9596
-6.3781 -8.3859 -0.2773 0.9587
-6.3723 -8.6374 -0.2826 0.9580
-6.3664 -8.8986 -0.2880 0.9572
-6.2262 -8.9771 -0.2876 0.9572
-7.2487 -11.1323 -0.3497 0.9482
-6.6265 -11.2235 -0.3431 0.9492
-15.7086 -29.4858 -0.8795 0.8749
-15.6215 -31.5079 -0.9258 0.8687
-15.1564 -31.7264 -0.9256 0.8688
-4.2764 -10.4864 -0.2981 0.9557
-3.8335 -10.7218 -0.2997 0.9555
-3.7645 -11.0346 -0.3069 0.9544
-10.8449 -33.3774 -0.9239 0.8690
-10.3539 -33.5251 -0.9237 0.8690
-2.3079 -9.3857 -0.2544 0.9621
-2.1615 -9.3794 -0.2534 0.9622
-1.7291 -9.3608 -0.2506 0.9626
-1.4458 -9.3486 -0.2490 0.9629
-1.3053 -9.3426 -0.2483 0.9630
-1.0275 -9.3377 -0.2473 0.9631
-0.7525 -9.3422 -0.2467 0.9632
-0.6167 -9.3644 -0.2470 0.9631
-1.3588 -37.1795 -0.9794 0.8617
-0.2772 -12.6481 -0.3330 0.9506
-0.0231 -3.1578 -0.0831 0.9874
0.0225 -3.0754 -0.0810 0.9878
0.8147 -37.1621 -0.9785 0.8618
1.8994 -37.1060 -0.9781 0.8619
0.2886 -3.0291 -0.0801 0.9879
0.3643 -2.9179 -0.0774 0.9883
0.4003 -2.8649 -0.0761 0.9885
0.4351 -2.8137 -0.0749 0.9887
0.4689 -2.7639 -0.0738 0.9888
0.5016 -2.7157 -0.0727 0.9890
0.5334 -2.6688 -0.0716 0.9892
2.2366 -9.7058 -0.2622 0.9609
2.4987 -9.5575 -0.2601 0.9612
4.0160 -9.8477 -0.2800 0.9583
4.1637 -9.7980 -0.2803 0.9583
4.5226 -10.2249 -0.2943 0.9562
15.4380 -33.5681 -0.9726 0.8626
16.8840 -32.8397 -0.9721 0.8626
5.7088 -7.9795 -0.2583 0.9615
6.0553 -7.9614 -0.2633 0.9608
6.6092 -7.9417 -0.2720 0.9595
7.0139 -7.9441 -0.2790 0.9585
8.1195 -7.9434 -0.2990 0.9556
8.6046 -7.9395 -0.3082 0.9542
9.1908 -7.9960 -0.3207 0.9524
3.4739 -2.7644 -0.1169 0.9824
3.8503 -2.8843 -0.1266 0.9809
29.7152 -21.5894 -0.9669 0.8633
30.9102 -19.8068 -0.9664 0.8634
31.1927 -19.3508 -0.9663 0.8634
31.7376 -18.4269 -0.9661 0.8634
31.9999 -17.9592 -0.9660 0.8634
5.9615 -3.1203 -0.1771 0.9734
6.0554 -3.0575 -0.1786 0.9732
5.8269 -2.8361 -0.1706 0.9744
5.8050 -2.7213 -0.1688 0.9747
6.1507 -2.6669 -0.1765 0.9735
6.1713 -2.5694 -0.1760 0.9736
6.3904 -2.5518 -0.1811 0.9728
6.9659 -2.5481 -0.1953 0.9708
6.4677 -2.1538 -0.1795 0.9731
30.1334 -9.5481 -0.8321 0.8812
8.7406 -2.6297 -0.2403 0.9641
33.0470 -9.4180 -0.9046 0.8715
36.1975 -8.6204 -0.9795 0.8617
35.5708 -7.9237 -0.9593 0.8643
13.3621 -2.7723 -0.3592 0.9469
36.6327 -6.4901 -0.9794 0.8617
36.7225 -5.9539 -0.9793 0.8617
36.8040 -5.4164 -0.9793 0.8617
20.5100 -2.7129 -0.5446 0.9206
36.9445 -4.3385 -0.9792 0.8617
35.9709 -2.6328 -0.9495 0.8656
36.5627 -2.1395 -0.9641 0.8637
37.1595 -1.6300 -0.9791 0.8617
37.1907 -0.5435 -0.9791 0.8617
37.1945 0.0000 -0.9791 0.8617
37.1320 2.1728 -0.9792 0.8617
37.0031 3.7980 -0.9792 0.8617
34.9551 4.1048 -0.9265 0.8686
36.8040 5.4164 -0.9793 0.8617
25.2818 4.8611 -0.6777 0.9021
36.4303 7.5582 -0.9794 0.8617
36.3176 8.0901 -0.9795 0.8617
27.2554 6.4908 -0.7375 0.8939
25.9084 6.5715 -0.7036 0.8986
25.6023 6.8935 -0.6980 0.8993
29.9196 10.9448 -0.8387 0.8803
13.6045 5.2032 -0.3834 0.9434
34.0491 13.5962 -0.9651 0.8635
8.0605 3.3560 -0.2298 0.9657
7.8017 3.3828 -0.2238 0.9665
7.5743 3.4166 -0.2187 0.9673
7.3727 3.4562 -0.2143 0.9679
7.1910 3.5000 -0.2105 0.9685
4.8203 2.8936 -0.1480 0.9778
4.6929 2.9113 -0.1454 0.9781
4.5700 2.9284 -0.1429 0.9785
4.3420 2.9648 -0.1384 0.9792
4.2344 2.9829 -0.1363 0.9795
4.1299 3.0005 -0.1344 0.9798
3.9296 3.0343 -0.1307 0.9803
3.7399 3.0664 -0.1273 0.9808
3.5602 3.0973 -0.1242 0.9813
3.3888 3.1269 -0.1214 0.9817
3.3615 3.1938 -0.1221 0.9816
3.4047 3.4296 -0.1272 0.9808
3.4462 3.6806 -0.1327 0.9800
3.4334 3.8887 -0.1366 0.9795
3.3809 3.9438 -0.1367 0.9794
3.4060 4.2165 -0.1427 0.9785
3.4321 4.3782 -0.1464 0.9780
3.4568 4.5450 -0.1503 0.9774
3.7541 5.2472 -0.1698 0.9745
3.9448 6.6815 -0.2043 0.9694
4.0248 7.2958 -0.2193 0.9672
13.9603 34.2324 -0.9732 0.8625
13.4615 34.4400 -0.9734 0.8625
12.9595 34.6401 -0.9736 0.8624
11.4362 35.1969 -0.9742 0.8624
9.8879 35.6826 -0.9747 0.8623
9.3676 35.8315 -0.9750 0.8623
8.3205 36.1068 -0.9754 0.8622
6.7350 36.4625 -0.9761 0.8621
6.2029 36.5655 -0.9763 0.8621
5.1343 36.7485 -0.9768 0.8620
0.7704 9.5654 -0.2526 0.9623
0.2904 7.9469 -0.2093 0.9687
0.1728 7.8809 -0.2075 0.9690
0.0561 7.6810 -0.2022 0.9697
-0.1683 7.6751 -0.2021 0.9697
-0.2814 7.7008 -0.2029 0.9696
-0.3955 7.7268 -0.2037 0.9695
-0.5105 7.7530 -0.2045 0.9694
-0.7593 7.9699 -0.2108 0.9685
-1.1195 8.0127 -0.2130 0.9681
-1.3623 8.0307 -0.2144 0.9679
-1.5144 8.1991 -0.2195 0.9672
-1.8209 7.9018 -0.2135 0.9681
-2.0162 8.2000 -0.2223 0.9668
-2.1200 8.1091 -0.2206 0.9670
-2.2597 8.1547 -0.2228 0.9667
-2.3940 8.1732 -0.2242 0.9665
-2.7773 8.1409 -0.2264 0.9662
-12.5890 35.2092 -0.9843 0.8610
-13.6184 34.8417 -0.9848 0.8610
-15.1419 34.2334 -0.9854 0.8609
-15.6439 34.0159 -0.9856 0.8609
-16.6380 33.5582 -0.9860 0.8608
-17.1303 33.3186 -0.9862 0.8608
-17.6188 33.0715 -0.9864 0.8608
-18.1038 32.8172 -0.9866 0.8607
-3.8684 6.7762 -0.2054 0.9693
-3.8418 6.5071 -0.1989 0.9702
-3.8626 6.3291 -0.1952 0.9708
-3.8967 6.1800 -0.1923 0.9712
-3.9706 5.7249 -0.1834 0.9725
-3.9917 5.5794 -0.1806 0.9729
-4.0904 4.9151 -0.1683 0.9747
-4.1091 4.7934 -0.1662 0.9751
-4.1272 4.6745 -0.1642 0.9754
-4.1443 4.5579 -0.1622 0.9757
-4.1888 4.2195 -0.1565 0.9765
-4.2025 4.1114 -0.1548 0.9767
-4.2145 4.0043 -0.1530 0.9770
-4.2283 3.9014 -0.1515 0.9772
-4.2489 3.8070 -0.1502 0.9774
-4.3029 3.6345 -0.1483 0.9777
-4.5697 3.5287 -0.1520 0.9772
-4.7379 3.5492 -0.1558 0.9766
-0.7713 0.5103 -0.0243 0.9963
-0.7683 0.4923 -0.0240 0.9964
-0.7654 0.4748 -0.0237 0.9964
-0.7625 0.4577 -0.0234 0.9964
-0.7515 0.3933 -0.0223 0.9966
-0.7488 0.3781 -0.0221 0.9966
-0.7460 0.3631 -0.0218 0.9967
-0.7360 0.3191 -0.0211 0.9968
-0.7266 0.2779 -0.0205 0.9969
-0.7235 0.2646 -0.0203 0.9969
-0.7146 0.2264 -0.0197 0.9970
-0.6996 0.1451 -0.0188 0.9971
-0.6977 0.1341 -0.0187 0.9972
-0.6959 0.1233 -0.0186 0.9972
-0.6941 0.1125 -0.0185 0.9972
-0.6922 0.1018 -0.0184 0.9972
-0.6867 0.0705 -0.0182 0.9972
-0.6849 0.0602 -0.0181 0.9973
-0.6831 0.0500 -0.0180 0.9973
-0.6812 0.0398 -0.0180 0.9973
-0.6776 0.0198 -0.0178 0.9973
-0.6757 0.0098 -0.0178 0.9973
-0.6492 -0.0190 -0.0243 0.9974
-0.6539 -0.0479 -0.0245 0.9974
-0.6555 -0.0577 -0.0246 0.9974
-0.6621 -0.0975 -0.0250 0.9973
-0.6637 -0.1076 -0.0252 0.9973
-0.6653 -0.1179 -0.0253 0.9973
-0.6669 -0.1282 -0.0254 0.9973
-0.6701 -0.1493 -0.0257 0.9973
-0.6717 -0.1600 -0.0258 0.9972
-0.6733 -0.1708 -0.0260 0.9972
-0.6765 -0.1928 -0.0263 0.9972
-0.6786 -0.2042 -0.0265 0.9972
-0.6842 -0.2279 -0.0270 0.9971
-0.6871 -0.2400 -0.0272 0.9971
-0.6959 -0.2779 -0.0280 0.9970
-0.6988 -0.2910 -0.0283 0.9970
-0.7043 -0.3177 -0.0289 0.9969
-0.7099 -0.3455 -0.0295 0.9968
-0.7153 -0.3744 -0.0302 0.9968
-0.7174 -0.3890 -0.0305 0.9967
-0.7196 -0.4039 -0.0309 0.9967
-0.7241 -0.4347 -0.0316 0.9966
-0.7263 -0.4506 -0.0320 0.9966
-0.7333 -0.5007 -0.0332 0.9965
-0.7540 -0.5649 -0.0353 0.9962
-0.8645 -0.6675 -0.0409 0.9956
-2.8180 -2.3105 -0.1364 0.9855
-2.8194 -2.3814 -0.1381 0.9853
-2.8208 -2.4541 -0.1399 0.9851
-2.8126 -2.5952 -0.1432 0.9848
-2.6615 -2.5287 -0.1374 0.9854
-2.4777 -2.5699 -0.1336 0.9858
-2.4008 -2.5641 -0.1314 0.9860
-2.5521 -2.8068 -0.1419 0.9849
-2.5023 -2.8341 -0.1415 0.9850
-6.8936 -8.0416 -0.3963 0.9585
-6.6891 -8.0379 -0.3913 0.9590
-6.3718 -8.3776 -0.3938 0.9587
-6.3659 -8.6287 -0.4012 0.9580
-6.9500 -11.3880 -0.4992 0.9480
-11.3289 -23.7144 -0.9834 0.9001
-5.6886 -12.3693 -0.5094 0.9470
-4.6353 -10.4797 -0.4288 0.9552
-4.2460 -10.4118 -0.4207 0.9560
-4.0729 -10.4202 -0.4186 0.9562
-3.8021 -10.6339 -0.4226 0.9558
-3.6794 -10.7851 -0.4264 0.9554
-8.1107 -24.9623 -0.9821 0.9003
-7.7440 -25.0744 -0.9819 0.9003
-7.3756 -25.1811 -0.9818 0.9003
-7.0059 -25.2824 -0.9816 0.9003
-2.1641 -9.3906 -0.3606 0.9622
-1.8744 -9.3780 -0.3578 0.9624
-1.7311 -9.3718 -0.3566 0.9626
-1.4474 -9.3595 -0.3544 0.9628
-1.3069 -9.3534 -0.3534 0.9629
-1.0290 -9.3513 -0.3520 0.9630
-0.8910 -9.3521 -0.3515 0.9631
-1.3380 -26.1400 -0.9794 0.9005
-0.0233 -3.1984 -0.1197 0.9873
0.0227 -3.1139 -0.1165 0.9876
0.1081 -2.9577 -0.1107 0.9882
0.1688 -3.2987 -0.1236 0.9869
0.2153 -3.2694 -0.1226 0.9870
2.0983 -26.0530 -0.9780 0.9007
0.2837 -2.9782 -0.1119 0.9881
0.3217 -2.9235 -0.1100 0.9883
1.9011 -9.5120 -0.3630 0.9619
2.2316 -9.6843 -0.3719 0.9610
2.3844 -9.6973 -0.3737 0.9608
2.6456 -9.5471 -0.3707 0.9611
2.7764 -9.4789 -0.3696 0.9612
2.8776 -9.3177 -0.3649 0.9617
3.0728 -9.4572 -0.3721 0.9610
3.5784 -9.1550 -0.3678 0.9614
10.8816 -23.6609 -0.9745 0.9010
11.2246 -23.4960 -0.9743 0.9010
11.5651 -23.3262 -0.9742 0.9010
11.9030 -23.1515 -0.9741 0.9010
12.2383 -22.9719 -0.9739 0.9011
5.1394 -8.4212 -0.3691 0.9613
5.1783 -8.2126 -0.3633 0.9619
5.3900 -8.0191 -0.3615 0.9621
5.8652 -7.9500 -0.3697 0.9612
6.2266 -7.9431 -0.3776 0.9604
6.8038 -7.9369 -0.3912 0.9590
7.4287 -7.9340 -0.4067 0.9574
7.6505 -7.9352 -0.4124 0.9568
7.8757 -7.9335 -0.4183 0.9562
8.1066 -7.9309 -0.4243 0.9556
8.3477 -7.9313 -0.4308 0.9550
2.7746 -2.5601 -0.1413 0.9850
3.3344 -2.9009 -0.1654 0.9825
3.5285 -2.6432 -0.1650 0.9825
3.6285 -2.6363 -0.1678 0.9822
21.4142 -14.6218 -0.9702 0.9014
21.5625 -14.2657 -0.9674 0.9017
3.6087 -2.3124 -0.1604 0.9830
3.8787 -2.4062 -0.1708 0.9819
22.3516 -12.9774 -0.9671 0.9017
5.8204 -3.2665 -0.2497 0.9736
5.8605 -3.1774 -0.2494 0.9737
5.9006 -3.0884 -0.2492 0.9737
5.9267 -2.9925 -0.2484 0.9738
6.5447 -2.3941 -0.2608 0.9725
6.4985 -2.2701 -0.2576 0.9728
6.4122 -2.1354 -0.2529 0.9733
6.6771 -2.1157 -0.2621 0.9724
8.7527 -2.6333 -0.3420 0.9641
25.2886 -7.2070 -0.9839 0.9001
25.4864 -6.4645 -0.9838 0.9001
25.8861 -4.5861 -0.9837 0.9001
25.9496 -4.2073 -0.9836 0.9001
26.0078 -3.8276 -0.9836 0.9001
26.2738 -0.7681 -0.9835 0.9001
26.2848 0.0000 -0.9835 0.9001
26.2738 0.7680 -0.9835 0.9001
26.2598 1.1519 -0.9835 0.9001
26.1850 2.3016 -0.9835 0.9001
26.1490 2.6840 -0.9836 0.9001
26.0602 3.4470 -0.9836 0.9001
16.9076 2.7412 -0.6409 0.9337
25.6625 5.7165 -0.9838 0.9001
25.3901 6.8364 -0.9839 0.9001
25.2886 7.2070 -0.9839 0.9001
25.0693 7.9435 -0.9840 0.9001
24.4999 8.1587 -0.9662 0.9018
22.6829 9.0576 -0.9139 0.9069
8.0305 3.3436 -0.3255 0.9658
7.7831 3.3748 -0.3174 0.9666
7.3541 3.4474 -0.3039 0.9680
7.1742 3.4919 -0.2985 0.9686
5.3871 2.8196 -0.2275 0.9760
5.2376 2.8396 -0.2229 0.9764
5.0940 2.8589 -0.2186 0.9769
4.9558 2.8773 -0.2144 0.9773
4.8229 2.8952 -0.2105 0.9777
4.4545 2.9470 -0.1998 0.9788
4.3435 2.9657 -0.1968 0.9792
4.2358 2.9839 -0.1939 0.9795
4.0303 3.0191 -0.1884 0.9800
3.9318 3.0360 -0.1859 0.9803
3.8359 3.0525 -0.1834 0.9806
3.4033 3.4282 -0.1807 0.9808
3.4276 3.5551 -0.1848 0.9804
3.4711 3.8175 -0.1931 0.9796
3.4028 4.0889 -0.1990 0.9789
3.4080 4.2191 -0.2029 0.9785
3.4589 4.5478 -0.2138 0.9774
3.5230 4.7753 -0.2220 0.9765
3.7525 5.2450 -0.2413 0.9745
3.8432 5.7178 -0.2578 0.9728
3.8935 5.9795 -0.2670 0.9718
3.9251 6.6480 -0.2889 0.9696
4.0271 7.2999 -0.3119 0.9672
11.5649 23.3258 -0.9742 0.9010
9.1319 24.4092 -0.9751 0.9009
8.7755 24.5435 -0.9753 0.9009
8.4172 24.6728 -0.9754 0.9009
8.0571 24.7969 -0.9756 0.9009
5.4888 25.5169 -0.9766 0.9008
4.7423 25.6743 -0.9769 0.9008
3.9913 25.8097 -0.9772 0.9007
1.3510 9.6698 -0.3653 0.9617
2.0983 26.0526 -0.9780 0.9007
0.4643 9.0698 -0.3398 0.9643
0.0562 7.6907 -0.2878 0.9697
-0.0564 7.7165 -0.2887 0.9696
-0.2839 7.7687 -0.2909 0.9694
-0.3990 7.7952 -0.2921 0.9692
-0.5126 7.7845 -0.2919 0.9693
-0.6244 7.7524 -0.2910 0.9693
-0.7436 7.8063 -0.2934 0.9691
-0.8553 7.7737 -0.2926 0.9692
-1.3550 7.9878 -0.3032 0.9681
-1.4598 7.9034 -0.3007 0.9683
-1.6103 8.0572 -0.3074 0.9676
-1.8708 8.1183 -0.3117 0.9672
-2.0397 8.2956 -0.3196 0.9664
-2.2771 8.2174 -0.3191 0.9664
-2.3992 8.1911 -0.3194 0.9664
-2.7619 8.0959 -0.3201 0.9663
-9.2019 24.5963 -0.9826 0.9002
-9.5617 24.4630 -0.9828 0.9002
-10.2756 24.1806 -0.9831 0.9002
-10.9810 23.8770 -0.9834 0.9001
-11.3304 23.7176 -0.9835 0.9001
-12.0221 23.3832 -0.9838 0.9001
-12.3643 23.2084 -0.9839 0.9001
-3.8551 6.3169 -0.2769 0.9708
-3.9443 5.8681 -0.2646 0.9721
-3.9869 5.5726 -0.2564 0.9729
-4.0277 5.2955 -0.2489 0.9737
-4.0472 5.1628 -0.2455 0.9741
-4.0661 5.0338 -0.2421 0.9744
-4.1039 4.7873 -0.2359 0.9751
-4.1222 4.6688 -0.2330 0.9754
-4.1537 4.4362 -0.2274 0.9760
-4.1820 4.2127 -0.2221 0.9765
-4.2077 3.9979 -0.2172 0.9770
-4.2678 3.7130 -0.2117 0.9776
-4.2975 3.6298 -0.2105 0.9777
-4.4347 3.5290 -0.2121 0.9776
-0.8644 0.6675 -0.0409 0.9956
-0.7357 0.5182 -0.0337 0.9964
-0.7333 0.5007 -0.0332 0.9965
-0.7263 0.4506 -0.0320 0.9966
-0.7218 0.4191 -0.0312 0.9967
-0.7196 0.4039 -0.0309 0.9967
-0.7174 0.3889 -0.0305 0.9967
-0.7153 0.3744 -0.0302 0.9968
-0.7099 0.3455 -0.0295 0.9968
-0.7071 0.3314 -0.0292 0.9969
-0.7016 0.3041 -0.0286 0.9969
-0.6929 0.2650 -0.0278 0.9970
-0.6900 0.2523 -0.0275 0.9971
-0.6842 0.2279 -0.0270 0.9971
-0.6813 0.2159 -0.0267 0.9971
-0.6749 0.1817 -0.0262 0.9972
-0.6733 0.1707 -0.0260 0.9972
-0.6701 0.1493 -0.0257 0.9973
-0.6685 0.1387 -0.0255 0.9973
-0.6637 0.1076 -0.0252 0.9973
-0.6604 0.0873 -0.0249 0.9973
-0.6572 0.0675 -0.0247 0.9974
-0.6522 0.0382 -0.0244 0.9974
-0.6505 0.0285 -0.0244 0.9974
-0.6492 0.0189 -0.0243 0.9974
-0.6478 0.0095 -0.0242 0.9974
-0.6209 0.0000 -0.0301 0.9975
-0.6221 -0.0091 -0.0302 0.9975
-0.6258 -0.0366 -0.0304 0.9975
-0.6271 -0.0459 -0.0305 0.9975
-0.6286 -0.0553 -0.0306 0.9975
-0.6315 -0.0742 -0.0309 0.9975
-0.6329 -0.0837 -0.0310 0.9974
-0.6344 -0.0934 -0.0311 0.9974
-0.6372 -0.1129 -0.0314 0.9974
-0.6386 -0.1228 -0.0316 0.9974
-0.6414 -0.1429 -0.0319 0.9974
-0.6427 -0.1531 -0.0321 0.9974
-0.6441 -0.1634 -0.0322 0.9973
-0.6482 -0.1950 -0.0328 0.9973
-0.6518 -0.2171 -0.0333 0.9973
-0.6613 -0.2641 -0.0346 0.9972
-0.6664 -0.2889 -0.0352 0.9971
-0.6689 -0.3018 -0.0356 0.9971
-0.6715 -0.3148 -0.0360 0.9970
-0.6793 -0.3555 -0.0372 0.9969
-0.6846 -0.3842 -0.0381 0.9969
-0.6862 -0.3984 -0.0385 0.9968
-0.6879 -0.4130 -0.0389 0.9968
-0.6896 -0.4279 -0.0394 0.9968
-0.6913 -0.4430 -0.0398 0.9967
-0.6930 -0.4585 -0.0403 0.9967
-0.6947 -0.4744 -0.0408 0.9966
-0.6982 -0.5073 -0.0419 0.9965
-0.8411 -0.6897 -0.0528 0.9957
-2.8245 -2.6061 -0.1865 0.9847
-2.4875 -2.5801 -0.1739 0.9858
-2.5118 -2.8449 -0.1841 0.9849
-6.6783 -8.0248 -0.5066 0.9591
-6.3655 -8.3694 -0.5102 0.9588
-6.5378 -9.1383 -0.5452 0.9560
-7.4531 -11.0884 -0.6482 0.9479
-7.0168 -11.1285 -0.6383 0.9487
-6.8690 -11.2554 -0.6398 0.9486
-6.4624 -11.3202 -0.6324 0.9491
-9.5227 -17.8745 -0.9827 0.9221
-8.9943 -18.1412 -0.9824 0.9221
-4.3862 -10.3217 -0.5441 0.9561
-4.2134 -10.3318 -0.5414 0.9563
-4.0480 -10.3566 -0.5395 0.9564
-3.7709 -10.5467 -0.5434 0.9561
-3.6539 -11.2457 -0.5737 0.9538
-5.6841 -19.4058 -0.9811 0.9222
-5.3992 -19.4845 -0.9810 0.9222
-4.8265 -19.6294 -0.9808 0.9222
-2.0211 -9.3954 -0.4663 0.9622
-1.8766 -9.3891 -0.4646 0.9624
-1.5907 -9.3766 -0.4615 0.9626
-1.1693 -9.3656 -0.4579 0.9629
-0.7558 -9.3829 -0.4567 0.9630
-0.6189 -9.3972 -0.4569 0.9630
-1.0317 -20.1562 -0.9792 0.9224
-0.2418 -11.0291 -0.5353 0.9568
0.0230 -3.1534 -0.1530 0.9875
0.0673 -3.0714 -0.1491 0.9878
0.1494 -2.9193 -0.1418 0.9884
0.2122 -3.2233 -0.1567 0.9871
0.2234 -2.7741 -0.1350 0.9889
0.2633 -2.7639 -0.1347 0.9889
0.3164 -2.8760 -0.1404 0.9885
0.3526 -2.8246 -0.1381 0.9887
0.4216 -2.7265 -0.1339 0.9890
0.4545 -2.6795 -0.1319 0.9892
0.4865 -2.6340 -0.1300 0.9893
2.0670 -9.6094 -0.4769 0.9614
2.3854 -9.7012 -0.4847 0.9608
2.7725 -9.4656 -0.4786 0.9613
3.0014 -9.7183 -0.4935 0.9601
3.1752 -9.3072 -0.4771 0.9614
3.5137 -9.3919 -0.4865 0.9606
4.2829 -10.0786 -0.5313 0.9571
8.9285 -18.0082 -0.9752 0.9227
9.1896 -17.8739 -0.9751 0.9227
9.4488 -17.7359 -0.9750 0.9227
5.0975 -8.9293 -0.4989 0.9597
5.1332 -8.4110 -0.4781 0.9613
5.2502 -8.0631 -0.4668 0.9622
5.8693 -7.9556 -0.4797 0.9612
6.0451 -7.9480 -0.4845 0.9608
6.2450 -7.9666 -0.4911 0.9603
6.6035 -7.9349 -0.5009 0.9595
2.9795 -3.3747 -0.2184 0.9821
3.0671 -3.3731 -0.2212 0.9819
2.8379 -3.0309 -0.2015 0.9835
2.7893 -2.7289 -0.1893 0.9845
2.7828 -2.6441 -0.1862 0.9847
3.1339 -2.7265 -0.2015 0.9835
3.1984 -2.6224 -0.2007 0.9836
3.2305 -2.5708 -0.2003 0.9836
3.5368 -2.5696 -0.2121 0.9826
3.6179 -2.5487 -0.2147 0.9824
3.5970 -2.4561 -0.2113 0.9827
3.5768 -2.3664 -0.2081 0.9830
3.6202 -2.3198 -0.2086 0.9829
5.8814 -3.3007 -0.3272 0.9734
5.9218 -3.2106 -0.3268 0.9734
5.6887 -2.9775 -0.3115 0.9746
5.7559 -2.6982 -0.3084 0.9749
6.2425 -2.4927 -0.3261 0.9734
6.3404 -2.4250 -0.3294 0.9732
6.3976 -2.3403 -0.3305 0.9731
6.5016 -2.2712 -0.3341 0.9728
6.5729 -1.9775 -0.3330 0.9729
19.5479 -5.5709 -0.9862 0.9218
19.8376 -4.4191 -0.9861 0.9218
19.9573 -3.8373 -0.9861 0.9218
19.8526 -2.3313 -0.9699 0.9231
19.8843 -2.0410 -0.9698 0.9231
20.2660 -1.4833 -0.9859 0.9218
20.2854 -1.1870 -0.9859 0.9218
20.3005 -0.8905 -0.9859 0.9218
20.3177 -0.2970 -0.9859 0.9218
20.3198 -0.0000 -0.9859 0.9218
20.3177 0.2969 -0.9859 0.9218
20.3112 0.5938 -0.9859 0.9218
20.2854 1.1870 -0.9859 0.9218
20.2424 1.7793 -0.9859 0.9218
20.2145 2.0748 -0.9859 0.9218
19.8376 4.4190 -0.9861 0.9218
19.7714 4.7085 -0.9861 0.9218
19.3442 4.9064 -0.9683 0.9232
19.2710 5.1887 -0.9683 0.9232
19.1938 5.4698 -0.9683 0.9232
19.1124 5.7499 -0.9684 0.9232
19.0270 6.0287 -0.9684 0.9232
18.8441 6.5826 -0.9685 0.9232
18.7467 6.8576 -0.9685 0.9232
13.6048 5.2034 -0.7067 0.9433
18.5399 7.4030 -0.9686 0.9232
8.0015 3.3314 -0.4205 0.9659
7.7626 3.3659 -0.4105 0.9667
7.3319 3.4370 -0.3929 0.9681
5.5027 2.7785 -0.2991 0.9756
5.3518 2.8011 -0.2931 0.9761
5.2067 2.8229 -0.2874 0.9766
5.0671 2.8438 -0.2819 0.9770
4.5585 2.9210 -0.2627 0.9786
4.2300 2.9798 -0.2510 0.9795
4.1280 2.9991 -0.2476 0.9798
4.0288 3.0180 -0.2442 0.9800
3.9321 3.0362 -0.2410 0.9803
3.7451 3.0706 -0.2350 0.9808
3.6539 3.0862 -0.2321 0.9810
3.4781 3.1164 -0.2266 0.9815
3.3932 3.1309 -0.2240 0.9817
3.3513 3.1841 -0.2243 0.9817
3.4227 3.5501 -0.2393 0.9804
3.4487 3.6833 -0.2448 0.9800
3.4543 3.7990 -0.2491 0.9796
3.3838 3.8325 -0.2481 0.9797
3.3640 3.9242 -0.2508 0.9795
3.3824 4.0644 -0.2566 0.9790
3.4101 4.2216 -0.2633 0.9785
3.4611 4.5505 -0.2774 0.9774
3.7493 5.2405 -0.3126 0.9745
3.7930 5.4688 -0.3229 0.9737
3.8398 5.7126 -0.3340 0.9728
4.0041 6.5610 -0.3729 0.9697
3.9274 6.6519 -0.3748 0.9695
3.9856 6.9815 -0.3900 0.9683
9.1896 17.8737 -0.9751 0.9227
8.9284 18.0080 -0.9752 0.9227
8.6652 18.1385 -0.9753 0.9227
8.4002 18.2652 -0.9754 0.9226
8.1333 18.3880 -0.9756 0.9226
7.8646 18.5069 -0.9757 0.9226
7.3221 18.7330 -0.9759 0.9226
7.0484 18.8400 -0.9760 0.9226
6.7731 18.9432 -0.9761 0.9226
6.4964 19.0424 -0.9762 0.9226
5.3754 19.3983 -0.9767 0.9226
4.8074 19.5516 -0.9769 0.9225
4.5218 19.6221 -0.9770 0.9225
4.2350 19.6884 -0.9771 0.9225
3.6588 19.8084 -0.9773 0.9225
1.1998 9.6100 -0.4699 0.9620
0.6023 9.1462 -0.4447 0.9640
0.3967 7.7510 -0.3766 0.9694
-0.1712 7.8112 -0.3791 0.9692
-0.8566 7.7852 -0.3800 0.9691
-1.1181 8.0029 -0.3921 0.9682
-1.2374 8.0020 -0.3929 0.9681
-1.5819 7.9147 -0.3916 0.9682
-2.1612 8.2668 -0.4146 0.9664
-2.2948 8.2812 -0.4169 0.9662
-2.4045 8.2091 -0.4150 0.9663
-6.8110 19.0491 -0.9816 0.9222
-7.3663 18.8462 -0.9818 0.9222
-7.9156 18.6271 -0.9820 0.9221
-8.9942 18.1409 -0.9824 0.9221
-9.5225 17.8742 -0.9826 0.9221
-3.7850 6.4108 -0.3612 0.9706
-3.8898 6.3737 -0.3623 0.9705
-3.9612 5.7112 -0.3372 0.9725
-3.9822 5.5661 -0.3321 0.9730
-4.0441 5.1589 -0.3180 0.9741
-4.0829 4.9061 -0.3097 0.9748
-4.1202 4.6665 -0.3020 0.9754
-4.1371 4.5500 -0.2984 0.9757
-4.1513 4.4336 -0.2947 0.9760
-4.1651 4.3201 -0.2912 0.9763
-4.1786 4.2092 -0.2878 0.9765
-4.1888 4.0979 -0.2843 0.9768
-4.2009 3.9913 -0.2812 0.9771
-4.2350 3.7946 -0.2759 0.9775
-4.2604 3.7065 -0.2740 0.9776
-4.2920 3.6252 -0.2726 0.9778
-0.7346 0.5845 -0.0456 0.9962
-0.6999 0.5243 -0.0424 0.9965
-0.6965 0.4906 -0.0413 0.9966
-0.6947 0.4744 -0.0408 0.9966
-0.6930 0.4585 -0.0403 0.9967
-0.6879 0.4130 -0.0389 0.9968
-0.6846 0.3842 -0.0381 0.9969
-0.6820 0.3697 -0.0376 0.9969
-0.6793 0.3555 -0.0372 0.9969
-0.6740 0.3280 -0.0364 0.9970
-0.6714 0.3148 -0.0360 0.9970
-0.6613 0.2640 -0.0346 0.9972
-0.6588 0.2520 -0.0342 0.9972
-0.6539 0.2284 -0.0336 0.9972
-0.6518 0.2170 -0.0333 0.9973
-0.6482 0.1950 -0.0328 0.9973
-0.6427 0.1530 -0.0321 0.9974
-0.6386 0.1228 -0.0316 0.9974
-0.6358 0.1031 -0.0313 0.9974
-0.6315 0.0742 -0.0309 0.9975
-0.6246 0.0274 -0.0303 0.9975
-0.6221 0.0091 -0.0302 0.9975
-0.5972 -0.0000 -0.0356 0.9976
-0.5983 -0.0088 -0.0357 0.9976
-0.5995 -0.0175 -0.0358 0.9976
-0.6038 -0.0531 -0.0361 0.9976
-0.6050 -0.0621 -0.0363 0.9976
-0.6138 -0.1274 -0.0374 0.9975
-0.6150 -0.1370 -0.0376 0.9975
-0.6162 -0.1467 -0.0378 0.9975
-0.6173 -0.1566 -0.0380 0.9975
-0.6185 -0.1666 -0.0382 0.9974
-0.6220 -0.1971 -0.0389 0.9974
-0.6250 -0.2183 -0.0395 0.9974
-0.6264 -0.2292 -0.0398 0.9973
-0.6280 -0.2402 -0.0401 0.9973
-0.6301 -0.2516 -0.0405 0.9973
-0.6363 -0.2870 -0.0416 0.9972
-0.6406 -0.3118 -0.0425 0.9971
-0.6491 -0.3643 -0.0444 0.9970
-0.6514 -0.3782 -0.0449 0.9970
-0.6536 -0.3924 -0.0455 0.9969
-0.6557 -0.4068 -0.0460 0.9969
-0.6582 -0.4355 -0.0471 0.9968
-0.6606 -0.4654 -0.0482 0.9968
-0.6630 -0.4967 -0.0494 0.9967
-0.6642 -0.5129 -0.0500 0.9966
-2.8445 -2.5487 -0.2278 0.9848
-2.8364 -2.6172 -0.2301 0.9847
-2.7254 -2.5895 -0.2242 0.9850
-2.5777 -2.5966 -0.2182 0.9854
-2.4973 -2.5902 -0.2146 0.9857
-2.4195 -2.5841 -0.2111 0.9859
-2.5214 -2.8558 -0.2272 0.9849
-6.8558 -7.9975 -0.6282 0.9587
-6.8356 -8.2138 -0.6372 0.9581
-8.8334 -10.9355 -0.8383 0.9452
-8.6967 -11.0941 -0.8406 0.9451
-7.3038 -9.6030 -0.7195 0.9528
-6.8636 -9.5936 -0.7034 0.9538
-7.5025 -11.1620 -0.8020 0.9475
-7.2443 -11.1255 -0.7917 0.9482
-6.8575 -11.2366 -0.7850 0.9486
-6.5933 -11.1674 -0.7734 0.9494
-6.4949 -11.3771 -0.7812 0.9489
-6.3651 -11.5381 -0.7858 0.9486
-7.3130 -14.7500 -0.9818 0.9362
-6.4366 -15.1466 -0.9814 0.9362
-4.1544 -11.1046 -0.7070 0.9536
-5.5388 -15.4911 -0.9811 0.9362
-5.3113 -15.5689 -0.9810 0.9362
-4.6227 -15.7822 -0.9807 0.9362
-2.1692 -9.4130 -0.5760 0.9620
-1.8788 -9.4003 -0.5717 0.9623
-1.5926 -9.3877 -0.5678 0.9626
-1.4513 -9.3845 -0.5663 0.9627
-1.0324 -9.3825 -0.5629 0.9629
-0.8949 -9.3930 -0.5627 0.9629
-1.3184 -16.3700 -0.9794 0.9363
-1.0790 -16.3859 -0.9793 0.9363
-0.1793 -3.5026 -0.2091 0.9860
0.0682 -3.1099 -0.1855 0.9876
0.1107 -3.0300 -0.1808 0.9879
0.1512 -2.9541 -0.1764 0.9882
0.1797 -2.7298 -0.1631 0.9891
0.2697 -2.8310 -0.1696 0.9887
0.3114 -2.8299 -0.1698 0.9887
0.3465 -2.7753 -0.1668 0.9889
0.3646 -2.6094 -0.1571 0.9895
0.4152 -2.6848 -0.1620 0.9892
0.4477 -2.6392 -0.1596 0.9893
0.4793 -2.5949 -0.1574 0.9895
0.6104 -3.0542 -0.1857 0.9876
2.3769 -9.6667 -0.5936 0.9609
2.5358 -9.6995 -0.5979 0.9606
2.8167 -9.6164 -0.5975 0.9606
3.0544 -9.4005 -0.5894 0.9612
3.1772 -9.3133 -0.5868 0.9613
3.8598 -9.8751 -0.6323 0.9584
4.2884 -10.0915 -0.6539 0.9570
6.6217 -14.9705 -0.9762 0.9365
6.8391 -14.8709 -0.9761 0.9365
7.2694 -14.6620 -0.9759 0.9365
5.1320 -8.6923 -0.6020 0.9604
5.1832 -8.2204 -0.5795 0.9618
5.5299 -7.9731 -0.5786 0.9619
5.6926 -7.9568 -0.5834 0.9616
5.8735 -7.9612 -0.5900 0.9611
6.0469 -7.9504 -0.5957 0.9608
2.6040 -3.1290 -0.2428 0.9838
2.7698 -2.9582 -0.2417 0.9839
2.8158 -2.8364 -0.2383 0.9841
2.8260 -2.7648 -0.2358 0.9843
2.8361 -2.6947 -0.2333 0.9844
2.8526 -2.5559 -0.2284 0.9848
2.8655 -2.4930 -0.2265 0.9849
3.2093 -2.7107 -0.2505 0.9833
3.2743 -2.6056 -0.2495 0.9834
3.3067 -2.5534 -0.2491 0.9834
3.3391 -2.5014 -0.2488 0.9834
3.3715 -2.4496 -0.2485 0.9834
6.0405 -3.5071 -0.4165 0.9724
5.9845 -3.2446 -0.4059 0.9731
5.9293 -3.1034 -0.3991 0.9735
5.8997 -2.8715 -0.3913 0.9741
5.9874 -2.5962 -0.3892 0.9742
6.1685 -2.4631 -0.3961 0.9737
6.2419 -2.3873 -0.3985 0.9736
6.2909 -2.1975 -0.3974 0.9737
6.3763 -2.0204 -0.3989 0.9736
15.9282 -4.5393 -0.9877 0.9358
15.9924 -4.3060 -0.9876 0.9358
16.0532 -4.0718 -0.9876 0.9358
13.3626 -2.7724 -0.8138 0.9468
16.0791 -2.6070 -0.9714 0.9368
16.1479 -2.1359 -0.9713 0.9368
16.4721 -1.6908 -0.9875 0.9358
16.4949 -1.4499 -0.9874 0.9358
16.5143 -1.2087 -0.9874 0.9358
16.5563 0.2419 -0.9874 0.9358
16.5142 1.2086 -0.9874 0.9358
16.4721 1.6907 -0.9874 0.9358
16.3828 2.4110 -0.9875 0.9358
16.3461 2.6502 -0.9875 0.9358
16.2151 3.3641 -0.9876 0.9358
16.1646 3.6008 -0.9876 0.9358
15.9923 4.3060 -0.9876 0.9358
15.8605 4.7717 -0.9877 0.9358
15.5036 4.9123 -0.9698 0.9369
15.4306 5.1385 -0.9699 0.9369
15.3543 5.3636 -0.9699 0.9369
15.2749 5.5875 -0.9699 0.9369
15.1061 6.0319 -0.9700 0.9369
7.9989 3.3304 -0.5167 0.9659
7.7627 3.3659 -0.5046 0.9667
7.3257 3.4341 -0.4825 0.9681
7.1499 3.4800 -0.4742 0.9686
5.1689 2.8024 -0.3506 0.9767
5.0322 2.8242 -0.3441 0.9771
4.9004 2.8452 -0.3379 0.9775
4.7732 2.8654 -0.3320 0.9779
4.5315 2.9037 -0.3210 0.9787
4.4188 2.9234 -0.3160 0.9790
4.3104 2.9432 -0.3113 0.9793
4.2052 2.9623 -0.3067 0.9796
4.1029 2.9809 -0.3024 0.9799
3.9082 3.0178 -0.2945 0.9804
3.8149 3.0357 -0.2907 0.9807
3.6350 3.0703 -0.2837 0.9811
3.5482 3.0869 -0.2805 0.9813
3.3803 3.1189 -0.2743 0.9817
3.3649 3.1970 -0.2768 0.9816
3.3811 3.3077 -0.2821 0.9812
3.4571 3.6922 -0.3016 0.9799
3.4438 3.7874 -0.3053 0.9797
3.3839 4.0661 -0.3155 0.9790
3.4122 4.2243 -0.3238 0.9785
3.4852 4.7239 -0.3501 0.9768
3.7461 5.2360 -0.3839 0.9745
3.9471 6.2600 -0.4413 0.9708
3.9284 6.6537 -0.4608 0.9695
3.9895 6.9884 -0.4799 0.9683
7.4822 14.5528 -0.9758 0.9365
7.0550 14.7679 -0.9760 0.9365
6.4028 15.0668 -0.9762 0.9365
5.7379 15.3372 -0.9765 0.9365
5.5137 15.4207 -0.9766 0.9365
5.2883 15.5011 -0.9767 0.9365
4.3754 15.7895 -0.9771 0.9365
3.6803 15.9706 -0.9773 0.9364
2.7422 16.1645 -0.9777 0.9364
1.3419 9.6043 -0.5783 0.9619
1.2078 9.6742 -0.5814 0.9617
0.3967 7.7489 -0.4627 0.9694
0.2842 7.7749 -0.4639 0.9693
0.1710 7.8010 -0.4653 0.9692
0.0572 7.8261 -0.4667 0.9691
-0.0574 7.8542 -0.4684 0.9690
-0.1728 7.8811 -0.4701 0.9689
-0.2890 7.9084 -0.4719 0.9688
-0.6314 7.8400 -0.4690 0.9690
-0.7379 7.7461 -0.4640 0.9693
-0.8422 7.6543 -0.4592 0.9696
-0.9802 7.8514 -0.4718 0.9688
-1.0924 7.8189 -0.4708 0.9689
-1.2539 8.1087 -0.4893 0.9677
-1.3187 7.7739 -0.4702 0.9689
-1.5061 8.1540 -0.4945 0.9673
-2.2733 8.2037 -0.5076 0.9665
-2.5031 8.1048 -0.5058 0.9666
-2.6250 8.0787 -0.5066 0.9665
-2.7209 7.9756 -0.5025 0.9668
-5.7650 15.4097 -0.9811 0.9362
-5.9901 15.3252 -0.9812 0.9362
-6.4365 15.1464 -0.9814 0.9362
-6.6577 15.0521 -0.9815 0.9362
-7.3129 14.7499 -0.9818 0.9362
-7.5283 14.6427 -0.9818 0.9362
-7.7422 14.5324 -0.9819 0.9361
-3.7595 6.5855 -0.4522 0.9701
-3.8107 6.2441 -0.4362 0.9711
-3.8834 6.1589 -0.4342 0.9712
-3.9385 5.8595 -0.4210 0.9721
-3.9826 5.5667 -0.4082 0.9729
-4.0248 5.2917 -0.3965 0.9737
-4.0836 4.9070 -0.3807 0.9747
-4.1024 4.7855 -0.3759 0.9751
-4.1208 4.6672 -0.3713 0.9754
-4.1820 4.0912 -0.3489 0.9768
-4.1886 3.9796 -0.3445 0.9771
-4.2063 3.8812 -0.3413 0.9773
-0.8166 0.7105 -0.0645 0.9957
-0.7163 0.6050 -0.0559 0.9963
-0.6653 0.5294 -0.0507 0.9966
-0.6630 0.4966 -0.0494 0.9967
-0.6606 0.4654 -0.0482 0.9968
-0.6594 0.4502 -0.0476 0.9968
-0.6582 0.4354 -0.0471 0.9968
-0.6569 0.4209 -0.0465 0.9969
-0.6427 0.3245 -0.0429 0.9971
-0.6406 0.3118 -0.0425 0.9971
-0.6385 0.2993 -0.0420 0.9972
-0.6343 0.2750 -0.0412 0.9972
-0.6300 0.2516 -0.0405 0.9973
-0.6280 0.2402 -0.0401 0.9973
-0.6220 0.1970 -0.0389 0.9974
-0.6207 0.1867 -0.0387 0.9974
-0.6185 0.1665 -0.0382 0.9974
-0.6173 0.1566 -0.0380 0.9975
-0.6162 0.1467 -0.0378 0.9975
-0.6138 0.1273 -0.0374 0.9975
-0.6102 0.0989 -0.0369 0.9975
-0.6089 0.0896 -0.0367 0.9975
-0.6050 0.0621 -0.0363 0.9976
-0.6038 0.0530 -0.0361 0.9976
-0.6028 0.0441 -0.0360 0.9976
-0.6017 0.0352 -0.0359 0.9976
-0.6006 0.0263 -0.0359 0.9976
-0.5763 -0.0084 -0.0408 0.9977
-0.5794 -0.0339 -0.0411 0.9977
-0.5832 -0.0685 -0.0415 0.9976
-0.5854 -0.0862 -0.0419 0.9976
-0.5886 -0.1132 -0.0424 0.9976
-0.5897 -0.1223 -0.0426 0.9976
-0.5917 -0.1409 -0.0430 0.9976
-0.5927 -0.1503 -0.0433 0.9976
-0.5936 -0.1598 -0.0435 0.9975
-0.5955 -0.1792 -0.0440 0.9975
-0.5975 -0.1990 -0.0446 0.9975
-0.5999 -0.2195 -0.0452 0.9974
-0.6011 -0.2299 -0.0455 0.9974
-0.6023 -0.2405 -0.0459 0.9974
-0.6035 -0.2512 -0.0463 0.9974
-0.6153 -0.3336 -0.0495 0.9972
-0.6170 -0.3463 -0.0501 0.9972
-0.6205 -0.3725 -0.0512 0.9971
-0.6222 -0.3860 -0.0518 0.9971
-0.6258 -0.4140 -0.0531 0.9970
-0.6282 -0.4425 -0.0544 0.9969
-0.6317 -0.5180 -0.0578 0.9967
-0.6330 -0.5507 -0.0594 0.9966
-0.7910 -0.7298 -0.0762 0.9957
-2.6719 -2.6140 -0.2645 0.9851
-2.5072 -2.6005 -0.2556 0.9856
-2.4290 -2.5942 -0.2515 0.9859
-6.8699 -8.0139 -0.7469 0.9586
-8.6985 -10.7687 -0.9796 0.9460
-8.5396 -10.8939 -0.9795 0.9460
-7.0812 -9.5982 -0.8440 0.9533
-6.8925 -9.6340 -0.8382 0.9536
-7.6159 -10.9806 -0.9456 0.9478
-7.3246 -11.2490 -0.9499 0.9476
-6.5280 -11.4352 -0.9317 0.9486
-6.4707 -11.7296 -0.9479 0.9477
-6.3234 -12.2992 -0.9786 0.9461
-6.1425 -12.3894 -0.9785 0.9461
-5.7257 -12.4500 -0.9697 0.9465
-5.5924 -12.6438 -0.9783 0.9461
-4.3275 -11.0716 -0.8412 0.9535
-4.4618 -13.0788 -0.9779 0.9461
-4.0771 -13.2016 -0.9777 0.9461
-3.8834 -13.2587 -0.9776 0.9461
-3.6890 -13.3129 -0.9775 0.9461
-3.4938 -13.3643 -0.9775 0.9461
-3.2979 -13.4129 -0.9774 0.9461
-2.5997 -11.2816 -0.8192 0.9546
-2.0259 -9.4179 -0.6817 0.9621
-1.7374 -9.4057 -0.6768 0.9624
-1.5951 -9.4023 -0.6748 0.9625
-1.3128 -9.3958 -0.6713 0.9627
-0.3741 -3.3996 -0.2420 0.9864
-0.2809 -3.4875 -0.2476 0.9861
-0.1068 -2.9216 -0.2069 0.9883
-0.0620 -2.8294 -0.2003 0.9887
0.1084 -2.9662 -0.2100 0.9882
0.1345 -2.6271 -0.1861 0.9895
0.1769 -2.6864 -0.1905 0.9893
0.2090 -2.5945 -0.1842 0.9896
0.2830 -2.5721 -0.1831 0.9897
0.3279 -2.6266 -0.1873 0.9894
0.3713 -2.6574 -0.1899 0.9893
0.3837 -2.2615 -0.1623 0.9908
2.4106 -9.8039 -0.7144 0.9603
2.9843 -9.6629 -0.7156 0.9603
3.5664 -9.5329 -0.7202 0.9600
3.8453 -9.8379 -0.7474 0.9585
4.0138 -9.8424 -0.7522 0.9583
4.4017 -10.3582 -0.7964 0.9559
5.9314 -12.4159 -0.9737 0.9463
6.1117 -12.3270 -0.9736 0.9463
6.2907 -12.2355 -0.9735 0.9463
6.4684 -12.1414 -0.9735 0.9463
5.1973 -9.4213 -0.7614 0.9578
5.1545 -8.7304 -0.7174 0.9602
5.2477 -8.0591 -0.6805 0.9622
5.5345 -7.9797 -0.6872 0.9618
6.0462 -7.9495 -0.7067 0.9607
6.2871 -8.0202 -0.7211 0.9600
2.7158 -3.0759 -0.2904 0.9837
2.7576 -3.0328 -0.2901 0.9837
2.8411 -2.9469 -0.2897 0.9837
2.6493 -2.5918 -0.2623 0.9852
2.7204 -2.5848 -0.2655 0.9851
2.8690 -2.5707 -0.2726 0.9847
2.9022 -2.5250 -0.2722 0.9847
2.9115 -2.4592 -0.2697 0.9848
3.4342 -2.4951 -0.3004 0.9831
3.4570 -2.4353 -0.2992 0.9832
3.5489 -2.4232 -0.3041 0.9829
3.6027 -2.3836 -0.3057 0.9828
3.5748 -2.2907 -0.3004 0.9831
3.5094 -2.1771 -0.2922 0.9836
12.0895 -7.0192 -0.9892 0.9455
5.9542 -3.2282 -0.4793 0.9732
5.7531 -2.6969 -0.4496 0.9748
5.7635 -2.5998 -0.4474 0.9750
6.0961 -2.4342 -0.4645 0.9740
6.3975 -2.2348 -0.4795 0.9732
6.3919 -2.1286 -0.4767 0.9733
6.5037 -1.9567 -0.4806 0.9731
13.2842 -3.5768 -0.9735 0.9463
13.3688 -3.1837 -0.9725 0.9464
13.4136 -2.9880 -0.9724 0.9464
13.4556 -2.7916 -0.9724 0.9464
13.4948 -2.5947 -0.9724 0.9464
13.5310 -2.3972 -0.9724 0.9464
13.5949 -2.0008 -0.9724 0.9464
13.7474 -1.8184 -0.9813 0.9459
13.9317 -1.0197 -0.9885 0.9455
13.9554 -0.6121 -0.9885 0.9455
13.9628 -0.4082 -0.9885 0.9455
13.9687 -0.0000 -0.9885 0.9455
13.9672 0.2041 -0.9885 0.9455
13.9628 0.4082 -0.9885 0.9455
13.9450 0.8160 -0.9885 0.9455
13.9154 1.2231 -0.9885 0.9455
13.8488 1.8317 -0.9885 0.9455
13.8207 2.0339 -0.9885 0.9455
13.7557 2.4370 -0.9885 0.9455
13.7188 2.6377 -0.9886 0.9455
13.6364 3.0376 -0.9886 0.9455
13.5908 3.2366 -0.9886 0.9455
13.5423 3.4349 -0.9886 0.9455
13.4909 3.6325 -0.9886 0.9455
13.4367 3.8293 -0.9887 0.9455
13.3796 4.0253 -0.9887 0.9455
13.1230 4.8005 -0.9888 0.9455
12.8155 4.9013 -0.9709 0.9465
12.7428 5.0882 -0.9709 0.9465
5.4656 2.7598 -0.4333 0.9757
5.3105 2.7795 -0.4241 0.9763
5.1621 2.7987 -0.4155 0.9767
4.8825 2.8348 -0.3995 0.9776
4.7507 2.8519 -0.3921 0.9780
4.2865 2.9268 -0.3673 0.9794
4.1822 2.9461 -0.3620 0.9797
4.0807 2.9648 -0.3569 0.9800
3.9821 2.9830 -0.3521 0.9802
3.8861 3.0007 -0.3474 0.9805
3.7018 3.0352 -0.3387 0.9810
3.5277 3.0691 -0.3309 0.9814
3.4435 3.0854 -0.3272 0.9816
3.3921 3.2229 -0.3311 0.9814
3.4679 3.7037 -0.3590 0.9799
3.4358 3.7786 -0.3614 0.9797
3.3630 3.8090 -0.3596 0.9798
3.3993 3.9653 -0.3696 0.9793
3.4142 4.2267 -0.3845 0.9784
3.4419 4.3907 -0.3948 0.9779
3.4862 4.7254 -0.4155 0.9767
3.7877 5.4611 -0.4703 0.9737
3.8369 5.7084 -0.4867 0.9728
3.8897 5.9737 -0.5044 0.9718
3.9872 6.5332 -0.5416 0.9698
3.9290 6.6546 -0.5468 0.9695
4.0299 7.3050 -0.5904 0.9671
6.4866 12.1756 -0.9762 0.9462
6.1290 12.3618 -0.9764 0.9462
5.9481 12.4510 -0.9764 0.9462
5.3980 12.7025 -0.9767 0.9462
4.6482 13.0002 -0.9770 0.9461
4.4581 13.0677 -0.9770 0.9461
4.0750 13.1945 -0.9772 0.9461
3.6883 13.3100 -0.9773 0.9461
2.5099 13.5884 -0.9778 0.9461
1.3425 9.6086 -0.6865 0.9618
1.3111 13.7628 -0.9783 0.9461
0.6319 7.8450 -0.5569 0.9689
0.5131 7.7917 -0.5526 0.9692
0.1705 7.7786 -0.5506 0.9693
-0.0578 7.9100 -0.5597 0.9688
-0.2861 7.8282 -0.5543 0.9691
-0.6331 7.8609 -0.5581 0.9689
-0.7399 7.7666 -0.5521 0.9692
-0.8444 7.6743 -0.5463 0.9695
-1.1859 7.6687 -0.5491 0.9694
-1.3359 7.8750 -0.5652 0.9685
-1.5357 8.3141 -0.5983 0.9667
-1.6385 8.1983 -0.5916 0.9670
-1.7391 8.0849 -0.5852 0.9674
-1.8376 7.9741 -0.5791 0.9677
-1.9763 8.0377 -0.5857 0.9674
-2.2678 8.1838 -0.6009 0.9665
-2.5098 8.1265 -0.6018 0.9665
-2.7065 7.9335 -0.5932 0.9669
-4.8565 12.9814 -0.9808 0.9459
-3.9457 9.6755 -0.7394 0.9590
-5.4220 12.7591 -0.9810 0.9459
-5.9773 12.5121 -0.9812 0.9459
-6.3413 12.3339 -0.9814 0.9459
-3.7881 6.4161 -0.5272 0.9706
-3.9205 6.0210 -0.5084 0.9716
-3.9390 5.8603 -0.4997 0.9721
-3.9832 5.5675 -0.4844 0.9729
-4.0044 5.4278 -0.4773 0.9733
-4.0456 5.1609 -0.4640 0.9740
-4.0652 5.0327 -0.4578 0.9744
-4.0844 4.9079 -0.4518 0.9747
-4.1031 4.7864 -0.4461 0.9750
-4.1214 4.6680 -0.4406 0.9753
-4.1658 4.3208 -0.4247 0.9762
-4.1485 4.0585 -0.4107 0.9770
-0.7909 0.7298 -0.0762 0.9957
-0.6970 0.6245 -0.0662 0.9963
-0.6330 0.5507 -0.0594 0.9966
-0.6324 0.5341 -0.0586 0.9967
-0.6317 0.5180 -0.0578 0.9967
-0.6311 0.5022 -0.0571 0.9968
-0.6297 0.4717 -0.0557 0.9969
-0.6289 0.4570 -0.0550 0.9969
-0.6274 0.4284 -0.0538 0.9970
-0.6258 0.4140 -0.0531 0.9970
-0.6222 0.3860 -0.0518 0.9971
-0.6204 0.3724 -0.0512 0.9971
-0.6187 0.3593 -0.0506 0.9971
-0.6137 0.3212 -0.0490 0.9972
-0.6119 0.3089 -0.0485 0.9973
-0.6085 0.2853 -0.0476 0.9973
-0.6035 0.2512 -0.0463 0.9974
-0.6023 0.2405 -0.0459 0.9974
-0.6011 0.2299 -0.0455 0.9974
-0.5975 0.1990 -0.0446 0.9975
-0.5955 0.1791 -0.0440 0.9975
-0.5946 0.1695 -0.0437 0.9975
-0.5926 0.1503 -0.0433 0.9976
-0.5907 0.1316 -0.0428 0.9976
-0.5897 0.1223 -0.0426 0.9976
-0.5886 0.1132 -0.0424 0.9976
-0.5875 0.1041 -0.0422 0.9976
-0.5865 0.0951 -0.0420 0.9976
-0.5842 0.0773 -0.0417 0.9976
-0.5832 0.0684 -0.0415 0.9976
-0.5822 0.0598 -0.0414 0.9977
-0.5813 0.0511 -0.0413 0.9977
-0.5804 0.0424 -0.0412 0.9977
-0.5794 0.0339 -0.0411 0.9977
-0.5763 0.0084 -0.0408 0.9977
-0.5577 -0.0245 -0.0457 0.9978
-0.5586 -0.0327 -0.0458 0.9978
-0.5595 -0.0409 -0.0460 0.9978
-0.5612 -0.0577 -0.0462 0.9977
-0.5620 -0.0660 -0.0464 0.9977
-0.5628 -0.0745 -0.0465 0.9977
-0.5636 -0.0830 -0.0467 0.9977
-0.5645 -0.0916 -0.0468 0.9977
-0.5655 -0.1002 -0.0470 0.9977
-0.5664 -0.1089 -0.0472 0.9977
-0.5673 -0.1177 -0.0475 0.9977
-0.5682 -0.1266 -0.0477 0.9977
-0.5690 -0.1355 -0.0479 0.9977
-0.5714 -0.1629 -0.0487 0.9976
-0.5722 -0.1721 -0.0489 0.9976
-0.5746 -0.2007 -0.0499 0.9976
-0.5766 -0.2205 -0.0506 0.9975
-0.5793 -0.2512 -0.0517 0.9975
-0.5802 -0.2617 -0.0521 0.9974
-0.5826 -0.2836 -0.0531 0.9974
-0.5866 -0.3181 -0.0547 0.9973
-0.5880 -0.3300 -0.0552 0.9973
-0.5893 -0.3421 -0.0558 0.9973
-0.5918 -0.3672 -0.0570 0.9972
-0.5958 -0.4068 -0.0591 0.9971
-0.5971 -0.4206 -0.0598 0.9971
-0.5984 -0.4348 -0.0606 0.9970
-0.5995 -0.4491 -0.0614 0.9970
-0.5998 -0.4632 -0.0621 0.9970
-0.6001 -0.4776 -0.0628 0.9969
-0.6008 -0.5384 -0.0661 0.9968
-0.6009 -0.5545 -0.0670 0.9967
-0.6766 -0.6429 -0.0764 0.9963
-2.6829 -2.6247 -0.3074 0.9850
-2.5986 -2.6177 -0.3021 0.9853
-2.5172 -2.6109 -0.2971 0.9855
-2.4385 -2.6044 -0.2922 0.9858
-2.5915 -2.8501 -0.3155 0.9847
-7.0651 -8.0020 -0.8743 0.9581
-6.9633 -8.1230 -0.8763 0.9580
-7.5101 -9.5805 -0.9971 0.9523
-7.3689 -9.6886 -0.9970 0.9523
-6.7888 -10.1002 -0.9968 0.9523
-6.3724 -10.1066 -0.9786 0.9532
-6.2236 -10.1980 -0.9786 0.9532
-5.9222 -10.3742 -0.9784 0.9532
-5.6159 -10.5415 -0.9783 0.9532
-5.3048 -10.6997 -0.9782 0.9532
-5.1475 -10.7754 -0.9781 0.9532
-4.9893 -10.8488 -0.9781 0.9532
-4.6695 -10.9884 -0.9779 0.9532
-4.1826 -11.1803 -0.9777 0.9532
-4.0185 -11.2395 -0.9777 0.9532
-3.5214 -11.4024 -0.9775 0.9532
-3.3542 -11.4519 -0.9774 0.9532
-3.1863 -11.4989 -0.9773 0.9532
-3.0178 -11.5434 -0.9773 0.9532
-2.8486 -11.5855 -0.9772 0.9532
-1.7401 -9.4204 -0.7847 0.9623
-0.4154 -2.4489 -0.2035 0.9901
-0.3985 -2.5770 -0.2136 0.9896
-0.2777 -3.4479 -0.2833 0.9862
-0.1753 -2.6616 -0.2185 0.9894
-0.0173 -2.3658 -0.1938 0.9905
0.0185 -2.5246 -0.2068 0.9899
0.0580 -2.6460 -0.2168 0.9894
0.0961 -2.6290 -0.2155 0.9895
0.1334 -2.6060 -0.2137 0.9896
0.1741 -2.6443 -0.2171 0.9894
0.2069 -2.5692 -0.2111 0.9897
0.2146 -2.2530 -0.1854 0.9910
0.2486 -2.2598 -0.1862 0.9909
0.3177 -2.2738 -0.1880 0.9908
0.3839 -2.2632 -0.1880 0.9908
0.4185 -2.2655 -0.1887 0.9908
0.7592 -3.0877 -0.2604 0.9873
0.7202 -2.7550 -0.2332 0.9886
3.0750 -9.4639 -0.8151 0.9608
3.2571 -9.5475 -0.8263 0.9603
3.4876 -9.7543 -0.8485 0.9593
3.6240 -9.6868 -0.8471 0.9593
3.8918 -9.9567 -0.8756 0.9580
4.0136 -9.8418 -0.8706 0.9582
4.6518 -10.9464 -0.9742 0.9534
4.8109 -10.8765 -0.9741 0.9534
4.9690 -10.8044 -0.9741 0.9534
5.1259 -10.7300 -0.9740 0.9534
5.4366 -10.5742 -0.9739 0.9534
5.5902 -10.4930 -0.9738 0.9534
5.7425 -10.4096 -0.9738 0.9534
5.5789 -8.0437 -0.8018 0.9615
5.6901 -7.9534 -0.8010 0.9615
5.8676 -7.9532 -0.8095 0.9611
7.4648 -9.5227 -0.9911 0.9526
2.8942 -3.5830 -0.3773 0.9817
2.6258 -2.8044 -0.3147 0.9847
2.6983 -2.7988 -0.3184 0.9845
2.8121 -2.7512 -0.3222 0.9843
2.9400 -2.5579 -0.3192 0.9845
2.9490 -2.4909 -0.3162 0.9846
2.9580 -2.4254 -0.3133 0.9848
3.3116 -2.6352 -0.3466 0.9832
3.2854 -2.5369 -0.3400 0.9835
3.3718 -2.5258 -0.3451 0.9832
3.2661 -2.3730 -0.3307 0.9839
3.3535 -2.3624 -0.3360 0.9837
3.5151 -2.4002 -0.3486 0.9831
3.5656 -2.1405 -0.3406 0.9834
3.7763 -2.1925 -0.3577 0.9826
10.5385 -5.9145 -0.9898 0.9527
4.1312 -2.2398 -0.3849 0.9813
5.9121 -3.0945 -0.5466 0.9736
5.8510 -2.9544 -0.5369 0.9740
5.7637 -2.7019 -0.5214 0.9748
5.9215 -2.4654 -0.5254 0.9746
6.3077 -2.1005 -0.5445 0.9737
6.5195 -2.0657 -0.5602 0.9729
6.4696 -1.9464 -0.5534 0.9732
11.5169 -2.9212 -0.9732 0.9534
11.6333 -2.4136 -0.9732 0.9534
11.6672 -2.2434 -0.9731 0.9534
11.7395 -1.9034 -0.9741 0.9534
11.9951 -1.4086 -0.9892 0.9527
12.0451 -0.8816 -0.9892 0.9527
12.0566 -0.7055 -0.9892 0.9527
12.0758 0.1765 -0.9892 0.9527
12.0720 0.3529 -0.9892 0.9527
12.0656 0.5293 -0.9892 0.9527
12.0451 0.8816 -0.9892 0.9527
12.0309 1.0575 -0.9892 0.9527
12.0143 1.2331 -0.9892 0.9527
11.9490 1.7585 -0.9893 0.9527
11.8265 2.4537 -0.9893 0.9527
11.7896 2.6263 -0.9893 0.9527
11.7081 2.9697 -0.9894 0.9527
11.6637 3.1405 -0.9894 0.9527
11.5675 3.4802 -0.9894 0.9527
11.5156 3.6488 -0.9894 0.9527
11.4613 3.8168 -0.9895 0.9527
11.3454 4.1502 -0.9895 0.9527
11.2838 4.3157 -0.9895 0.9527
7.8374 3.3983 -0.6997 0.9663
7.5829 3.4204 -0.6814 0.9672
7.1541 3.4821 -0.6517 0.9686
5.3463 2.7982 -0.4943 0.9761
4.9131 2.8525 -0.4653 0.9775
4.7798 2.8694 -0.4566 0.9779
4.6515 2.8856 -0.4484 0.9783
4.5278 2.9013 -0.4405 0.9786
4.4096 2.9173 -0.4331 0.9790
4.1854 2.9484 -0.4193 0.9797
3.9750 2.9777 -0.4068 0.9803
3.8745 2.9918 -0.4010 0.9805
3.5939 3.0355 -0.3853 0.9813
3.5075 3.0515 -0.3808 0.9815
3.4239 3.0678 -0.3766 0.9817
3.4196 3.2490 -0.3864 0.9812
3.4527 3.5812 -0.4075 0.9802
3.4664 3.7022 -0.4154 0.9799
3.3589 3.8043 -0.4157 0.9798
3.3905 3.9551 -0.4267 0.9793
3.3861 4.0688 -0.4336 0.9790
3.4157 4.2285 -0.4452 0.9784
3.4444 4.3939 -0.4573 0.9778
3.4867 4.7261 -0.4811 0.9767
3.7872 5.4604 -0.5443 0.9737
3.8364 5.7077 -0.5633 0.9728
4.2410 6.5132 -0.6366 0.9693
4.1182 6.5313 -0.6324 0.9695
3.9283 6.6534 -0.6329 0.9695
5.6059 10.5226 -0.9766 0.9533
5.2968 10.6832 -0.9767 0.9533
5.1405 10.7602 -0.9768 0.9533
4.9830 10.8349 -0.9768 0.9533
4.6649 10.9773 -0.9769 0.9533
4.3427 11.1104 -0.9771 0.9533
4.1802 11.1734 -0.9771 0.9532
4.0167 11.2340 -0.9772 0.9532
3.6872 11.3481 -0.9773 0.9532
3.5213 11.4016 -0.9774 0.9532
3.1871 11.5012 -0.9775 0.9532
2.8501 11.5910 -0.9777 0.9532
2.6806 11.6322 -0.9777 0.9532
2.5105 11.6710 -0.9778 0.9532
0.5227 7.9370 -0.6515 0.9686
0.4038 7.8883 -0.6470 0.9688
-0.0565 7.7351 -0.6336 0.9694
-0.1724 7.8646 -0.6443 0.9689
-0.2859 7.8230 -0.6412 0.9691
-0.4062 7.9356 -0.6508 0.9686
-0.6348 7.8820 -0.6477 0.9688
-0.7418 7.7872 -0.6407 0.9691
-0.8466 7.6945 -0.6340 0.9694
-1.6489 8.2500 -0.6891 0.9668
-1.7500 8.1354 -0.6816 0.9672
-1.8768 8.1441 -0.6846 0.9670
-2.2221 8.0192 -0.6816 0.9672
-2.4021 8.2007 -0.6999 0.9663
-2.5004 8.0961 -0.6940 0.9666
-2.5971 7.9932 -0.6884 0.9668
-4.0300 11.2712 -0.9804 0.9531
-4.1945 11.2118 -0.9805 0.9531
-3.9277 9.6312 -0.8520 0.9591
-4.6828 11.0195 -0.9807 0.9531
-5.1622 10.8058 -0.9809 0.9531
-5.3198 10.7299 -0.9810 0.9531
-5.4764 10.6517 -0.9810 0.9531
-5.6318 10.5712 -0.9811 0.9531
-3.7309 6.7630 -0.6326 0.9695
-3.7616 6.5892 -0.6215 0.9700
-3.7896 6.4186 -0.6105 0.9705
-3.8125 6.2470 -0.5994 0.9711
-3.9219 6.0231 -0.5887 0.9716
-3.9619 5.7124 -0.5694 0.9725
-4.0050 5.4285 -0.5526 0.9733
-4.1221 4.6687 -0.5101 0.9753
-4.1381 4.5510 -0.5038 0.9756
-4.1523 4.4347 -0.4976 0.9759
-0.6766 0.6428 -0.0764 0.9963
-0.6008 0.5383 -0.0661 0.9968
-0.6006 0.5073 -0.0644 0.9968
-0.6004 0.4922 -0.0636 0.9969
-0.6001 0.4775 -0.0628 0.9969
-0.5998 0.4631 -0.0621 0.9970
-0.5971 0.4206 -0.0598 0.9971
-0.5945 0.3933 -0.0584 0.9971
-0.5918 0.3671 -0.0570 0.9972
-0.5905 0.3545 -0.0564 0.9972
-0.5826 0.2836 -0.0531 0.9974
-0.5802 0.2617 -0.0521 0.9974
-0.5793 0.2512 -0.0517 0.9975
-0.5756 0.2105 -0.0502 0.9975
-0.5746 0.2007 -0.0499 0.9976
-0.5736 0.1910 -0.0495 0.9976
-0.5729 0.1816 -0.0492 0.9976
-0.5714 0.1628 -0.0487 0.9976
-0.5707 0.1536 -0.0484 0.9976
-0.5690 0.1355 -0.0479 0.9977
-0.5682 0.1266 -0.0477 0.9977
-0.5673 0.1177 -0.0475 0.9977
-0.5645 0.0915 -0.0468 0.9977
-0.5628 0.0745 -0.0465 0.9977
-0.5612 0.0576 -0.0462 0.9977
-0.5604 0.0493 -0.0461 0.9977
-0.5558 0.0081 -0.0455 0.9978
-0.5366 -0.0079 -0.0500 0.9978
-0.5401 -0.0395 -0.0504 0.9978
-0.5408 -0.0475 -0.0505 0.9978
-0.5416 -0.0556 -0.0507 0.9978
-0.5423 -0.0637 -0.0508 0.9978
-0.5443 -0.0883 -0.0513 0.9978
-0.5449 -0.0966 -0.0515 0.9978
-0.5473 -0.1219 -0.0522 0.9978
-0.5480 -0.1305 -0.0524 0.9977
-0.5487 -0.1392 -0.0527 0.9977
-0.5494 -0.1480 -0.0530 0.9977
-0.5500 -0.1568 -0.0532 0.9977
-0.5538 -0.2118 -0.0552 0.9976
-0.5553 -0.2312 -0.0560 0.9976
-0.5560 -0.2411 -0.0564 0.9976
-0.5567 -0.2511 -0.0568 0.9975
-0.5573 -0.2613 -0.0573 0.9975
-0.5579 -0.2716 -0.0578 0.9975
-0.5585 -0.2820 -0.0582 0.9975
-0.5594 -0.2928 -0.0588 0.9975
-0.5604 -0.3039 -0.0593 0.9974
-0.5634 -0.3382 -0.0612 0.9974
-0.5661 -0.3745 -0.0632 0.9973
-0.5670 -0.3871 -0.0639 0.9972
-0.5679 -0.4001 -0.0647 0.9972
-0.5688 -0.4132 -0.0654 0.9972
-0.5696 -0.4267 -0.0662 0.9971
-0.5712 -0.4546 -0.0679 0.9971
-0.5719 -0.4690 -0.0688 0.9970
-0.5717 -0.4830 -0.0697 0.9970
-0.5706 -0.5422 -0.0733 0.9968
-0.5702 -0.5579 -0.0742 0.9968
-0.6549 -0.6598 -0.0865 0.9963
-2.6015 -2.8612 -0.3599 0.9846
-7.0891 -8.0292 -0.9969 0.9579
-6.9707 -8.1316 -0.9969 0.9579
-6.7295 -8.3309 -0.9968 0.9579
-6.6067 -8.4280 -0.9967 0.9579
-6.4825 -8.5232 -0.9967 0.9579
-6.1019 -8.7978 -0.9965 0.9579
-5.9724 -8.8855 -0.9965 0.9579
-5.8416 -8.9713 -0.9964 0.9579
-5.5764 -9.1372 -0.9963 0.9579
-5.3064 -9.2952 -0.9962 0.9579
-5.1697 -9.3713 -0.9961 0.9579
-5.0320 -9.4453 -0.9961 0.9579
-4.8931 -9.5173 -0.9960 0.9579
-4.7533 -9.5872 -0.9960 0.9579
-4.6124 -9.6551 -0.9959 0.9579
-4.0396 -9.9058 -0.9957 0.9579
-3.8943 -9.9632 -0.9956 0.9579
-3.0984 -10.0327 -0.9773 0.9587
-2.9513 -10.0763 -0.9772 0.9587
-2.5064 -10.1941 -0.9771 0.9587
-2.3571 -10.2290 -0.9770 0.9587
-2.2072 -10.2618 -0.9769 0.9587
-1.7551 -10.3467 -0.9768 0.9587
-0.4342 -2.8079 -0.2644 0.9887
-0.3457 -2.4746 -0.2326 0.9900
-0.2998 -2.7248 -0.2551 0.9890
-0.2578 -2.7058 -0.2530 0.9891
-0.2160 -2.6816 -0.2504 0.9893
-0.1750 -2.6579 -0.2479 0.9894
-0.1318 -2.5752 -0.2400 0.9897
-0.0538 -2.4573 -0.2288 0.9902
0.0172 -2.3502 -0.2188 0.9906
0.0823 -2.2521 -0.2098 0.9910
0.1492 -2.2655 -0.2113 0.9909
0.2171 -2.2791 -0.2131 0.9908
0.2516 -2.2861 -0.2141 0.9908
0.3568 -2.3078 -0.2173 0.9907
0.3920 -2.3111 -0.2182 0.9906
0.4273 -2.3137 -0.2190 0.9906
0.6754 -2.7470 -0.2633 0.9887
0.8286 -2.9902 -0.2888 0.9876
2.8172 -9.6180 -0.9328 0.9605
3.3586 -9.8447 -0.9681 0.9591
3.4737 -9.7155 -0.9603 0.9594
3.6878 -9.8572 -0.9796 0.9586
3.8820 -9.9319 -0.9925 0.9581
4.0133 -9.8412 -0.9892 0.9582
