ply
format ascii 1.0
element vertex 1605
property float32 x
property float32 y
property float32 z
property float32 I
end_header
-4.5401 -47.6569 2.4557 0.8255
-3.8350 -47.6163 2.4505 0.8259
-2.4371 -47.6115 2.4455 0.8262
0.3469 -47.4863 2.4359 0.8268
1.7413 -47.6472 2.4458 0.8262
3.1355 -47.6171 2.4479 0.8260
3.8339 -47.6021 2.4497 0.8259
5.9372 -47.5567 2.4584 0.8253
6.3912 -45.7453 2.3694 0.8311
1.7911 -8.3269 0.4369 0.9665
1.9190 -8.3273 0.4384 0.9664
2.0477 -8.3279 0.4399 0.9662
2.3042 -8.3152 0.4426 0.9660
2.4329 -8.3061 0.4440 0.9659
2.5646 -8.3041 0.4458 0.9658
2.7013 -8.3138 0.4484 0.9656
2.8396 -8.3237 0.4511 0.9654
2.9791 -8.3321 0.4539 0.9652
3.8170 -8.2996 0.4686 0.9641
3.9606 -8.2905 0.4713 0.9639
4.1089 -8.2875 0.4745 0.9636
46.5830 -87.4387 5.0822 0.6725
46.7454 -84.7362 4.9642 0.6787
50.3436 -82.4912 4.9573 0.6790
55.2409 -82.1854 5.0797 0.6726
2.5853 -3.2005 0.2110 0.9837
2.6329 -3.1637 0.2111 0.9836
2.7761 -3.0532 0.2117 0.9836
2.8721 -2.9790 0.2123 0.9836
2.8780 -2.8156 0.2065 0.9840
2.9491 -2.8020 0.2087 0.9838
2.8849 -2.6620 0.2014 0.9844
2.9758 -2.6663 0.2050 0.9841
2.9888 -2.6003 0.2032 0.9843
3.0662 -2.5899 0.2059 0.9841
3.0500 -2.5007 0.2023 0.9843
3.0343 -2.4145 0.1989 0.9846
3.3121 -2.4811 0.2123 0.9836
3.4961 -2.4628 0.2194 0.9830
3.4965 -2.3874 0.2172 0.9832
7.5662 -3.2807 0.4230 0.9675
7.1454 -2.9750 0.3970 0.9695
7.2486 -2.8945 0.4004 0.9692
7.3537 -2.8125 0.4039 0.9690
7.3656 -2.5730 0.4002 0.9692
7.4697 -2.4875 0.4039 0.9690
7.5755 -2.2791 0.4058 0.9688
49.2822 -12.5001 2.6081 0.8158
85.8182 -12.6299 4.4496 0.7065
35.4062 -2.5914 1.8211 0.8675
35.6414 -2.0855 1.8314 0.8668
15.2599 2.9341 0.7971 0.9397
14.6720 3.0440 0.7687 0.9417
14.2635 3.3968 0.7521 0.9430
14.3037 3.6280 0.7570 0.9426
14.3853 4.0996 0.7673 0.9418
14.5079 4.8314 0.7844 0.9406
14.5517 5.0833 0.7907 0.9401
14.5961 5.3394 0.7973 0.9396
14.6874 5.8648 0.8113 0.9386
14.7314 6.1335 0.8186 0.9381
14.7699 7.7307 0.8552 0.9354
17.3598 9.4120 1.0130 0.9240
6.0557 3.8804 0.3689 0.9716
5.8626 3.8787 0.3606 0.9722
5.6864 3.8827 0.3532 0.9728
5.5340 3.8984 0.3472 0.9733
5.4139 3.9334 0.3433 0.9736
5.2470 4.1754 0.3440 0.9735
5.2665 4.3180 0.3494 0.9731
5.3252 4.6329 0.3621 0.9721
5.3516 4.7951 0.3686 0.9716
5.3771 4.9614 0.3753 0.9711
5.4244 5.3068 0.3893 0.9701
5.5008 5.7055 0.4065 0.9688
8.3874 8.9579 0.6295 0.9520
8.2646 9.0894 0.6302 0.9520
3.2240 3.6515 0.2499 0.9807
3.0256 3.6356 0.2426 0.9812
2.9412 3.6411 0.2401 0.9814
2.8598 3.6481 0.2378 0.9816
2.6304 3.6766 0.2319 0.9821
2.5582 3.6884 0.2303 0.9822
2.4153 3.7094 0.2271 0.9824
2.3462 3.7210 0.2257 0.9825
2.2794 3.7349 0.2244 0.9826
1.9996 3.8893 0.2243 0.9826
2.0336 4.1016 0.2348 0.9818
2.1135 4.4241 0.2515 0.9806
2.1535 4.6826 0.2644 0.9796
2.3224 5.6949 0.3155 0.9757
1.3654 9.7730 0.5062 0.9612
-0.0937 4.2731 0.2193 0.9830
-0.1944 3.7987 0.1951 0.9849
-0.2997 3.7216 0.1915 0.9852
-0.4095 3.7219 0.1921 0.9851
-0.5211 3.7296 0.1932 0.9850
-0.7534 3.7696 0.1972 0.9847
-0.8133 3.7807 0.1984 0.9846
-0.8735 3.7909 0.1996 0.9845
-0.9962 3.8105 0.2020 0.9843
-1.0588 3.8211 0.2034 0.9842
-2.9498 7.8849 0.4318 0.9668
-3.1053 7.9446 0.4376 0.9664
-3.4170 8.0409 0.4482 0.9656
-6.5241 5.0378 0.4228 0.9675
-6.6528 4.8336 0.4218 0.9676
-6.9655 4.7561 0.4327 0.9668
-1.4486 0.8987 0.0874 0.9932
-1.4171 0.8228 0.0841 0.9935
-1.4186 0.7691 0.0828 0.9936
-1.4204 0.7434 0.0822 0.9936
-1.1839 0.5978 0.0680 0.9947
-1.0867 0.5289 0.0620 0.9952
-1.0845 0.5084 0.0614 0.9952
-1.0824 0.4883 0.0609 0.9953
-1.0785 0.4491 0.0599 0.9953
-1.0767 0.4299 0.0595 0.9954
-1.0704 0.3739 0.0582 0.9955
-1.0621 0.3537 0.0574 0.9955
-1.0539 0.3171 0.0565 0.9956
-1.0511 0.2995 0.0561 0.9956
-1.0457 0.2652 0.0553 0.9957
-1.0407 0.2318 0.0547 0.9957
-1.0242 0.1661 0.0532 0.9959
-1.0180 0.1498 0.0528 0.9959
-1.0063 0.1182 0.0520 0.9960
-1.0006 0.1027 0.0516 0.9960
-0.9951 0.0875 0.0512 0.9960
-0.9897 0.0724 0.0509 0.9960
-0.9845 0.0576 0.0506 0.9961
-0.9184 -0.0268 0.0369 0.9963
-0.9219 -0.0405 0.0371 0.9963
-0.9292 -0.0680 0.0374 0.9963
-0.9331 -0.0820 0.0376 0.9963
-0.9477 -0.1254 0.0384 0.9962
-0.9528 -0.1402 0.0387 0.9962
-0.9689 -0.1863 0.0397 0.9961
-0.9766 -0.2326 0.0404 0.9960
-0.9807 -0.2641 0.0408 0.9959
-0.9851 -0.2963 0.0413 0.9959
-0.9874 -0.3129 0.0416 0.9959
-0.9938 -0.3309 0.0421 0.9958
-1.0158 -0.3885 0.0437 0.9957
-1.0229 -0.4259 0.0445 0.9956
-1.0288 -0.5008 0.0460 0.9954
-1.0305 -0.5203 0.0464 0.9954
-1.0322 -0.5402 0.0468 0.9953
-1.4129 -0.7930 0.0651 0.9935
-1.4123 -0.8200 0.0656 0.9935
-1.4127 -0.8480 0.0662 0.9934
-1.4222 -0.8823 0.0673 0.9933
-47.4469 -30.4033 2.2649 0.7980
-45.9043 -30.3700 2.2122 0.8022
-40.6117 -30.4225 2.0394 0.8162
-39.5995 -30.5778 2.0108 0.8185
-15.6870 -12.4832 0.8058 0.9229
-36.1127 -30.5025 1.8999 0.8276
-32.6033 -30.0829 1.7830 0.8373
-31.6403 -30.0621 1.7541 0.8397
-13.1467 -12.8617 0.7392 0.9290
-9.5865 -9.9433 0.5551 0.9462
-8.4497 -9.5702 0.5131 0.9502
-8.1875 -9.5510 0.5056 0.9509
-7.7822 -9.9275 0.5070 0.9508
-7.5135 -9.8787 0.4988 0.9515
-1.8688 -2.6945 0.1318 0.9870
-1.6661 -2.4787 0.1200 0.9881
-1.6047 -2.4645 0.1182 0.9883
-1.4304 -2.3437 0.1104 0.9891
-1.3825 -2.3416 0.1093 0.9892
-1.3999 -2.5376 0.1165 0.9885
-1.3810 -2.5922 0.1181 0.9883
-1.3534 -2.6323 0.1190 0.9882
-1.0901 -2.2818 0.1016 0.9899
-1.0947 -2.3804 0.1053 0.9896
-1.0997 -2.4862 0.1093 0.9892
-1.0124 -2.4824 0.1078 0.9893
-0.6873 -2.4802 0.1034 0.9897
-0.6217 -2.6979 0.1113 0.9890
-0.5374 -2.6888 0.1102 0.9891
-0.4958 -2.6843 0.1097 0.9891
-0.4546 -2.6798 0.1092 0.9892
-6.6647 -47.7027 1.9359 0.8246
-5.9535 -47.6874 1.9315 0.8250
-4.5400 -47.6569 1.9241 0.8256
-3.8350 -47.6163 1.9200 0.8259
-3.1362 -47.6266 1.9183 0.8261
-2.4371 -47.6115 1.9161 0.8263
0.3472 -47.5261 1.9102 0.8267
1.0448 -47.6623 1.9161 0.8263
1.7413 -47.6473 1.9163 0.8262
2.4382 -47.6322 1.9169 0.8262
4.5334 -47.5870 1.9213 0.8258
5.2344 -47.5719 1.9235 0.8256
5.9372 -47.5567 1.9262 0.8254
7.0718 -45.7306 1.8598 0.8309
1.5370 -8.3210 0.3401 0.9667
1.6115 -8.0631 0.3305 0.9676
1.9044 -8.2641 0.3409 0.9666
2.2903 -8.2648 0.3447 0.9662
2.9548 -8.2639 0.3527 0.9655
3.0868 -8.2511 0.3541 0.9653
3.2203 -8.2389 0.3555 0.9652
3.5053 -8.2488 0.3602 0.9648
3.6482 -8.2480 0.3625 0.9645
3.7886 -8.2380 0.3644 0.9644
4.0794 -8.2280 0.3691 0.9639
46.5835 -87.4396 3.9820 0.6726
50.2231 -82.2938 3.8748 0.6798
51.8661 -82.2583 3.9085 0.6775
55.2408 -82.1855 3.9800 0.6727
2.6392 -3.1712 0.1658 0.9836
2.6869 -3.1344 0.1659 0.9836
2.8308 -3.0233 0.1665 0.9836
2.8789 -2.9861 0.1667 0.9835
2.8146 -2.8352 0.1606 0.9841
2.8965 -2.6726 0.1584 0.9843
3.0037 -2.6132 0.1600 0.9842
3.0165 -2.5478 0.1587 0.9843
3.0607 -2.5095 0.1591 0.9843
3.1791 -2.4548 0.1614 0.9840
7.1648 -2.9830 0.3119 0.9694
7.2685 -2.9024 0.3146 0.9692
7.4299 -2.5955 0.3163 0.9690
7.5237 -2.3839 0.3172 0.9689
7.7808 -2.2174 0.3252 0.9681
49.8041 -11.8608 2.0577 0.8147
65.3677 -11.5809 2.6682 0.7666
90.5392 -11.9758 3.6706 0.6938
35.7564 -3.6702 1.4447 0.8660
90.2519 9.2636 3.6465 0.6954
75.5091 8.8671 3.0557 0.7376
60.0640 8.8395 2.4401 0.7842
59.7174 9.6820 2.4315 0.7849
14.2102 3.1655 0.5851 0.9434
14.2497 3.3935 0.5887 0.9430
14.3735 4.0963 0.6007 0.9419
14.4145 4.3367 0.6050 0.9415
14.4555 4.5804 0.6095 0.9411
14.5003 4.8288 0.6143 0.9407
14.5434 5.0804 0.6192 0.9402
14.5872 5.3362 0.6243 0.9397
14.6771 5.8608 0.6352 0.9387
14.7233 6.1301 0.6410 0.9382
14.9558 6.4849 0.6552 0.9368
14.9949 6.7639 0.6612 0.9363
15.0410 7.0509 0.6677 0.9357
17.3793 9.4225 0.7946 0.9239
6.1521 3.6931 0.2884 0.9717
5.9702 3.7037 0.2824 0.9723
5.8082 3.7218 0.2773 0.9728
5.6554 3.7415 0.2725 0.9732
5.5151 3.7657 0.2684 0.9736
5.1926 3.8898 0.2608 0.9744
5.2215 4.2812 0.2714 0.9733
5.3753 5.2587 0.3022 0.9703
5.4191 5.4589 0.3092 0.9697
5.4555 5.6586 0.3159 0.9690
8.1403 8.9526 0.4863 0.9527
3.1749 3.5960 0.1928 0.9810
2.9124 3.6054 0.1863 0.9816
2.8334 3.6145 0.1846 0.9818
2.6831 3.6368 0.1816 0.9821
2.5373 3.6582 0.1789 0.9823
2.4651 3.6675 0.1776 0.9825
2.3935 3.6759 0.1763 0.9826
2.3260 3.6889 0.1753 0.9827
2.1326 3.7357 0.1729 0.9829
2.0715 3.7551 0.1724 0.9830
1.9741 3.8396 0.1735 0.9829
2.2692 5.5643 0.2415 0.9762
2.3381 5.9819 0.2581 0.9746
0.0381 5.2117 0.2095 0.9794
-0.0912 4.1593 0.1672 0.9835
-0.1420 3.8854 0.1563 0.9846
-0.1917 3.7446 0.1507 0.9851
-0.2965 3.6813 0.1484 0.9853
-0.4051 3.6816 0.1489 0.9853
-0.4596 3.6817 0.1491 0.9853
-0.5714 3.6952 0.1503 0.9851
-0.7448 3.7265 0.1527 0.9849
-0.8636 3.7474 0.1546 0.9847
-0.9237 3.7568 0.1555 0.9846
-1.1090 3.7863 0.1586 0.9843
-1.1731 3.7986 0.1598 0.9842
-1.2407 3.8184 0.1614 0.9841
-1.3109 3.8425 0.1632 0.9839
-3.2304 7.9213 0.3438 0.9663
-9.6557 9.7265 0.5508 0.9466
-6.4230 5.4252 0.3379 0.9669
-6.4767 5.0012 0.3289 0.9678
-6.4958 4.8662 0.3262 0.9680
-6.5147 4.7333 0.3237 0.9683
-6.5334 4.6025 0.3212 0.9685
-6.5518 4.4736 0.3189 0.9687
-6.5699 4.3467 0.3166 0.9690
-1.4222 0.8823 0.0673 0.9933
-1.4130 0.7930 0.0651 0.9935
-1.2465 0.6758 0.0570 0.9943
-1.0322 0.5402 0.0468 0.9953
-1.0243 0.4441 0.0449 0.9955
-1.0229 0.4259 0.0445 0.9956
-1.0091 0.3691 0.0432 0.9957
-0.9938 0.3309 0.0421 0.9958
-0.9873 0.3129 0.0416 0.9959
-0.9829 0.2801 0.0411 0.9959
-0.9807 0.2641 0.0408 0.9959
-0.9786 0.2482 0.0406 0.9960
-0.9766 0.2326 0.0404 0.9960
-0.9747 0.2171 0.0401 0.9960
-0.9728 0.2018 0.0399 0.9960
-0.9580 0.1553 0.0390 0.9961
-0.9528 0.1402 0.0387 0.9962
-0.9427 0.1107 0.0381 0.9962
-0.9255 0.0542 0.0373 0.9963
-0.8639 -0.0126 0.0251 0.9965
-0.8701 -0.0382 0.0253 0.9965
-0.8733 -0.0511 0.0255 0.9965
-0.8798 -0.0773 0.0257 0.9965
-0.8832 -0.0907 0.0258 0.9965
-0.8910 -0.1179 0.0262 0.9964
-0.8954 -0.1318 0.0263 0.9964
-0.9092 -0.1748 0.0269 0.9963
-0.9181 -0.2187 0.0275 0.9962
-0.9247 -0.2782 0.0281 0.9961
-0.9275 -0.2939 0.0283 0.9961
-0.9338 -0.3110 0.0286 0.9961
-0.9403 -0.3285 0.0290 0.9960
-0.9538 -0.3648 0.0297 0.9959
-0.9597 -0.3832 0.0301 0.9959
-0.9657 -0.4021 0.0304 0.9958
-0.9718 -0.4214 0.0308 0.9958
-0.9747 -0.4397 0.0311 0.9957
-0.9757 -0.4574 0.0314 0.9957
-0.9769 -0.4755 0.0316 0.9957
-0.9780 -0.4938 0.0319 0.9956
-0.9804 -0.5315 0.0324 0.9955
-1.1001 -0.6174 0.0367 0.9950
-1.4230 -0.8827 0.0487 0.9933
-47.4470 -30.4033 1.6397 0.7981
-45.9043 -30.3700 1.6015 0.8023
-44.4316 -30.3382 1.5654 0.8063
-15.6404 -12.4461 0.5816 0.9231
-36.1127 -30.5025 1.3754 0.8277
-34.6284 -30.1266 1.3355 0.8322
-33.5986 -30.1044 1.3126 0.8348
-32.6033 -30.0830 1.2908 0.8373
-31.6403 -30.0621 1.2699 0.8397
-13.1460 -12.8609 0.5351 0.9290
-9.5819 -9.9384 0.4017 0.9463
-8.7764 -9.6522 0.3796 0.9491
-7.8397 -9.4204 0.3566 0.9521
-7.7157 -9.5518 0.3573 0.9521
-7.5911 -9.6837 0.3580 0.9520
-7.3480 -9.9598 0.3601 0.9517
-1.8624 -2.6853 0.0951 0.9870
-1.4337 -2.2738 0.0782 0.9893
-1.3942 -2.4423 0.0818 0.9888
-1.3964 -2.5313 0.0841 0.9885
-1.3862 -2.6020 0.0858 0.9883
-1.3589 -2.6431 0.0865 0.9882
-1.3199 -2.6622 0.0865 0.9882
-1.0913 -2.5682 0.0812 0.9889
-1.0215 -2.5048 0.0787 0.9892
-1.0286 -2.7495 0.0854 0.9883
-0.8704 -2.5515 0.0784 0.9893
-0.8505 -2.6178 0.0801 0.9890
-0.7923 -2.5653 0.0781 0.9893
-0.7368 -2.5155 0.0763 0.9896
-0.6839 -2.4680 0.0745 0.9898
-0.5810 -2.7009 0.0804 0.9890
-0.5389 -2.6963 0.0800 0.9891
-0.4559 -2.6872 0.0793 0.9892
-0.4148 -2.6827 0.0790 0.9892
-6.6647 -47.7027 1.4015 0.8247
-5.2454 -47.6721 1.3955 0.8254
-4.5400 -47.6568 1.3929 0.8257
-3.1362 -47.6266 1.3888 0.8261
-1.7395 -47.5964 1.3858 0.8265
0.3472 -47.5261 1.3829 0.8268
1.0448 -47.6623 1.3872 0.8263
1.7413 -47.6472 1.3873 0.8263
0.7198 -8.9365 0.2609 0.9648
0.8160 -8.5658 0.2504 0.9662
0.9344 -8.4921 0.2486 0.9664
1.0545 -8.4462 0.2477 0.9665
1.4265 -8.4091 0.2482 0.9664
1.6431 -8.2212 0.2439 0.9670
1.8908 -8.2052 0.2450 0.9669
2.0167 -8.2020 0.2458 0.9668
2.1443 -8.2019 0.2467 0.9666
2.2728 -8.2019 0.2476 0.9665
2.5328 -8.2012 0.2498 0.9662
2.7962 -8.1965 0.2520 0.9659
3.3380 -8.1854 0.2572 0.9652
3.6203 -8.1850 0.2604 0.9648
3.7621 -8.1804 0.2620 0.9646
3.9063 -8.1768 0.2637 0.9644
4.0522 -8.1732 0.2654 0.9642
46.5839 -87.4405 2.8828 0.6727
47.0188 -82.3629 2.7595 0.6842
55.2409 -82.1855 2.8813 0.6728
8.6792 -11.7641 0.4254 0.9432
2.6454 -3.1787 0.1203 0.9836
2.6933 -3.1418 0.1204 0.9836
2.7413 -3.1047 0.1205 0.9836
2.7893 -3.0677 0.1206 0.9835
2.8858 -2.9932 0.1210 0.9835
2.7845 -2.8049 0.1150 0.9843
2.9795 -2.8309 0.1196 0.9837
2.9082 -2.6834 0.1151 0.9843
3.0314 -2.5605 0.1155 0.9842
3.0715 -2.5184 0.1156 0.9842
3.0553 -2.4313 0.1136 0.9845
3.1627 -2.4421 0.1163 0.9841
3.3298 -2.4944 0.1211 0.9835
3.3555 -2.4379 0.1207 0.9835
3.4717 -2.4456 0.1236 0.9831
7.2884 -2.9104 0.2284 0.9691
7.4952 -2.6183 0.2310 0.9687
7.5350 -2.5092 0.2311 0.9687
7.5565 -2.3944 0.2306 0.9688
7.6143 -2.2907 0.2314 0.9687
49.4032 -12.5308 1.4830 0.8155
59.9889 -12.4460 1.7827 0.7826
65.6592 -12.6246 1.9455 0.7652
35.7711 -2.0931 1.0426 0.8664
55.3302 -1.6175 1.6106 0.8013
75.7122 8.8910 2.2182 0.7371
60.1954 8.8589 1.7704 0.7839
59.7534 9.6879 1.7614 0.7849
16.0225 2.8386 0.4735 0.9370
14.1963 3.1623 0.4232 0.9435
14.2358 3.3902 0.4258 0.9431
14.2757 3.6209 0.4285 0.9428
14.3192 3.8555 0.4315 0.9424
14.3638 4.0935 0.4346 0.9420
14.4061 4.3341 0.4377 0.9416
14.4476 4.5779 0.4410 0.9412
14.4943 4.8268 0.4445 0.9407
14.6319 5.5963 0.4558 0.9392
14.9453 6.4804 0.4740 0.9369
15.0276 7.0446 0.4829 0.9357
15.0779 7.3388 0.4879 0.9351
15.1336 7.6414 0.4933 0.9344
14.7796 7.7357 0.4854 0.9354
5.9269 3.6769 0.2029 0.9725
5.1501 3.8580 0.1872 0.9746
5.1756 4.1186 0.1925 0.9739
5.1970 4.3896 0.1979 0.9731
5.2724 4.7241 0.2060 0.9721
5.2888 4.8800 0.2094 0.9716
5.2995 5.0352 0.2127 0.9712
5.3283 5.2128 0.2169 0.9706
5.3708 5.4102 0.2218 0.9700
5.4276 5.7967 0.2311 0.9687
3.0525 3.5608 0.1365 0.9814
2.8076 3.5815 0.1324 0.9820
2.6605 3.6062 0.1304 0.9822
2.3723 3.6434 0.1265 0.9828
2.0561 3.7271 0.1239 0.9831
1.9960 3.7466 0.1235 0.9832
1.9553 3.8030 0.1244 0.9830
2.0986 4.7446 0.1510 0.9795
2.2896 5.8578 0.1830 0.9751
-0.0326 4.4636 0.1299 0.9823
-0.0893 4.0770 0.1187 0.9838
-0.1382 3.7822 0.1101 0.9850
-0.2398 3.6420 0.1062 0.9855
-0.2933 3.6420 0.1063 0.9855
-0.4008 3.6421 0.1066 0.9854
-0.5093 3.6452 0.1071 0.9854
-0.6215 3.6641 0.1081 0.9852
-0.8538 3.7051 0.1106 0.9849
-0.9132 3.7141 0.1113 0.9848
-1.0343 3.7325 0.1127 0.9846
-1.0960 3.7420 0.1135 0.9845
-1.2243 3.7680 0.1153 0.9843
-1.2934 3.7913 0.1166 0.9841
-3.3889 7.9748 0.2521 0.9659
-6.3699 5.3804 0.2426 0.9672
-6.4103 5.1012 0.2384 0.9677
-6.4494 4.8313 0.2345 0.9683
-6.4685 4.6997 0.2326 0.9685
-6.5060 4.4424 0.2292 0.9690
-6.5244 4.3166 0.2276 0.9692
-6.5445 4.1937 0.2262 0.9694
-1.4230 0.8827 0.0487 0.9933
-1.4147 0.8214 0.0476 0.9935
-1.1000 0.6174 0.0367 0.9950
-0.9804 0.5316 0.0324 0.9955
-0.9769 0.4755 0.0316 0.9957
-0.9758 0.4574 0.0314 0.9957
-0.9597 0.3832 0.0301 0.9959
-0.9470 0.3464 0.0293 0.9960
-0.9403 0.3284 0.0290 0.9960
-0.9338 0.3110 0.0286 0.9961
-0.9275 0.2939 0.0283 0.9961
-0.9230 0.2630 0.0279 0.9962
-0.9213 0.2480 0.0278 0.9962
-0.9181 0.2187 0.0275 0.9962
-0.9166 0.2042 0.0273 0.9962
-0.9140 0.1896 0.0272 0.9963
-0.9092 0.1748 0.0269 0.9963
-0.9045 0.1602 0.0267 0.9963
-0.8999 0.1459 0.0265 0.9964
-0.8954 0.1318 0.0263 0.9964
-0.8910 0.1179 0.0262 0.9964
-0.8867 0.1041 0.0260 0.9964
-0.8832 0.0907 0.0258 0.9965
-0.8765 0.0641 0.0256 0.9965
-0.8733 0.0511 0.0255 0.9965
-0.8701 0.0382 0.0253 0.9965
-0.8670 0.0253 0.0252 0.9965
-0.8211 -0.0240 0.0148 0.9967
-0.8267 -0.0484 0.0149 0.9967
-0.8296 -0.0607 0.0150 0.9967
-0.8325 -0.0732 0.0151 0.9967
-0.8354 -0.0857 0.0151 0.9966
-0.8384 -0.0984 0.0152 0.9966
-0.8446 -0.1243 0.0154 0.9966
-0.8485 -0.1376 0.0155 0.9966
-0.8524 -0.1510 0.0156 0.9965
-0.8606 -0.1785 0.0158 0.9965
-0.8648 -0.1927 0.0160 0.9965
-0.8663 -0.2063 0.0160 0.9964
-0.8688 -0.2339 0.0162 0.9964
-0.8700 -0.2480 0.0163 0.9964
-0.8713 -0.2622 0.0164 0.9964
-0.8807 -0.2933 0.0167 0.9963
-0.8977 -0.3434 0.0173 0.9962
-0.9090 -0.3784 0.0177 0.9961
-0.9299 -0.4527 0.0186 0.9959
-0.9321 -0.5054 0.0191 0.9958
-1.1483 -0.6893 0.0241 0.9947
-14.0445 -8.7127 0.2976 0.9360
-14.0398 -8.9965 0.3003 0.9355
-40.6112 -30.4222 0.9138 0.8163
-36.1127 -30.5025 0.8513 0.8277
-33.5986 -30.1045 0.8124 0.8349
-9.6156 -9.6862 0.2458 0.9469
-8.3623 -9.4712 0.2275 0.9507
-7.8927 -9.4841 0.2222 0.9518
-7.7679 -9.6165 0.2226 0.9517
-7.6363 -9.7414 0.2229 0.9517
-1.6798 -2.4992 0.0542 0.9880
-1.6400 -2.5187 0.0541 0.9880
-1.4283 -2.2653 0.0482 0.9893
-1.3718 -2.4030 0.0498 0.9890
-1.3908 -2.5211 0.0519 0.9885
-1.3805 -2.5912 0.0529 0.9883
-1.3645 -2.6539 0.0537 0.9881
-1.3253 -2.6731 0.0537 0.9881
-1.1124 -2.4187 0.0479 0.9894
-1.1017 -2.5923 0.0507 0.9888
-1.0308 -2.5277 0.0492 0.9891
-0.9517 -2.6616 0.0509 0.9888
-0.8625 -2.5283 0.0481 0.9894
-0.8461 -2.6040 0.0493 0.9891
-0.6805 -2.4559 0.0459 0.9899
-0.5404 -2.7038 0.0497 0.9890
-0.4986 -2.6992 0.0494 0.9891
-7.3793 -47.7181 0.8696 0.8243
-5.9535 -47.6874 0.8655 0.8251
-5.2454 -47.6721 0.8637 0.8254
-3.8350 -47.6163 0.8603 0.8260
-1.7395 -47.5964 0.8578 0.8265
-1.0431 -47.5814 0.8571 0.8266
-0.0915 -12.5207 0.2255 0.9511
0.5421 -8.2328 0.1486 0.9675
0.6621 -8.2203 0.1485 0.9675
0.9039 -8.2154 0.1488 0.9675
1.1472 -8.2109 0.1493 0.9674
1.2687 -8.2040 0.1495 0.9673
1.3919 -8.2053 0.1499 0.9673
1.5151 -8.2029 0.1502 0.9672
1.8835 -8.1736 0.1511 0.9670
2.0080 -8.1668 0.1515 0.9669
2.1357 -8.1692 0.1521 0.9668
2.3941 -8.1735 0.1534 0.9665
3.5969 -8.1319 0.1601 0.9651
3.7431 -8.1389 0.1613 0.9648
3.8863 -8.1349 0.1624 0.9646
4.0313 -8.1309 0.1634 0.9643
4.1655 -8.1021 0.1641 0.9642
46.5171 -84.3223 1.7343 0.6803
47.0188 -82.3629 1.7080 0.6843
55.2408 -82.1855 1.7834 0.6729
8.2196 -11.8510 0.2597 0.9439
2.6517 -3.1862 0.0747 0.9836
2.8443 -3.0377 0.0749 0.9835
2.8927 -3.0003 0.0751 0.9835
2.8410 -2.8619 0.0726 0.9840
2.9949 -2.8455 0.0744 0.9836
3.0213 -2.7070 0.0731 0.9839
3.0340 -2.6395 0.0724 0.9840
3.0466 -2.5733 0.0718 0.9842
3.0338 -2.4875 0.0707 0.9844
3.0659 -2.4398 0.0706 0.9844
3.2743 -2.5284 0.0745 0.9836
3.4589 -2.5130 0.0770 0.9830
3.4597 -2.4371 0.0762 0.9832
13.9618 -9.2370 0.3015 0.9352
19.2888 -11.1992 0.4017 0.9146
17.5080 -9.1638 0.3559 0.9240
17.4923 -8.5140 0.3504 0.9251
17.5670 -8.2351 0.3494 0.9253
18.9661 -8.2238 0.3723 0.9206
7.2038 -2.9993 0.1405 0.9693
7.4149 -2.8359 0.1430 0.9687
7.5464 -2.6362 0.1440 0.9685
7.5896 -2.4048 0.1434 0.9687
7.6230 -2.2934 0.1434 0.9687
50.1435 -12.7186 0.9316 0.8131
65.5077 -12.5955 1.2014 0.7658
85.5553 -12.5912 1.5574 0.7075
31.3069 -2.7518 0.5660 0.8819
43.5001 -1.9081 0.7842 0.8401
54.6574 -1.5978 0.9848 0.8035
70.7210 -1.0335 1.2738 0.7535
91.6356 9.4057 1.6590 0.6918
36.5481 4.2919 0.6627 0.8631
36.7273 5.4052 0.6686 0.8620
16.0220 2.8385 0.2930 0.9370
14.6731 3.0442 0.2699 0.9418
14.2220 3.3870 0.2633 0.9432
14.2654 3.6183 0.2650 0.9428
14.3094 3.8529 0.2669 0.9424
14.3538 4.0907 0.2688 0.9420
14.3977 4.3316 0.2708 0.9416
14.4411 4.5758 0.2728 0.9412
14.5826 5.3345 0.2796 0.9398
14.6773 5.8608 0.2846 0.9387
14.7235 6.1302 0.2872 0.9382
14.9774 6.7560 0.2959 0.9364
15.0212 7.0416 0.2988 0.9358
15.0695 7.3347 0.3018 0.9351
15.1905 7.9509 0.3088 0.9337
6.2170 3.6096 0.1295 0.9716
6.0541 3.6343 0.1272 0.9721
5.4538 3.7239 0.1189 0.9739
5.1292 3.8423 0.1154 0.9747
5.1216 3.9548 0.1165 0.9744
5.1384 4.0889 0.1183 0.9741
5.1574 4.3562 0.1216 0.9734
5.2109 4.6689 0.1260 0.9724
5.2387 4.8337 0.1284 0.9719
5.2541 4.9920 0.1305 0.9714
5.2827 5.1682 0.1331 0.9709
5.3230 5.3620 0.1361 0.9702
3.2097 3.5300 0.0859 0.9811
2.7864 3.5545 0.0813 0.9821
2.7134 3.5676 0.0807 0.9822
2.5691 3.5909 0.0795 0.9825
2.3568 3.6194 0.0778 0.9829
2.1619 3.6616 0.0766 0.9831
2.1009 3.6801 0.0763 0.9832
2.0434 3.7040 0.0762 0.9832
1.9497 3.7922 0.0768 0.9831
1.9356 3.9040 0.0785 0.9827
2.0439 4.4443 0.0881 0.9806
2.0599 4.6570 0.0917 0.9798
2.1698 5.3206 0.1035 0.9773
2.2418 5.7354 0.1109 0.9757
2.2655 6.0555 0.1164 0.9745
1.3633 9.7577 0.1774 0.9614
0.3553 5.3951 0.0974 0.9786
0.2767 5.4062 0.0975 0.9786
-0.0313 4.2839 0.0772 0.9830
-0.1363 3.7287 0.0672 0.9852
-0.2373 3.6036 0.0650 0.9857
-0.2902 3.6035 0.0651 0.9856
-0.4499 3.6036 0.0654 0.9856
-0.5589 3.6139 0.0659 0.9855
-0.6147 3.6236 0.0662 0.9854
-0.7858 3.6534 0.0673 0.9852
-0.9029 3.6723 0.0681 0.9850
-1.2084 3.7191 0.0704 0.9845
-1.2764 3.7414 0.0712 0.9843
-1.3459 3.7644 0.0720 0.9841
-1.4171 3.7878 0.0728 0.9840
-3.2540 7.9793 0.1552 0.9661
-3.5426 8.0092 0.1577 0.9656
-6.2660 5.7816 0.1535 0.9665
-6.2809 5.6277 0.1519 0.9668
-6.3022 5.4830 0.1504 0.9671
-6.3641 5.0644 0.1465 0.9680
-6.4036 4.7971 0.1441 0.9685
-6.4421 4.5381 0.1419 0.9690
-6.5027 4.1668 0.1391 0.9696
-1.1482 0.6893 0.0241 0.9947
-0.9336 0.5421 0.0194 0.9957
-0.9321 0.5054 0.0191 0.9958
-0.9313 0.4875 0.0189 0.9958
-0.9306 0.4699 0.0188 0.9958
-0.9299 0.4526 0.0186 0.9959
-0.9248 0.4335 0.0184 0.9959
-0.9194 0.4147 0.0182 0.9960
-0.9141 0.3964 0.0179 0.9960
-0.8977 0.3433 0.0173 0.9962
-0.8919 0.3262 0.0171 0.9962
-0.8807 0.2933 0.0167 0.9963
-0.8714 0.2621 0.0164 0.9964
-0.8700 0.2480 0.0163 0.9964
-0.8565 0.1647 0.0157 0.9965
-0.8525 0.1510 0.0156 0.9965
-0.8414 0.1113 0.0153 0.9966
-0.8384 0.0984 0.0152 0.9966
-0.8325 0.0732 0.0151 0.9967
-0.8296 0.0608 0.0150 0.9967
-0.8267 0.0484 0.0149 0.9967
-0.8239 0.0362 0.0149 0.9967
-0.7774 -0.0114 0.0054 0.9969
-0.7799 -0.0228 0.0054 0.9969
-0.7900 -0.0695 0.0055 0.9968
-0.7925 -0.0813 0.0055 0.9968
-0.7951 -0.0934 0.0055 0.9968
-0.8005 -0.1178 0.0056 0.9968
-0.8061 -0.1428 0.0057 0.9967
-0.8096 -0.1557 0.0057 0.9967
-0.8131 -0.1687 0.0058 0.9967
-0.8200 -0.1953 0.0058 0.9966
-0.8219 -0.2212 0.0059 0.9966
-0.8229 -0.2345 0.0059 0.9966
-0.8242 -0.2480 0.0060 0.9966
-0.8333 -0.2775 0.0061 0.9965
-0.8380 -0.2927 0.0061 0.9965
-0.8429 -0.3084 0.0062 0.9964
-0.8478 -0.3242 0.0063 0.9964
-0.8629 -0.3742 0.0065 0.9962
-0.8672 -0.3912 0.0066 0.9962
-0.8717 -0.4086 0.0067 0.9962
-0.8884 -0.4816 0.0070 0.9960
-0.8891 -0.5162 0.0071 0.9959
-0.9723 -0.6032 0.0079 0.9954
-13.8941 -8.9031 0.1143 0.9361
-13.8881 -9.1883 0.1153 0.9356
-13.8849 -9.4807 0.1164 0.9350
-43.0235 -30.3078 0.3645 0.8102
-41.6751 -30.2787 0.3568 0.8138
-40.6110 -30.4221 0.3514 0.8163
-15.6229 -12.4322 0.1383 0.9232
-34.6284 -30.1267 0.3179 0.8323
-33.5986 -30.1044 0.3124 0.8349
-32.6033 -30.0829 0.3072 0.8374
-31.6403 -30.0622 0.3023 0.8398
-9.3641 -9.4327 0.0921 0.9482
-9.2953 -9.6412 0.0928 0.9478
-9.0588 -9.6749 0.0918 0.9484
-8.6315 -9.4929 0.0889 0.9500
-8.0715 -9.4157 0.0859 0.9516
-7.7778 -9.3459 0.0842 0.9525
-7.6949 -9.8161 0.0864 0.9513
-1.6868 -2.5096 0.0209 0.9880
-1.6468 -2.5291 0.0209 0.9880
-1.5877 -2.5180 0.0206 0.9882
-1.4140 -2.3170 0.0188 0.9892
-1.3501 -2.3650 0.0189 0.9892
-1.3748 -2.5807 0.0203 0.9884
-1.3641 -2.6531 0.0207 0.9881
-1.3308 -2.6841 0.0207 0.9881
-1.1213 -2.4383 0.0186 0.9893
-1.1275 -2.5491 0.0193 0.9889
-1.0403 -2.5509 0.0191 0.9890
-0.9728 -2.4889 0.0185 0.9894
-1.0329 -2.7608 0.0204 0.9883
-0.8547 -2.5054 0.0183 0.9895
-0.8417 -2.5903 0.0189 0.9892
-0.6702 -2.7256 0.0194 0.9888
-0.5842 -2.7161 0.0192 0.9889
-0.5419 -2.7114 0.0192 0.9890
-6.6647 -47.7027 0.3336 0.8248
-5.9535 -47.6874 0.3328 0.8251
-3.8350 -47.6163 0.3309 0.8261
-3.1362 -47.6266 0.3306 0.8262
-2.4371 -47.6115 0.3302 0.8264
0.3472 -47.5261 0.3292 0.8269
0.2966 -8.1151 0.0562 0.9680
0.5387 -8.1811 0.0568 0.9677
0.6581 -8.1712 0.0568 0.9677
0.8992 -8.1721 0.0569 0.9676
1.2646 -8.1775 0.0573 0.9674
1.3889 -8.1876 0.0575 0.9673
1.6337 -8.1739 0.0577 0.9672
1.7562 -8.1645 0.0578 0.9671
1.8791 -8.1544 0.0580 0.9671
2.0037 -8.1489 0.0581 0.9670
2.2596 -8.1544 0.0586 0.9667
2.3891 -8.1564 0.0589 0.9666
2.5194 -8.1575 0.0591 0.9664
2.6491 -8.1531 0.0594 0.9663
2.9105 -8.1400 0.0599 0.9660
3.0418 -8.1305 0.0601 0.9659
3.3011 -8.0948 0.0605 0.9656
4.0115 -8.0909 0.0625 0.9645
46.5175 -84.3232 0.6670 0.6803
48.6078 -82.3287 0.6622 0.6822
50.2231 -82.2938 0.6677 0.6800
53.5382 -82.2222 0.6796 0.6754
56.9758 -82.1480 0.6924 0.6704
8.4754 -11.8464 0.1009 0.9434
8.4851 -11.5011 0.0990 0.9444
8.6018 -10.6488 0.0948 0.9467
2.6580 -3.1938 0.0288 0.9835
2.8544 -2.8753 0.0281 0.9839
2.9330 -2.8693 0.0284 0.9837
3.0105 -2.8603 0.0288 0.9835
3.0933 -2.5362 0.0277 0.9841
3.3219 -2.5651 0.0291 0.9834
3.3478 -2.5079 0.0290 0.9834
3.4477 -2.4287 0.0292 0.9833
14.0369 -9.2867 0.1166 0.9349
19.3435 -12.0000 0.1577 0.9130
19.1842 -11.5165 0.1550 0.9144
17.0137 -9.5485 0.1351 0.9249
16.9741 -9.2028 0.1337 0.9257
16.9596 -8.8768 0.1326 0.9263
16.9697 -8.2596 0.1307 0.9273
18.0075 -8.1228 0.1368 0.9240
7.2235 -3.0075 0.0542 0.9692
7.3286 -2.9264 0.0547 0.9689
7.4355 -2.8438 0.0551 0.9687
7.5796 -2.6478 0.0556 0.9684
41.7260 -8.6570 0.2951 0.8433
59.9893 -7.9349 0.4191 0.7850
67.0504 -7.8738 0.4676 0.7633
31.3073 -2.7518 0.2177 0.8819
53.5750 -1.5661 0.3712 0.8070
55.5274 -0.8114 0.3846 0.8008
66.7512 3.9059 0.4631 0.7653
36.4745 4.2833 0.2544 0.8634
36.5366 4.8328 0.2553 0.8629
14.6727 3.0441 0.1038 0.9418
14.2109 3.3843 0.1012 0.9432
14.2553 3.6157 0.1019 0.9429
14.2995 3.8502 0.1026 0.9425
14.3439 4.0879 0.1033 0.9421
14.4345 4.5737 0.1049 0.9412
14.5758 5.3320 0.1075 0.9398
14.6740 5.8595 0.1094 0.9388
14.9339 6.4754 0.1127 0.9370
14.8899 6.9801 0.1139 0.9363
15.1851 7.9480 0.1187 0.9337
17.4681 9.4706 0.1376 0.9236
6.1818 3.5891 0.0495 0.9718
6.0191 3.6133 0.0486 0.9723
5.7074 3.6572 0.0470 0.9732
5.5623 3.6800 0.0462 0.9737
5.2885 3.7255 0.0448 0.9745
5.1837 3.7662 0.0444 0.9747
5.1133 3.8304 0.0443 0.9748
5.0827 3.9247 0.0445 0.9746
5.0925 4.0524 0.0451 0.9743
5.1602 4.6236 0.0480 0.9727
5.1896 4.7884 0.0489 0.9721
5.2131 4.9531 0.0498 0.9716
5.2407 5.1271 0.0508 0.9711
5.3023 5.4996 0.0529 0.9699
3.0942 3.5045 0.0324 0.9815
2.7058 3.5575 0.0310 0.9823
2.4898 3.5898 0.0303 0.9827
2.2856 3.6249 0.0297 0.9830
2.0931 3.6665 0.0292 0.9833
1.9442 3.7814 0.0295 0.9831
1.9199 3.8723 0.0299 0.9829
2.0111 4.3728 0.0333 0.9809
2.0452 4.6239 0.0350 0.9800
2.0683 4.8670 0.0366 0.9791
2.2659 6.0566 0.0448 0.9745
1.3645 9.7662 0.0683 0.9613
0.3559 5.4039 0.0375 0.9786
0.2781 5.4323 0.0377 0.9785
-0.0303 4.1502 0.0287 0.9835
-0.0824 3.7587 0.0260 0.9851
-0.1836 3.5878 0.0249 0.9857
-0.2359 3.5823 0.0249 0.9857
-0.2885 3.5819 0.0249 0.9857
-0.3412 3.5814 0.0249 0.9857
-0.3940 3.5810 0.0250 0.9857
-0.4470 3.5805 0.0250 0.9857
-0.5549 3.5884 0.0252 0.9856
-0.7230 3.6172 0.0255 0.9854
-0.7802 3.6272 0.0257 0.9853
-0.8965 3.6459 0.0260 0.9851
-1.0751 3.6705 0.0265 0.9848
-1.1986 3.6890 0.0269 0.9846
-1.4048 3.7549 0.0278 0.9841
-1.4769 3.7787 0.0281 0.9839
-3.2495 7.9682 0.0596 0.9662
-6.1778 6.0440 0.0599 0.9660
-6.2122 5.7321 0.0585 0.9668
-6.2771 5.3020 0.0569 0.9677
-6.2980 5.1639 0.0564 0.9679
-6.3585 4.7633 0.0550 0.9687
-6.3785 4.6343 0.0546 0.9690
-6.3996 4.5082 0.0542 0.9692
-6.4205 4.3840 0.0538 0.9694
-0.8859 0.4637 0.0069 0.9960
-0.8810 0.4448 0.0068 0.9961
-0.8763 0.4265 0.0068 0.9961
-0.8717 0.4086 0.0067 0.9962
-0.8672 0.3912 0.0066 0.9962
-0.8580 0.3572 0.0064 0.9963
-0.8478 0.3243 0.0063 0.9964
-0.8333 0.2775 0.0061 0.9965
-0.8242 0.2480 0.0060 0.9966
-0.8229 0.2345 0.0059 0.9966
-0.8200 0.1953 0.0058 0.9966
-0.8167 0.1819 0.0058 0.9967
-0.8061 0.1428 0.0057 0.9967
-0.8032 0.1302 0.0056 0.9968
-0.7978 0.1055 0.0056 0.9968
-0.7900 0.0695 0.0055 0.9968
-0.7874 0.0576 0.0055 0.9968
-0.7848 0.0459 0.0054 0.9969
-0.7774 0.0114 0.0054 0.9969
-0.7381 0.0000 -0.0031 0.9971
-0.7448 -0.0327 -0.0031 0.9970
-0.7515 -0.0661 -0.0031 0.9970
-0.7562 -0.0888 -0.0032 0.9970
-0.7585 -0.1003 -0.0032 0.9969
-0.7609 -0.1120 -0.0032 0.9969
-0.7632 -0.1237 -0.0032 0.9969
-0.7656 -0.1356 -0.0032 0.9969
-0.7680 -0.1477 -0.0032 0.9969
-0.7706 -0.1599 -0.0033 0.9969
-0.7737 -0.1723 -0.0033 0.9968
-0.7791 -0.1977 -0.0033 0.9968
-0.7830 -0.2355 -0.0034 0.9967
-0.7908 -0.2634 -0.0035 0.9967
-0.7948 -0.2777 -0.0035 0.9966
-0.7990 -0.2923 -0.0035 0.9966
-0.8031 -0.3072 -0.0036 0.9966
-0.8118 -0.3380 -0.0037 0.9965
-0.8207 -0.3702 -0.0037 0.9964
-0.8244 -0.3865 -0.0038 0.9964
-0.8282 -0.4031 -0.0038 0.9963
-0.8321 -0.4202 -0.0039 0.9963
-0.8360 -0.4376 -0.0039 0.9962
-0.8401 -0.4555 -0.0040 0.9962
-0.8443 -0.4738 -0.0040 0.9961
-0.8485 -0.4927 -0.0041 0.9961
-0.8486 -0.5264 -0.0041 0.9960
-13.8011 -9.1307 -0.0688 0.9360
-41.6751 -30.2787 -0.2141 0.8138
-39.1415 -30.2241 -0.2055 0.8205
-15.6795 -12.4772 -0.0833 0.9230
-36.8009 -30.1735 -0.1978 0.8267
-33.5986 -30.1044 -0.1875 0.8349
-9.5251 -9.5950 -0.0562 0.9474
-8.8266 -9.4270 -0.0537 0.9497
-7.9145 -8.9641 -0.0497 0.9533
-7.8179 -9.6784 -0.0517 0.9515
-7.3434 -9.6551 -0.0504 0.9526
-7.2231 -9.7906 -0.0506 0.9525
-1.6938 -2.5200 -0.0126 0.9879
-1.6537 -2.5396 -0.0126 0.9880
-1.3994 -2.3702 -0.0114 0.9891
-1.3291 -2.3281 -0.0111 0.9893
-1.3607 -2.4666 -0.0117 0.9888
-1.3692 -2.5701 -0.0121 0.9884
-1.3584 -2.6421 -0.0123 0.9882
-1.1245 -2.3539 -0.0108 0.9896
-1.1306 -2.4583 -0.0112 0.9892
-1.1371 -2.5707 -0.0117 0.9888
-1.1227 -2.6420 -0.0119 0.9886
-1.0499 -2.5746 -0.0116 0.9889
-0.8471 -2.4830 -0.0109 0.9896
-0.7259 -2.4781 -0.0107 0.9897
-0.7467 -2.6946 -0.0116 0.9889
-0.6721 -2.7333 -0.0117 0.9888
-0.4596 -2.7096 -0.0114 0.9891
-7.3793 -47.7182 -0.2007 0.8244
-6.6647 -47.7028 -0.2002 0.8248
-5.2454 -47.6721 -0.1993 0.8254
-4.5400 -47.6569 -0.1989 0.8257
-2.4371 -47.6115 -0.1981 0.8264
-0.0917 -12.5581 -0.0522 0.9510
0.4166 -8.1387 -0.0339 0.9679
0.6535 -8.1142 -0.0338 0.9680
0.8913 -8.1005 -0.0339 0.9679
1.0139 -8.1213 -0.0340 0.9678
1.3852 -8.1657 -0.0344 0.9674
1.5070 -8.1588 -0.0345 0.9674
1.6293 -8.1520 -0.0345 0.9673
1.7520 -8.1450 -0.0346 0.9672
1.8747 -8.1353 -0.0347 0.9672
1.9993 -8.1312 -0.0348 0.9671
2.1265 -8.1341 -0.0349 0.9669
2.3841 -8.1395 -0.0352 0.9666
2.5141 -8.1406 -0.0354 0.9665
2.7728 -8.1277 -0.0357 0.9662
3.1627 -8.0916 -0.0361 0.9658
3.2915 -8.0712 -0.0362 0.9657
3.5580 -8.0441 -0.0366 0.9654
4.1563 -8.0841 -0.0378 0.9643
46.5180 -84.3240 -0.4002 0.6803
53.5382 -82.2222 -0.4077 0.6754
55.2408 -82.1855 -0.4115 0.6729
56.9757 -82.1481 -0.4154 0.6704
8.4847 -10.8237 -0.0572 0.9465
8.5697 -10.6091 -0.0567 0.9469
2.8093 -3.0896 -0.0174 0.9834
2.8578 -3.0521 -0.0174 0.9834
2.8679 -2.8889 -0.0169 0.9838
3.0144 -2.8640 -0.0173 0.9835
2.9438 -2.7162 -0.0166 0.9841
3.0648 -2.6664 -0.0169 0.9839
3.0773 -2.5992 -0.0167 0.9840
3.0895 -2.5331 -0.0166 0.9841
3.3285 -2.5702 -0.0175 0.9833
3.3303 -2.4948 -0.0173 0.9835
13.9506 -9.2296 -0.0695 0.9353
19.4456 -11.6733 -0.0942 0.9133
16.2171 -9.1015 -0.0773 0.9283
16.2022 -8.7843 -0.0766 0.9289
16.2072 -8.4830 -0.0760 0.9294
17.7728 -8.0170 -0.0810 0.9250
19.1570 -7.9762 -0.0862 0.9203
7.3488 -2.9345 -0.0329 0.9688
7.4562 -2.8518 -0.0332 0.9686
7.3707 -2.5748 -0.0324 0.9693
7.6731 -2.3085 -0.0333 0.9685
8.0047 -2.2812 -0.0346 0.9673
50.1459 -12.7192 -0.2150 0.8131
55.1573 -13.1357 -0.2356 0.7971
14.3972 -2.9870 -0.0611 0.9429
42.0473 -8.0847 -0.1779 0.8426
14.0319 -2.4860 -0.0592 0.9446
48.0243 -7.7862 -0.2022 0.8232
36.0691 -2.6399 -0.1503 0.8653
36.1741 -2.1167 -0.1506 0.8651
46.8425 -2.0547 -0.1948 0.8290
53.9692 -1.5777 -0.2244 0.8058
55.3298 -0.8086 -0.2299 0.8014
94.7358 4.1555 -0.3940 0.6843
52.4006 3.8352 -0.2183 0.8105
44.3837 3.9012 -0.1851 0.8368
36.4012 4.2747 -0.1523 0.8636
36.4629 4.8230 -0.1528 0.8632
27.9059 4.1069 -0.1172 0.8933
27.6853 4.4886 -0.1165 0.8939
16.0132 2.8370 -0.0676 0.9370
15.2832 2.9386 -0.0647 0.9396
14.6687 3.0433 -0.0623 0.9418
14.1551 3.1532 -0.0603 0.9436
14.2296 3.6092 -0.0610 0.9430
14.2680 3.8417 -0.0614 0.9426
14.7498 4.4376 -0.0640 0.9402
14.4529 4.5796 -0.0630 0.9412
14.4746 4.8202 -0.0634 0.9408
14.7204 6.1289 -0.0663 0.9382
14.9581 7.2805 -0.0691 0.9356
15.1162 7.6327 -0.0704 0.9345
15.1794 7.9450 -0.0712 0.9338
5.9861 3.5935 -0.0290 0.9725
5.6736 3.6355 -0.0280 0.9734
5.3996 3.6869 -0.0272 0.9742
5.1627 3.7509 -0.0265 0.9748
5.0992 3.8198 -0.0265 0.9748
5.0679 4.1552 -0.0272 0.9741
5.0918 4.3008 -0.0277 0.9737
5.2848 5.4814 -0.0316 0.9700
3.1853 3.5031 -0.0197 0.9812
3.0845 3.4934 -0.0194 0.9815
3.0054 3.5058 -0.0192 0.9817
2.8455 3.5227 -0.0188 0.9820
2.7706 3.5344 -0.0187 0.9822
2.6982 3.5475 -0.0185 0.9823
2.6268 3.5604 -0.0184 0.9825
2.4828 3.5797 -0.0181 0.9827
2.4128 3.5897 -0.0180 0.9828
1.9796 3.7158 -0.0175 0.9833
1.9108 3.8539 -0.0179 0.9829
1.9193 4.0176 -0.0185 0.9823
1.9667 4.2762 -0.0196 0.9813
2.0920 5.1298 -0.0230 0.9781
2.1434 5.4837 -0.0245 0.9767
1.3701 9.8062 -0.0411 0.9612
1.2318 9.8667 -0.0413 0.9610
0.2803 5.4752 -0.0228 0.9783
0.1027 4.6843 -0.0195 0.9814
0.0310 4.2433 -0.0176 0.9832
-0.0284 3.8807 -0.0161 0.9846
-0.0803 3.6640 -0.0152 0.9854
-0.1306 3.5735 -0.0149 0.9858
-0.2345 3.5618 -0.0148 0.9858
-0.2868 3.5613 -0.0148 0.9858
-0.3392 3.5609 -0.0149 0.9858
-0.3918 3.5604 -0.0149 0.9858
-0.4445 3.5603 -0.0149 0.9858
-0.5516 3.5672 -0.0150 0.9857
-0.6065 3.5753 -0.0151 0.9856
-0.6619 3.5837 -0.0151 0.9855
-0.7182 3.5934 -0.0152 0.9854
-0.7750 3.6030 -0.0153 0.9854
-0.8326 3.6129 -0.0154 0.9853
-0.9489 3.6296 -0.0156 0.9851
-1.0080 3.6376 -0.0157 0.9850
-1.1910 3.6655 -0.0160 0.9847
-1.2566 3.6832 -0.0162 0.9846
-1.3945 3.7275 -0.0165 0.9842
-3.4203 8.0486 -0.0363 0.9656
-6.1212 5.9886 -0.0356 0.9663
-6.1433 5.8370 -0.0352 0.9667
-6.1660 5.6895 -0.0349 0.9670
-6.2103 5.4030 -0.0342 0.9676
-6.3372 4.6043 -0.0326 0.9692
-6.3795 4.3560 -0.0321 0.9696
-6.4002 4.2343 -0.0319 0.9698
-0.8486 0.5438 -0.0042 0.9960
-0.8486 0.5265 -0.0041 0.9960
-0.8486 0.4927 -0.0041 0.9961
-0.8361 0.4376 -0.0039 0.9962
-0.8321 0.4201 -0.0039 0.9963
-0.8282 0.4031 -0.0038 0.9963
-0.8207 0.3702 -0.0037 0.9964
-0.8163 0.3539 -0.0037 0.9964
-0.8118 0.3380 -0.0037 0.9965
-0.8074 0.3224 -0.0036 0.9965
-0.7868 0.2493 -0.0034 0.9967
-0.7830 0.2355 -0.0034 0.9967
-0.7805 0.2224 -0.0034 0.9968
-0.7791 0.1976 -0.0033 0.9968
-0.7769 0.1850 -0.0033 0.9968
-0.7737 0.1723 -0.0033 0.9968
-0.7706 0.1599 -0.0033 0.9969
-0.7680 0.1477 -0.0032 0.9969
-0.7656 0.1357 -0.0032 0.9969
-0.7632 0.1237 -0.0032 0.9969
-0.7471 0.0437 -0.0031 0.9970
-0.7448 0.0327 -0.0031 0.9970
-0.7426 0.0217 -0.0031 0.9970
-0.7404 0.0108 -0.0031 0.9970
-0.7046 0.0000 -0.0107 0.9972
-0.7067 -0.0103 -0.0108 0.9972
-0.7107 -0.0312 -0.0108 0.9972
-0.7127 -0.0417 -0.0109 0.9971
-0.7147 -0.0523 -0.0109 0.9971
-0.7167 -0.0630 -0.0110 0.9971
-0.7250 -0.1067 -0.0112 0.9971
-0.7270 -0.1179 -0.0112 0.9971
-0.7291 -0.1291 -0.0113 0.9970
-0.7333 -0.1522 -0.0114 0.9970
-0.7355 -0.1638 -0.0115 0.9970
-0.7377 -0.1757 -0.0116 0.9970
-0.7405 -0.1878 -0.0116 0.9969
-0.7456 -0.2243 -0.0119 0.9969
-0.7490 -0.2373 -0.0120 0.9969
-0.7594 -0.2778 -0.0123 0.9968
-0.7666 -0.3061 -0.0126 0.9967
-0.7780 -0.3509 -0.0130 0.9966
-0.7819 -0.3666 -0.0132 0.9966
-0.7851 -0.3821 -0.0133 0.9965
-0.7883 -0.3980 -0.0135 0.9965
-0.7949 -0.4309 -0.0138 0.9964
-0.7982 -0.4480 -0.0139 0.9963
-0.8017 -0.4654 -0.0141 0.9963
-0.8052 -0.4834 -0.0143 0.9963
-0.8088 -0.5018 -0.0145 0.9962
-0.8107 -0.5195 -0.0147 0.9962
-0.8551 -0.5839 -0.0158 0.9959
-13.7400 -9.6791 -0.2561 0.9350
-40.3825 -30.2509 -0.7689 0.8172
-15.7037 -12.4965 -0.3058 0.9229
-36.8008 -30.1736 -0.7252 0.8266
-34.6284 -30.1267 -0.6994 0.8323
-33.5986 -30.1045 -0.6874 0.8349
-31.6404 -30.0622 -0.6651 0.8398
-9.6091 -9.4007 -0.2048 0.9476
-8.9517 -9.5605 -0.1996 0.9490
-8.6611 -9.5254 -0.1962 0.9498
-8.0292 -9.0939 -0.1849 0.9526
-7.9165 -9.2348 -0.1854 0.9525
-7.6686 -9.4936 -0.1860 0.9524
-7.4079 -9.7398 -0.1865 0.9522
-7.1317 -9.9683 -0.1868 0.9521
-6.9148 -9.9698 -0.1849 0.9526
-1.6606 -2.5503 -0.0464 0.9879
-1.5966 -2.5321 -0.0456 0.9881
-1.4034 -2.2995 -0.0411 0.9893
-1.3388 -2.4270 -0.0422 0.9890
-1.3637 -2.5597 -0.0442 0.9885
-1.3414 -2.7056 -0.0460 0.9880
-1.1335 -2.3726 -0.0401 0.9895
-1.1399 -2.4785 -0.0416 0.9891
-1.1468 -2.5927 -0.0432 0.9887
-0.9249 -2.5868 -0.0419 0.9891
-0.8396 -2.4611 -0.0396 0.9897
-0.8329 -2.5635 -0.0411 0.9893
-0.7223 -2.4659 -0.0392 0.9898
-0.7623 -2.7511 -0.0435 0.9886
-0.7179 -2.7461 -0.0433 0.9887
-0.6740 -2.7411 -0.0430 0.9888
-0.6305 -2.7362 -0.0428 0.9888
-0.5449 -2.7266 -0.0424 0.9889
-0.5028 -2.7219 -0.0422 0.9890
-0.4610 -2.7172 -0.0420 0.9890
-7.3753 -47.6927 -0.7354 0.8244
-5.2426 -47.6467 -0.7304 0.8255
-4.5376 -47.6315 -0.7291 0.8258
-3.8350 -47.6163 -0.7279 0.8260
-3.1345 -47.6012 -0.7269 0.8263
-1.0425 -47.5561 -0.7248 0.8267
-0.0920 -12.5866 -0.1918 0.9509
0.0607 -8.3092 -0.1266 0.9673
0.2957 -8.0905 -0.1234 0.9681
0.4152 -8.1106 -0.1238 0.9680
0.6799 -8.4412 -0.1290 0.9667
0.9275 -8.4288 -0.1292 0.9666
1.0516 -8.4234 -0.1294 0.9666
1.5030 -8.1370 -0.1261 0.9674
1.6249 -8.1301 -0.1263 0.9674
1.8703 -8.1161 -0.1269 0.9672
1.9950 -8.1134 -0.1273 0.9671
2.5089 -8.1237 -0.1296 0.9666
2.6369 -8.1156 -0.1300 0.9664
2.8949 -8.0965 -0.1310 0.9662
3.0254 -8.0869 -0.1316 0.9660
3.2803 -8.0436 -0.1324 0.9658
3.5474 -8.3476 -0.1382 0.9644
3.6911 -8.3449 -0.1390 0.9642
3.8782 -8.1181 -0.1371 0.9646
3.9913 -8.0503 -0.1369 0.9647
4.1517 -8.0752 -0.1384 0.9643
6.2235 -11.2814 -0.1963 0.9498
6.6655 -10.5714 -0.1904 0.9512
35.3117 -52.5356 -0.9646 0.7763
36.8085 -51.4488 -0.9640 0.7764
8.5323 -11.5650 -0.2190 0.9441
8.3149 -10.9324 -0.2093 0.9465
8.5847 -10.9513 -0.2120 0.9459
8.7006 -10.7711 -0.2110 0.9461
8.9080 -10.7041 -0.2122 0.9458
2.7190 -3.1718 -0.0637 0.9834
2.8647 -3.0595 -0.0639 0.9834
2.8816 -2.9027 -0.0623 0.9838
2.8660 -2.8039 -0.0611 0.9841
2.9783 -2.8297 -0.0626 0.9837
2.9558 -2.7273 -0.0613 0.9840
3.0679 -2.7489 -0.0628 0.9837
3.0805 -2.6800 -0.0622 0.9838
3.0982 -2.4655 -0.0603 0.9843
3.3039 -2.5511 -0.0636 0.9834
3.4229 -2.4869 -0.0645 0.9832
14.3097 -9.1695 -0.2590 0.9343
15.9696 -9.2720 -0.2814 0.9288
15.9611 -8.6536 -0.2767 0.9299
15.9731 -8.3604 -0.2747 0.9304
16.4165 -7.9904 -0.2782 0.9296
16.9815 -7.9606 -0.2858 0.9277
7.3692 -2.9426 -0.1209 0.9688
7.4747 -2.7343 -0.1213 0.9687
7.4488 -2.6021 -0.1202 0.9689
7.6677 -2.4296 -0.1226 0.9683
7.6929 -2.3145 -0.1224 0.9684
10.9248 -2.9416 -0.1724 0.9557
11.0459 -2.8017 -0.1736 0.9554
13.6323 -3.0367 -0.2128 0.9457
13.5952 -2.8206 -0.2116 0.9460
14.1035 -2.4986 -0.2183 0.9443
17.3112 -2.2898 -0.2661 0.9325
63.2206 -6.4891 -0.9684 0.7755
43.6290 -2.5529 -0.6660 0.8396
63.5174 1.8567 -0.9683 0.7755
63.4384 3.7121 -0.9683 0.7755
44.1426 4.5309 -0.6762 0.8373
36.3505 4.2687 -0.5577 0.8638
36.0338 4.7662 -0.5539 0.8647
44.7885 7.2615 -0.6914 0.8340
14.6813 3.0459 -0.2285 0.9418
14.1423 3.1504 -0.2208 0.9437
14.2334 3.6102 -0.2238 0.9429
14.2182 4.0520 -0.2253 0.9426
14.2164 4.2771 -0.2262 0.9423
14.2530 4.5162 -0.2278 0.9419
14.5169 5.0712 -0.2343 0.9403
14.5665 5.3286 -0.2364 0.9398
14.6170 5.5905 -0.2385 0.9393
14.7345 6.6464 -0.2463 0.9374
14.7700 6.9239 -0.2486 0.9368
15.1130 7.6311 -0.2580 0.9345
15.1695 7.9398 -0.2609 0.9338
6.2913 3.5309 -0.1099 0.9716
5.9540 3.5742 -0.1058 0.9726
5.7928 3.5936 -0.1039 0.9731
5.5095 3.6450 -0.1007 0.9739
5.2443 3.6944 -0.0978 0.9747
5.1478 3.7401 -0.0970 0.9749
5.0851 3.8093 -0.0968 0.9749
5.0425 4.0127 -0.0982 0.9745
5.0547 4.1444 -0.0996 0.9742
5.1088 4.4447 -0.1032 0.9733
5.1333 4.5995 -0.1050 0.9728
5.2462 5.2847 -0.1135 0.9706
3.3199 3.5457 -0.0740 0.9808
3.1733 3.4900 -0.0719 0.9813
3.0747 3.4825 -0.0708 0.9816
2.7633 3.5251 -0.0683 0.9822
2.6194 3.5505 -0.0672 0.9825
2.4760 3.5699 -0.0662 0.9828
2.4067 3.5806 -0.0657 0.9829
2.3393 3.5925 -0.0653 0.9830
2.2744 3.6071 -0.0650 0.9831
2.2079 3.6179 -0.0646 0.9832
2.0838 3.6502 -0.0640 0.9833
2.0293 3.6784 -0.0640 0.9833
1.9751 3.7073 -0.0640 0.9833
1.9340 3.7617 -0.0645 0.9832
1.9034 3.8389 -0.0653 0.9830
1.8961 3.9689 -0.0670 0.9826
1.9260 4.1879 -0.0702 0.9817
1.9988 4.5189 -0.0753 0.9804
2.0256 4.7667 -0.0789 0.9795
2.1156 5.4125 -0.0886 0.9770
2.1897 5.8531 -0.0952 0.9753
18.8187 60.9332 -0.9718 0.7748
17.9334 61.2259 -0.9722 0.7747
15.2517 62.0285 -0.9733 0.7745
13.4436 62.4981 -0.9741 0.7743
12.5342 62.7140 -0.9745 0.7743
10.7050 63.1048 -0.9753 0.7741
1.3711 9.8135 -0.1510 0.9611
1.2272 9.8296 -0.1510 0.9611
7.0122 63.7284 -0.9770 0.7738
6.0828 63.8508 -0.9774 0.7737
0.2777 5.4253 -0.0828 0.9785
0.1748 4.7830 -0.0729 0.9810
0.0963 4.3925 -0.0669 0.9826
-0.0271 3.7129 -0.0566 0.9853
-0.1820 3.5554 -0.0542 0.9859
-0.2332 3.5414 -0.0541 0.9859
-0.2852 3.5410 -0.0541 0.9859
-0.3896 3.5404 -0.0543 0.9859
-0.4420 3.5403 -0.0544 0.9858
-0.5484 3.5462 -0.0547 0.9857
-0.6029 3.5542 -0.0549 0.9857
-0.6579 3.5622 -0.0552 0.9856
-0.7136 3.5703 -0.0555 0.9855
-0.7699 3.5793 -0.0558 0.9855
-0.9426 3.6055 -0.0568 0.9852
-1.0014 3.6138 -0.0571 0.9851
-1.0612 3.6232 -0.0575 0.9850
-1.1835 3.6424 -0.0584 0.9848
-1.3154 3.6789 -0.0595 0.9845
-1.4552 3.7231 -0.0609 0.9841
-1.5351 3.7642 -0.0619 0.9839
-1.6110 3.7910 -0.0628 0.9837
-26.3150 59.4941 -0.9913 0.7709
-28.9292 58.3489 -0.9924 0.7706
-31.4927 57.0873 -0.9935 0.7704
-33.1712 56.1832 -0.9942 0.7703
-35.6384 54.7324 -0.9952 0.7701
-37.2474 53.7036 -0.9959 0.7699
-38.0411 53.1718 -0.9963 0.7699
-38.8266 52.6274 -0.9966 0.7698
-41.1353 50.9246 -0.9975 0.7696
-6.0508 6.8532 -0.1393 0.9641
-6.0324 6.6345 -0.1366 0.9648
-6.0325 6.4429 -0.1345 0.9653
-6.0499 6.0943 -0.1309 0.9662
-6.0739 5.9423 -0.1295 0.9666
-6.0975 5.7934 -0.1282 0.9669
-6.1432 5.5043 -0.1257 0.9675
-6.1653 5.3639 -0.1245 0.9678
-6.2084 5.0904 -0.1223 0.9684
-6.2964 4.5746 -0.1186 0.9693
-6.3178 4.4507 -0.1178 0.9696
-0.8107 0.5195 -0.0147 0.9962
-0.8088 0.5018 -0.0145 0.9962
-0.8052 0.4834 -0.0143 0.9963
-0.7982 0.4480 -0.0139 0.9963
-0.7948 0.4309 -0.0138 0.9964
-0.7851 0.3821 -0.0133 0.9965
-0.7780 0.3509 -0.0130 0.9966
-0.7666 0.3061 -0.0126 0.9967
-0.7594 0.2778 -0.0123 0.9968
-0.7524 0.2506 -0.0121 0.9968
-0.7490 0.2373 -0.0120 0.9969
-0.7456 0.2243 -0.0119 0.9969
-0.7423 0.2116 -0.0118 0.9969
-0.7405 0.1878 -0.0116 0.9969
-0.7378 0.1757 -0.0116 0.9970
-0.7354 0.1638 -0.0115 0.9970
-0.7333 0.1521 -0.0114 0.9970
-0.7291 0.1292 -0.0113 0.9970
-0.7270 0.1179 -0.0112 0.9971
-0.7250 0.1067 -0.0112 0.9971
-0.7229 0.0956 -0.0111 0.9971
-0.7147 0.0523 -0.0109 0.9971
-0.7087 0.0207 -0.0108 0.9972
-0.7067 0.0103 -0.0108 0.9972
-0.6742 0.0000 -0.0177 0.9973
-0.6758 -0.0099 -0.0178 0.9973
-0.6794 -0.0298 -0.0179 0.9973
-0.6812 -0.0398 -0.0180 0.9973
-0.6831 -0.0500 -0.0180 0.9973
-0.6868 -0.0705 -0.0182 0.9972
-0.6904 -0.0913 -0.0183 0.9972
-0.6923 -0.1019 -0.0184 0.9972
-0.6941 -0.1125 -0.0185 0.9972
-0.6977 -0.1342 -0.0187 0.9972
-0.7032 -0.1675 -0.0190 0.9971
-0.7071 -0.1904 -0.0193 0.9971
-0.7088 -0.2020 -0.0194 0.9971
-0.7175 -0.2389 -0.0199 0.9970
-0.7205 -0.2517 -0.0201 0.9970
-0.7266 -0.2779 -0.0205 0.9969
-0.7393 -0.3335 -0.0214 0.9968
-0.7426 -0.3481 -0.0216 0.9967
-0.7488 -0.3781 -0.0221 0.9966
-0.7515 -0.3933 -0.0223 0.9966
-0.7569 -0.4248 -0.0228 0.9965
-0.7625 -0.4577 -0.0234 0.9964
-0.7654 -0.4748 -0.0237 0.9964
-0.7683 -0.4923 -0.0240 0.9964
-0.7743 -0.5288 -0.0247 0.9963
-0.8870 -0.6444 -0.0289 0.9956
-30.1362 -22.5753 -0.9912 0.8601
-29.1055 -23.8641 -0.9908 0.8602
-28.7495 -24.2833 -0.9907 0.8602
-28.3875 -24.6971 -0.9905 0.8602
-28.0195 -25.1055 -0.9904 0.8602
-27.6454 -25.5083 -0.9902 0.8603
-9.6921 -9.2087 -0.3519 0.9479
-9.5183 -9.5881 -0.3557 0.9474
-9.2139 -9.5568 -0.3495 0.9483
-8.6153 -9.4750 -0.3371 0.9500
-8.1488 -9.2294 -0.3241 0.9519
-7.9476 -9.5501 -0.3271 0.9515
-7.5656 -9.6512 -0.3228 0.9521
-7.3451 -9.6573 -0.3194 0.9526
-6.8808 -9.9208 -0.3178 0.9528
-1.7080 -2.5412 -0.0806 0.9878
-1.6011 -2.5393 -0.0790 0.9881
-1.3981 -2.2909 -0.0707 0.9893
-1.3887 -2.3521 -0.0719 0.9891
-1.3789 -2.4154 -0.0732 0.9889
-1.3493 -2.5326 -0.0755 0.9886
-1.3472 -2.6203 -0.0776 0.9883
-1.3358 -2.6941 -0.0792 0.9880
-1.1494 -2.4991 -0.0724 0.9891
-1.1568 -2.6152 -0.0753 0.9886
-1.1446 -2.6936 -0.0770 0.9884
-1.0697 -2.6232 -0.0746 0.9887
-0.9335 -2.4952 -0.0701 0.9894
-0.9163 -2.5628 -0.0716 0.9892
-0.7724 -2.5009 -0.0689 0.9896
-0.7187 -2.4538 -0.0673 0.9898
-0.7200 -2.7540 -0.0749 0.9887
-0.6759 -2.7490 -0.0745 0.9887
-0.6323 -2.7441 -0.0741 0.9888
-0.5892 -2.7391 -0.0738 0.9889
-0.5465 -2.7343 -0.0734 0.9889
-5.3515 -34.6055 -0.9218 0.8693
-4.8442 -34.6722 -0.9216 0.8693
-4.3361 -34.7316 -0.9214 0.8693
-3.8272 -34.7834 -0.9212 0.8693
-2.8080 -34.8647 -0.9208 0.8694
-2.2977 -34.8940 -0.9206 0.8694
-1.7872 -34.9160 -0.9204 0.8694
-1.2766 -34.9306 -0.9201 0.8695
-0.7659 -34.9375 -0.9199 0.8695
-0.0920 -12.5876 -0.3314 0.9509
0.1770 -8.0737 -0.2126 0.9682
0.5562 -8.4471 -0.2228 0.9667
0.8035 -8.4348 -0.2230 0.9667
0.9274 -8.4286 -0.2232 0.9666
1.0516 -8.4233 -0.2235 0.9666
1.1267 -8.0646 -0.2144 0.9679
1.6222 -8.1169 -0.2179 0.9674
1.7449 -8.1118 -0.2184 0.9673
1.8682 -8.1068 -0.2190 0.9673
2.3769 -8.1148 -0.2226 0.9667
2.5051 -8.1112 -0.2235 0.9666
2.8885 -8.0786 -0.2258 0.9663
3.1457 -8.0480 -0.2275 0.9660
3.4038 -8.3465 -0.2373 0.9646
3.9384 -8.2441 -0.2405 0.9641
4.1471 -8.0662 -0.2388 0.9644
6.1123 -10.7070 -0.3245 0.9519
6.2181 -10.5318 -0.3220 0.9522
6.3899 -10.4703 -0.3229 0.9521
6.6039 -10.4736 -0.3259 0.9517
6.8987 -10.5947 -0.3328 0.9507
21.0087 -30.2904 -0.9704 0.8629
21.4451 -29.9747 -0.9702 0.8629
8.3490 -11.3166 -0.3702 0.9453
8.5498 -10.9066 -0.3648 0.9461
8.7338 -10.8122 -0.3659 0.9459
8.9342 -10.7356 -0.3677 0.9456
2.8228 -3.1044 -0.1105 0.9834
2.9205 -3.0291 -0.1108 0.9833
2.8954 -2.9166 -0.1082 0.9837
3.0576 -2.9051 -0.1110 0.9833
2.9680 -2.7386 -0.1063 0.9840
3.0963 -2.6938 -0.1080 0.9837
3.1207 -2.5587 -0.1062 0.9840
3.3491 -2.5860 -0.1114 0.9832
13.6042 -9.2890 -0.4336 0.9362
13.9780 -9.2478 -0.4412 0.9351
14.3879 -9.2196 -0.4498 0.9339
16.0256 -9.6203 -0.4920 0.9279
15.9222 -9.2445 -0.4847 0.9290
15.9435 -8.3449 -0.4737 0.9305
16.0306 -8.0944 -0.4727 0.9307
16.3462 -7.9562 -0.4786 0.9298
7.4980 -2.8678 -0.2113 0.9684
7.5411 -2.7586 -0.2114 0.9684
7.5287 -2.6300 -0.2099 0.9686
7.7031 -2.5652 -0.2137 0.9680
7.7127 -2.3204 -0.2120 0.9683
10.4414 -2.6484 -0.2836 0.9578
14.3120 -2.1063 -0.3808 0.9438
17.1897 -2.0186 -0.4556 0.9331
36.9994 -3.7977 -0.9791 0.8617
36.1336 -2.6447 -0.9537 0.8650
37.1555 -1.6298 -0.9790 0.8617
37.1752 -1.0868 -0.9790 0.8617
37.1870 0.5434 -0.9790 0.8617
37.1555 1.6298 -0.9790 0.8617
37.1282 2.1725 -0.9790 0.8617
36.9992 3.7977 -0.9791 0.8617
36.9406 4.3380 -0.9791 0.8617
27.7502 4.4992 -0.7400 0.8936
15.8832 2.8139 -0.4246 0.9375
14.2074 3.1648 -0.3832 0.9434
14.2603 3.6170 -0.3873 0.9428
14.1465 3.8090 -0.3857 0.9431
14.1784 4.0407 -0.3881 0.9427
14.2214 4.2786 -0.3909 0.9423
14.2577 4.5177 -0.3937 0.9419
14.2880 4.7581 -0.3964 0.9415
14.6112 5.5883 -0.4118 0.9393
14.7240 6.6416 -0.4252 0.9374
14.7758 6.9266 -0.4296 0.9368
15.1084 7.6287 -0.4455 0.9345
15.1547 7.9321 -0.4503 0.9338
6.2640 3.5155 -0.1891 0.9717
6.0898 3.5358 -0.1854 0.9722
5.3522 3.6545 -0.1706 0.9744
5.2232 3.6795 -0.1682 0.9748
5.1338 3.7299 -0.1670 0.9749
5.0712 3.7989 -0.1668 0.9750
5.0339 4.0058 -0.1694 0.9746
5.0415 4.1336 -0.1716 0.9743
5.0692 4.2817 -0.1747 0.9738
5.0984 4.4355 -0.1779 0.9733
5.2098 5.0968 -0.1919 0.9713
5.2376 5.2760 -0.1957 0.9707
3.2830 3.5063 -0.1264 0.9810
3.1621 3.4777 -0.1237 0.9814
3.0658 3.4723 -0.1219 0.9816
2.9085 3.4950 -0.1197 0.9820
2.8305 3.5041 -0.1186 0.9821
2.6830 3.5276 -0.1167 0.9824
2.6122 3.5406 -0.1158 0.9825
2.4006 3.5715 -0.1133 0.9829
2.3335 3.5837 -0.1126 0.9830
2.2678 3.5967 -0.1119 0.9831
2.2016 3.6075 -0.1113 0.9832
2.1373 3.6199 -0.1107 0.9833
2.0246 3.6700 -0.1103 0.9834
1.9705 3.6987 -0.1103 0.9834
1.8960 3.8241 -0.1124 0.9831
1.8783 3.9318 -0.1147 0.9827
1.9013 4.1341 -0.1198 0.9820
2.1139 5.4082 -0.1529 0.9770
11.4379 35.2023 -0.9744 0.8623
10.9249 35.3740 -0.9746 0.8623
9.8912 35.6946 -0.9751 0.8622
6.2052 36.5787 -0.9767 0.8620
1.3761 9.8494 -0.2618 0.9610
4.0617 36.9139 -0.9776 0.8619
3.5228 36.9784 -0.9778 0.8619
2.9828 37.0348 -0.9781 0.8619
0.1663 4.5509 -0.1199 0.9819
0.0278 3.7993 -0.1000 0.9849
-0.0777 3.5434 -0.0933 0.9859
-0.1294 3.5414 -0.0933 0.9859
-0.1811 3.5395 -0.0933 0.9859
-0.2319 3.5213 -0.0929 0.9860
-0.3354 3.5209 -0.0931 0.9859
-0.4395 3.5205 -0.0934 0.9859
-0.4918 3.5202 -0.0936 0.9859
-0.5994 3.5333 -0.0943 0.9858
-0.7093 3.5491 -0.0953 0.9856
-0.7652 3.5571 -0.0958 0.9855
-0.8216 3.5652 -0.0963 0.9855
-0.8788 3.5742 -0.0969 0.9854
-1.1149 3.6102 -0.0995 0.9850
-1.2392 3.6325 -0.1010 0.9848
-1.5258 3.7416 -0.1064 0.9840
-1.6012 3.7680 -0.1078 0.9838
-15.6514 34.0324 -0.9861 0.8608
-16.1504 33.8072 -0.9863 0.8608
-16.6463 33.5748 -0.9865 0.8607
-18.1130 32.8337 -0.9871 0.8607
-19.0724 32.3036 -0.9875 0.8606
-20.0162 31.7453 -0.9879 0.8606
-20.4820 31.4556 -0.9881 0.8605
-20.9435 31.1591 -0.9883 0.8605
-21.4007 30.8557 -0.9885 0.8605
-22.3012 30.2281 -0.9889 0.8604
