ply
format ascii 1.0
element vertex 1598
property float32 x
property float32 y
property float32 z
property float32 I
end_header
3.7484 -1.6908 -0.9926 0.9832
3.7961 -1.5805 -0.9926 0.9832
3.8188 -1.5249 -0.9926 0.9832
3.8818 -1.3561 -0.9926 0.9832
3.9012 -1.2992 -0.9926 0.9832
3.9197 -1.2420 -0.9926 0.9832
3.9374 -1.1846 -0.9926 0.9832
3.9543 -1.1270 -0.9926 0.9832
4.0485 -0.7172 -0.9925 0.9832
4.0677 -0.5987 -0.9925 0.9832
4.0760 -0.5392 -0.9925 0.9832
4.0900 -0.4198 -0.9925 0.9832
4.0957 -0.3600 -0.9925 0.9832
4.1044 -0.2402 -0.9925 0.9832
4.1110 -0.0601 -0.9925 0.9832
4.1115 0.0000 -0.9925 0.9832
4.1110 0.0601 -0.9925 0.9832
4.1097 0.1201 -0.9925 0.9832
4.1005 0.3001 -0.9925 0.9832
4.0376 0.7763 -0.9925 0.9832
4.0259 0.8352 -0.9925 0.9832
3.9998 0.9525 -0.9925 0.9832
3.9855 1.0109 -0.9925 0.9832
3.9197 1.2420 -0.9926 0.9832
3.9012 1.2992 -0.9926 0.9832
3.8818 1.3560 -0.9926 0.9832
3.8406 1.4689 -0.9926 0.9832
3.8188 1.5248 -0.9926 0.9832
3.7484 1.6908 -0.9926 0.9832
3.6975 1.7996 -0.9927 0.9832
3.5862 2.0127 -0.9927 0.9832
3.4947 2.1679 -0.9927 0.9832
3.4299 2.2692 -0.9928 0.9832
3.3964 2.3191 -0.9928 0.9832
3.3622 2.3685 -0.9928 0.9832
3.3273 2.4174 -0.9928 0.9832
3.2554 2.5136 -0.9928 0.9832
3.1422 2.6540 -0.9929 0.9832
3.0634 2.7448 -0.9929 0.9832
3.0230 2.7893 -0.9929 0.9832
2.9820 2.8332 -0.9930 0.9832
2.9404 2.8766 -0.9930 0.9832
2.8552 2.9614 -0.9930 0.9832
2.8116 3.0028 -0.9930 0.9832
2.5852 3.2004 -0.9931 0.9832
2.4906 3.2746 -0.9932 0.9832
2.4426 3.3107 -0.9932 0.9832
2.3940 3.3461 -0.9932 0.9832
2.3449 3.3808 -0.9932 0.9832
2.2953 3.4148 -0.9932 0.9832
2.1946 3.4805 -0.9933 0.9832
2.1436 3.5123 -0.9933 0.9832
2.0401 3.5736 -0.9933 0.9832
1.7196 3.7390 -0.9935 0.9832
1.6097 3.7879 -0.9935 0.9832
1.4984 3.8334 -0.9936 0.9832
1.3858 3.8757 -0.9936 0.9832
1.2720 3.9148 -0.9937 0.9832
1.2147 3.9330 -0.9937 0.9832
0.9830 3.9977 -0.9938 0.9832
0.9245 4.0117 -0.9938 0.9832
0.8658 4.0249 -0.9938 0.9832
0.6886 4.0592 -0.9939 0.9832
0.5697 4.0778 -0.9939 0.9832
0.5101 4.0858 -0.9940 0.9832
0.3905 4.0992 -0.9940 0.9832
0.2706 4.1091 -0.9941 0.9832
0.2105 4.1126 -0.9941 0.9832
-0.0301 4.1184 -0.9942 0.9832
-0.1504 4.1159 -0.9942 0.9832
-0.2106 4.1134 -0.9943 0.9832
-0.2706 4.1100 -0.9943 0.9832
-0.3307 4.1057 -0.9943 0.9832
-0.3906 4.1005 -0.9943 0.9832
-0.8074 4.0398 -0.9945 0.9832
-0.9837 4.0008 -0.9946 0.9832
-1.0421 3.9862 -0.9946 0.9832
-1.1582 3.9542 -0.9946 0.9832
-1.3371 3.5741 -0.9212 0.9844
-1.3775 3.5242 -0.9134 0.9846
-1.4240 3.4918 -0.9103 0.9846
-1.4757 3.4727 -0.9108 0.9846
-1.6009 3.4810 -0.9249 0.9844
-0.3561 0.7453 -0.1994 0.9966
-0.3387 0.6832 -0.1841 0.9969
-0.3237 0.6296 -0.1709 0.9971
-0.3105 0.5829 -0.1594 0.9973
-0.3083 0.5589 -0.1541 0.9974
-0.3113 0.5454 -0.1516 0.9974
-0.3143 0.5323 -0.1492 0.9975
-0.3171 0.5195 -0.1469 0.9975
-0.3197 0.5071 -0.1447 0.9975
-0.3222 0.4948 -0.1426 0.9976
-0.3291 0.4600 -0.1365 0.9977
-0.3312 0.4489 -0.1347 0.9977
-0.3352 0.4276 -0.1312 0.9978
-0.3401 0.4087 -0.1284 0.9978
-0.3490 0.3727 -0.1233 0.9979
-0.3511 0.3641 -0.1221 0.9979
-0.3531 0.3557 -0.1210 0.9979
-0.3575 0.3298 -0.1174 0.9980
-0.3587 0.3214 -0.1163 0.9980
-0.3609 0.3048 -0.1140 0.9981
-0.3620 0.2968 -0.1130 0.9981
-0.3630 0.2888 -0.1120 0.9981
-0.3639 0.2810 -0.1110 0.9981
-0.3648 0.2732 -0.1100 0.9981
-0.3656 0.2656 -0.1091 0.9981
-0.3664 0.2582 -0.1082 0.9982
-0.3672 0.2507 -0.1073 0.9982
-0.3679 0.2434 -0.1065 0.9982
-0.3685 0.2361 -0.1057 0.9982
-0.3691 0.2290 -0.1049 0.9982
-0.3697 0.2219 -0.1041 0.9982
-0.3702 0.2150 -0.1033 0.9982
-0.3712 0.2012 -0.1019 0.9983
-0.3716 0.1945 -0.1012 0.9983
-0.3722 0.1879 -0.1007 0.9983
-0.3730 0.1815 -0.1002 0.9983
-0.3743 0.1688 -0.0991 0.9983
-0.3749 0.1625 -0.0986 0.9983
-0.3754 0.1562 -0.0982 0.9983
-0.3762 0.1439 -0.0972 0.9983
-0.3773 0.1256 -0.0960 0.9984
-0.3778 0.1137 -0.0952 0.9984
-0.3781 0.1077 -0.0949 0.9984
-0.3782 0.1018 -0.0946 0.9984
-0.3785 0.0901 -0.0939 0.9984
-0.3787 0.0786 -0.0934 0.9984
-0.3787 0.0728 -0.0931 0.9984
-0.3787 0.0614 -0.0926 0.9984
-0.3786 0.0500 -0.0922 0.9984
-0.3783 0.0388 -0.0918 0.9984
-0.3781 0.0332 -0.0916 0.9984
-0.3775 0.0165 -0.0912 0.9984
-0.3769 0.0055 -0.0910 0.9985
-0.3701 0.0000 -0.0937 0.9985
-0.3704 -0.0054 -0.0938 0.9985
-0.3707 -0.0108 -0.0939 0.9985
-0.3718 -0.0382 -0.0946 0.9985
-0.3720 -0.0492 -0.0950 0.9985
-0.3720 -0.0548 -0.0952 0.9984
-0.3721 -0.0716 -0.0959 0.9984
-0.3717 -0.0943 -0.0971 0.9984
-0.3713 -0.1058 -0.0977 0.9984
-0.3705 -0.1234 -0.0989 0.9984
-0.3701 -0.1293 -0.0993 0.9984
-0.3698 -0.1353 -0.0997 0.9984
-0.3693 -0.1413 -0.1001 0.9984
-0.3689 -0.1473 -0.1006 0.9984
-0.3684 -0.1534 -0.1010 0.9984
-0.3679 -0.1595 -0.1015 0.9983
-0.3667 -0.1719 -0.1025 0.9983
-0.3652 -0.1844 -0.1036 0.9983
-0.3637 -0.1972 -0.1047 0.9983
-0.3632 -0.2039 -0.1055 0.9983
-0.3621 -0.2174 -0.1069 0.9983
-0.3615 -0.2243 -0.1077 0.9982
-0.3609 -0.2313 -0.1085 0.9982
-0.3587 -0.2527 -0.1111 0.9982
-0.3578 -0.2600 -0.1120 0.9982
-0.3570 -0.2674 -0.1129 0.9982
-0.3560 -0.2749 -0.1139 0.9981
-0.3550 -0.2825 -0.1149 0.9981
-0.3517 -0.3060 -0.1180 0.9981
-0.3505 -0.3141 -0.1191 0.9981
-0.3492 -0.3223 -0.1203 0.9980
-0.3465 -0.3390 -0.1227 0.9980
-0.3341 -0.3897 -0.1299 0.9979
-0.3293 -0.4077 -0.1327 0.9978
-0.3169 -0.4569 -0.1408 0.9977
-0.3145 -0.4680 -0.1427 0.9977
-0.3095 -0.4908 -0.1469 0.9976
-0.3067 -0.5026 -0.1491 0.9976
-0.3009 -0.5271 -0.1537 0.9975
-0.3266 -0.7102 -0.1979 0.9968
-1.4611 -3.5828 -0.9795 0.9842
-1.4085 -3.6037 -0.9795 0.9842
-1.3557 -3.6238 -0.9795 0.9842
-1.3026 -3.6432 -0.9795 0.9842
-1.2492 -3.6617 -0.9794 0.9842
-1.1416 -3.6965 -0.9794 0.9842
-1.0875 -3.7127 -0.9794 0.9842
-1.0330 -3.7281 -0.9794 0.9842
-0.9236 -3.7565 -0.9793 0.9842
-0.8134 -3.7817 -0.9793 0.9842
-0.7026 -3.8037 -0.9792 0.9842
-0.4836 -3.1273 -0.8011 0.9870
-0.4381 -3.1360 -0.8016 0.9870
-0.3799 -3.0429 -0.7763 0.9874
-0.3371 -3.0639 -0.7803 0.9874
-0.1598 -3.1221 -0.7914 0.9872
-0.1067 -2.9186 -0.7394 0.9880
0.0174 -2.3794 -0.6024 0.9902
0.2303 -2.4177 -0.6148 0.9900
0.2675 -2.4309 -0.6191 0.9900
0.4109 -2.4223 -0.6220 0.9899
0.4673 -2.3380 -0.6036 0.9902
0.5059 -2.3518 -0.6090 0.9901
0.6217 -2.2437 -0.5894 0.9904
0.6469 -1.9908 -0.5299 0.9914
0.8003 -2.2383 -0.6018 0.9902
0.9666 -2.1016 -0.5856 0.9905
1.8168 -3.4102 -0.9782 0.9842
1.8664 -3.3832 -0.9782 0.9842
1.9644 -3.3271 -0.9781 0.9842
2.0128 -3.2980 -0.9781 0.9842
2.0607 -3.2682 -0.9781 0.9842
2.1082 -3.2377 -0.9781 0.9842
2.2018 -3.1746 -0.9780 0.9842
2.2479 -3.1420 -0.9780 0.9842
2.2936 -3.1087 -0.9780 0.9842
2.3833 -3.0403 -0.9780 0.9842
2.4710 -2.9693 -0.9779 0.9842
2.5141 -2.9328 -0.9779 0.9842
2.5986 -2.8580 -0.9779 0.9842
2.6401 -2.8196 -0.9779 0.9842
2.6809 -2.7807 -0.9778 0.9842
2.7610 -2.7011 -0.9778 0.9842
2.8386 -2.6192 -0.9778 0.9842
3.0567 -2.3604 -0.9777 0.9842
3.0909 -2.3154 -0.9777 0.9842
3.1244 -2.2700 -0.9777 0.9842
3.2514 -2.0835 -0.9776 0.9842
3.2815 -2.0357 -0.9776 0.9842
3.3331 -2.0009 -0.9842 0.9841
3.3914 -1.9691 -0.9928 0.9839
3.4198 -1.9194 -0.9928 0.9839
3.5005 -1.7675 -0.9927 0.9839
3.5977 -1.5600 -0.9927 0.9840
3.6200 -1.5072 -0.9927 0.9840
3.6417 -1.4542 -0.9927 0.9840
3.6625 -1.4008 -0.9927 0.9840
3.6825 -1.3471 -0.9927 0.9840
3.7018 -1.2932 -0.9927 0.9840
3.7202 -1.2389 -0.9927 0.9840
3.7379 -1.1844 -0.9926 0.9840
3.7548 -1.1297 -0.9926 0.9840
3.7709 -1.0746 -0.9926 0.9840
3.7862 -1.0195 -0.9926 0.9840
3.8272 -0.8525 -0.9926 0.9840
3.8703 -0.6275 -0.9926 0.9840
3.8870 -0.5141 -0.9926 0.9840
3.8941 -0.4573 -0.9926 0.9840
3.9057 -0.3433 -0.9926 0.9840
3.9170 -0.1718 -0.9926 0.9840
3.9191 -0.1146 -0.9926 0.9840
3.9204 -0.0573 -0.9926 0.9840
3.9204 0.0573 -0.9926 0.9840
3.9192 0.1146 -0.9926 0.9840
3.9170 0.1718 -0.9926 0.9840
3.9104 0.2862 -0.9926 0.9840
3.9058 0.3433 -0.9926 0.9840
3.8870 0.5142 -0.9926 0.9840
3.8791 0.5709 -0.9926 0.9840
3.8703 0.6275 -0.9926 0.9840
3.8504 0.7403 -0.9926 0.9840
3.8392 0.7965 -0.9926 0.9840
3.8143 0.9084 -0.9926 0.9840
3.7709 1.0746 -0.9926 0.9840
3.7379 1.1844 -0.9926 0.9840
3.7203 1.2389 -0.9927 0.9840
3.6625 1.4007 -0.9927 0.9840
3.6417 1.4541 -0.9927 0.9840
3.5506 1.6645 -0.9927 0.9839
3.5005 1.7675 -0.9927 0.9839
3.4744 1.8185 -0.9928 0.9839
3.4475 1.8691 -0.9928 0.9839
3.3915 1.9691 -0.9928 0.9839
3.3623 2.0184 -0.9928 0.9839
3.3325 2.0673 -0.9928 0.9839
3.2708 2.1639 -0.9928 0.9839
3.2063 2.2586 -0.9929 0.9839
3.1730 2.3053 -0.9929 0.9839
3.1390 2.3514 -0.9929 0.9839
3.1043 2.3970 -0.9929 0.9839
3.0690 2.4422 -0.9929 0.9839
2.9964 2.5309 -0.9929 0.9839
2.9592 2.5745 -0.9930 0.9839
2.8437 2.7018 -0.9930 0.9839
2.7636 2.7839 -0.9930 0.9839
2.7227 2.8239 -0.9931 0.9839
2.5532 2.9784 -0.9931 0.9839
2.4652 3.0518 -0.9932 0.9839
2.3750 3.1227 -0.9932 0.9839
2.3292 3.1571 -0.9932 0.9839
2.2829 3.1908 -0.9932 0.9839
2.2360 3.2239 -0.9933 0.9839
2.1410 3.2880 -0.9933 0.9839
1.9950 3.3789 -0.9934 0.9839
1.9454 3.4078 -0.9934 0.9839
1.8954 3.4359 -0.9934 0.9839
1.7943 3.4900 -0.9934 0.9839
1.6917 3.5411 -0.9935 0.9839
1.6397 3.5655 -0.9935 0.9839
1.5876 3.5891 -0.9935 0.9839
1.5349 3.6120 -0.9935 0.9839
1.4820 3.6341 -0.9936 0.9839
1.3753 3.6761 -0.9936 0.9839
1.3214 3.6958 -0.9936 0.9839
1.1583 3.7504 -0.9937 0.9839
1.1034 3.7670 -0.9937 0.9839
0.9929 3.7979 -0.9938 0.9839
0.9373 3.8120 -0.9938 0.9839
0.8815 3.8254 -0.9938 0.9839
0.7694 3.8497 -0.9939 0.9839
0.7131 3.8607 -0.9939 0.9839
0.6566 3.8707 -0.9939 0.9839
0.6000 3.8800 -0.9939 0.9839
0.5433 3.8885 -0.9940 0.9839
0.4864 3.8961 -0.9940 0.9839
0.4295 3.9028 -0.9940 0.9839
0.3724 3.9088 -0.9940 0.9839
0.3152 3.9139 -0.9940 0.9839
0.2580 3.9182 -0.9941 0.9839
0.1434 3.9243 -0.9941 0.9839
0.0861 3.9260 -0.9941 0.9839
-0.0287 3.9271 -0.9942 0.9839
-0.3153 3.9150 -0.9943 0.9839
-0.5435 3.8902 -0.9944 0.9839
-0.6003 3.8820 -0.9944 0.9839
-0.7699 3.8521 -0.9945 0.9839
-0.8262 3.8406 -0.9945 0.9839
-0.8822 3.8282 -0.9945 0.9839
-0.9380 3.8150 -0.9946 0.9839
-1.0492 3.7861 -0.9946 0.9839
-1.1594 3.7540 -0.9946 0.9839
-1.2141 3.7368 -0.9947 0.9839
-1.2686 3.7187 -0.9947 0.9839
-1.3229 3.6998 -0.9947 0.9839
-1.4071 3.6000 -0.9785 0.9842
-1.4505 3.5570 -0.9725 0.9843
-0.3430 0.7754 -0.2147 0.9965
-0.3125 0.6542 -0.1835 0.9970
-0.2911 0.5662 -0.1612 0.9974
-0.2978 0.5398 -0.1561 0.9975
-0.3067 0.5026 -0.1491 0.9976
-0.3094 0.4908 -0.1469 0.9976
-0.3121 0.4792 -0.1448 0.9976
-0.3145 0.4679 -0.1427 0.9977
-0.3169 0.4569 -0.1408 0.9977
-0.3191 0.4461 -0.1389 0.9977
-0.3214 0.4357 -0.1371 0.9978
-0.3242 0.4262 -0.1356 0.9978
-0.3268 0.4168 -0.1341 0.9978
-0.3363 0.3809 -0.1287 0.9979
-0.3429 0.3557 -0.1251 0.9980
-0.3450 0.3475 -0.1240 0.9980
-0.3465 0.3390 -0.1227 0.9980
-0.3479 0.3305 -0.1215 0.9980
-0.3492 0.3222 -0.1203 0.9980
-0.3505 0.3141 -0.1191 0.9981
-0.3529 0.2980 -0.1169 0.9981
-0.3540 0.2902 -0.1159 0.9981
-0.3560 0.2749 -0.1139 0.9981
-0.3570 0.2674 -0.1129 0.9982
-0.3578 0.2600 -0.1120 0.9982
-0.3587 0.2527 -0.1111 0.9982
-0.3595 0.2455 -0.1102 0.9982
-0.3602 0.2383 -0.1093 0.9982
-0.3616 0.2243 -0.1077 0.9982
-0.3621 0.2174 -0.1069 0.9983
-0.3652 0.1844 -0.1036 0.9983
-0.3660 0.1781 -0.1031 0.9983
-0.3668 0.1719 -0.1025 0.9983
-0.3674 0.1657 -0.1020 0.9983
-0.3679 0.1595 -0.1015 0.9983
-0.3693 0.1412 -0.1001 0.9984
-0.3701 0.1293 -0.0993 0.9984
-0.3705 0.1234 -0.0989 0.9984
-0.3710 0.1116 -0.0981 0.9984
-0.3717 0.0943 -0.0971 0.9984
-0.3720 0.0772 -0.0962 0.9984
-0.3721 0.0603 -0.0954 0.9984
-0.3721 0.0547 -0.0952 0.9984
-0.3719 0.0437 -0.0948 0.9985
-0.3716 0.0326 -0.0944 0.9985
-0.3707 0.0108 -0.0939 0.9985
-0.3638 -0.0000 -0.0964 0.9985
-0.3641 -0.0054 -0.0965 0.9985
-0.3644 -0.0107 -0.0966 0.9985
-0.3647 -0.0160 -0.0967 0.9985
-0.3649 -0.0214 -0.0969 0.9985
-0.3651 -0.0268 -0.0970 0.9985
-0.3656 -0.0538 -0.0979 0.9985
-0.3657 -0.0648 -0.0984 0.9985
-0.3656 -0.0703 -0.0987 0.9985
-0.3654 -0.0814 -0.0992 0.9985
-0.3647 -0.1040 -0.1005 0.9984
-0.3645 -0.1097 -0.1009 0.9984
-0.3635 -0.1270 -0.1020 0.9984
-0.3631 -0.1329 -0.1025 0.9984
-0.3627 -0.1387 -0.1029 0.9984
-0.3606 -0.1627 -0.1048 0.9984
-0.3566 -0.1933 -0.1075 0.9983
-0.3555 -0.2064 -0.1089 0.9983
-0.3535 -0.2266 -0.1113 0.9983
-0.3528 -0.2334 -0.1121 0.9983
-0.3520 -0.2404 -0.1130 0.9982
-0.3512 -0.2474 -0.1138 0.9982
-0.3503 -0.2545 -0.1147 0.9982
-0.3484 -0.2690 -0.1166 0.9982
-0.3451 -0.2915 -0.1197 0.9981
-0.3440 -0.2993 -0.1208 0.9981
-0.3427 -0.3071 -0.1219 0.9981
-0.3400 -0.3230 -0.1243 0.9981
-0.3386 -0.3312 -0.1255 0.9980
-0.3351 -0.3476 -0.1280 0.9980
-0.3308 -0.3638 -0.1303 0.9980
-0.3285 -0.3721 -0.1315 0.9979
-0.3237 -0.3890 -0.1341 0.9979
-0.3133 -0.4248 -0.1399 0.9978
-0.3076 -0.4435 -0.1430 0.9978
-0.3050 -0.4537 -0.1449 0.9977
-0.2970 -0.4867 -0.1511 0.9976
-0.2879 -0.5219 -0.1580 0.9975
-0.2846 -0.5343 -0.1604 0.9975
-0.2812 -0.5469 -0.1629 0.9975
-0.2884 -0.6271 -0.1829 0.9971
-0.3129 -0.7364 -0.2120 0.9967
-1.3457 -3.4428 -0.9795 0.9848
-1.2445 -3.4805 -0.9794 0.9848
-1.1934 -3.4982 -0.9794 0.9848
-1.1421 -3.5152 -0.9794 0.9848
-1.0389 -3.5470 -0.9794 0.9848
-0.8298 -3.6013 -0.9793 0.9848
-0.7771 -3.6129 -0.9793 0.9848
-0.7242 -3.6238 -0.9792 0.9848
-0.6712 -3.6339 -0.9792 0.9848
-0.5647 -3.6518 -0.9792 0.9848
-0.3328 -3.0243 -0.8062 0.9875
-0.2446 -3.0369 -0.8073 0.9875
-0.0630 -2.8762 -0.7623 0.9882
-0.0210 -2.8751 -0.7619 0.9882
0.0171 -2.3314 -0.6178 0.9904
0.0875 -2.3942 -0.6348 0.9901
0.1981 -2.4596 -0.6539 0.9898
0.2756 -2.5047 -0.6677 0.9896
0.3156 -2.5277 -0.6750 0.9895
0.3488 -2.4966 -0.6680 0.9896
0.3835 -2.4802 -0.6650 0.9897
0.4114 -2.4250 -0.6518 0.9899
0.4381 -2.3719 -0.6391 0.9901
0.5615 -2.2834 -0.6231 0.9903
0.6273 -2.1417 -0.5913 0.9908
0.6348 -2.0555 -0.5700 0.9911
0.7812 -2.1848 -0.6148 0.9904
0.8141 -2.1761 -0.6157 0.9904
0.8401 -2.1493 -0.6115 0.9905
0.8656 -2.1227 -0.6074 0.9906
0.8907 -2.0960 -0.6035 0.9906
0.9153 -2.0694 -0.5996 0.9907
1.6399 -3.3076 -0.9783 0.9848
1.6881 -3.2832 -0.9782 0.9848
1.7358 -3.2582 -0.9782 0.9848
1.7832 -3.2324 -0.9782 0.9848
1.8768 -3.1788 -0.9782 0.9848
2.0142 -3.0933 -0.9781 0.9848
2.0591 -3.0635 -0.9781 0.9848
2.1036 -3.0330 -0.9781 0.9848
2.1477 -3.0019 -0.9781 0.9848
2.2344 -2.9378 -0.9780 0.9848
2.2770 -2.9047 -0.9780 0.9848
2.3192 -2.8711 -0.9780 0.9848
2.4020 -2.8020 -0.9780 0.9848
2.4427 -2.7666 -0.9779 0.9848
2.4828 -2.7305 -0.9779 0.9848
2.5224 -2.6939 -0.9779 0.9848
2.5999 -2.6189 -0.9779 0.9848
2.7483 -2.4625 -0.9778 0.9848
2.8873 -2.2976 -0.9778 0.9848
2.9205 -2.2552 -0.9777 0.9848
2.9851 -2.1688 -0.9777 0.9848
3.0471 -2.0806 -0.9777 0.9848
3.0771 -2.0358 -0.9777 0.9848
3.1260 -2.0030 -0.9838 0.9848
3.3196 -1.7375 -0.9928 0.9846
3.4152 -1.5405 -0.9928 0.9846
3.4374 -1.4905 -0.9928 0.9846
3.4993 -1.3384 -0.9927 0.9846
3.5875 -1.0793 -0.9927 0.9846
3.6029 -1.0268 -0.9927 0.9846
3.6175 -0.9740 -0.9927 0.9846
3.6443 -0.8679 -0.9927 0.9846
3.6681 -0.7611 -0.9927 0.9846
3.6887 -0.6536 -0.9927 0.9846
3.6979 -0.5996 -0.9927 0.9846
3.7062 -0.5455 -0.9927 0.9846
3.7206 -0.4369 -0.9927 0.9846
3.7317 -0.3280 -0.9927 0.9846
3.7361 -0.2735 -0.9926 0.9846
3.7397 -0.2189 -0.9926 0.9846
3.7425 -0.1641 -0.9926 0.9846
3.7457 -0.0548 -0.9926 0.9846
3.7461 -0.0000 -0.9926 0.9846
3.7445 0.1095 -0.9926 0.9846
3.7425 0.1641 -0.9926 0.9846
3.7397 0.2188 -0.9926 0.9846
3.7265 0.3825 -0.9927 0.9846
3.7206 0.4369 -0.9927 0.9846
3.7063 0.5454 -0.9927 0.9846
3.6979 0.5995 -0.9927 0.9846
3.6681 0.7610 -0.9927 0.9846
3.6313 0.9211 -0.9927 0.9846
3.6174 0.9740 -0.9927 0.9846
3.6029 1.0268 -0.9927 0.9846
3.5875 1.0793 -0.9927 0.9846
3.5184 1.2871 -0.9927 0.9846
3.4794 1.3894 -0.9928 0.9846
3.4587 1.4400 -0.9928 0.9846
3.4374 1.4904 -0.9928 0.9846
3.4152 1.5405 -0.9928 0.9846
3.3446 1.6887 -0.9928 0.9846
3.3196 1.7375 -0.9928 0.9846
3.2938 1.7858 -0.9928 0.9846
3.2125 1.9285 -0.9929 0.9846
3.0633 2.1579 -0.9929 0.9846
3.0315 2.2025 -0.9929 0.9846
2.9991 2.2466 -0.9929 0.9846
2.9660 2.2903 -0.9930 0.9846
2.8273 2.4597 -0.9930 0.9846
2.7911 2.5007 -0.9930 0.9846
2.6789 2.6208 -0.9931 0.9846
2.6404 2.6597 -0.9931 0.9846
2.6013 2.6981 -0.9931 0.9846
2.5616 2.7359 -0.9931 0.9846
2.5214 2.7730 -0.9931 0.9846
2.4807 2.8096 -0.9932 0.9846
2.3976 2.8810 -0.9932 0.9846
2.3553 2.9157 -0.9932 0.9846
2.2692 2.9834 -0.9932 0.9846
2.0455 3.1414 -0.9933 0.9846
1.9529 3.2000 -0.9934 0.9846
1.9060 3.2282 -0.9934 0.9846
1.8587 3.2558 -0.9934 0.9846
1.7143 3.3343 -0.9935 0.9846
1.6162 3.3831 -0.9935 0.9846
1.5666 3.4064 -0.9935 0.9846
1.5167 3.4290 -0.9936 0.9846
1.4665 3.4509 -0.9936 0.9846
1.4159 3.4721 -0.9936 0.9846
1.2625 3.5309 -0.9937 0.9846
1.2108 3.5491 -0.9937 0.9846
1.1066 3.5832 -0.9937 0.9846
0.9486 3.6284 -0.9938 0.9846
0.8422 3.6548 -0.9938 0.9846
0.7887 3.6668 -0.9939 0.9846
0.6813 3.6884 -0.9939 0.9846
0.6274 3.6980 -0.9939 0.9846
0.5191 3.7150 -0.9940 0.9846
0.4647 3.7222 -0.9940 0.9846
0.4103 3.7287 -0.9940 0.9846
0.3012 3.7393 -0.9940 0.9846
0.1370 3.7491 -0.9941 0.9846
0.0822 3.7508 -0.9941 0.9846
-0.0822 3.7511 -0.9942 0.9846
-0.1370 3.7496 -0.9942 0.9846
-0.1918 3.7472 -0.9943 0.9846
-0.2465 3.7441 -0.9943 0.9846
-0.3012 3.7402 -0.9943 0.9846
-0.4104 3.7300 -0.9943 0.9846
-0.4649 3.7236 -0.9944 0.9846
-0.6276 3.7000 -0.9944 0.9846
-0.7355 3.6802 -0.9945 0.9846
-0.8428 3.6573 -0.9945 0.9846
-0.8962 3.6446 -0.9945 0.9846
-0.9493 3.6313 -0.9946 0.9846
-1.0023 3.6171 -0.9946 0.9846
-1.0551 3.6021 -0.9946 0.9846
-1.1599 3.5699 -0.9946 0.9846
-1.2120 3.5527 -0.9947 0.9846
-1.3154 3.5159 -0.9947 0.9846
-1.3666 3.4963 -0.9947 0.9846
-0.2783 0.5825 -0.1711 0.9973
-0.2812 0.5469 -0.1629 0.9975
-0.2846 0.5343 -0.1604 0.9975
-0.2879 0.5220 -0.1580 0.9975
-0.2941 0.4982 -0.1533 0.9976
-0.3024 0.4645 -0.1469 0.9977
-0.3050 0.4537 -0.1449 0.9977
-0.3076 0.4435 -0.1430 0.9978
-0.3105 0.4341 -0.1414 0.9978
-0.3187 0.4066 -0.1369 0.9979
-0.3212 0.3977 -0.1355 0.9979
-0.3261 0.3804 -0.1328 0.9979
-0.3330 0.3557 -0.1291 0.9980
-0.3351 0.3476 -0.1280 0.9980
-0.3371 0.3395 -0.1268 0.9980
-0.3400 0.3230 -0.1243 0.9981
-0.3414 0.3150 -0.1231 0.9981
-0.3427 0.3071 -0.1219 0.9981
-0.3451 0.2915 -0.1197 0.9981
-0.3463 0.2839 -0.1187 0.9981
-0.3494 0.2617 -0.1157 0.9982
-0.3520 0.2404 -0.1130 0.9982
-0.3535 0.2266 -0.1113 0.9983
-0.3542 0.2197 -0.1105 0.9983
-0.3555 0.2064 -0.1089 0.9983
-0.3566 0.1933 -0.1075 0.9983
-0.3574 0.1871 -0.1069 0.9983
-0.3592 0.1748 -0.1059 0.9983
-0.3600 0.1688 -0.1054 0.9984
-0.3612 0.1566 -0.1043 0.9984
-0.3617 0.1506 -0.1038 0.9984
-0.3622 0.1446 -0.1034 0.9984
-0.3627 0.1387 -0.1029 0.9984
-0.3642 0.1154 -0.1012 0.9984
-0.3645 0.1096 -0.1009 0.9984
-0.3647 0.1039 -0.1005 0.9984
-0.3652 0.0926 -0.0998 0.9984
-0.3653 0.0870 -0.0995 0.9984
-0.3655 0.0814 -0.0992 0.9985
-0.3657 0.0648 -0.0984 0.9985
-0.3657 0.0538 -0.0979 0.9985
-0.3655 0.0429 -0.0975 0.9985
-0.3654 0.0375 -0.0973 0.9985
-0.3649 0.0213 -0.0969 0.9985
-0.3644 0.0106 -0.0966 0.9985
-0.3641 0.0053 -0.0965 0.9985
-0.3577 -0.0000 -0.0990 0.9985
-0.3580 -0.0053 -0.0991 0.9985
-0.3583 -0.0105 -0.0993 0.9985
-0.3588 -0.0210 -0.0995 0.9985
-0.3590 -0.0263 -0.0997 0.9985
-0.3591 -0.0316 -0.0998 0.9985
-0.3592 -0.0369 -0.1000 0.9985
-0.3594 -0.0583 -0.1008 0.9985
-0.3594 -0.0691 -0.1013 0.9985
-0.3592 -0.0800 -0.1019 0.9985
-0.3588 -0.0911 -0.1025 0.9985
-0.3586 -0.0965 -0.1028 0.9985
-0.3584 -0.1021 -0.1032 0.9985
-0.3581 -0.1078 -0.1035 0.9984
-0.3578 -0.1134 -0.1039 0.9984
-0.3571 -0.1247 -0.1047 0.9984
-0.3546 -0.1538 -0.1070 0.9984
-0.3526 -0.1716 -0.1086 0.9984
-0.3517 -0.1776 -0.1091 0.9984
-0.3508 -0.1837 -0.1096 0.9984
-0.3485 -0.2024 -0.1116 0.9983
-0.3479 -0.2088 -0.1123 0.9983
-0.3449 -0.2355 -0.1156 0.9983
-0.3431 -0.2492 -0.1174 0.9982
-0.3421 -0.2562 -0.1183 0.9982
-0.3411 -0.2634 -0.1193 0.9982
-0.3400 -0.2706 -0.1203 0.9982
-0.3389 -0.2779 -0.1213 0.9982
-0.3377 -0.2853 -0.1224 0.9982
-0.3365 -0.2927 -0.1235 0.9982
-0.3352 -0.3004 -0.1246 0.9981
-0.3232 -0.3555 -0.1330 0.9980
-0.3209 -0.3636 -0.1343 0.9980
-0.3185 -0.3716 -0.1355 0.9980
-0.3161 -0.3798 -0.1368 0.9980
-0.3083 -0.4055 -0.1410 0.9979
-0.3028 -0.4232 -0.1441 0.9978
-0.2998 -0.4323 -0.1457 0.9978
-0.2968 -0.4416 -0.1473 0.9978
-0.2936 -0.4510 -0.1490 0.9978
-0.2907 -0.4610 -0.1509 0.9977
-0.2878 -0.4717 -0.1530 0.9977
-0.2819 -0.4937 -0.1574 0.9976
-0.2787 -0.5052 -0.1597 0.9976
-0.2753 -0.5168 -0.1621 0.9976
-0.2682 -0.5409 -0.1672 0.9975
-0.2644 -0.5534 -0.1698 0.9975
-0.2604 -0.5662 -0.1726 0.9974
-0.2662 -0.6018 -0.1822 0.9973
-1.2878 -3.2948 -0.9795 0.9854
-1.2395 -3.3132 -0.9794 0.9854
-1.1910 -3.3309 -0.9794 0.9854
-1.1421 -3.3479 -0.9794 0.9854
-1.0931 -3.3641 -0.9794 0.9854
-1.0437 -3.3797 -0.9794 0.9854
-0.9942 -3.3945 -0.9793 0.9854
-0.8946 -3.4220 -0.9793 0.9854
-0.7942 -3.4465 -0.9793 0.9854
-0.6931 -3.4681 -0.9792 0.9854
-0.5915 -3.4867 -0.9792 0.9854
-0.3702 -2.9655 -0.8275 0.9877
-0.3197 -2.9061 -0.8095 0.9879
-0.2774 -2.9123 -0.8100 0.9879
-0.1498 -2.9278 -0.8117 0.9879
-0.0627 -2.8614 -0.7924 0.9882
-0.0178 -2.4393 -0.6754 0.9899
0.0179 -2.4520 -0.6789 0.9899
0.0540 -2.4651 -0.6827 0.9898
0.0864 -2.3626 -0.6546 0.9902
0.1584 -2.4048 -0.6673 0.9900
0.2718 -2.4700 -0.6880 0.9897
0.3088 -2.4737 -0.6902 0.9897
0.3406 -2.4378 -0.6815 0.9898
0.3784 -2.4469 -0.6855 0.9898
0.4082 -2.4064 -0.6758 0.9899
0.4784 -2.3939 -0.6759 0.9899
0.5708 -2.3213 -0.6619 0.9901
0.6001 -2.2953 -0.6569 0.9902
0.6138 -2.2150 -0.6364 0.9905
0.6220 -2.1237 -0.6127 0.9909
0.7122 -2.1918 -0.6381 0.9905
0.7390 -2.1661 -0.6337 0.9905
0.7653 -2.1404 -0.6294 0.9906
0.8166 -2.0891 -0.6210 0.9907
0.8415 -2.0636 -0.6170 0.9908
0.8661 -2.0380 -0.6131 0.9909
0.9138 -1.9871 -0.6056 0.9910
0.9371 -1.9617 -0.6019 0.9910
1.5695 -3.1656 -0.9783 0.9854
1.6156 -3.1423 -0.9783 0.9854
1.7066 -3.0936 -0.9782 0.9854
1.7516 -3.0683 -0.9782 0.9854
1.7962 -3.0423 -0.9782 0.9854
1.8405 -3.0157 -0.9782 0.9854
1.8843 -2.9884 -0.9782 0.9854
2.0133 -2.9029 -0.9781 0.9854
2.0555 -2.8730 -0.9781 0.9854
2.0972 -2.8426 -0.9781 0.9854
2.1385 -2.8116 -0.9781 0.9854
2.2196 -2.7479 -0.9780 0.9854
2.2989 -2.6818 -0.9780 0.9854
2.3762 -2.6134 -0.9780 0.9854
2.4883 -2.5066 -0.9779 0.9854
2.5957 -2.3950 -0.9779 0.9854
2.7310 -2.2392 -0.9778 0.9854
2.7952 -2.1584 -0.9778 0.9854
2.8264 -2.1173 -0.9778 0.9854
2.8570 -2.0757 -0.9778 0.9854
2.9351 -2.0041 -0.9840 0.9854
2.9910 -1.9788 -0.9930 0.9852
3.0195 -1.9348 -0.9929 0.9852
3.0474 -1.8905 -0.9929 0.9852
3.1013 -1.8006 -0.9929 0.9852
3.1272 -1.7551 -0.9929 0.9852
3.2468 -1.5221 -0.9928 0.9852
3.3103 -1.3783 -0.9928 0.9852
3.3301 -1.3298 -0.9928 0.9852
3.3675 -1.2318 -0.9928 0.9852
3.3851 -1.1825 -0.9928 0.9852
3.4020 -1.1329 -0.9928 0.9852
3.4182 -1.0831 -0.9928 0.9852
3.4336 -1.0331 -0.9928 0.9852
3.4483 -0.9827 -0.9928 0.9852
3.4755 -0.8816 -0.9928 0.9852
3.4997 -0.7796 -0.9927 0.9852
3.5107 -0.7284 -0.9927 0.9852
3.5210 -0.6770 -0.9927 0.9852
3.5305 -0.6255 -0.9927 0.9852
3.5472 -0.5220 -0.9927 0.9852
3.5545 -0.4702 -0.9927 0.9852
3.5610 -0.4182 -0.9927 0.9852
3.5716 -0.3139 -0.9927 0.9852
3.5758 -0.2617 -0.9927 0.9852
3.5820 -0.1571 -0.9927 0.9852
3.5839 -0.1047 -0.9927 0.9852
3.5850 -0.0524 -0.9927 0.9852
3.5854 -0.0000 -0.9927 0.9852
3.5820 0.1571 -0.9927 0.9852
3.5793 0.2094 -0.9927 0.9852
3.5610 0.4182 -0.9927 0.9852
3.5545 0.4701 -0.9927 0.9852
3.5305 0.6254 -0.9927 0.9852
3.5210 0.6770 -0.9927 0.9852
3.5107 0.7284 -0.9927 0.9852
3.4997 0.7796 -0.9927 0.9852
3.4880 0.8306 -0.9927 0.9852
3.4181 1.0830 -0.9928 0.9852
3.3851 1.1825 -0.9928 0.9852
3.3674 1.2318 -0.9928 0.9852
3.3491 1.2809 -0.9928 0.9852
3.3301 1.3298 -0.9928 0.9852
3.3104 1.3783 -0.9928 0.9852
3.2468 1.5220 -0.9928 0.9852
3.2010 1.6163 -0.9929 0.9852
3.1771 1.6629 -0.9929 0.9852
3.1525 1.7091 -0.9929 0.9852
3.1272 1.7551 -0.9929 0.9852
3.0747 1.8457 -0.9929 0.9852
3.0474 1.8905 -0.9929 0.9852
2.9909 1.9788 -0.9930 0.9852
2.9319 2.0654 -0.9930 0.9852
2.9015 2.1080 -0.9930 0.9852
2.8704 2.1502 -0.9930 0.9852
2.7400 2.3143 -0.9931 0.9852
2.6361 2.4323 -0.9931 0.9852
2.6003 2.4706 -0.9931 0.9852
2.5640 2.5084 -0.9931 0.9852
2.3742 2.6890 -0.9932 0.9852
2.2947 2.7573 -0.9932 0.9852
2.2542 2.7906 -0.9933 0.9852
2.1718 2.8554 -0.9933 0.9852
2.1299 2.8868 -0.9933 0.9852
2.0875 2.9177 -0.9933 0.9852
2.0447 2.9480 -0.9933 0.9852
1.9136 3.0349 -0.9934 0.9852
1.8242 3.0896 -0.9934 0.9852
1.7789 3.1160 -0.9934 0.9852
1.6407 3.1912 -0.9935 0.9852
1.5468 3.2379 -0.9935 0.9852
1.4516 3.2818 -0.9936 0.9852
1.4035 3.3027 -0.9936 0.9852
1.3551 3.3230 -0.9936 0.9852
1.2083 3.3794 -0.9937 0.9852
1.1091 3.4134 -0.9937 0.9852
1.0089 3.4445 -0.9938 0.9852
0.8571 3.4855 -0.9938 0.9852
0.7549 3.5093 -0.9939 0.9852
0.6520 3.5300 -0.9939 0.9852
0.4447 3.5623 -0.9940 0.9852
0.1312 3.5881 -0.9941 0.9852
0.0787 3.5896 -0.9941 0.9852
-0.0262 3.5906 -0.9942 0.9852
-0.0787 3.5899 -0.9942 0.9852
-0.1836 3.5862 -0.9942 0.9852
-0.2883 3.5795 -0.9943 0.9852
-0.4970 3.5568 -0.9944 0.9852
-0.5489 3.5493 -0.9944 0.9852
-0.6007 3.5409 -0.9944 0.9852
-0.7553 3.5115 -0.9945 0.9852
-0.8066 3.5001 -0.9945 0.9852
-0.8576 3.4880 -0.9945 0.9852
-0.9592 3.4616 -0.9946 0.9852
-1.3079 3.3461 -0.9947 0.9852
-0.2857 0.7005 -0.2095 0.9969
-0.2662 0.6018 -0.1822 0.9973
-0.2849 0.4826 -0.1552 0.9977
-0.2937 0.4509 -0.1490 0.9978
-0.2968 0.4416 -0.1473 0.9978
-0.2999 0.4323 -0.1457 0.9978
-0.3028 0.4232 -0.1441 0.9978
-0.3110 0.3968 -0.1396 0.9979
-0.3136 0.3882 -0.1382 0.9979
-0.3161 0.3798 -0.1368 0.9980
-0.3185 0.3716 -0.1355 0.9980
-0.3233 0.3555 -0.1330 0.9980
-0.3255 0.3476 -0.1319 0.9980
-0.3276 0.3398 -0.1307 0.9980
-0.3309 0.3237 -0.1282 0.9981
-0.3338 0.3080 -0.1258 0.9981
-0.3377 0.2852 -0.1224 0.9982
-0.3400 0.2705 -0.1203 0.9982
-0.3411 0.2634 -0.1193 0.9982
-0.3421 0.2562 -0.1183 0.9982
-0.3431 0.2493 -0.1174 0.9982
-0.3449 0.2355 -0.1156 0.9983
-0.3457 0.2287 -0.1148 0.9983
-0.3464 0.2220 -0.1139 0.9983
-0.3485 0.2023 -0.1116 0.9983
-0.3491 0.1959 -0.1108 0.9983
-0.3499 0.1897 -0.1102 0.9983
-0.3517 0.1776 -0.1091 0.9984
-0.3526 0.1716 -0.1086 0.9984
-0.3534 0.1657 -0.1081 0.9984
-0.3547 0.1538 -0.1070 0.9984
-0.3552 0.1479 -0.1065 0.9984
-0.3562 0.1362 -0.1056 0.9984
-0.3575 0.1190 -0.1043 0.9984
-0.3587 0.0966 -0.1028 0.9985
-0.3588 0.0910 -0.1025 0.9985
-0.3593 0.0745 -0.1016 0.9985
-0.3594 0.0691 -0.1013 0.9985
-0.3594 0.0636 -0.1011 0.9985
-0.3594 0.0583 -0.1008 0.9985
-0.3594 0.0529 -0.1006 0.9985
-0.3594 0.0475 -0.1004 0.9985
-0.3592 0.0368 -0.1000 0.9985
-0.3591 0.0316 -0.0998 0.9985
-0.3586 0.0157 -0.0994 0.9985
-0.3521 -0.0052 -0.1017 0.9985
-0.3526 -0.0155 -0.1019 0.9985
-0.3528 -0.0206 -0.1021 0.9985
-0.3531 -0.0311 -0.1024 0.9985
-0.3533 -0.0415 -0.1028 0.9985
-0.3533 -0.0679 -0.1039 0.9985
-0.3532 -0.0733 -0.1042 0.9985
-0.3529 -0.0841 -0.1048 0.9985
-0.3527 -0.0895 -0.1051 0.9985
-0.3525 -0.0949 -0.1054 0.9985
-0.3522 -0.1004 -0.1058 0.9985
-0.3519 -0.1059 -0.1061 0.9985
-0.3512 -0.1170 -0.1069 0.9985
-0.3489 -0.1453 -0.1092 0.9984
-0.3483 -0.1511 -0.1097 0.9984
-0.3477 -0.1568 -0.1102 0.9984
-0.3435 -0.1862 -0.1128 0.9984
-0.3425 -0.1922 -0.1134 0.9984
-0.3417 -0.1984 -0.1141 0.9984
-0.3404 -0.2111 -0.1157 0.9983
-0.3396 -0.2176 -0.1165 0.9983
-0.3388 -0.2241 -0.1173 0.9983
-0.3379 -0.2307 -0.1182 0.9983
-0.3370 -0.2374 -0.1191 0.9983
-0.3351 -0.2510 -0.1209 0.9983
-0.3340 -0.2579 -0.1219 0.9982
-0.3329 -0.2649 -0.1229 0.9982
-0.3317 -0.2720 -0.1239 0.9982
-0.3305 -0.2792 -0.1250 0.9982
-0.3292 -0.2864 -0.1261 0.9982
-0.3265 -0.3013 -0.1283 0.9982
-0.3250 -0.3089 -0.1295 0.9981
-0.3219 -0.3243 -0.1320 0.9981
-0.3203 -0.3322 -0.1333 0.9981
-0.3183 -0.3399 -0.1345 0.9981
-0.3160 -0.3476 -0.1357 0.9980
-0.3113 -0.3631 -0.1382 0.9980
-0.3088 -0.3711 -0.1394 0.9980
-0.2862 -0.4396 -0.1515 0.9978
-0.2762 -0.4679 -0.1569 0.9977
-0.2665 -0.5004 -0.1637 0.9976
-0.2630 -0.5116 -0.1662 0.9976
-0.2594 -0.5232 -0.1687 0.9976
-0.2475 -0.5595 -0.1767 0.9975
-0.2456 -0.5781 -0.1814 0.9974
-1.1881 -3.1759 -0.9794 0.9860
-1.1416 -3.1929 -0.9794 0.9860
-1.0948 -3.2091 -0.9794 0.9860
-1.0005 -3.2396 -0.9793 0.9860
-0.9530 -3.2538 -0.9793 0.9860
-0.8575 -3.2801 -0.9793 0.9860
-0.7129 -3.3143 -0.9792 0.9860
-0.6157 -3.3336 -0.9792 0.9860
-0.2669 -2.8021 -0.8130 0.9883
-0.2261 -2.8075 -0.8135 0.9883
-0.1852 -2.8123 -0.8141 0.9883
-0.0894 -2.4484 -0.7077 0.9899
-0.0539 -2.4609 -0.7110 0.9898
-0.0181 -2.4737 -0.7145 0.9898
0.0182 -2.4869 -0.7183 0.9897
0.0852 -2.3317 -0.6740 0.9903
0.1204 -2.3521 -0.6803 0.9902
0.2663 -2.4207 -0.7034 0.9899
0.3007 -2.4083 -0.7010 0.9899
0.3347 -2.3956 -0.6987 0.9900
0.3685 -2.3826 -0.6964 0.9900
0.4020 -2.3694 -0.6942 0.9900
0.4346 -2.3529 -0.6911 0.9901
0.4653 -2.3280 -0.6857 0.9902
0.4954 -2.3031 -0.6805 0.9902
0.5250 -2.2784 -0.6753 0.9903
0.5827 -2.2288 -0.6654 0.9905
0.6084 -2.1957 -0.6581 0.9906
0.7440 -2.0809 -0.6383 0.9908
0.7693 -2.0563 -0.6342 0.9909
0.7942 -2.0318 -0.6301 0.9910
0.8662 -1.9583 -0.6185 0.9911
1.4152 -3.0773 -0.9784 0.9860
1.5925 -2.9891 -0.9783 0.9860
1.6791 -2.9412 -0.9783 0.9860
1.7642 -2.8909 -0.9782 0.9860
1.8063 -2.8647 -0.9782 0.9860
1.8479 -2.8379 -0.9782 0.9860
1.8891 -2.8106 -0.9782 0.9860
1.9704 -2.7541 -0.9781 0.9860
2.1278 -2.6341 -0.9781 0.9860
2.2038 -2.5707 -0.9780 0.9860
2.2410 -2.5382 -0.9780 0.9860
2.3142 -2.4716 -0.9780 0.9860
2.4202 -2.3677 -0.9779 0.9860
2.4883 -2.2959 -0.9779 0.9860
2.5864 -2.1846 -0.9779 0.9860
2.6180 -2.1465 -0.9779 0.9860
2.6490 -2.1080 -0.9779 0.9860
2.6795 -2.0690 -0.9778 0.9860
2.7094 -2.0296 -0.9778 0.9860
2.8106 -1.9799 -0.9930 0.9858
2.8392 -1.9386 -0.9930 0.9858
2.8672 -1.8969 -0.9930 0.9858
2.8946 -1.8548 -0.9930 0.9858
2.9213 -1.8123 -0.9930 0.9858
2.9729 -1.7261 -0.9930 0.9858
2.9978 -1.6825 -0.9930 0.9858
3.0220 -1.6385 -0.9929 0.9858
3.0686 -1.5494 -0.9929 0.9858
3.1125 -1.4591 -0.9929 0.9858
3.1537 -1.3675 -0.9929 0.9858
3.1923 -1.2747 -0.9929 0.9858
3.2281 -1.1809 -0.9929 0.9858
3.2450 -1.1336 -0.9929 0.9858
3.3190 -0.8936 -0.9928 0.9858
3.3436 -0.7963 -0.9928 0.9858
3.3844 -0.5996 -0.9928 0.9858
3.4005 -0.5004 -0.9928 0.9858
3.4074 -0.4507 -0.9928 0.9858
3.4279 -0.2509 -0.9928 0.9858
3.4312 -0.2008 -0.9928 0.9858
3.4337 -0.1506 -0.9928 0.9858
3.4367 -0.0502 -0.9928 0.9858
3.4371 0.0000 -0.9928 0.9858
3.4312 0.2008 -0.9928 0.9858
3.4239 0.3009 -0.9928 0.9858
3.4191 0.3509 -0.9928 0.9858
3.4136 0.4009 -0.9928 0.9858
3.4074 0.4507 -0.9928 0.9858
3.4005 0.5004 -0.9928 0.9858
3.3928 0.5500 -0.9928 0.9858
3.3844 0.5996 -0.9928 0.9858
3.3190 0.8937 -0.9928 0.9858
3.2450 1.1336 -0.9928 0.9858
3.1923 1.2747 -0.9929 0.9858
3.1537 1.3675 -0.9929 0.9858
3.1125 1.4591 -0.9929 0.9858
3.0908 1.5043 -0.9929 0.9858
3.0686 1.5494 -0.9929 0.9858
3.0456 1.5941 -0.9929 0.9858
2.9729 1.7261 -0.9930 0.9858
2.8945 1.8547 -0.9930 0.9858
2.8671 1.8969 -0.9930 0.9858
2.7813 2.0208 -0.9930 0.9858
2.7516 2.0612 -0.9930 0.9858
2.6902 2.1408 -0.9931 0.9858
2.6587 2.1799 -0.9931 0.9858
2.6266 2.2186 -0.9931 0.9858
2.5939 2.2567 -0.9931 0.9858
2.5607 2.2944 -0.9931 0.9858
2.4927 2.3683 -0.9932 0.9858
2.4225 2.4402 -0.9932 0.9858
2.3502 2.5100 -0.9932 0.9858
2.2381 2.6107 -0.9933 0.9858
2.1997 2.6432 -0.9933 0.9858
2.1609 2.6751 -0.9933 0.9858
2.1216 2.7064 -0.9933 0.9858
2.0818 2.7372 -0.9933 0.9858
2.0011 2.7970 -0.9934 0.9858
1.9600 2.8259 -0.9934 0.9858
1.7917 2.9357 -0.9934 0.9858
1.7487 2.9617 -0.9935 0.9858
1.7052 2.9870 -0.9935 0.9858
1.6173 3.0357 -0.9935 0.9858
1.5728 3.0590 -0.9935 0.9858
1.5279 3.0818 -0.9935 0.9858
1.4828 3.1038 -0.9936 0.9858
1.4373 3.1252 -0.9936 0.9858
1.3454 3.1659 -0.9936 0.9858
1.2990 3.1854 -0.9936 0.9858
1.1108 3.2561 -0.9937 0.9858
0.9188 3.3157 -0.9938 0.9858
0.8703 3.3287 -0.9938 0.9858
0.7727 3.3529 -0.9939 0.9858
0.7236 3.3639 -0.9939 0.9858
0.6744 3.3742 -0.9939 0.9858
0.6250 3.3838 -0.9939 0.9858
0.5755 3.3926 -0.9939 0.9858
0.2763 3.4304 -0.9941 0.9858
0.2261 3.4341 -0.9941 0.9858
0.1760 3.4371 -0.9941 0.9858
0.1257 3.4395 -0.9941 0.9858
0.0251 3.4418 -0.9942 0.9858
-0.0754 3.4411 -0.9942 0.9858
-0.1257 3.4398 -0.9942 0.9858
-0.2262 3.4348 -0.9943 0.9858
-0.2763 3.4311 -0.9943 0.9858
-0.3265 3.4268 -0.9943 0.9858
-0.3765 3.4218 -0.9943 0.9858
-0.5758 3.3942 -0.9944 0.9858
-0.6253 3.3855 -0.9944 0.9858
-0.6747 3.3761 -0.9944 0.9858
-0.8221 3.3435 -0.9945 0.9858
-0.8709 3.3311 -0.9945 0.9858
-0.9679 3.3044 -0.9946 0.9858
-1.0161 3.2900 -0.9946 0.9858
-0.2516 0.5471 -0.1739 0.9975
-0.2665 0.5003 -0.1637 0.9976
-0.2699 0.4893 -0.1614 0.9977
-0.2762 0.4678 -0.1569 0.9977
-0.2829 0.4487 -0.1532 0.9978
-0.2862 0.4395 -0.1515 0.9978
-0.2982 0.4042 -0.1451 0.9979
-0.3010 0.3957 -0.1436 0.9979
-0.3036 0.3873 -0.1422 0.9980
-0.3088 0.3711 -0.1394 0.9980
-0.3113 0.3631 -0.1382 0.9980
-0.3160 0.3475 -0.1357 0.9980
-0.3183 0.3399 -0.1345 0.9981
-0.3203 0.3322 -0.1333 0.9981
-0.3220 0.3243 -0.1320 0.9981
-0.3235 0.3165 -0.1307 0.9981
-0.3265 0.3013 -0.1283 0.9982
-0.3293 0.2864 -0.1261 0.9982
-0.3305 0.2792 -0.1250 0.9982
-0.3318 0.2720 -0.1239 0.9982
-0.3340 0.2579 -0.1219 0.9982
-0.3361 0.2441 -0.1200 0.9983
-0.3370 0.2374 -0.1191 0.9983
-0.3379 0.2307 -0.1182 0.9983
-0.3388 0.2241 -0.1173 0.9983
-0.3396 0.2176 -0.1165 0.9983
-0.3403 0.2111 -0.1157 0.9983
-0.3410 0.2047 -0.1149 0.9983
-0.3417 0.1984 -0.1141 0.9984
-0.3424 0.1922 -0.1134 0.9984
-0.3435 0.1862 -0.1128 0.9984
-0.3499 0.1338 -0.1082 0.9984
-0.3504 0.1282 -0.1078 0.9984
-0.3508 0.1225 -0.1073 0.9985
-0.3512 0.1170 -0.1069 0.9985
-0.3516 0.1114 -0.1065 0.9985
-0.3525 0.0949 -0.1054 0.9985
-0.3527 0.0895 -0.1051 0.9985
-0.3529 0.0841 -0.1048 0.9985
-0.3531 0.0786 -0.1045 0.9985
-0.3532 0.0732 -0.1042 0.9985
-0.3533 0.0626 -0.1037 0.9985
-0.3534 0.0573 -0.1034 0.9985
-0.3534 0.0520 -0.1032 0.9985
-0.3534 0.0468 -0.1030 0.9985
-0.3532 0.0362 -0.1026 0.9985
-0.3530 0.0258 -0.1022 0.9985
-0.3528 0.0207 -0.1021 0.9985
-0.3524 0.0103 -0.1018 0.9985
-0.3460 0.0000 -0.1041 0.9986
-0.3463 -0.0051 -0.1042 0.9986
-0.3466 -0.0101 -0.1043 0.9986
-0.3468 -0.0152 -0.1045 0.9986
-0.3471 -0.0254 -0.1047 0.9985
-0.3473 -0.0305 -0.1049 0.9985
-0.3475 -0.0408 -0.1053 0.9985
-0.3475 -0.0460 -0.1055 0.9985
-0.3475 -0.0511 -0.1057 0.9985
-0.3475 -0.0564 -0.1059 0.9985
-0.3474 -0.0668 -0.1064 0.9985
-0.3469 -0.0826 -0.1073 0.9985
-0.3467 -0.0880 -0.1076 0.9985
-0.3462 -0.0987 -0.1083 0.9985
-0.3452 -0.1150 -0.1095 0.9985
-0.3448 -0.1204 -0.1099 0.9985
-0.3438 -0.1315 -0.1108 0.9985
-0.3433 -0.1371 -0.1112 0.9985
-0.3428 -0.1427 -0.1117 0.9985
-0.3422 -0.1484 -0.1122 0.9984
-0.3408 -0.1598 -0.1133 0.9984
-0.3372 -0.1828 -0.1154 0.9984
-0.3362 -0.1887 -0.1160 0.9984
-0.3329 -0.2134 -0.1190 0.9983
-0.3321 -0.2197 -0.1198 0.9983
-0.3312 -0.2262 -0.1207 0.9983
-0.3303 -0.2327 -0.1216 0.9983
-0.3248 -0.2664 -0.1264 0.9982
-0.3223 -0.2804 -0.1285 0.9982
-0.3195 -0.2948 -0.1308 0.9982
-0.3180 -0.3021 -0.1320 0.9982
-0.3148 -0.3171 -0.1345 0.9981
-0.3131 -0.3248 -0.1358 0.9981
-0.3113 -0.3325 -0.1371 0.9981
-0.3091 -0.3399 -0.1382 0.9981
-0.3067 -0.3474 -0.1394 0.9981
-0.3043 -0.3550 -0.1407 0.9980
-0.3018 -0.3627 -0.1420 0.9980
-0.2992 -0.3705 -0.1433 0.9980
-0.2966 -0.3784 -0.1446 0.9980
-0.2938 -0.3864 -0.1461 0.9980
-0.2911 -0.3946 -0.1475 0.9980
-0.2853 -0.4114 -0.1506 0.9979
-0.2758 -0.4375 -0.1556 0.9978
-0.2724 -0.4464 -0.1574 0.9978
-0.2653 -0.4648 -0.1610 0.9978
-0.2583 -0.4848 -0.1653 0.9977
-0.2473 -0.5176 -0.1726 0.9976
-0.2433 -0.5291 -0.1752 0.9976
-0.2348 -0.5527 -0.1807 0.9975
-0.2321 -0.5940 -0.1919 0.9973
-0.2382 -0.6369 -0.2046 0.9972
-0.2450 -0.6855 -0.2190 0.9970
-1.0509 -3.0806 -0.9794 0.9865
-0.9604 -3.1098 -0.9793 0.9865
-0.8691 -3.1364 -0.9793 0.9865
-0.7771 -3.1604 -0.9793 0.9865
-0.6844 -3.1816 -0.9792 0.9865
-0.6378 -3.1912 -0.9792 0.9865
-0.5911 -3.2001 -0.9792 0.9865
-0.5443 -3.2084 -0.9792 0.9865
-0.4031 -3.2289 -0.9791 0.9865
-0.2791 -2.9293 -0.8854 0.9878
-0.2375 -2.9484 -0.8900 0.9877
-0.1784 -2.7090 -0.8169 0.9887
-0.1389 -2.7131 -0.8174 0.9887
-0.0648 -2.9568 -0.8899 0.9877
-0.0183 -2.5094 -0.7551 0.9896
0.1188 -2.3213 -0.6994 0.9903
0.2257 -2.3695 -0.7162 0.9901
0.2594 -2.3578 -0.7137 0.9901
0.2929 -2.3459 -0.7113 0.9902
0.3590 -2.3213 -0.7067 0.9902
0.3914 -2.3073 -0.7042 0.9903
0.4811 -2.2364 -0.6883 0.9905
0.5100 -2.2129 -0.6833 0.9906
0.5383 -2.1892 -0.6783 0.9906
0.5936 -2.1421 -0.6688 0.9908
0.6117 -2.0882 -0.6547 0.9910
0.6730 -2.0714 -0.6553 0.9909
0.6986 -2.0478 -0.6510 0.9910
0.7238 -2.0243 -0.6468 0.9911
0.7485 -2.0007 -0.6427 0.9911
0.7728 -1.9772 -0.6387 0.9912
0.8528 -2.0911 -0.6795 0.9906
1.4016 -2.9340 -0.9784 0.9865
1.4867 -2.8917 -0.9783 0.9865
1.6119 -2.8236 -0.9783 0.9865
1.6937 -2.7752 -0.9782 0.9865
1.7740 -2.7244 -0.9782 0.9865
1.8916 -2.6439 -0.9782 0.9865
2.2560 -2.3400 -0.9780 0.9865
2.3234 -2.2730 -0.9780 0.9865
2.3563 -2.2387 -0.9780 0.9865
2.4207 -2.1689 -0.9779 0.9865
2.4829 -2.0972 -0.9779 0.9865
2.5133 -2.0607 -0.9779 0.9865
2.5431 -2.0237 -0.9779 0.9865
2.6416 -1.9788 -0.9931 0.9863
2.6982 -1.9007 -0.9931 0.9863
2.7257 -1.8611 -0.9931 0.9863
2.7525 -1.8210 -0.9931 0.9863
2.7788 -1.7806 -0.9930 0.9863
2.8045 -1.7398 -0.9930 0.9863
2.8296 -1.6986 -0.9930 0.9863
2.8541 -1.6571 -0.9930 0.9863
2.9238 -1.5304 -0.9930 0.9863
2.9459 -1.4875 -0.9930 0.9863
2.9880 -1.4007 -0.9930 0.9863
3.0465 -1.2684 -0.9929 0.9863
3.0822 -1.1789 -0.9929 0.9863
3.1457 -0.9968 -0.9929 0.9863
3.1599 -0.9507 -0.9929 0.9863
3.1985 -0.8113 -0.9929 0.9863
3.2100 -0.7645 -0.9929 0.9863
3.2491 -0.5756 -0.9928 0.9863
3.2645 -0.4804 -0.9928 0.9863
3.2712 -0.4327 -0.9928 0.9863
3.2772 -0.3848 -0.9928 0.9863
3.2824 -0.3369 -0.9928 0.9863
3.2870 -0.2889 -0.9928 0.9863
3.2909 -0.2409 -0.9928 0.9863
3.2940 -0.1928 -0.9928 0.9863
3.2965 -0.1446 -0.9928 0.9863
3.2982 -0.0964 -0.9928 0.9863
3.2993 -0.0482 -0.9928 0.9863
3.2997 0.0000 -0.9928 0.9863
3.2993 0.0482 -0.9928 0.9863
3.2982 0.0964 -0.9928 0.9863
3.2940 0.1928 -0.9928 0.9863
3.2908 0.2408 -0.9928 0.9863
3.2571 0.5280 -0.9928 0.9863
3.2491 0.5757 -0.9928 0.9863
3.2404 0.6230 -0.9929 0.9863
3.2309 0.6703 -0.9929 0.9863
3.1863 0.8579 -0.9929 0.9863
3.1599 0.9507 -0.9929 0.9863
3.1457 0.9967 -0.9929 0.9863
3.1309 1.0426 -0.9929 0.9863
3.0647 1.2237 -0.9929 0.9863
3.0465 1.2684 -0.9929 0.9863
2.9673 1.4442 -0.9930 0.9863
2.9459 1.4874 -0.9930 0.9863
2.9238 1.5304 -0.9930 0.9863
2.7788 1.7806 -0.9930 0.9863
2.7525 1.8210 -0.9930 0.9863
2.7256 1.8611 -0.9931 0.9863
2.6982 1.9007 -0.9931 0.9863
2.6702 1.9400 -0.9931 0.9863
2.6415 1.9788 -0.9931 0.9863
2.6124 2.0172 -0.9931 0.9863
2.5827 2.0552 -0.9931 0.9863
2.5216 2.1298 -0.9931 0.9863
2.4902 2.1664 -0.9932 0.9863
2.4259 2.2384 -0.9932 0.9863
2.3930 2.2736 -0.9932 0.9863
2.3256 2.3426 -0.9932 0.9863
2.2562 2.4096 -0.9933 0.9863
2.1485 2.5063 -0.9933 0.9863
2.1117 2.5375 -0.9933 0.9863
2.0744 2.5680 -0.9933 0.9863
1.9600 2.6567 -0.9934 0.9863
1.9210 2.6851 -0.9934 0.9863
1.8418 2.7401 -0.9934 0.9863
1.8016 2.7668 -0.9934 0.9863
1.7610 2.7929 -0.9935 0.9863
1.7200 2.8184 -0.9935 0.9863
1.6787 2.8432 -0.9935 0.9863
1.6370 2.8675 -0.9935 0.9863
1.5526 2.9142 -0.9935 0.9863
1.5098 2.9367 -0.9936 0.9863
1.3358 3.0201 -0.9936 0.9863
1.2916 3.0393 -0.9936 0.9863
1.2470 3.0579 -0.9937 0.9863
1.2023 3.0758 -0.9937 0.9863
1.1572 3.0932 -0.9937 0.9863
1.0664 3.1258 -0.9937 0.9863
0.9284 3.1696 -0.9938 0.9863
0.8820 3.1829 -0.9938 0.9863
0.7887 3.2075 -0.9939 0.9863
0.7417 3.2188 -0.9939 0.9863
0.6946 3.2293 -0.9939 0.9863
0.6474 3.2391 -0.9939 0.9863
0.6000 3.2483 -0.9939 0.9863
0.5525 3.2568 -0.9939 0.9863
0.2171 3.2966 -0.9941 0.9863
0.1207 3.3017 -0.9941 0.9863
0.0724 3.3032 -0.9941 0.9863
-0.1689 3.3000 -0.9942 0.9863
-0.2171 3.2973 -0.9943 0.9863
-0.2653 3.2938 -0.9943 0.9863
-0.4094 3.2792 -0.9943 0.9863
-0.5051 3.2659 -0.9944 0.9863
-0.5527 3.2583 -0.9944 0.9863
-0.6003 3.2499 -0.9944 0.9863
-0.6477 3.2409 -0.9944 0.9863
-0.6950 3.2311 -0.9945 0.9863
-0.7422 3.2207 -0.9945 0.9863
-0.8827 3.1852 -0.9945 0.9863
-0.9291 3.1721 -0.9946 0.9863
-0.9754 3.1582 -0.9946 0.9863
-1.0215 3.1437 -0.9946 0.9863
-1.0673 3.1285 -0.9946 0.9863
-0.2451 0.6855 -0.2190 0.9970
-0.2383 0.6369 -0.2046 0.9972
-0.2304 0.5649 -0.1836 0.9975
-0.2349 0.5527 -0.1807 0.9975
-0.2433 0.5290 -0.1752 0.9976
-0.2473 0.5176 -0.1726 0.9976
-0.2511 0.5064 -0.1701 0.9976
-0.2616 0.4743 -0.1630 0.9977
-0.2654 0.4648 -0.1610 0.9978
-0.2689 0.4555 -0.1592 0.9978
-0.2853 0.4113 -0.1506 0.9979
-0.2882 0.4029 -0.1491 0.9979
-0.2911 0.3946 -0.1475 0.9980
-0.2939 0.3864 -0.1461 0.9980
-0.3018 0.3626 -0.1420 0.9980
-0.3043 0.3550 -0.1407 0.9980
-0.3067 0.3474 -0.1394 0.9981
-0.3131 0.3248 -0.1358 0.9981
-0.3148 0.3171 -0.1345 0.9981
-0.3164 0.3096 -0.1332 0.9982
-0.3180 0.3021 -0.1320 0.9982
-0.3195 0.2948 -0.1308 0.9982
-0.3209 0.2875 -0.1297 0.9982
-0.3236 0.2733 -0.1275 0.9982
-0.3249 0.2664 -0.1264 0.9982
-0.3261 0.2594 -0.1254 0.9983
-0.3272 0.2526 -0.1244 0.9983
-0.3283 0.2459 -0.1234 0.9983
-0.3293 0.2393 -0.1225 0.9983
-0.3303 0.2327 -0.1216 0.9983
-0.3312 0.2261 -0.1207 0.9983
-0.3321 0.2197 -0.1198 0.9983
-0.3330 0.2133 -0.1190 0.9983
-0.3345 0.2008 -0.1174 0.9984
-0.3362 0.1887 -0.1160 0.9984
-0.3372 0.1828 -0.1154 0.9984
-0.3391 0.1712 -0.1143 0.9984
-0.3400 0.1655 -0.1138 0.9984
-0.3408 0.1598 -0.1133 0.9984
-0.3415 0.1541 -0.1127 0.9984
-0.3428 0.1427 -0.1117 0.9985
-0.3438 0.1315 -0.1108 0.9985
-0.3443 0.1259 -0.1103 0.9985
-0.3452 0.1150 -0.1095 0.9985
-0.3455 0.1095 -0.1091 0.9985
-0.3465 0.0933 -0.1080 0.9985
-0.3471 0.0773 -0.1070 0.9985
-0.3475 0.0616 -0.1062 0.9985
-0.3475 0.0563 -0.1059 0.9985
-0.3475 0.0460 -0.1055 0.9985
-0.3475 0.0408 -0.1053 0.9985
-0.3474 0.0357 -0.1051 0.9985
-0.3473 0.0305 -0.1049 0.9985
-0.3470 0.0203 -0.1046 0.9985
-0.3468 0.0152 -0.1045 0.9986
-0.3466 0.0101 -0.1043 0.9986
-0.3463 0.0050 -0.1042 0.9986
-0.3404 0.0000 -0.1066 0.9986
-0.3407 -0.0050 -0.1067 0.9986
-0.3409 -0.0100 -0.1068 0.9986
-0.3412 -0.0150 -0.1069 0.9986
-0.3415 -0.0250 -0.1072 0.9986
-0.3416 -0.0300 -0.1073 0.9986
-0.3418 -0.0401 -0.1077 0.9986
-0.3418 -0.0452 -0.1079 0.9986
-0.3418 -0.0503 -0.1081 0.9986
-0.3417 -0.0606 -0.1086 0.9985
-0.3416 -0.0657 -0.1089 0.9985
-0.3415 -0.0709 -0.1092 0.9985
-0.3413 -0.0761 -0.1095 0.9985
-0.3411 -0.0812 -0.1098 0.9985
-0.3406 -0.0918 -0.1104 0.9985
-0.3400 -0.1023 -0.1112 0.9985
-0.3379 -0.1293 -0.1132 0.9985
-0.3368 -0.1403 -0.1142 0.9985
-0.3321 -0.1738 -0.1173 0.9984
-0.3311 -0.1795 -0.1179 0.9984
-0.3290 -0.1911 -0.1191 0.9984
-0.3281 -0.1970 -0.1198 0.9984
-0.3257 -0.2155 -0.1222 0.9984
-0.3206 -0.2475 -0.1268 0.9983
-0.3112 -0.2957 -0.1344 0.9982
-0.3000 -0.3398 -0.1419 0.9981
-0.2976 -0.3472 -0.1431 0.9981
-0.2951 -0.3546 -0.1444 0.9981
-0.2925 -0.3621 -0.1457 0.9981
-0.2898 -0.3697 -0.1471 0.9980
-0.2871 -0.3775 -0.1484 0.9980
-0.2843 -0.3854 -0.1499 0.9980
-0.2784 -0.4015 -0.1529 0.9980
-0.2657 -0.4353 -0.1596 0.9979
-0.2549 -0.4620 -0.1652 0.9978
-0.2510 -0.4712 -0.1671 0.9978
-0.2314 -0.5231 -0.1790 0.9976
-0.2132 -0.5698 -0.1904 0.9975
-0.2224 -0.6521 -0.2157 0.9971
-0.7469 -3.0379 -0.9792 0.9870
-0.6579 -3.0584 -0.9792 0.9870
-0.5682 -3.0762 -0.9792 0.9870
-0.3875 -3.1039 -0.9791 0.9870
-0.1929 -2.9296 -0.9190 0.9878
-0.0206 -2.8162 -0.8815 0.9883
0.0183 -2.5031 -0.7835 0.9896
0.0558 -2.5466 -0.7973 0.9894
0.1173 -2.2911 -0.7181 0.9904
0.1877 -2.3302 -0.7318 0.9902
0.2528 -2.2976 -0.7235 0.9904
0.2854 -2.2862 -0.7212 0.9904
0.3178 -2.2745 -0.7189 0.9904
0.3801 -2.2405 -0.7113 0.9905
0.4956 -2.1506 -0.6908 0.9908
0.5233 -2.1282 -0.6860 0.9909
0.5772 -2.0831 -0.6766 0.9910
0.6036 -2.0606 -0.6721 0.9910
0.6146 -1.9898 -0.6519 0.9913
0.6549 -2.0154 -0.6633 0.9912
0.6799 -1.9929 -0.6591 0.9912
0.7749 -2.0711 -0.6922 0.9908
0.8320 -2.0402 -0.6897 0.9908
0.8603 -2.0244 -0.6885 0.9908
1.3060 -2.8398 -0.9784 0.9870
1.3474 -2.8204 -0.9784 0.9870
1.3884 -2.8004 -0.9784 0.9870
1.4696 -2.7585 -0.9783 0.9870
1.5097 -2.7367 -0.9783 0.9870
1.5495 -2.7143 -0.9783 0.9870
1.5890 -2.6913 -0.9783 0.9870
1.6669 -2.6436 -0.9783 0.9870
1.7434 -2.5937 -0.9782 0.9870
1.7811 -2.5679 -0.9782 0.9870
1.8184 -2.5416 -0.9782 0.9870
1.9989 -2.4019 -0.9781 0.9870
2.0338 -2.3724 -0.9781 0.9870
2.1021 -2.3119 -0.9781 0.9870
2.3270 -2.0850 -0.9780 0.9870
2.3887 -2.0176 -0.9787 0.9870
2.4405 -2.0011 -0.9879 0.9869
2.4827 -1.9757 -0.9932 0.9868
2.5113 -1.9391 -0.9932 0.9868
2.5394 -1.9022 -0.9931 0.9868
2.5669 -1.8650 -0.9931 0.9868
2.5938 -1.8272 -0.9931 0.9868
2.6460 -1.7506 -0.9931 0.9868
2.6713 -1.7117 -0.9931 0.9868
2.6960 -1.6725 -0.9931 0.9868
2.7666 -1.5527 -0.9930 0.9868
2.8107 -1.4711 -0.9930 0.9868
2.8319 -1.4299 -0.9930 0.9868
2.8525 -1.3884 -0.9930 0.9868
2.8918 -1.3044 -0.9930 0.9868
2.9105 -1.2620 -0.9930 0.9868
2.9461 -1.1764 -0.9930 0.9868
2.9629 -1.1332 -0.9930 0.9868
2.9792 -1.0898 -0.9930 0.9868
3.0097 -1.0023 -0.9929 0.9868
3.0240 -0.9582 -0.9929 0.9868
3.0748 -0.7799 -0.9929 0.9868
3.1150 -0.5990 -0.9929 0.9868
3.1311 -0.5077 -0.9929 0.9868
3.1446 -0.4160 -0.9929 0.9868
3.1504 -0.3700 -0.9929 0.9868
3.1554 -0.3239 -0.9929 0.9868
3.1598 -0.2777 -0.9929 0.9868
3.1635 -0.2315 -0.9929 0.9868
3.1720 -0.0000 -0.9929 0.9868
3.1635 0.2315 -0.9929 0.9868
3.1504 0.3700 -0.9929 0.9868
3.1312 0.5076 -0.9929 0.9868
3.1234 0.5533 -0.9929 0.9868
3.1059 0.6444 -0.9929 0.9868
3.0858 0.7348 -0.9929 0.9868
3.0747 0.7799 -0.9929 0.9868
3.0630 0.8247 -0.9929 0.9868
3.0507 0.8694 -0.9929 0.9868
3.0240 0.9582 -0.9929 0.9868
2.9947 1.0461 -0.9930 0.9868
2.9792 1.0898 -0.9930 0.9868
2.9629 1.1332 -0.9930 0.9868
2.9286 1.2193 -0.9930 0.9868
2.9105 1.2620 -0.9930 0.9868
2.8319 1.4299 -0.9930 0.9868
2.8107 1.4711 -0.9930 0.9868
2.7666 1.5527 -0.9930 0.9868
2.7436 1.5929 -0.9931 0.9868
2.7201 1.6329 -0.9931 0.9868
2.6960 1.6725 -0.9931 0.9868
2.6460 1.7506 -0.9931 0.9868
2.6201 1.7891 -0.9931 0.9868
2.5393 1.9022 -0.9931 0.9868
2.4827 1.9757 -0.9932 0.9868
2.4240 2.0474 -0.9932 0.9868
2.3320 2.1517 -0.9932 0.9868
2.3004 2.1856 -0.9932 0.9868
2.2682 2.2190 -0.9932 0.9868
2.1689 2.3164 -0.9933 0.9868
2.1003 2.3789 -0.9933 0.9868
2.0654 2.4093 -0.9933 0.9868
2.0300 2.4393 -0.9933 0.9868
1.9942 2.4687 -0.9934 0.9868
1.9212 2.5260 -0.9934 0.9868
1.8841 2.5538 -0.9934 0.9868
1.8467 2.5811 -0.9934 0.9868
1.7705 2.6341 -0.9935 0.9868
1.7318 2.6597 -0.9935 0.9868
1.6928 2.6848 -0.9935 0.9868
1.6137 2.7332 -0.9935 0.9868
1.5332 2.7792 -0.9935 0.9868
1.4925 2.8014 -0.9936 0.9868
1.4514 2.8229 -0.9936 0.9868
1.3264 2.8840 -0.9936 0.9868
1.1988 2.9395 -0.9937 0.9868
1.0688 2.9893 -0.9937 0.9868
1.0251 3.0046 -0.9938 0.9868
0.9811 3.0194 -0.9938 0.9868
0.8925 3.0469 -0.9938 0.9868
0.8479 3.0597 -0.9938 0.9868
0.8031 3.0718 -0.9938 0.9868
0.7581 3.0832 -0.9939 0.9868
0.7130 3.0941 -0.9939 0.9868
0.6223 3.1137 -0.9939 0.9868
0.5768 3.1225 -0.9939 0.9868
0.5311 3.1307 -0.9940 0.9868
0.3934 3.1511 -0.9940 0.9868
0.3473 3.1566 -0.9940 0.9868
0.3012 3.1614 -0.9941 0.9868
0.1624 3.1718 -0.9941 0.9868
0.0232 3.1760 -0.9942 0.9868
-0.0696 3.1754 -0.9942 0.9868
-0.1624 3.1721 -0.9942 0.9868
-0.3012 3.1622 -0.9943 0.9868
-0.3474 3.1575 -0.9943 0.9868
-0.3935 3.1521 -0.9943 0.9868
-0.5770 3.1240 -0.9944 0.9868
-0.6226 3.1153 -0.9944 0.9868
-0.6681 3.1059 -0.9944 0.9868
-0.8036 3.0739 -0.9945 0.9868
-0.8484 3.0618 -0.9945 0.9868
-0.8931 3.0492 -0.9945 0.9868
-0.9376 3.0358 -0.9946 0.9868
-0.2225 0.6521 -0.2157 0.9971
-0.2175 0.6085 -0.2023 0.9973
-0.2132 0.5698 -0.1904 0.9975
-0.2226 0.5460 -0.1846 0.9975
-0.2314 0.5231 -0.1791 0.9976
-0.2355 0.5121 -0.1764 0.9976
-0.2395 0.5012 -0.1739 0.9977
-0.2471 0.4805 -0.1691 0.9977
-0.2510 0.4712 -0.1671 0.9978
-0.2549 0.4620 -0.1652 0.9978
-0.2622 0.4441 -0.1614 0.9978
-0.2656 0.4353 -0.1596 0.9979
-0.2785 0.4015 -0.1529 0.9980
-0.2843 0.3853 -0.1499 0.9980
-0.2871 0.3775 -0.1484 0.9980
-0.2925 0.3621 -0.1457 0.9981
-0.2951 0.3546 -0.1444 0.9981
-0.2976 0.3471 -0.1431 0.9981
-0.3000 0.3398 -0.1419 0.9981
-0.3024 0.3325 -0.1407 0.9981
-0.3045 0.3252 -0.1394 0.9981
-0.3063 0.3176 -0.1381 0.9982
-0.3080 0.3102 -0.1368 0.9982
-0.3096 0.3029 -0.1356 0.9982
-0.3127 0.2886 -0.1332 0.9982
-0.3194 0.2542 -0.1278 0.9983
-0.3206 0.2475 -0.1268 0.9983
-0.3217 0.2410 -0.1258 0.9983
-0.3228 0.2345 -0.1249 0.9983
-0.3247 0.2218 -0.1231 0.9984
-0.3273 0.2031 -0.1206 0.9984
-0.3281 0.1970 -0.1198 0.9984
-0.3290 0.1910 -0.1191 0.9984
-0.3301 0.1853 -0.1185 0.9984
-0.3321 0.1738 -0.1173 0.9984
-0.3331 0.1682 -0.1168 0.9984
-0.3348 0.1570 -0.1157 0.9985
-0.3362 0.1457 -0.1147 0.9985
-0.3379 0.1293 -0.1132 0.9985
-0.3389 0.1184 -0.1124 0.9985
-0.3393 0.1130 -0.1119 0.9985
-0.3397 0.1076 -0.1115 0.9985
-0.3404 0.0970 -0.1108 0.9985
-0.3413 0.0761 -0.1095 0.9985
-0.3415 0.0709 -0.1092 0.9985
-0.3417 0.0554 -0.1084 0.9985
-0.3418 0.0503 -0.1081 0.9986
-0.3415 0.0250 -0.1072 0.9986
