ply
format ascii 1.0
element vertex 1620
property float32 x
property float32 y
property float32 z
property float32 I
end_header
1.8836 -2.4029 0.3269 0.9878
1.8830 -2.2627 0.3152 0.9882
2.1348 -2.4904 0.3512 0.9869
2.1970 -2.4884 0.3554 0.9867
2.2204 -2.4420 0.3534 0.9868
2.2435 -2.3961 0.3514 0.9869
2.2663 -2.3507 0.3496 0.9870
2.2888 -2.3057 0.3478 0.9870
2.3467 -2.2958 0.3515 0.9869
2.3491 -2.2319 0.3469 0.9870
2.7003 -2.4916 0.3934 0.9853
2.7784 -2.4895 0.3994 0.9851
2.8197 -2.4532 0.4002 0.9851
14.8030 -11.7798 2.0255 0.9267
14.9953 -11.5790 2.0284 0.9266
15.3026 -11.4633 2.0471 0.9260
17.6778 -12.8438 2.3395 0.9158
18.0119 -11.9166 2.3123 0.9168
6.1452 -3.4489 0.7545 0.9720
6.0232 -3.2656 0.7336 0.9728
6.0910 -3.1881 0.7361 0.9727
6.1592 -3.1100 0.7387 0.9726
5.9401 -2.6795 0.6977 0.9741
6.2736 -2.5051 0.7233 0.9732
6.4831 -2.4796 0.7432 0.9725
6.6270 -2.2070 0.7478 0.9723
10.8356 -3.0880 1.2063 0.9557
10.7033 -2.8820 1.1868 0.9564
10.6088 -2.5264 1.1676 0.9571
10.8210 -2.4105 1.1870 0.9564
10.8115 -2.2430 1.1822 0.9566
11.2660 -1.8266 1.2219 0.9551
38.9543 -3.4241 4.1867 0.8544
38.6267 -2.8272 4.1466 0.8557
36.8985 8.7873 4.0610 0.8585
36.3495 9.2198 4.0150 0.8600
35.8539 9.6538 3.9754 0.8612
25.4026 8.4595 2.8666 0.8979
25.5063 8.9101 2.8927 0.8970
25.6116 9.3689 2.9198 0.8961
21.1823 8.4584 2.4420 0.9123
20.8905 9.0582 2.4379 0.9125
19.9987 9.0209 2.3489 0.9155
19.7386 9.2530 2.3340 0.9160
15.5107 9.3112 1.9369 0.9298
13.2579 8.2247 1.6704 0.9392
12.8673 8.5129 1.6518 0.9398
12.7717 8.7206 1.6558 0.9397
12.6359 8.9014 1.6548 0.9397
12.6361 9.1807 1.6723 0.9391
9.9279 10.0007 1.5087 0.9449
1.1669 8.3524 0.9029 0.9666
0.8237 8.6463 0.9299 0.9657
0.1769 8.0717 0.8644 0.9680
-0.9482 9.9537 1.0705 0.9606
-5.7851 9.7984 1.2183 0.9553
-6.0636 9.6167 1.2172 0.9553
-10.3229 9.5250 1.5038 0.9451
-14.4391 9.8591 1.8719 0.9321
-14.5305 9.6133 1.8654 0.9323
-14.9307 8.6687 1.8485 0.9329
-15.0312 8.4359 1.8454 0.9330
-19.4410 10.5403 2.3677 0.9149
-19.6069 9.1913 2.3184 0.9166
-1.2940 0.5837 0.1520 0.9943
-1.2839 0.5567 0.1498 0.9944
-1.2760 0.4880 0.1463 0.9945
-1.2737 0.4659 0.1452 0.9946
-1.2714 0.4441 0.1442 0.9946
-1.2631 0.3800 0.1412 0.9947
-1.2609 0.3593 0.1404 0.9947
-1.2567 0.3187 0.1388 0.9948
-1.2548 0.2988 0.1381 0.9948
-1.2483 0.2211 0.1357 0.9949
-1.2443 0.1831 0.1346 0.9950
-1.2381 0.1271 0.1332 0.9950
-1.2281 0.0538 0.1316 0.9951
-1.1773 0.0000 0.1129 0.9953
-1.1804 -0.0173 0.1132 0.9953
-1.1836 -0.0346 0.1135 0.9953
-1.1938 -0.0874 0.1148 0.9952
-1.1974 -0.1053 0.1152 0.9952
-1.2035 -0.1592 0.1164 0.9951
-1.2054 -0.1774 0.1168 0.9951
-1.2092 -0.2142 0.1177 0.9951
-1.2105 -0.2328 0.1182 0.9951
-1.2118 -0.2514 0.1186 0.9950
-1.2133 -0.2703 0.1192 0.9950
-1.2182 -0.3280 0.1209 0.9949
-1.2219 -0.3677 0.1223 0.9949
-1.2270 -0.4087 0.1240 0.9948
-1.2372 -0.4941 0.1277 0.9947
-1.2418 -0.5385 0.1298 0.9946
-7.6182 -3.5713 0.8066 0.9668
-23.5993 -11.4864 2.5162 0.8999
-22.9796 -11.6032 2.4680 0.9017
-22.3254 -11.6853 2.4158 0.9037
-4.4164 -2.3945 0.4816 0.9800
-4.4094 -2.5601 0.4888 0.9797
-4.4173 -2.6518 0.4939 0.9795
-4.2150 -2.6148 0.4755 0.9803
-4.2229 -2.7059 0.4808 0.9800
-4.3801 -3.1823 0.5191 0.9785
-3.4921 -2.6159 0.4183 0.9826
-3.2645 -2.7573 0.4097 0.9830
-3.2089 -2.7917 0.4078 0.9831
-31.7180 -30.1360 4.1944 0.8388
-30.7832 -30.1158 4.1286 0.8411
-12.1123 -12.2011 1.6482 0.9332
-12.2314 -13.0633 1.7156 0.9306
-11.9605 -13.1541 1.7044 0.9311
-25.7231 -30.0067 3.7891 0.8532
-24.9580 -29.9902 3.7405 0.8549
-21.4013 -29.9135 3.5262 0.8626
-20.7373 -29.8992 3.4884 0.8640
-20.0873 -29.8852 3.4521 0.8653
-19.4505 -29.8714 3.4173 0.8665
-18.8263 -29.8580 3.3840 0.8678
-18.2140 -29.8448 3.3520 0.8689
-5.2698 -9.2311 1.0190 0.9582
-5.2194 -9.4612 1.0359 0.9575
-4.6079 -9.6455 1.0248 0.9580
-4.2883 -10.0912 1.0512 0.9569
-4.2218 -10.3523 1.0718 0.9561
-4.0833 -10.4469 1.0753 0.9559
-4.0211 -11.2464 1.1450 0.9531
-9.5077 -30.7851 3.0889 0.8786
-11.5153 -44.0465 4.3646 0.8328
-10.3207 -47.9800 4.7050 0.8210
-9.5863 -47.9642 4.6892 0.8216
-8.1313 -47.9328 4.6610 0.8225
-7.4100 -47.9173 4.6484 0.8230
-1.7724 -12.6862 1.2280 0.9498
-5.9784 -47.8864 4.6265 0.8237
-5.2673 -47.8711 4.6171 0.8241
-4.5590 -47.8558 4.6087 0.8243
-3.8531 -47.8406 4.6013 0.8246
-1.0475 -47.7801 4.5818 0.8253
-0.3490 -47.7650 4.5793 0.8254
2.4419 -47.7048 4.5794 0.8254
3.8305 -47.5599 4.5743 0.8255
4.5403 -47.6596 4.5898 0.8250
5.9462 -47.6293 4.6016 0.8246
6.6523 -47.6140 4.6091 0.8243
7.3607 -47.5988 4.6175 0.8240
8.7862 -47.5680 4.6375 0.8233
9.5039 -47.5525 4.6490 0.8229
9.8396 -45.7436 4.4857 0.8286
11.2401 -45.7134 4.5131 0.8277
3.3867 -12.2217 1.2158 0.9503
3.8111 -12.3401 1.2382 0.9494
1.2065 -3.3744 0.3436 0.9857
1.2499 -3.3410 0.3420 0.9858
1.4615 -3.1778 0.3353 0.9860
1.5028 -3.1459 0.3342 0.9861
1.4711 -2.9673 0.3175 0.9868
1.4469 -2.7161 0.2950 0.9877
1.5348 -2.7822 0.3046 0.9873
1.5085 -2.6425 0.2917 0.9878
1.6951 -2.6884 0.3047 0.9873
1.8194 -2.7070 0.3127 0.9870
1.7355 -2.4257 0.2859 0.9881
1.7997 -2.4395 0.2906 0.9879
1.9024 -2.3551 0.2902 0.9879
2.1630 -2.4498 0.3133 0.9870
2.2267 -2.4489 0.3173 0.9868
2.2498 -2.4028 0.3156 0.9869
2.3395 -2.2229 0.3094 0.9871
2.7708 -2.4827 0.3567 0.9852
2.8120 -2.4464 0.3573 0.9851
14.5191 -11.9045 1.8000 0.9273
14.7094 -11.7053 1.8022 0.9272
14.9004 -11.5057 1.8048 0.9271
18.3955 -12.9587 2.1572 0.9135
16.5287 -10.9353 1.9000 0.9235
16.8642 -10.4620 1.9026 0.9233
17.4044 -10.4480 1.9461 0.9217
6.1709 -3.4633 0.6784 0.9720
6.2019 -3.0186 0.6613 0.9727
5.9825 -2.6986 0.6292 0.9740
6.3010 -2.5161 0.6505 0.9731
6.2907 -2.3012 0.6422 0.9734
11.0520 -3.3251 1.1065 0.9547
10.7627 -2.8979 1.0686 0.9562
10.8866 -2.4252 1.0693 0.9562
11.2450 -2.1621 1.0978 0.9550
11.2284 -1.8205 1.0905 0.9553
38.7834 -2.8386 3.7281 0.8553
39.5485 -1.7348 3.7952 0.8529
37.2324 8.2938 3.6570 0.8579
36.1475 8.6084 3.5624 0.8613
35.7708 9.6315 3.5515 0.8617
25.5056 8.4938 2.5772 0.8976
25.7174 9.4077 2.6253 0.8958
22.2386 8.8801 2.2957 0.9083
22.1650 9.2285 2.3018 0.9080
21.1013 9.1496 2.2050 0.9117
20.6735 9.3254 2.1743 0.9129
20.0397 9.3942 2.1218 0.9149
19.7653 9.6203 2.1074 0.9155
12.6200 9.1689 1.4955 0.9392
12.5907 9.4318 1.5082 0.9387
11.8315 9.1360 1.4331 0.9417
10.1780 9.6704 1.3460 0.9451
4.6883 9.8138 1.0427 0.9572
1.0148 8.1281 0.7853 0.9676
0.6426 7.9793 0.7675 0.9683
0.5369 8.1532 0.7833 0.9677
0.2924 8.0004 0.7675 0.9683
0.0587 8.0321 0.7701 0.9682
-6.2981 9.6723 1.1065 0.9547
-14.3926 10.1389 1.6878 0.9317
-14.4850 9.8904 1.6815 0.9319
-14.5765 9.6437 1.6756 0.9322
-14.7787 9.1681 1.6673 0.9325
-19.7539 9.9744 2.1215 0.9149
-18.6866 9.0952 1.9924 0.9199
-1.2395 0.5161 0.1287 0.9946
-1.2372 0.4940 0.1277 0.9947
-1.2351 0.4723 0.1268 0.9947
-1.2331 0.4511 0.1259 0.9947
-1.2270 0.4086 0.1240 0.9948
-1.2200 0.3477 0.1216 0.9949
-1.2148 0.2893 0.1197 0.9950
-1.2075 0.1957 0.1173 0.9951
-1.2054 0.1774 0.1168 0.9951
-1.2035 0.1592 0.1164 0.9951
-1.1998 0.1231 0.1156 0.9952
-1.1974 0.1052 0.1152 0.9952
-1.1804 0.0172 0.1132 0.9953
-1.1454 -0.0335 0.0971 0.9954
-1.1516 -0.0674 0.0977 0.9954
-1.1549 -0.0845 0.0981 0.9954
-1.1616 -0.1193 0.0989 0.9953
-1.1691 -0.1720 0.1001 0.9953
-1.1709 -0.1898 0.1005 0.9952
-1.1736 -0.2257 0.1012 0.9952
-1.1748 -0.2437 0.1016 0.9952
-1.1761 -0.2620 0.1021 0.9952
-1.1802 -0.3178 0.1035 0.9951
-1.1818 -0.3368 0.1041 0.9951
-1.1877 -0.3955 0.1060 0.9950
-1.1986 -0.4786 0.1093 0.9948
-1.2024 -0.5214 0.1110 0.9948
-1.2298 -0.5765 0.1150 0.9946
-7.5765 -3.8256 0.7189 0.9665
-4.5835 -2.3991 0.4382 0.9794
-4.3067 -2.4170 0.4183 0.9804
-4.2274 -2.4544 0.4140 0.9806
-4.3072 -2.5856 0.4255 0.9800
-3.9978 -2.4801 0.3985 0.9813
-4.2223 -2.7056 0.4247 0.9801
-3.7755 -2.4979 0.3834 0.9820
-3.5757 -2.5979 0.3743 0.9824
-3.5168 -2.6345 0.3722 0.9825
-3.4557 -2.6684 0.3698 0.9826
-3.3923 -2.6995 0.3672 0.9827
-3.3297 -2.7301 0.3647 0.9829
-3.2871 -2.7765 0.3644 0.9829
-3.9418 -3.5320 0.4483 0.9790
-12.4833 -12.5748 1.5007 0.9313
-12.1562 -12.6086 1.4834 0.9321
-12.1391 -13.3504 1.5283 0.9301
-24.9580 -29.9902 3.3046 0.8550
-9.7827 -12.8622 1.3687 0.9372
-22.0799 -29.9281 3.1500 0.8613
-21.4013 -29.9135 3.1153 0.8627
-6.3187 -10.0213 1.0034 0.9536
-6.4248 -10.5273 1.0446 0.9517
-6.1782 -10.4641 1.0292 0.9524
-5.2999 -9.2839 0.9054 0.9580
-5.2202 -9.4628 0.9153 0.9575
-5.0382 -9.4570 0.9076 0.9579
-4.8589 -9.4506 0.9000 0.9582
-4.6823 -9.4439 0.8928 0.9586
-4.4868 -9.7561 0.9095 0.9578
-4.3502 -9.8351 0.9109 0.9577
-4.2667 -10.0402 0.9240 0.9572
-4.1694 -10.2240 0.9352 0.9566
-4.0358 -10.3252 0.9389 0.9565
-3.9809 -10.6409 0.9623 0.9554
-3.8586 -10.7918 0.9707 0.9550
-9.5075 -30.7846 2.7289 0.8787
-11.5648 -41.7344 3.6680 0.8404
-11.4599 -46.6074 4.0651 0.8248
-11.0602 -47.9960 4.1717 0.8206
-10.3207 -47.9800 4.1568 0.8212
-5.9784 -47.8864 4.0874 0.8239
-5.2673 -47.8711 4.0790 0.8242
-1.7468 -47.7952 4.0508 0.8253
-0.3490 -47.7651 4.0457 0.8255
0.3488 -47.7500 4.0444 0.8256
2.4419 -47.7048 4.0458 0.8255
3.1403 -47.6898 4.0480 0.8254
3.8308 -47.5636 4.0416 0.8257
9.8396 -45.7437 3.9630 0.8288
3.3698 -12.1607 1.0688 0.9506
3.5784 -12.2171 1.0782 0.9502
9.3886 -30.3995 2.6948 0.8801
9.9742 -29.2369 2.6164 0.8834
1.2530 -3.3491 0.3029 0.9857
1.2961 -3.3159 0.3015 0.9858
1.4232 -3.2177 0.2980 0.9860
1.5064 -3.1534 0.2960 0.9861
1.4768 -2.9787 0.2816 0.9867
1.4352 -2.6940 0.2585 0.9878
1.5220 -2.7590 0.2669 0.9874
1.8459 -2.6616 0.2743 0.9871
1.7497 -2.4457 0.2547 0.9880
1.8320 -2.4832 0.2614 0.9877
1.8931 -2.4150 0.2599 0.9878
1.9002 -2.2833 0.2516 0.9881
2.1550 -2.5140 0.2805 0.9868
2.2561 -2.4096 0.2796 0.9868
2.3246 -2.3417 0.2795 0.9868
2.3274 -2.2769 0.2758 0.9870
2.3300 -2.2138 0.2722 0.9872
2.7224 -2.5120 0.3137 0.9852
2.7632 -2.4759 0.3142 0.9852
2.8042 -2.4397 0.3148 0.9852
2.8454 -2.4034 0.3155 0.9852
14.4282 -11.8299 1.5803 0.9278
18.6484 -13.9697 1.9735 0.9107
18.6734 -13.5671 1.9550 0.9115
16.7013 -11.4038 1.7129 0.9220
16.4698 -10.8963 1.6726 0.9238
16.9424 -10.5105 1.6887 0.9231
6.3362 -3.5560 0.6154 0.9713
6.1256 -3.3211 0.5902 0.9724
6.2283 -3.0315 0.5867 0.9726
6.0254 -2.7179 0.5599 0.9738
6.2232 -2.6985 0.5745 0.9731
6.3072 -2.3073 0.5688 0.9734
6.9715 -2.3216 0.6224 0.9709
10.6118 -3.3625 0.9428 0.9563
10.6625 -3.2079 0.9431 0.9563
10.6841 -2.8767 0.9371 0.9566
11.0917 -2.1327 0.9566 0.9557
38.5867 -2.8243 3.2770 0.8561
43.2698 8.9772 3.7429 0.8374
36.9626 8.2337 3.2074 0.8590
36.3602 8.6591 3.1658 0.8607
35.7958 9.0794 3.1278 0.8622
35.9112 9.6693 3.1499 0.8613
36.2428 10.3287 3.1919 0.8596
25.8059 9.4400 2.3274 0.8956
22.5002 8.9846 2.0520 0.9073
21.3159 9.2427 1.9678 0.9110
20.5169 9.2547 1.9063 0.9136
12.9750 8.3142 1.3052 0.9400
12.7286 8.4212 1.2927 0.9406
12.5535 8.5716 1.2875 0.9408
12.2810 8.6513 1.2724 0.9415
12.1228 8.8077 1.2692 0.9416
11.9653 8.9633 1.2662 0.9418
11.7954 9.1081 1.2622 0.9419
2.9021 3.9336 0.4140 0.9806
2.7390 3.9491 0.4071 0.9809
2.6596 3.9569 0.4038 0.9810
2.3587 3.9950 0.3929 0.9815
2.2151 4.0154 0.3884 0.9818
2.1504 4.0363 0.3874 0.9818
2.0937 4.0723 0.3878 0.9818
2.0428 4.1202 0.3895 0.9817
1.1325 8.1061 0.6932 0.9677
0.9882 7.9154 0.6756 0.9685
0.8655 7.8664 0.6703 0.9687
0.7536 7.9112 0.6731 0.9686
0.5276 8.0128 0.6801 0.9683
0.1734 7.9082 0.6700 0.9687
0.0584 7.9914 0.6769 0.9684
-0.0592 8.1069 0.6867 0.9680
-0.1775 8.0969 0.6860 0.9680
-0.9534 10.0077 0.8515 0.9604
-10.3201 9.5223 1.1893 0.9452
-14.6238 9.6750 1.4851 0.9320
-7.9605 5.1009 0.8008 0.9628
-7.9838 4.7927 0.7887 0.9633
-8.0230 4.5027 0.7792 0.9637
-8.0457 4.3621 0.7752 0.9639
-8.0671 4.2223 0.7712 0.9641
-1.2024 0.5214 0.1110 0.9948
-1.1986 0.4786 0.1093 0.9948
-1.1929 0.4364 0.1076 0.9949
-1.1903 0.4158 0.1068 0.9950
-1.1876 0.3955 0.1060 0.9950
-1.1818 0.3368 0.1041 0.9951
-1.1803 0.3177 0.1035 0.9951
-1.1788 0.2989 0.1030 0.9951
-1.1774 0.2804 0.1025 0.9952
-1.1761 0.2620 0.1021 0.9952
-1.1748 0.2437 0.1016 0.9952
-1.1736 0.2257 0.1012 0.9952
-1.1726 0.2077 0.1009 0.9952
-1.1673 0.1544 0.0997 0.9953
-1.1616 0.1192 0.0989 0.9953
-1.1582 0.1018 0.0985 0.9953
-1.1549 0.0845 0.0981 0.9954
-1.1485 0.0504 0.0974 0.9954
-1.1454 0.0335 0.0971 0.9954
-1.1424 0.0167 0.0968 0.9954
-1.1068 -0.0162 0.0814 0.9956
-1.1125 -0.0488 0.0819 0.9955
-1.1279 -0.1325 0.0835 0.9955
-1.1381 -0.2016 0.0850 0.9954
-1.1434 -0.2900 0.0868 0.9953
-1.1447 -0.3082 0.0872 0.9953
-1.1460 -0.3266 0.0876 0.9952
-1.1474 -0.3452 0.0881 0.9952
-1.1488 -0.3640 0.0886 0.9952
-1.1530 -0.4028 0.0898 0.9951
-1.1554 -0.4227 0.0905 0.9951
-1.1578 -0.4429 0.0912 0.9950
-1.1604 -0.4633 0.0919 0.9950
-1.1690 -0.5480 0.0950 0.9948
-1.2434 -0.6052 0.1017 0.9945
-1.4717 -0.7431 0.1213 0.9934
-4.2951 -2.4105 0.3622 0.9804
-4.2667 -2.4773 0.3629 0.9804
-3.7829 -2.4240 0.3304 0.9821
-3.6615 -2.5793 0.3294 0.9822
-3.6013 -2.6165 0.3274 0.9823
-3.4248 -2.7254 0.3219 0.9826
-3.3046 -2.7912 0.3181 0.9828
-3.2534 -2.8305 0.3172 0.9829
-3.0313 -2.7970 0.3033 0.9836
-31.7180 -30.1360 3.2178 0.8391
-30.7832 -30.1158 3.1673 0.8414
-12.4290 -12.5201 1.2975 0.9317
-12.0565 -12.8766 1.2974 0.9317
-12.0510 -13.2537 1.3175 0.9307
-24.9581 -29.9902 2.8696 0.8551
-24.2122 -29.9741 2.8339 0.8568
-23.4845 -29.9584 2.7996 0.8584
-22.0799 -29.9281 2.7353 0.8614
-21.4013 -29.9135 2.7051 0.8628
-20.2686 -30.1549 2.6723 0.8644
-19.6775 -30.2202 2.6522 0.8653
-5.6289 -9.5338 0.8143 0.9566
-5.1838 -9.3967 0.7893 0.9579
-4.9047 -9.5396 0.7889 0.9579
-4.7815 -9.6439 0.7917 0.9577
-4.6604 -9.7555 0.7951 0.9576
-4.4818 -9.7452 0.7889 0.9579
-4.3844 -9.9123 0.7971 0.9575
-4.0487 -10.3583 0.8179 0.9564
-3.9678 -10.6059 0.8328 0.9556
-3.7827 -10.5795 0.8263 0.9559
-3.6861 -10.8048 0.8396 0.9552
-9.6371 -29.6598 2.2936 0.8824
-9.5074 -30.7842 2.3696 0.8788
-11.4627 -41.3656 3.1570 0.8418
-5.9784 -47.8864 3.5492 0.8240
-4.5590 -47.8558 3.5356 0.8246
-2.4473 -47.8103 3.5209 0.8253
-1.0474 -47.7801 3.5149 0.8256
-0.3490 -47.7650 3.5131 0.8257
0.3488 -47.7500 3.5119 0.8257
1.0464 -47.7349 3.5116 0.8257
1.7440 -47.7199 3.5120 0.8257
7.3607 -47.5988 3.5423 0.8243
8.0719 -47.5835 3.5496 0.8240
9.5039 -47.5526 3.5665 0.8232
9.8396 -45.7437 3.4412 0.8289
11.2401 -45.7135 3.4622 0.8279
9.3887 -30.4000 2.3400 0.8802
9.9742 -29.2369 2.2720 0.8835
1.2560 -3.3574 0.2636 0.9857
1.2992 -3.3241 0.2625 0.9858
1.4685 -3.1932 0.2585 0.9860
1.5101 -3.1610 0.2576 0.9860
1.5340 -2.9837 0.2467 0.9866
1.5094 -2.7361 0.2298 0.9875
1.5164 -2.6563 0.2250 0.9878
1.5772 -2.6715 0.2282 0.9876
1.7044 -2.7031 0.2350 0.9873
1.8569 -2.6772 0.2396 0.9870
1.8476 -2.5043 0.2289 0.9876
1.9013 -2.4998 0.2310 0.9875
1.8764 -2.3937 0.2237 0.9879
1.9089 -2.2938 0.2195 0.9881
2.1652 -2.5259 0.2447 0.9867
2.1833 -2.4729 0.2426 0.9869
2.2393 -2.4628 0.2448 0.9867
2.3150 -2.3320 0.2417 0.9869
2.3178 -2.2676 0.2385 0.9871
2.6744 -2.5411 0.2713 0.9853
2.7558 -2.4692 0.2721 0.9853
2.7966 -2.4331 0.2726 0.9852
16.3192 -10.7967 1.4391 0.9245
16.7773 -10.0716 1.4392 0.9245
5.8766 -3.1861 0.4916 0.9735
6.0467 -3.0532 0.4982 0.9732
6.1335 -2.9853 0.5017 0.9730
5.9775 -2.8021 0.4855 0.9739
6.0688 -2.7375 0.4896 0.9737
6.2231 -2.6984 0.4989 0.9732
6.2422 -2.5990 0.4973 0.9732
6.3238 -2.3133 0.4952 0.9734
6.5954 -2.3040 0.5138 0.9724
6.9501 -2.3145 0.5388 0.9710
10.7066 -3.2212 0.8223 0.9561
10.7388 -2.8915 0.8179 0.9564
10.7888 -2.5693 0.8157 0.9565
10.6941 -2.3822 0.8058 0.9570
38.7260 -2.2661 2.8531 0.8559
17.6927 3.4019 1.3251 0.9303
17.7352 3.6795 1.3321 0.9299
17.7782 3.9602 1.3396 0.9296
17.8219 4.2443 1.3474 0.9292
17.9100 4.8223 1.3641 0.9283
18.1034 6.0287 1.4033 0.9263
25.8213 9.0201 2.0116 0.8961
25.9104 9.4783 2.0291 0.8952
25.7278 9.8400 2.0259 0.8954
25.5567 10.2051 2.0239 0.8955
13.7757 8.2696 1.1817 0.9376
6.2876 4.1598 0.5545 0.9702
5.8994 4.0282 0.5254 0.9718
5.6244 4.0863 0.5113 0.9725
5.6418 4.4895 0.5303 0.9715
5.7412 5.1442 0.5670 0.9696
10.2055 9.9842 1.0500 0.9443
3.0576 3.9005 0.3645 0.9803
2.9477 3.8756 0.3581 0.9807
2.7830 3.8900 0.3518 0.9810
2.6258 3.9065 0.3462 0.9813
2.5503 3.9166 0.3437 0.9814
2.4748 3.9250 0.3413 0.9816
2.4018 3.9354 0.3391 0.9817
2.3297 3.9459 0.3370 0.9818
2.2585 3.9563 0.3351 0.9819
2.1238 3.9864 0.3322 0.9820
2.0201 4.2285 0.3447 0.9814
2.0357 4.4264 0.3583 0.9806
2.1768 5.1226 0.4094 0.9779
1.1375 8.1418 0.6046 0.9676
0.9897 7.9275 0.5876 0.9685
0.8679 7.8874 0.5836 0.9687
0.7494 7.8663 0.5812 0.9688
0.4067 7.9447 0.5851 0.9686
0.2892 7.9125 0.5823 0.9687
0.1737 7.9237 0.5829 0.9687
0.0583 7.9769 0.5867 0.9685
-0.0591 8.0888 0.5949 0.9681
-0.1778 8.1076 0.5964 0.9680
-0.8010 9.9452 0.7338 0.9608
-6.2930 9.6646 0.8482 0.9548
-10.3187 9.5210 1.0326 0.9452
-7.9473 5.5984 0.7150 0.9618
-7.9393 5.2526 0.7001 0.9625
-7.9590 4.9374 0.6888 0.9631
-7.9741 4.7869 0.6840 0.9634
-8.0135 4.4973 0.6758 0.9638
-1.2435 0.6052 0.1017 0.9945
-1.1690 0.5480 0.0950 0.9948
-1.1672 0.5265 0.0942 0.9949
-1.1655 0.5054 0.0934 0.9949
-1.1630 0.4842 0.0926 0.9950
-1.1578 0.4428 0.0912 0.9950
-1.1530 0.4028 0.0898 0.9951
-1.1489 0.3640 0.0886 0.9952
-1.1460 0.3266 0.0876 0.9952
-1.1447 0.3082 0.0872 0.9953
-1.1434 0.2900 0.0868 0.9953
-1.1423 0.2720 0.0864 0.9953
-1.1412 0.2542 0.0860 0.9953
-1.1401 0.2365 0.0856 0.9953
-1.1381 0.2016 0.0850 0.9954
-1.1365 0.1843 0.0847 0.9954
-1.1312 0.1496 0.0839 0.9954
-1.1247 0.1154 0.0832 0.9955
-1.1155 0.0652 0.0822 0.9955
-1.1068 0.0162 0.0814 0.9956
-1.0332 -0.0000 0.0645 0.9959
-1.0375 -0.0152 0.0648 0.9958
-1.0599 -0.0776 0.0663 0.9958
-1.0661 -0.0938 0.0668 0.9957
-1.0725 -0.1101 0.0673 0.9957
-1.0930 -0.1609 0.0690 0.9956
-1.1057 -0.1959 0.0701 0.9955
-1.1103 -0.2816 0.0715 0.9954
-1.1124 -0.3170 0.0722 0.9954
-1.1147 -0.3532 0.0730 0.9953
-1.1162 -0.3717 0.0734 0.9953
-1.1202 -0.4098 0.0744 0.9952
-1.1244 -0.4491 0.0756 0.9952
-1.1314 -0.5104 0.0775 0.9950
-1.1337 -0.5315 0.0781 0.9950
-1.1716 -0.5703 0.0813 0.9948
-1.4418 -0.7817 0.1024 0.9934
-3.8348 -2.3790 0.2817 0.9821
-3.8211 -2.4486 0.2833 0.9820
-3.8073 -2.5189 0.2849 0.9819
-3.5676 -2.5132 0.2724 0.9827
-3.5077 -2.7086 0.2766 0.9824
-3.0540 -2.5795 0.2495 0.9841
-3.2195 -2.8847 0.2698 0.9828
-3.8147 -3.5198 0.3240 0.9794
-12.3905 -12.4813 1.0977 0.9319
-11.9712 -12.7854 1.0932 0.9322
-27.3152 -30.0410 2.5342 0.8498
-25.7231 -30.0067 2.4668 0.8535
-24.9580 -29.9902 2.4352 0.8552
-23.4845 -29.9584 2.3759 0.8585
-21.4013 -29.9135 2.2956 0.8629
-20.7373 -29.8992 2.2710 0.8643
-6.2216 -9.8672 0.7280 0.9543
-6.0708 -9.9473 0.7273 0.9544
-5.1458 -9.3278 0.6649 0.9582
-4.5428 -9.8778 0.6786 0.9574
-4.4185 -9.9895 0.6818 0.9572
-4.1465 -10.1678 0.6854 0.9569
-3.8839 -10.3816 0.6918 0.9565
-3.7789 -10.5688 0.7005 0.9560
-11.5645 -41.7330 2.7029 0.8407
-7.4101 -47.9173 3.0263 0.8234
-4.5470 -47.7296 2.9925 0.8252
-3.8430 -47.7145 2.9877 0.8254
-3.1410 -47.6993 2.9836 0.8257
-1.7422 -47.6691 2.9772 0.8260
-0.3481 -47.6391 2.9734 0.8262
1.0437 -47.6091 2.9722 0.8263
2.4354 -47.5790 2.9735 0.8262
3.1320 -47.5640 2.9751 0.8261
3.8275 -47.5237 2.9757 0.8261
5.2423 -47.6445 2.9916 0.8252
5.9462 -47.6293 2.9958 0.8250
6.6522 -47.6141 3.0006 0.8247
7.3607 -47.5988 3.0061 0.8245
8.0719 -47.5834 3.0123 0.8241
8.7862 -47.5680 3.0191 0.8238
9.8396 -45.7437 2.9204 0.8290
9.3889 -30.4005 1.9858 0.8803
9.9742 -29.2370 1.9281 0.8836
1.3879 -3.2661 0.2215 0.9859
1.4301 -3.2334 0.2207 0.9859
1.4969 -2.7136 0.1934 0.9877
1.5203 -2.6633 0.1914 0.9878
1.5814 -2.6786 0.1941 0.9876
1.7090 -2.7104 0.2000 0.9872
1.7757 -2.7271 0.2031 0.9870
1.7788 -2.4864 0.1908 0.9878
1.8633 -2.5256 0.1959 0.9875
1.9262 -2.4573 0.1949 0.9876
1.9292 -2.3884 0.1916 0.9878
1.9176 -2.3043 0.1871 0.9881
1.9665 -2.2940 0.1886 0.9880
2.2113 -2.4320 0.2052 0.9869
2.2918 -2.3771 0.2061 0.9869
2.3084 -2.2584 0.2016 0.9871
2.6672 -2.5342 0.2296 0.9854
2.7077 -2.4984 0.2299 0.9853
16.0378 -11.2979 1.2244 0.9244
15.9538 -10.2230 1.1826 0.9269
16.3123 -10.1196 1.1981 0.9260
5.8917 -3.1943 0.4183 0.9735
6.0625 -3.0612 0.4239 0.9731
6.0641 -2.8427 0.4180 0.9735
6.1127 -2.7573 0.4185 0.9735
6.6130 -2.4191 0.4395 0.9722
37.9743 -12.0326 2.4863 0.8524
10.7510 -3.2345 0.7007 0.9560
10.6495 -3.0350 0.6911 0.9566
10.7731 -2.7325 0.6937 0.9564
10.5053 -2.5018 0.6740 0.9576
10.8480 -2.2507 0.6915 0.9566
10.9972 -2.1145 0.6990 0.9561
11.1771 -1.9802 0.7085 0.9555
38.9174 -3.4208 2.4384 0.8551
39.7795 -1.1629 2.4839 0.8526
17.6461 3.1263 1.1185 0.9307
17.6704 3.3975 1.1231 0.9304
17.7127 3.6748 1.1291 0.9301
17.7611 3.9564 1.1357 0.9297
17.8981 4.8191 1.1569 0.9284
17.9496 5.1154 1.1649 0.9279
17.9986 5.4150 1.1731 0.9274
18.0472 5.7184 1.1816 0.9269
26.2103 9.1560 1.7328 0.8947
26.0156 9.5168 1.7290 0.8949
25.6673 10.2493 1.7250 0.8951
6.2692 3.8891 0.4605 0.9709
5.9121 3.9114 0.4425 0.9720
5.5159 4.1320 0.4302 0.9728
5.5376 4.2759 0.4367 0.9723
5.5717 4.4337 0.4444 0.9719
5.6123 4.6016 0.4530 0.9713
5.6341 4.7588 0.4603 0.9709
5.7000 5.2594 0.4841 0.9694
5.7879 5.6625 0.5054 0.9681
2.9980 3.8245 0.3033 0.9807
2.8267 3.8314 0.2972 0.9811
2.4450 3.8777 0.2861 0.9818
2.2313 3.9086 0.2809 0.9821
2.1637 3.9221 0.2796 0.9822
2.0410 3.9697 0.2786 0.9823
1.9890 4.0116 0.2795 0.9822
1.9994 4.3475 0.2987 0.9810
2.0588 4.6547 0.3177 0.9798
0.9847 7.8878 0.4961 0.9686
0.8691 7.8989 0.4960 0.9687
0.6390 7.9334 0.4968 0.9686
0.5214 7.9187 0.4953 0.9687
0.4054 7.9207 0.4950 0.9687
0.2898 7.9308 0.4953 0.9687
-0.1807 8.2437 0.5146 0.9675
-0.7992 9.9233 0.6214 0.9609
-3.0974 5.2464 0.3803 0.9759
-3.1145 5.1035 0.3732 0.9763
-3.1317 4.9669 0.3665 0.9767
-3.1482 4.8352 0.3601 0.9771
-3.1643 4.7079 0.3540 0.9775
-3.1799 4.5849 0.3483 0.9779
-3.2377 4.1304 0.3276 0.9792
-3.2535 4.0279 0.3232 0.9795
-3.2918 3.8401 0.3157 0.9799
-3.3369 3.7795 0.3147 0.9800
-3.4462 3.7902 0.3197 0.9797
-3.8175 3.8456 0.3382 0.9785
-4.2143 4.1230 0.3680 0.9766
-7.9135 5.4034 0.5981 0.9623
-7.9380 5.0866 0.5884 0.9629
-7.9479 4.9305 0.5838 0.9632
-7.9643 4.7810 0.5798 0.9635
-1.4447 0.8108 0.1034 0.9934
-1.4418 0.7817 0.1024 0.9934
-1.1717 0.5703 0.0813 0.9948
-1.1337 0.5314 0.0781 0.9950
-1.1290 0.4895 0.0768 0.9951
-1.1267 0.4691 0.0762 0.9951
-1.1223 0.4292 0.0750 0.9952
-1.1182 0.3905 0.0739 0.9953
-1.1162 0.3717 0.0734 0.9953
-1.1124 0.3170 0.0722 0.9954
-1.1113 0.2992 0.0718 0.9954
-1.1102 0.2816 0.0715 0.9954
-1.1066 0.2127 0.0703 0.9955
-1.1003 0.1784 0.0696 0.9955
-1.0792 0.1267 0.0678 0.9957
-1.0661 0.0937 0.0668 0.9957
-1.0479 0.0459 0.0655 0.9958
-0.9723 -0.0142 0.0499 0.9961
-0.9763 -0.0286 0.0501 0.9961
-0.9803 -0.0430 0.0503 0.9961
-0.9846 -0.0576 0.0506 0.9961
-0.9898 -0.0725 0.0509 0.9960
-1.0006 -0.1027 0.0516 0.9960
-1.0063 -0.1182 0.0520 0.9960
-1.0121 -0.1339 0.0524 0.9959
-1.0181 -0.1498 0.0528 0.9959
-1.0242 -0.1661 0.0532 0.9959
-1.0305 -0.1826 0.0537 0.9958
-1.0361 -0.1992 0.0541 0.9958
-1.0384 -0.2155 0.0544 0.9958
-1.0432 -0.2484 0.0550 0.9957
-1.0483 -0.2823 0.0557 0.9957
-1.0511 -0.2995 0.0561 0.9956
-1.0540 -0.3171 0.0565 0.9956
-1.0569 -0.3349 0.0569 0.9956
-1.0621 -0.3537 0.0574 0.9955
-1.0767 -0.4300 0.0595 0.9954
-1.4204 -0.7434 0.0822 0.9936
-1.4172 -0.7954 0.0834 0.9935
-1.4171 -0.8228 0.0841 0.9935
-1.4186 -0.8516 0.0849 0.9934
-1.4486 -0.8987 0.0874 0.9932
-3.8602 -2.4736 0.2352 0.9818
-3.8464 -2.5448 0.2366 0.9817
-3.5380 -2.6504 0.2268 0.9825
-3.1753 -2.5269 0.2082 0.9839
-3.2889 -2.6966 0.2182 0.9831
-3.3566 -2.8352 0.2254 0.9826
-3.2419 -2.9048 0.2233 0.9827
-3.8208 -3.5255 0.2667 0.9794
-31.7181 -30.1360 2.2443 0.8393
-12.3551 -12.4457 0.8996 0.9322
-24.9580 -29.9902 2.0014 0.8553
-9.7811 -12.8601 0.8288 0.9373
-20.7373 -29.8992 1.8665 0.8644
-6.2471 -9.9078 0.6008 0.9542
-6.0957 -9.9882 0.6002 0.9542
-5.1961 -9.4191 0.5518 0.9578
-4.9319 -9.5927 0.5533 0.9577
-4.4415 -9.2972 0.5285 0.9596
-4.3990 -9.9453 0.5578 0.9574
-4.1094 -10.0768 0.5582 0.9573
-3.9511 -10.1084 0.5567 0.9575
-3.7712 -10.0803 0.5521 0.9578
-3.4094 -10.4929 0.5659 0.9568
-9.5071 -30.7833 1.6527 0.8789
-11.5598 -39.4661 2.1095 0.8481
-11.5643 -41.7323 2.2214 0.8408
-11.5145 -44.0436 2.3352 0.8333
-11.4593 -46.6049 2.4619 0.8251
-11.0603 -47.9960 2.5266 0.8210
-8.1313 -47.9328 2.4939 0.8231
-5.9784 -47.8864 2.4755 0.8242
-4.5470 -47.7296 2.4595 0.8253
-0.3088 -8.4499 0.4337 0.9667
-0.1857 -8.4692 0.4345 0.9666
0.0620 -8.4884 0.4354 0.9666
0.3086 -8.4445 0.4335 0.9667
0.4316 -8.4313 0.4331 0.9668
0.5559 -8.4426 0.4340 0.9667
0.6899 -8.5660 0.4408 0.9662
4.5403 -47.6596 2.4558 0.8255
5.9463 -47.6293 2.4622 0.8251
6.6523 -47.6141 2.4662 0.8248
7.3607 -47.5988 2.4707 0.8246
8.0719 -47.5835 2.4757 0.8242
8.7862 -47.5680 2.4814 0.8239
9.5039 -47.5526 2.4875 0.8235
9.8396 -45.7437 2.4002 0.8291
9.3890 -30.4010 1.6321 0.8803
9.5029 -29.2471 1.5775 0.8841
9.9742 -29.2369 1.5846 0.8836
10.4499 -29.2267 1.5922 0.8831
1.3487 -3.3071 0.1832 0.9858
1.3913 -3.2741 0.1825 0.9859
1.4336 -3.2413 0.1818 0.9859
1.4756 -3.2087 0.1812 0.9860
1.5589 -3.1441 0.1800 0.9860
1.5984 -3.0004 0.1744 0.9865
1.4848 -2.6916 0.1577 0.9878
1.5243 -2.6702 0.1577 0.9878
1.6487 -2.7015 0.1623 0.9874
1.7136 -2.7179 0.1648 0.9872
1.8793 -2.5474 0.1624 0.9874
1.9231 -2.5286 0.1630 0.9874
1.9383 -2.3996 0.1582 0.9877
2.1959 -2.4871 0.1702 0.9868
2.6600 -2.5274 0.1882 0.9854
2.7409 -2.4558 0.1888 0.9854
2.7815 -2.4199 0.1891 0.9853
15.6024 -9.9979 0.9506 0.9285
16.5525 -9.6104 0.9818 0.9262
16.5712 -9.3002 0.9748 0.9267
5.9069 -3.2026 0.3447 0.9734
5.9921 -3.1363 0.3469 0.9733
6.1657 -3.0010 0.3518 0.9729
6.1531 -2.8845 0.3486 0.9731
6.1573 -2.7774 0.3465 0.9733
6.2780 -2.7222 0.3510 0.9730
6.3997 -2.5555 0.3535 0.9728
6.3782 -2.4395 0.3503 0.9730
6.7060 -2.3427 0.3644 0.9719
38.2713 -12.1267 2.0594 0.8515
10.7973 -2.9072 0.5736 0.9562
10.8129 -2.7426 0.5722 0.9563
10.7910 -2.4038 0.5671 0.9567
10.9087 -2.2632 0.5715 0.9564
10.9502 -2.1055 0.5720 0.9563
68.6919 -12.1698 3.5785 0.7562
79.3549 -12.8659 4.1238 0.7247
38.7314 -3.4045 1.9945 0.8558
50.4187 -1.4739 2.5874 0.8171
18.3930 2.9821 0.9558 0.9281
17.6317 3.1237 0.9185 0.9308
17.6953 3.6712 0.9270 0.9302
17.7925 4.2373 0.9382 0.9294
17.8356 4.5239 0.9439 0.9290
17.9891 5.4121 0.9636 0.9275
18.0896 6.0241 0.9780 0.9265
18.3555 6.4121 0.9974 0.9251
18.4598 7.0603 1.0138 0.9239
18.6148 7.7503 1.0343 0.9224
8.9487 4.8516 0.5222 0.9600
8.9414 5.0182 0.5260 0.9598
5.9405 3.8066 0.3619 0.9721
5.7844 3.8270 0.3558 0.9726
5.5185 3.8875 0.3463 0.9733
5.4383 3.9512 0.3448 0.9734
5.5271 4.3983 0.3623 0.9721
5.6194 5.0350 0.3870 0.9702
5.6539 5.2168 0.3946 0.9697
5.6843 5.4009 0.4022 0.9691
5.7501 5.7922 0.4187 0.9678
2.7906 3.7825 0.2411 0.9813
2.5632 3.8134 0.2357 0.9818
2.4892 3.8229 0.2340 0.9819
2.1396 3.8785 0.2272 0.9824
2.0766 3.8979 0.2266 0.9825
1.9643 3.9618 0.2268 0.9824
1.9737 4.2916 0.2423 0.9813
2.1550 5.2844 0.2927 0.9774
0.8735 7.9389 0.4097 0.9685
0.7523 7.8964 0.4069 0.9687
0.6358 7.8948 0.4063 0.9688
0.5216 7.9209 0.4072 0.9687
0.4025 7.8631 0.4039 0.9690
0.2893 7.9162 0.4063 0.9688
0.1743 7.9502 0.4079 0.9687
0.0582 7.9658 0.4086 0.9686
-0.0587 8.0266 0.4117 0.9684
-3.0335 5.4991 0.3222 0.9752
-3.0462 5.3362 0.3152 0.9757
-3.0650 5.1914 0.3093 0.9761
-3.1007 4.9177 0.2982 0.9770
-3.1176 4.7881 0.2931 0.9774
-3.1340 4.6629 0.2882 0.9777
-3.1499 4.5418 0.2835 0.9781
-3.1955 4.2015 0.2708 0.9791
-3.2112 4.0966 0.2670 0.9794
-3.2671 3.8112 0.2575 0.9801
-3.3219 3.5480 0.2493 0.9807
-3.4533 3.4787 0.2514 0.9806
-3.5646 3.4874 0.2558 0.9802
-3.6980 3.5137 0.2617 0.9798
-3.8381 3.5415 0.2679 0.9793
-4.0605 3.6384 0.2797 0.9784
-7.8933 5.7348 0.5005 0.9617
-7.8942 5.3902 0.4903 0.9624
-1.4487 0.8987 0.0874 0.9932
-1.4186 0.8516 0.0849 0.9934
-1.4172 0.8227 0.0841 0.9935
-1.4171 0.7953 0.0834 0.9935
-1.4187 0.7691 0.0828 0.9936
-1.4204 0.7434 0.0822 0.9936
-1.1840 0.5978 0.0680 0.9947
-1.0804 0.4685 0.0604 0.9953
-1.0750 0.4111 0.0590 0.9954
-1.0733 0.3927 0.0586 0.9954
-1.0621 0.3537 0.0574 0.9955
-1.0511 0.2995 0.0561 0.9956
-1.0407 0.2318 0.0547 0.9957
-1.0384 0.2154 0.0544 0.9958
-1.0362 0.1992 0.0541 0.9958
-1.0305 0.1826 0.0537 0.9958
-1.0242 0.1660 0.0532 0.9959
-0.9898 0.0724 0.0509 0.9960
-0.9724 0.0141 0.0499 0.9961
-0.9116 0.0000 0.0366 0.9964
-0.9150 -0.0134 0.0368 0.9963
-0.9219 -0.0404 0.0371 0.9963
-0.9255 -0.0542 0.0373 0.9963
-0.9331 -0.0820 0.0376 0.9963
-0.9379 -0.0963 0.0379 0.9962
-0.9528 -0.1402 0.0387 0.9962
-0.9634 -0.1707 0.0393 0.9961
-0.9689 -0.1863 0.0397 0.9961
-0.9851 -0.2964 0.0413 0.9959
-0.9874 -0.3129 0.0416 0.9959
-0.9938 -0.3310 0.0421 0.9958
-1.0015 -0.3498 0.0426 0.9958
-1.0216 -0.4080 0.0442 0.9956
-1.0229 -0.4259 0.0445 0.9956
-1.0258 -0.4627 0.0452 0.9955
-1.0288 -0.5008 0.0460 0.9954
-1.0305 -0.5204 0.0464 0.9954
-1.0322 -0.5403 0.0468 0.9953
-1.2465 -0.6759 0.0570 0.9943
-1.4123 -0.8200 0.0656 0.9935
-1.4222 -0.8823 0.0673 0.9933
-3.9000 -2.4990 0.1862 0.9816
-3.6968 -2.4458 0.1782 0.9824
-3.7334 -2.5492 0.1817 0.9821
-3.6290 -2.5565 0.1784 0.9824
-3.2988 -2.4712 0.1657 0.9836
-3.4208 -2.6415 0.1737 0.9828
-3.7416 -3.5550 0.2074 0.9796
-3.6351 -3.5562 0.2044 0.9798
-28.9982 -30.0773 1.6792 0.8460
-27.3152 -30.0410 1.6319 0.8500
-24.9580 -29.9902 1.5682 0.8554
-9.7805 -12.8594 0.6493 0.9374
-20.7373 -29.8992 1.4624 0.8644
-20.2681 -30.1542 1.4603 0.8646
-6.2207 -9.8658 0.4688 0.9544
-5.9278 -10.0400 0.4686 0.9544
-5.4881 -9.6135 0.4449 0.9567
-5.1708 -9.3732 0.4302 0.9581
-5.0587 -9.4955 0.4324 0.9578
-4.6115 -9.3011 0.4173 0.9593
-4.1668 -9.8053 0.4282 0.9582
-4.0988 -10.0508 0.4363 0.9575
-3.5430 -9.9092 0.4230 0.9587
-3.4474 -10.6099 0.4484 0.9563
-11.5641 -41.7317 1.7405 0.8408
-11.5143 -44.0429 1.8296 0.8334
-11.4591 -46.6041 1.9289 0.8252
-10.3207 -47.9801 1.9725 0.8216
-9.5863 -47.9642 1.9659 0.8222
-7.4101 -47.9173 1.9488 0.8236
-1.7679 -12.6537 0.5135 0.9501
-5.9784 -47.8864 1.9396 0.8243
-5.2507 -47.7195 1.9295 0.8252
-0.8036 -8.4354 0.3406 0.9666
-0.6763 -8.3978 0.3386 0.9668
-0.5527 -8.3930 0.3381 0.9669
-0.3067 -8.3930 0.3376 0.9669
-0.0613 -8.3903 0.3372 0.9670
0.0612 -8.3829 0.3369 0.9670
0.3058 -8.3676 0.3365 0.9670
0.4280 -8.3621 0.3365 0.9670
0.5506 -8.3606 0.3368 0.9670
0.6746 -8.3764 0.3378 0.9669
0.7994 -8.3913 0.3388 0.9668
8.0719 -47.5834 1.9398 0.8243
10.5377 -45.7286 1.8861 0.8287
10.4499 -29.2266 1.2475 0.8832
1.3089 -3.3487 0.1445 0.9857
1.3947 -3.2821 0.1433 0.9858
1.4792 -3.2164 0.1423 0.9859
1.4728 -2.6699 0.1226 0.9879
1.5607 -2.7339 0.1265 0.9875
1.5898 -2.6928 0.1257 0.9876
1.6532 -2.7088 0.1275 0.9874
1.8550 -2.7599 0.1337 0.9868
1.7265 -2.4893 0.1218 0.9879
1.8088 -2.5284 0.1249 0.9876
1.8957 -2.5695 0.1283 0.9873
1.9342 -2.5431 0.1284 0.9873
1.9482 -2.4853 0.1269 0.9874
2.1828 -2.4723 0.1326 0.9869
2.2584 -2.4839 0.1349 0.9867
2.2801 -2.4353 0.1341 0.9867
2.5528 -2.4975 0.1435 0.9858
2.6529 -2.5206 0.1471 0.9855
2.6932 -2.4850 0.1473 0.9854
2.7335 -2.4493 0.1475 0.9854
15.6120 -10.6601 0.7598 0.9271
15.7090 -10.0661 0.7499 0.9280
16.4834 -9.8951 0.7727 0.9259
16.6269 -9.3315 0.7663 0.9265
6.0076 -3.1444 0.2725 0.9732
6.2024 -2.7978 0.2735 0.9731
6.3058 -2.7343 0.2762 0.9729
6.4168 -2.5623 0.2777 0.9727
6.3952 -2.4459 0.2752 0.9730
10.9395 -3.2912 0.4592 0.9553
10.6425 -2.8655 0.4430 0.9568
10.7081 -2.7161 0.4440 0.9567
10.7444 -2.5588 0.4439 0.9567
10.8375 -2.4141 0.4463 0.9565
88.0309 -12.9555 3.5762 0.7003
38.7030 -3.4020 1.5615 0.8560
38.9998 -2.2821 1.5702 0.8552
39.3387 -1.7256 1.5826 0.8542
78.8113 9.2549 3.1893 0.7278
63.6453 8.4185 2.5803 0.7734
17.6174 3.1211 0.7191 0.9309
17.6305 3.3898 0.7216 0.9307
17.9242 5.1082 0.7491 0.9281
17.9762 5.4082 0.7545 0.9276
18.0290 5.7127 0.7601 0.9271
18.0826 6.0218 0.7660 0.9265
18.3761 6.7222 0.7864 0.9247
18.4278 7.0480 0.7930 0.9241
9.2989 4.0320 0.4074 0.9602
8.7216 4.7286 0.3987 0.9611
6.3382 3.6799 0.2946 0.9711
5.6860 3.7618 0.2740 0.9731
5.5510 3.7903 0.2702 0.9735
5.3892 3.9155 0.2677 0.9737
5.4155 4.0568 0.2720 0.9733
5.4813 4.3618 0.2815 0.9723
5.5221 4.5277 0.2870 0.9718
5.6082 5.1746 0.3067 0.9699
5.6694 5.5464 0.3188 0.9687
5.7045 5.7463 0.3254 0.9681
3.0055 3.7208 0.1922 0.9810
2.8336 3.7255 0.1881 0.9814
2.6804 3.7464 0.1851 0.9817
2.3165 3.7957 0.1787 0.9824
2.0539 3.8552 0.1756 0.9827
1.9920 3.8745 0.1751 0.9827
1.9402 3.9132 0.1755 0.9827
2.0453 4.8131 0.2102 0.9793
2.1197 5.1979 0.2256 0.9778
1.1015 7.8837 0.3199 0.9686
0.9775 7.8295 0.3171 0.9689
0.8668 7.8780 0.3185 0.9688
0.7494 7.8662 0.3176 0.9689
0.5237 7.9529 0.3203 0.9686
0.4018 7.8507 0.3159 0.9690
0.1745 7.9598 0.3200 0.9686
0.0589 8.0671 0.3242 0.9682
-0.7980 9.9073 0.3995 0.9610
-2.9947 5.4288 0.2492 0.9755
-3.0147 5.2810 0.2444 0.9760
-3.0524 5.0017 0.2355 0.9768
-3.1044 4.6187 0.2237 0.9780
-3.1364 4.3840 0.2166 0.9787
-3.1528 4.2735 0.2134 0.9790
-3.1852 4.0634 0.2075 0.9795
-3.2235 3.8736 0.2025 0.9800
-3.2427 3.7828 0.2003 0.9803
-3.2979 3.5224 0.1939 0.9809
-3.3157 3.4391 0.1920 0.9811
-3.3501 3.2775 0.1884 0.9814
-3.7241 3.2401 0.1984 0.9804
-3.8613 3.2616 0.2031 0.9800
-4.0534 3.3236 0.2107 0.9792
-7.8696 5.7176 0.3910 0.9618
-1.0322 0.5402 0.0468 0.9953
-1.0289 0.5007 0.0460 0.9954
-1.0273 0.4815 0.0456 0.9955
-1.0258 0.4627 0.0452 0.9955
-1.0230 0.4259 0.0445 0.9956
-1.0216 0.4079 0.0442 0.9956
-1.0159 0.3885 0.0437 0.9957
-1.0091 0.3691 0.0432 0.9957
-0.9829 0.2801 0.0411 0.9959
-0.9729 0.2018 0.0399 0.9960
-0.9689 0.1863 0.0397 0.9961
-0.9634 0.1707 0.0393 0.9961
-0.9528 0.1402 0.0387 0.9962
-0.9378 0.0962 0.0379 0.9962
-0.9255 0.0541 0.0373 0.9963
-0.9219 0.0404 0.0371 0.9963
-0.9150 0.0134 0.0368 0.9963
-0.8609 -0.0000 0.0251 0.9966
-0.8640 -0.0127 0.0251 0.9965
-0.8670 -0.0254 0.0252 0.9965
-0.8733 -0.0511 0.0255 0.9965
-0.8832 -0.0907 0.0258 0.9965
-0.8910 -0.1179 0.0262 0.9964
-0.8955 -0.1318 0.0263 0.9964
-0.9045 -0.1603 0.0267 0.9963
-0.9140 -0.1896 0.0272 0.9963
-0.9167 -0.2042 0.0273 0.9962
-0.9182 -0.2187 0.0275 0.9962
-0.9197 -0.2333 0.0276 0.9962
-0.9247 -0.2782 0.0281 0.9961
-0.9338 -0.3110 0.0286 0.9961
-0.9403 -0.3285 0.0290 0.9960
-0.9539 -0.3648 0.0297 0.9959
-0.9658 -0.4021 0.0304 0.9958
-0.9719 -0.4214 0.0308 0.9958
-0.9748 -0.4397 0.0311 0.9957
-0.9769 -0.4755 0.0316 0.9957
-0.9780 -0.4938 0.0319 0.9956
-0.9792 -0.5125 0.0322 0.9956
-0.9804 -0.5316 0.0324 0.9955
-1.1001 -0.6174 0.0367 0.9950
-1.4148 -0.8214 0.0476 0.9935
-3.7113 -2.3782 0.1283 0.9825
-3.3869 -2.3126 0.1193 0.9837
-3.3813 -2.3820 0.1203 0.9836
-3.3755 -2.4525 0.1214 0.9834
-3.4638 -2.8400 0.1303 0.9822
-3.4045 -2.8756 0.1297 0.9823
-3.2389 -2.9021 0.1265 0.9827
-3.1663 -2.9216 0.1254 0.9829
-3.4927 -3.5183 0.1442 0.9804
-28.9982 -30.0774 1.2157 0.8460
-28.1447 -30.0589 1.1982 0.8481
-27.3152 -30.0411 1.1814 0.8500
-25.7231 -30.0067 1.1500 0.8537
-24.9581 -29.9902 1.1353 0.8554
-24.2122 -29.9741 1.1211 0.8571
-23.4845 -29.9584 1.1076 0.8587
-9.7800 -12.8586 0.4701 0.9374
-20.7373 -29.8992 1.0587 0.8645
-20.2679 -30.1540 1.0572 0.8647
-6.3449 -9.7443 0.3383 0.9545
-5.3899 -9.7704 0.3247 0.9563
-4.9975 -9.7202 0.3180 0.9572
-4.4912 -9.4013 0.3032 0.9592
-4.2771 -9.6698 0.3077 0.9586
-3.9240 -10.0392 0.3136 0.9578
-3.5746 -9.9974 0.3089 0.9584
-3.3897 -10.4324 0.3192 0.9571
-11.5598 -39.4661 1.1966 0.8483
-11.5141 -44.0421 1.3246 0.8335
-11.4589 -46.6033 1.3964 0.8253
-11.0602 -47.9960 1.4331 0.8211
-10.3207 -47.9801 1.4280 0.8217
-9.5863 -47.9642 1.4232 0.8222
-7.4101 -47.9173 1.4108 0.8236
-1.7656 -12.6370 0.3713 0.9502
-5.9784 -47.8864 1.4042 0.8244
-0.9232 -8.3898 0.2456 0.9668
-0.7972 -8.3684 0.2446 0.9669
-0.5505 -8.3593 0.2438 0.9670
-0.1832 -8.3562 0.2432 0.9671
0.1827 -8.3375 0.2427 0.9672
0.3044 -8.3282 0.2425 0.9672
0.5480 -8.3214 0.2427 0.9672
0.7945 -8.3406 0.2438 0.9670
8.0719 -47.5834 1.4043 0.8244
9.5039 -47.5526 1.4110 0.8236
9.8396 -45.7437 1.3614 0.8292
10.5377 -45.7286 1.3654 0.8288
9.3893 -30.4020 0.9258 0.8804
9.9742 -29.2370 0.8989 0.8837
10.4500 -29.2267 0.9031 0.8832
1.4406 -3.2570 0.1036 0.9858
1.4828 -3.2243 0.1033 0.9859
1.5581 -3.0305 0.0992 0.9865
1.6110 -3.0241 0.0997 0.9864
1.5977 -2.8962 0.0962 0.9869
1.5479 -2.7114 0.0908 0.9876
1.6576 -2.7161 0.0926 0.9873
1.7906 -2.7499 0.0955 0.9870
1.7408 -2.5099 0.0889 0.9879
1.7879 -2.4992 0.0894 0.9878
1.9454 -2.5579 0.0935 0.9872
1.9593 -2.4995 0.0924 0.9874
1.9567 -2.4224 0.0906 0.9876
1.9324 -2.2543 0.0864 0.9882
2.0118 -2.2787 0.0884 0.9879
2.2649 -2.4909 0.0980 0.9866
2.2706 -2.4251 0.0967 0.9868
2.2774 -2.2941 0.0941 0.9871
2.5466 -2.4915 0.1037 0.9858
2.6458 -2.5139 0.1062 0.9855
2.6859 -2.4784 0.1063 0.9855
12.2760 -10.6802 0.4735 0.9370
15.5979 -10.3195 0.5442 0.9279
16.0469 -9.9550 0.5495 0.9272
16.5167 -9.5897 0.5557 0.9264
6.1982 -3.0169 0.2006 0.9728
6.2876 -2.9475 0.2021 0.9726
6.5400 -2.3924 0.2026 0.9725
43.1860 -12.9927 1.3122 0.8349
10.5159 -2.9969 0.3182 0.9572
10.6740 -2.8740 0.3216 0.9567
10.9622 -2.2744 0.3258 0.9562
11.1266 -2.1394 0.3297 0.9557
68.8779 -12.2027 2.0354 0.7558
78.7177 -12.7627 2.3204 0.7268
83.2888 -12.2577 2.4496 0.7140
27.5302 -2.8258 0.8053 0.8952
39.0746 -3.4346 1.1413 0.8547
96.5145 8.4834 2.8191 0.6786
19.3292 2.8446 0.5685 0.9248
17.6140 3.1205 0.5205 0.9309
17.6136 3.3867 0.5219 0.9307
17.6617 3.6643 0.5248 0.9304
17.7636 4.2304 0.5313 0.9295
17.9701 5.4064 0.5460 0.9277
18.0751 6.0193 0.5543 0.9266
18.3076 6.3954 0.5643 0.9253
18.3510 6.7130 0.5686 0.9248
9.3224 3.7225 0.2921 0.9606
9.0197 3.7554 0.2843 0.9617
8.5684 4.0166 0.2753 0.9628
8.6408 4.5227 0.2838 0.9617
8.6802 4.7061 0.2873 0.9613
6.4371 3.6127 0.2148 0.9709
6.2432 3.6248 0.2101 0.9715
6.0782 3.6487 0.2063 0.9720
5.7610 3.6916 0.1991 0.9730
5.4942 3.7515 0.1936 0.9737
5.3528 3.8890 0.1925 0.9739
5.3665 4.0202 0.1951 0.9735
5.3931 4.1645 0.1983 0.9731
5.4902 4.6373 0.2091 0.9717
5.5050 4.7893 0.2123 0.9712
5.6236 5.5016 0.2289 0.9690
5.6585 5.7000 0.2337 0.9684
5.7120 6.1005 0.2432 0.9671
3.0551 3.6712 0.1390 0.9811
2.9640 3.6694 0.1373 0.9813
2.7983 3.6792 0.1345 0.9817
2.7230 3.6909 0.1335 0.9818
2.6488 3.7023 0.1325 0.9819
2.5758 3.7137 0.1315 0.9821
2.5033 3.7243 0.1306 0.9822
2.4311 3.7336 0.1296 0.9823
2.3600 3.7429 0.1287 0.9824
2.2209 3.7616 0.1271 0.9827
2.1550 3.7749 0.1265 0.9828
2.0931 3.7942 0.1261 0.9828
2.0316 3.8135 0.1257 0.9829
1.9167 3.8658 0.1256 0.9829
1.8952 3.9673 0.1279 0.9826
1.9366 4.3784 0.1393 0.9810
1.0995 7.8693 0.2312 0.9687
0.8678 7.8868 0.2309 0.9687
0.7511 7.8842 0.2304 0.9688
0.6293 7.8141 0.2281 0.9691
0.5159 7.8351 0.2285 0.9691
0.4091 7.9914 0.2328 0.9685
0.1753 7.9966 0.2327 0.9685
0.0585 8.0071 0.2330 0.9685
-0.7964 9.8882 0.2887 0.9611
-2.9251 5.6895 0.1861 0.9747
-2.9635 5.3722 0.1785 0.9757
-3.0034 5.0872 0.1719 0.9766
-3.0406 4.8224 0.1659 0.9774
-3.0582 4.6968 0.1631 0.9778
-3.0753 4.5754 0.1604 0.9782
-3.1267 4.2382 0.1532 0.9791
-3.1434 4.1330 0.1511 0.9794
-3.2377 3.6671 0.1423 0.9806
-3.2562 3.5812 0.1408 0.9808
-3.2744 3.4971 0.1394 0.9810
-3.3268 3.2548 0.1354 0.9815
-3.4433 3.0853 0.1345 0.9817
-3.5539 3.0920 0.1371 0.9813
-3.6687 3.0988 0.1397 0.9810
-3.7881 3.1060 0.1425 0.9806
-3.9124 3.1135 0.1455 0.9802
-4.0628 3.1373 0.1494 0.9797
-4.4596 3.2402 0.1604 0.9782
-7.8639 5.3695 0.2771 0.9626
-1.1002 0.6175 0.0367 0.9950
-0.9804 0.5316 0.0324 0.9955
-0.9780 0.4938 0.0319 0.9956
-0.9769 0.4754 0.0316 0.9957
-0.9758 0.4574 0.0314 0.9957
-0.9719 0.4214 0.0308 0.9958
-0.9657 0.4021 0.0304 0.9958
-0.9403 0.3284 0.0290 0.9960
-0.9338 0.3109 0.0286 0.9961
-0.9275 0.2938 0.0283 0.9961
-0.9247 0.2782 0.0281 0.9961
-0.9214 0.2480 0.0278 0.9962
-0.9197 0.2332 0.0276 0.9962
-0.9182 0.2186 0.0275 0.9962
-0.9140 0.1896 0.0272 0.9963
-0.8955 0.1318 0.0263 0.9964
-0.8867 0.1041 0.0260 0.9964
-0.8832 0.0906 0.0258 0.9965
-0.8799 0.0773 0.0257 0.9965
-0.8766 0.0641 0.0256 0.9965
-0.8733 0.0511 0.0255 0.9965
-0.8701 0.0382 0.0253 0.9965
-0.8671 0.0253 0.0252 0.9965
-0.8157 0.0000 0.0147 0.9967
-0.8184 -0.0120 0.0147 0.9967
-0.8239 -0.0362 0.0149 0.9967
-0.8267 -0.0484 0.0149 0.9967
-0.8296 -0.0607 0.0150 0.9967
-0.8325 -0.0732 0.0151 0.9967
-0.8354 -0.0858 0.0151 0.9966
-0.8384 -0.0984 0.0152 0.9966
-0.8447 -0.1243 0.0154 0.9966
-0.8485 -0.1376 0.0155 0.9966
-0.8565 -0.1647 0.0157 0.9965
-0.8606 -0.1786 0.0158 0.9965
-0.8648 -0.1927 0.0160 0.9965
-0.8663 -0.2063 0.0160 0.9964
-0.8675 -0.2201 0.0161 0.9964
-0.8688 -0.2339 0.0162 0.9964
-0.8701 -0.2480 0.0163 0.9964
-0.8714 -0.2622 0.0164 0.9964
-0.8862 -0.3096 0.0169 0.9963
-0.8919 -0.3263 0.0171 0.9962
-0.9141 -0.3964 0.0179 0.9960
-0.9306 -0.4699 0.0188 0.9958
-0.9313 -0.4875 0.0189 0.9958
-0.9321 -0.5054 0.0191 0.9958
-0.9329 -0.5236 0.0193 0.9957
-0.9337 -0.5421 0.0194 0.9957
-1.1483 -0.6893 0.0241 0.9947
-3.7365 -2.3180 0.0792 0.9826
-3.7341 -2.3928 0.0799 0.9824
-3.6124 -2.5448 0.0796 0.9825
-3.5015 -2.5440 0.0779 0.9828
-3.4885 -2.6937 0.0794 0.9825
-3.5492 -2.8243 0.0817 0.9820
-3.2530 -3.0016 0.0797 0.9824
-3.3316 -3.1654 0.0828 0.9818
-3.4148 -3.3407 0.0860 0.9811
-3.3245 -3.3489 0.0850 0.9813
-28.9982 -30.0773 0.7524 0.8461
-28.1447 -30.0589 0.7416 0.8481
-26.5084 -30.0237 0.7213 0.8519
-25.7231 -30.0067 0.7118 0.8537
-24.2122 -29.9742 0.6939 0.8571
-9.7794 -12.8579 0.2909 0.9374
-21.4013 -29.9135 0.6624 0.8632
-20.7373 -29.8992 0.6553 0.8645
-6.5774 -9.7856 0.2123 0.9539
-6.3268 -9.7166 0.2088 0.9547
-5.7490 -9.7372 0.2036 0.9558
-5.6441 -9.8867 0.2050 0.9555
-5.4309 -9.8446 0.2025 0.9560
-5.0913 -9.5566 0.1950 0.9576
-4.9647 -9.6564 0.1955 0.9575
-4.5375 -9.4982 0.1896 0.9588
-4.1494 -9.7644 0.1911 0.9584
-4.0733 -9.9881 0.1943 0.9578
-3.7476 -10.0173 0.1926 0.9581
-3.5202 -9.8454 0.1883 0.9590
-3.2767 -10.6097 0.2000 0.9565
-11.5598 -39.4661 0.7406 0.8483
-11.5637 -41.7304 0.7799 0.8409
-11.4587 -46.6025 0.8643 0.8253
-10.3207 -47.9801 0.8839 0.8217
-9.5863 -47.9642 0.8809 0.8223
-8.8566 -47.9485 0.8781 0.8228
-7.4101 -47.9173 0.8732 0.8237
-1.0462 -8.3802 0.1521 0.9668
-0.7643 -8.0224 0.1451 0.9683
-0.5483 -8.3259 0.1503 0.9672
-0.3042 -8.3221 0.1500 0.9672
-0.0608 -8.3139 0.1497 0.9673
0.6678 -8.2923 0.1498 0.9673
0.7898 -8.2906 0.1500 0.9672
0.9121 -8.2898 0.1502 0.9672
6.6523 -47.6141 0.8658 0.8250
8.0719 -47.5835 0.8692 0.8244
3.2594 -12.4675 0.2320 0.9498
9.3895 -30.4025 0.5730 0.8805
3.4957 -9.3439 0.1797 0.9609
1.3586 -3.3316 0.0648 0.9857
1.4016 -3.2981 0.0645 0.9858
1.4441 -3.2650 0.0643 0.9858
1.5284 -3.1994 0.0639 0.9859
1.5701 -3.1670 0.0637 0.9860
1.5642 -3.0425 0.0616 0.9864
1.5877 -2.8781 0.0592 0.9869
1.5983 -2.7072 0.0566 0.9875
1.6621 -2.7234 0.0575 0.9873
1.7782 -2.7309 0.0587 0.9870
1.6750 -2.4921 0.0541 0.9881
1.7553 -2.5309 0.0555 0.9878
1.8250 -2.5510 0.0565 0.9875
1.9661 -2.4339 0.0563 0.9876
1.9412 -2.2645 0.0537 0.9881
2.0229 -2.2912 0.0550 0.9878
2.2576 -2.4829 0.0604 0.9867
2.2648 -2.3491 0.0588 0.9870
2.2682 -2.2848 0.0580 0.9872
2.6388 -2.5072 0.0656 0.9855
12.2296 -10.6397 0.2919 0.9372
15.6046 -10.6550 0.3403 0.9272
15.5935 -9.9921 0.3335 0.9286
16.4559 -9.8787 0.3457 0.9261
17.2430 -9.3486 0.3532 0.9245
6.0389 -3.1609 0.1228 0.9731
6.1262 -3.0934 0.1236 0.9729
6.2945 -2.8393 0.1244 0.9728
6.3811 -2.6568 0.1245 0.9727
6.4293 -2.4590 0.1240 0.9728
6.7158 -2.4567 0.1288 0.9718
38.2824 -12.7487 0.7267 0.8509
10.5468 -3.0057 0.1975 0.9571
10.9892 -2.2799 0.2021 0.9561
94.0413 -12.4391 1.7084 0.6842
38.9683 -2.8522 0.7037 0.8553
39.2356 -2.2959 0.7078 0.8545
46.6758 -2.0474 0.8414 0.8295
96.4009 8.4734 1.7428 0.6790
39.9892 4.6960 0.7251 0.8512
40.1041 5.3046 0.7285 0.8506
17.6134 3.1204 0.3221 0.9309
17.6475 3.6613 0.3246 0.9304
17.8025 4.5155 0.3308 0.9292
17.8574 4.8082 0.3331 0.9287
17.9688 5.4060 0.3379 0.9277
18.3435 6.7102 0.3518 0.9248
9.2151 3.6797 0.1787 0.9611
8.6823 3.7647 0.1704 0.9628
8.5400 4.1566 0.1711 0.9627
8.5502 4.3173 0.1725 0.9624
8.5704 4.4858 0.1742 0.9620
6.5614 3.5574 0.1344 0.9706
5.3439 3.7645 0.1177 0.9742
5.3165 3.8627 0.1184 0.9741
5.3292 3.9921 0.1199 0.9737
5.3526 4.1331 0.1218 0.9733
5.3921 4.2908 0.1241 0.9728
5.4579 4.7484 0.1303 0.9715
5.6122 5.6534 0.1435 0.9686
5.6441 5.8541 0.1464 0.9680
5.6738 6.0597 0.1495 0.9673
5.5106 6.0605 0.1475 0.9678
3.0130 3.6205 0.0848 0.9813
2.9236 3.6194 0.0838 0.9816
2.7653 3.6358 0.0823 0.9819
2.6911 3.6477 0.0816 0.9820
2.6180 3.6593 0.0810 0.9822
2.5460 3.6709 0.0805 0.9823
2.4031 3.6906 0.0793 0.9825
2.2638 3.7093 0.0783 0.9828
2.1318 3.7343 0.0774 0.9829
2.0707 3.7535 0.0772 0.9830
1.8663 4.0580 0.0804 0.9823
1.9047 4.3063 0.0848 0.9813
2.0295 4.9765 0.0968 0.9787
2.1644 5.7853 0.1112 0.9756
1.8489 5.6902 0.1078 0.9763
0.9799 7.8491 0.1425 0.9689
0.6305 7.8284 0.1414 0.9691
0.5218 7.9245 0.1430 0.9687
0.4019 7.8524 0.1416 0.9690
0.1750 7.9826 0.1438 0.9686
0.0584 7.9977 0.1440 0.9685
-0.0589 8.0607 0.1452 0.9683
-0.1757 8.0150 0.1444 0.9684
-0.7939 9.8575 0.1781 0.9612
-2.8524 5.9711 0.1192 0.9739
-2.9115 5.4652 0.1115 0.9755
-2.9736 5.0367 0.1053 0.9769
-2.9928 4.9041 0.1035 0.9773
-3.0114 4.7762 0.1017 0.9777
-3.0294 4.6526 0.1000 0.9780
-3.0474 4.5339 0.0984 0.9784
-3.0658 4.4204 0.0969 0.9787
-3.0837 4.3104 0.0954 0.9790
-3.1180 4.0996 0.0928 0.9796
-3.1558 3.9070 0.0904 0.9801
-3.1757 3.8161 0.0894 0.9803
-3.1951 3.7273 0.0884 0.9806
-3.2142 3.6405 0.0875 0.9808
-3.2328 3.5555 0.0865 0.9810
-3.2511 3.4723 0.0857 0.9811
-3.2690 3.3908 0.0848 0.9813
-3.3263 3.1605 0.0826 0.9818
-3.3459 3.0873 0.0820 0.9820
-3.4341 3.0771 0.0830 0.9817
-3.5442 3.0835 0.0846 0.9814
-4.0457 3.1240 0.0921 0.9798
-7.8348 5.5191 0.1726 0.9624
-7.8491 5.3594 0.1712 0.9627
-7.8679 5.2053 0.1699 0.9630
-7.8858 5.0530 0.1687 0.9632
-0.9329 0.5235 0.0193 0.9957
-0.9321 0.5054 0.0191 0.9958
-0.9314 0.4874 0.0189 0.9958
-0.9300 0.4526 0.0186 0.9959
-0.9194 0.4147 0.0182 0.9960
-0.9142 0.3963 0.0179 0.9960
-0.9090 0.3784 0.0177 0.9961
-0.8919 0.3262 0.0171 0.9962
-0.8862 0.3095 0.0169 0.9963
-0.8807 0.2933 0.0167 0.9963
-0.8754 0.2773 0.0165 0.9963
-0.8688 0.2339 0.0162 0.9964
-0.8675 0.2200 0.0161 0.9964
-0.8663 0.2063 0.0160 0.9964
-0.8648 0.1927 0.0160 0.9965
-0.8525 0.1510 0.0156 0.9965
-0.8485 0.1376 0.0155 0.9966
-0.8446 0.1243 0.0154 0.9966
-0.8415 0.1113 0.0153 0.9966
-0.8384 0.0984 0.0152 0.9966
-0.8354 0.0857 0.0151 0.9966
-0.8239 0.0361 0.0149 0.9967
-0.8184 0.0120 0.0147 0.9967
-0.7750 -0.0000 0.0054 0.9969
-0.7799 -0.0228 0.0054 0.9969
-0.7824 -0.0343 0.0054 0.9969
-0.7874 -0.0577 0.0055 0.9968
-0.7900 -0.0695 0.0055 0.9968
-0.7952 -0.0934 0.0055 0.9968
-0.8005 -0.1178 0.0056 0.9968
-0.8032 -0.1302 0.0056 0.9968
-0.8061 -0.1429 0.0057 0.9967
-0.8210 -0.2082 0.0059 0.9966
-0.8287 -0.2626 0.0060 0.9965
-0.8381 -0.2928 0.0061 0.9965
-0.8429 -0.3083 0.0062 0.9964
-0.8478 -0.3243 0.0063 0.9964
-0.8581 -0.3573 0.0064 0.9963
-0.8717 -0.4087 0.0067 0.9962
-0.8810 -0.4448 0.0068 0.9961
-0.8858 -0.4637 0.0069 0.9960
-3.6836 -2.3604 0.0303 0.9827
-3.5854 -2.3721 0.0298 0.9830
-3.8407 -2.6225 0.0322 0.9816
-3.6948 -2.6028 0.0313 0.9821
-3.4584 -2.5907 0.0299 0.9829
-3.4486 -2.6630 0.0302 0.9827
-3.2973 -2.7035 0.0295 0.9831
-3.3940 -2.9528 0.0312 0.9822
-3.5471 -3.3702 0.0339 0.9806
-3.4475 -3.3728 0.0334 0.9809
-3.3508 -3.3754 0.0329 0.9812
-3.2566 -3.3778 0.0325 0.9814
-3.3422 -3.5695 0.0339 0.9806
-3.3239 -3.6555 0.0342 0.9804
-26.5084 -30.0237 0.2774 0.8520
-25.7231 -30.0067 0.2737 0.8538
-24.2122 -29.9741 0.2669 0.8572
-23.4845 -29.9584 0.2636 0.8588
-22.0799 -29.9282 0.2576 0.8618
-21.4013 -29.9135 0.2547 0.8632
-5.9680 -9.4650 0.0775 0.9562
-5.6946 -9.6451 0.0776 0.9562
-5.2599 -9.5347 0.0754 0.9574
-5.0663 -9.5098 0.0746 0.9578
-4.8123 -9.3600 0.0729 0.9588
-4.6737 -9.4266 0.0729 0.9588
-4.3398 -9.8116 0.0743 0.9580
-4.0116 -9.8369 0.0736 0.9584
-3.3719 -9.8839 0.0723 0.9591
-3.4144 -11.0556 0.0801 0.9548
-11.5636 -41.7297 0.2999 0.8410
-11.4585 -46.6016 0.3324 0.8253
-11.0603 -47.9961 0.3411 0.8212
-10.3207 -47.9801 0.3399 0.8218
-8.1313 -47.9328 0.3367 0.8233
-1.3468 -8.7089 0.0610 0.9654
-1.1727 -8.3934 0.0587 0.9667
-0.9131 -8.2982 0.0578 0.9672
-0.6679 -8.2922 0.0576 0.9673
-0.5458 -8.2892 0.0575 0.9673
-0.4243 -8.2880 0.0575 0.9673
-0.3028 -8.2841 0.0574 0.9674
-0.1815 -8.2801 0.0574 0.9674
-0.0605 -8.2760 0.0573 0.9674
0.5429 -8.2442 0.0572 0.9675
0.6641 -8.2452 0.0573 0.9675
0.7851 -8.2412 0.0573 0.9674
0.9063 -8.2371 0.0574 0.9674
1.0322 -8.2677 0.0577 0.9672
6.6523 -47.6141 0.3330 0.8251
7.3608 -47.5988 0.3336 0.8248
8.0720 -47.5835 0.3343 0.8244
8.7862 -47.5681 0.3350 0.8241
9.8396 -45.7437 0.3241 0.8293
10.5377 -45.7286 0.3250 0.8289
3.2660 -12.4927 0.0894 0.9497
9.5029 -29.2471 0.2130 0.8843
9.9742 -29.2370 0.2140 0.8838
1.3186 -3.3736 0.0251 0.9856
1.3620 -3.3398 0.0250 0.9857
1.4050 -3.3062 0.0249 0.9857
1.5704 -3.0544 0.0238 0.9864
1.6238 -3.0480 0.0239 0.9863
1.6980 -3.0780 0.0243 0.9860
1.5228 -2.6675 0.0213 0.9878
1.7325 -2.7479 0.0225 0.9871
