ply
format ascii 1.0
element vertex 1592
property float32 x
property float32 y
property float32 z
property float32 I
end_header
5.7701 4.4555 -0.5971 0.9712
5.8632 4.6657 -0.6137 0.9704
5.8914 4.8304 -0.6240 0.9699
3.8624 3.3603 -0.4193 0.9797
3.7660 3.3744 -0.4142 0.9799
3.6712 3.3874 -0.4092 0.9802
3.4932 3.4174 -0.4003 0.9806
3.3216 3.4452 -0.3920 0.9810
2.9984 3.4977 -0.3774 0.9817
2.9214 3.5104 -0.3741 0.9818
2.6504 3.5925 -0.3657 0.9822
2.5987 3.6323 -0.3658 0.9822
2.5586 3.6890 -0.3677 0.9821
2.5575 3.9278 -0.3839 0.9814
2.7788 5.0372 -0.4712 0.9772
2.8202 5.2937 -0.4913 0.9762
2.9120 5.8733 -0.5370 0.9740
2.9679 6.4534 -0.5818 0.9719
2.9687 6.7116 -0.6011 0.9710
4.5047 11.0459 -0.9771 0.9533
4.3430 11.1113 -0.9772 0.9532
4.1805 11.1744 -0.9772 0.9532
3.8527 11.2933 -0.9774 0.9532
3.1874 11.5023 -0.9776 0.9532
3.0192 11.5484 -0.9777 0.9532
2.2301 9.6773 -0.8134 0.9609
0.7667 3.5644 -0.2986 0.9855
0.7006 3.5056 -0.2928 0.9858
0.6458 3.4961 -0.2912 0.9858
0.5903 3.4794 -0.2891 0.9859
0.5355 3.4628 -0.2870 0.9860
0.1277 3.4942 -0.2864 0.9861
-0.0257 3.5170 -0.2881 0.9860
-0.0772 3.5246 -0.2888 0.9860
-0.1812 3.5403 -0.2904 0.9859
-0.3396 3.5649 -0.2933 0.9857
-0.4471 3.5816 -0.2956 0.9856
-0.5016 3.5905 -0.2969 0.9856
-0.6130 3.6136 -0.3002 0.9854
-0.8437 3.6611 -0.3077 0.9850
-0.9049 3.6803 -0.3104 0.9849
-2.1982 7.9329 -0.6743 0.9675
-2.3260 7.9411 -0.6778 0.9673
-2.5990 7.9988 -0.6889 0.9668
-3.2994 9.6713 -0.8370 0.9598
-4.0305 11.2727 -0.9806 0.9531
-4.1951 11.2134 -0.9806 0.9531
-5.0041 10.8809 -0.9810 0.9531
-5.1629 10.8073 -0.9810 0.9531
-5.3206 10.7314 -0.9811 0.9531
-5.4772 10.6533 -0.9812 0.9531
-5.7869 10.4900 -0.9813 0.9531
-5.9399 10.4050 -0.9814 0.9531
-6.0917 10.3177 -0.9814 0.9531
-6.2245 10.1992 -0.9787 0.9532
-6.5207 10.0142 -0.9788 0.9532
-6.6667 9.9184 -0.9789 0.9532
-6.8113 9.8205 -0.9789 0.9532
-5.1130 6.9305 -0.7054 0.9660
-4.9104 6.4561 -0.6644 0.9680
-4.9597 6.3269 -0.6585 0.9683
-5.0375 6.2363 -0.6566 0.9683
-5.1390 6.1752 -0.6580 0.9683
-5.2386 6.1111 -0.6593 0.9682
-5.2878 5.8156 -0.6438 0.9689
-5.3115 5.6730 -0.6365 0.9693
-5.3348 5.5334 -0.6296 0.9696
-5.3584 5.3979 -0.6230 0.9699
-0.6007 0.5226 -0.0652 0.9968
-0.6006 0.5073 -0.0644 0.9968
-0.6004 0.4923 -0.0636 0.9969
-0.6001 0.4775 -0.0628 0.9969
-0.5995 0.4491 -0.0614 0.9970
-0.5984 0.4347 -0.0606 0.9970
-0.5971 0.4206 -0.0598 0.9971
-0.5932 0.3800 -0.0577 0.9972
-0.5918 0.3672 -0.0570 0.9972
-0.5893 0.3421 -0.0558 0.9973
-0.5879 0.3300 -0.0552 0.9973
-0.5812 0.2725 -0.0526 0.9974
-0.5793 0.2512 -0.0517 0.9975
-0.5775 0.2306 -0.0509 0.9975
-0.5729 0.1815 -0.0492 0.9976
-0.5706 0.1537 -0.0484 0.9976
-0.5690 0.1355 -0.0479 0.9977
-0.5682 0.1266 -0.0477 0.9977
-0.5655 0.1002 -0.0470 0.9977
-0.5645 0.0916 -0.0468 0.9977
-0.5635 0.0830 -0.0467 0.9977
-0.5628 0.0745 -0.0465 0.9977
-0.5586 0.0327 -0.0458 0.9978
-0.5577 0.0245 -0.0457 0.9978
-0.5558 0.0081 -0.0455 0.9978
-0.5367 -0.0078 -0.0500 0.9978
-0.5392 -0.0315 -0.0503 0.9978
-0.5400 -0.0395 -0.0504 0.9978
-0.5408 -0.0475 -0.0505 0.9978
-0.5416 -0.0556 -0.0507 0.9978
-0.5458 -0.1049 -0.0517 0.9978
-0.5465 -0.1134 -0.0520 0.9978
-0.5506 -0.1656 -0.0535 0.9977
-0.5512 -0.1746 -0.0538 0.9977
-0.5517 -0.1837 -0.0541 0.9977
-0.5523 -0.1929 -0.0544 0.9977
-0.5531 -0.2023 -0.0548 0.9976
-0.5539 -0.2118 -0.0552 0.9976
-0.5546 -0.2215 -0.0556 0.9976
-0.5553 -0.2312 -0.0560 0.9976
-0.5573 -0.2612 -0.0573 0.9975
-0.5594 -0.2928 -0.0588 0.9975
-0.5614 -0.3151 -0.0599 0.9974
-0.5634 -0.3382 -0.0612 0.9974
-0.5652 -0.3621 -0.0625 0.9973
-0.5679 -0.4001 -0.0647 0.9972
-0.5696 -0.4267 -0.0662 0.9971
-0.5704 -0.4405 -0.0671 0.9971
-0.5712 -0.4545 -0.0679 0.9971
-0.5719 -0.4689 -0.0688 0.9970
-0.5713 -0.5119 -0.0714 0.9969
-0.5710 -0.5268 -0.0723 0.9969
-0.5702 -0.5579 -0.0742 0.9968
-0.6549 -0.6597 -0.0865 0.9963
-3.0792 -3.1937 -0.4129 0.9823
-3.3800 -3.6099 -0.4603 0.9803
-7.2071 -7.9263 -0.9971 0.9579
-7.0902 -8.0304 -0.9971 0.9579
-6.6077 -8.4292 -0.9969 0.9579
-6.4835 -8.5245 -0.9968 0.9579
-6.2310 -8.7094 -0.9967 0.9579
-5.9733 -8.8868 -0.9966 0.9579
-5.8424 -8.9727 -0.9966 0.9579
-5.7104 -9.0566 -0.9965 0.9579
-5.4428 -9.2186 -0.9964 0.9579
-4.4560 -8.0775 -0.8586 0.9636
-4.3015 -8.0742 -0.8515 0.9639
-4.1496 -8.0709 -0.8447 0.9642
-4.0115 -8.0909 -0.8405 0.9644
-4.4712 -9.7222 -0.9960 0.9579
-4.3285 -9.7859 -0.9959 0.9579
-4.1848 -9.8476 -0.9959 0.9579
-1.0517 -2.5790 -0.2592 0.9889
-1.0151 -2.5971 -0.2595 0.9889
-0.9784 -2.6152 -0.2599 0.9888
-0.9416 -2.6334 -0.2603 0.9888
-0.8524 -2.6233 -0.2567 0.9890
-0.8303 -2.6886 -0.2619 0.9888
-0.7929 -2.7072 -0.2626 0.9887
-0.7553 -2.7259 -0.2633 0.9887
-0.6205 -2.3734 -0.2283 0.9902
-0.6054 -2.4624 -0.2360 0.9899
-0.5721 -2.6596 -0.2532 0.9891
-0.5535 -2.7693 -0.2628 0.9887
-0.4649 -2.5170 -0.2382 0.9898
-0.4590 -2.7054 -0.2554 0.9890
-0.4306 -2.7844 -0.2622 0.9887
-0.3833 -2.7438 -0.2579 0.9889
-0.3376 -2.7045 -0.2537 0.9891
-0.2919 -2.6529 -0.2484 0.9893
-0.2465 -2.5880 -0.2420 0.9896
-0.2035 -2.5264 -0.2359 0.9899
-0.1625 -2.4677 -0.2302 0.9901
-0.0911 -2.4922 -0.2321 0.9900
-0.0615 -2.8073 -0.2613 0.9888
-0.0205 -2.8026 -0.2609 0.9888
0.0204 -2.7979 -0.2604 0.9888
0.1019 -2.7887 -0.2597 0.9889
0.1830 -2.7795 -0.2593 0.9889
0.2235 -2.7750 -0.2591 0.9889
0.9943 -10.4366 -0.9758 0.9588
1.1466 -10.4202 -0.9757 0.9588
1.2457 -8.0556 -0.7587 0.9678
1.3661 -8.0530 -0.7602 0.9677
2.3529 -10.2102 -0.9752 0.9588
2.5017 -10.1741 -0.9752 0.9588
2.6499 -10.1359 -0.9751 0.9588
3.1480 -10.1927 -0.9929 0.9580
3.5909 -10.0432 -0.9927 0.9581
3.8824 -9.9328 -0.9926 0.9581
4.0269 -9.8744 -0.9925 0.9581
4.3132 -9.7514 -0.9924 0.9581
4.5957 -9.6201 -0.9923 0.9581
4.0609 -8.1907 -0.8509 0.9639
4.1179 -8.0095 -0.8382 0.9645
4.5669 -7.9998 -0.8574 0.9637
5.8146 -8.9299 -0.9918 0.9581
5.9442 -8.8435 -0.9918 0.9581
6.0724 -8.7553 -0.9917 0.9581
6.1994 -8.6652 -0.9917 0.9581
6.3250 -8.5732 -0.9916 0.9581
6.4492 -8.4795 -0.9916 0.9581
6.5721 -8.3839 -0.9915 0.9581
6.8136 -8.1874 -0.9914 0.9581
7.0493 -7.9841 -0.9913 0.9581
7.2789 -7.7739 -0.9912 0.9581
7.3914 -7.6664 -0.9912 0.9581
7.5022 -7.5572 -0.9911 0.9581
7.7192 -7.3341 -0.9910 0.9581
7.8251 -7.2203 -0.9910 0.9581
7.9295 -7.1048 -0.9910 0.9581
3.6735 -3.1028 -0.4476 0.9809
3.7309 -3.0590 -0.4490 0.9808
3.7508 -2.8098 -0.4362 0.9813
3.9344 -2.8584 -0.4526 0.9807
3.9539 -2.6998 -0.4456 0.9810
3.9340 -2.6027 -0.4390 0.9812
4.2404 -2.6306 -0.4644 0.9802
9.1238 -5.4771 -0.9905 0.9582
9.3542 -5.0716 -0.9904 0.9582
9.4270 -4.9342 -0.9903 0.9582
9.5667 -4.6564 -0.9903 0.9582
9.8213 -4.0891 -0.9902 0.9582
9.8798 -3.9452 -0.9902 0.9582
9.7838 -3.7420 -0.9750 0.9588
10.0726 -2.8706 -0.9748 0.9588
10.1519 -2.5750 -0.9748 0.9588
10.2545 -2.1275 -0.9748 0.9588
10.4726 -1.8554 -0.9899 0.9582
10.5221 -1.5486 -0.9899 0.9582
10.5435 -1.3946 -0.9899 0.9582
10.5943 -0.9312 -0.9899 0.9582
10.6169 -0.6212 -0.9899 0.9582
10.6304 -0.3108 -0.9898 0.9582
10.6350 0.0000 -0.9898 0.9582
10.6338 0.1554 -0.9898 0.9582
10.6304 0.3108 -0.9898 0.9582
10.6248 0.4661 -0.9898 0.9582
10.6169 0.6212 -0.9899 0.9582
10.5943 0.9312 -0.9899 0.9582
10.5796 1.0859 -0.9899 0.9582
10.5221 1.5485 -0.9899 0.9582
10.4445 2.0082 -0.9899 0.9582
10.4142 2.1606 -0.9899 0.9582
10.3469 2.4641 -0.9900 0.9582
10.3099 2.6150 -0.9900 0.9582
10.2708 2.7655 -0.9900 0.9582
10.2294 2.9153 -0.9900 0.9582
10.0924 3.3609 -0.9901 0.9582
9.9903 3.6546 -0.9901 0.9582
9.8798 3.9451 -0.9901 0.9582
9.8212 4.0891 -0.9902 0.9582
7.1144 3.7237 -0.7474 0.9683
7.1649 4.0211 -0.7647 0.9675
6.2286 3.6163 -0.6704 0.9715
5.7940 3.7127 -0.6405 0.9727
5.7289 4.1623 -0.6591 0.9720
5.7510 4.3081 -0.6688 0.9715
5.7703 4.4557 -0.6785 0.9711
4.1060 3.3666 -0.4942 0.9789
3.9550 3.3406 -0.4818 0.9794
3.8536 3.3527 -0.4754 0.9797
3.7576 3.3668 -0.4696 0.9799
3.6629 3.3798 -0.4639 0.9802
3.5721 3.3939 -0.4586 0.9804
3.4837 3.4082 -0.4536 0.9806
3.3972 3.4221 -0.4488 0.9808
3.2301 3.4498 -0.4399 0.9812
3.1492 3.4634 -0.4357 0.9814
2.9909 3.4890 -0.4277 0.9817
2.9156 3.5034 -0.4242 0.9819
2.7674 3.5303 -0.4175 0.9821
2.6412 3.5800 -0.4141 0.9823
2.5883 3.6179 -0.4140 0.9823
2.5521 3.6796 -0.4168 0.9822
2.5338 3.8913 -0.4322 0.9815
2.5598 4.0597 -0.4467 0.9809
2.6648 4.5135 -0.4878 0.9792
2.7774 5.0346 -0.5352 0.9772
2.8626 5.5677 -0.5827 0.9752
2.9459 6.1666 -0.6361 0.9729
2.9687 6.7118 -0.6831 0.9709
3.9540 9.6953 -0.9745 0.9588
3.8121 9.7526 -0.9746 0.9588
3.6694 9.8078 -0.9747 0.9588
3.3816 9.9120 -0.9748 0.9588
3.0910 10.0078 -0.9749 0.9588
2.9446 10.0526 -0.9750 0.9588
2.7975 10.0952 -0.9750 0.9588
2.6499 10.1355 -0.9751 0.9588
2.2262 9.6605 -0.9227 0.9610
0.6930 3.4675 -0.3291 0.9859
0.6332 3.4280 -0.3245 0.9861
0.5802 3.4204 -0.3229 0.9862
0.5290 3.4208 -0.3222 0.9862
0.3274 3.4371 -0.3214 0.9862
0.2772 3.4415 -0.3213 0.9862
0.2269 3.4457 -0.3214 0.9862
0.1264 3.4585 -0.3221 0.9862
0.0254 3.4723 -0.3232 0.9861
-0.0254 3.4792 -0.3238 0.9861
-0.0764 3.4860 -0.3245 0.9861
-0.1791 3.4995 -0.3261 0.9860
-0.3353 3.5197 -0.3291 0.9859
-0.4411 3.5330 -0.3314 0.9858
-0.4946 3.5398 -0.3327 0.9857
-0.5489 3.5497 -0.3343 0.9857
-0.6038 3.5595 -0.3360 0.9856
-0.6593 3.5693 -0.3378 0.9855
-0.7720 3.5891 -0.3417 0.9854
-0.9802 3.7493 -0.3607 0.9846
-2.6070 8.0236 -0.7852 0.9667
-3.2934 9.6537 -0.9494 0.9599
-3.5361 9.8901 -0.9776 0.9587
-3.8241 9.7837 -0.9777 0.9587
-3.9669 9.7273 -0.9778 0.9587
-4.1088 9.6689 -0.9778 0.9587
-4.5294 9.4812 -0.9780 0.9587
-4.8051 9.3459 -0.9781 0.9587
-4.9414 9.2753 -0.9782 0.9587
-5.0767 9.2026 -0.9782 0.9587
-5.3440 9.0513 -0.9783 0.9587
-5.4760 8.9727 -0.9784 0.9587
-5.6068 8.8923 -0.9784 0.9586
-5.7365 8.8098 -0.9785 0.9586
-5.8649 8.7256 -0.9786 0.9586
-5.9921 8.6394 -0.9786 0.9586
-6.1180 8.5514 -0.9787 0.9586
-5.1142 6.9322 -0.8018 0.9660
-4.9661 6.3351 -0.7492 0.9682
-5.0433 6.2435 -0.7470 0.9683
-5.1454 6.1829 -0.7487 0.9682
-5.2923 5.8206 -0.7322 0.9689
-5.3392 5.5380 -0.7160 0.9696
-0.6549 0.6597 -0.0865 0.9963
-0.5710 0.5269 -0.0723 0.9969
-0.5712 0.4545 -0.0679 0.9971
-0.5704 0.4405 -0.0671 0.9971
-0.5696 0.4267 -0.0662 0.9971
-0.5688 0.4132 -0.0654 0.9972
-0.5643 0.3501 -0.0618 0.9973
-0.5585 0.2820 -0.0582 0.9975
-0.5579 0.2716 -0.0578 0.9975
-0.5573 0.2613 -0.0573 0.9975
-0.5567 0.2511 -0.0568 0.9975
-0.5560 0.2411 -0.0564 0.9976
-0.5553 0.2312 -0.0560 0.9976
-0.5546 0.2215 -0.0556 0.9976
-0.5538 0.2118 -0.0552 0.9976
-0.5523 0.1929 -0.0544 0.9977
-0.5517 0.1837 -0.0541 0.9977
-0.5512 0.1746 -0.0538 0.9977
-0.5506 0.1656 -0.0535 0.9977
-0.5500 0.1568 -0.0532 0.9977
-0.5493 0.1479 -0.0530 0.9977
-0.5465 0.1134 -0.0520 0.9978
-0.5449 0.0966 -0.0515 0.9978
-0.5443 0.0882 -0.0513 0.9978
-0.5437 0.0800 -0.0511 0.9978
-0.5430 0.0718 -0.0510 0.9978
-0.5416 0.0556 -0.0507 0.9978
-0.5392 0.0316 -0.0503 0.9978
-0.5384 0.0236 -0.0502 0.9978
-0.5375 0.0157 -0.0501 0.9978
-0.5366 0.0079 -0.0500 0.9978
-0.5187 -0.0076 -0.0541 0.9979
-0.5211 -0.0305 -0.0544 0.9979
-0.5219 -0.0382 -0.0546 0.9979
-0.5226 -0.0459 -0.0547 0.9979
-0.5233 -0.0537 -0.0548 0.9979
-0.5246 -0.0694 -0.0552 0.9979
-0.5251 -0.0773 -0.0553 0.9979
-0.5267 -0.1013 -0.0559 0.9978
-0.5290 -0.1342 -0.0569 0.9978
-0.5295 -0.1426 -0.0572 0.9978
-0.5301 -0.1511 -0.0575 0.9978
-0.5306 -0.1596 -0.0578 0.9978
-0.5318 -0.1858 -0.0587 0.9977
-0.5328 -0.2037 -0.0595 0.9977
-0.5334 -0.2130 -0.0599 0.9977
-0.5350 -0.2413 -0.0612 0.9976
-0.5354 -0.2510 -0.0617 0.9976
-0.5358 -0.2608 -0.0621 0.9976
-0.5365 -0.2808 -0.0631 0.9976
-0.5372 -0.3015 -0.0642 0.9975
-0.5392 -0.3345 -0.0662 0.9975
-0.5409 -0.3693 -0.0683 0.9974
-0.5414 -0.3814 -0.0690 0.9973
-0.5419 -0.3937 -0.0698 0.9973
-0.5433 -0.4323 -0.0724 0.9972
-0.5436 -0.4457 -0.0733 0.9972
-0.5442 -0.4734 -0.0752 0.9971
-0.5416 -0.5455 -0.0801 0.9969
-6.4316 -7.0735 -0.9968 0.9623
-6.3273 -7.1664 -0.9968 0.9623
-6.2217 -7.2578 -0.9967 0.9623
-5.4464 -7.8526 -0.9964 0.9623
-5.2141 -8.0077 -0.9963 0.9623
-4.9774 -8.1558 -0.9962 0.9623
-4.3015 -8.0742 -0.9539 0.9639
-4.1496 -8.0709 -0.9462 0.9642
-4.2429 -8.5577 -0.9959 0.9623
-4.1172 -8.6184 -0.9959 0.9623
-3.9906 -8.6772 -0.9958 0.9623
-3.8632 -8.7341 -0.9958 0.9623
-3.7350 -8.7891 -0.9957 0.9623
-1.0563 -2.5902 -0.2917 0.9888
-0.9826 -2.6266 -0.2924 0.9888
-0.9457 -2.6449 -0.2929 0.9888
-0.9086 -2.6633 -0.2934 0.9887
-0.8714 -2.6818 -0.2940 0.9887
-0.8340 -2.7004 -0.2947 0.9887
-0.7964 -2.7191 -0.2954 0.9887
-0.7587 -2.7379 -0.2962 0.9886
-0.6168 -2.3595 -0.2543 0.9902
-0.4920 -2.2871 -0.2439 0.9906
-0.4401 -2.8460 -0.3003 0.9885
-0.3818 -2.7330 -0.2877 0.9890
-0.2905 -2.6400 -0.2769 0.9894
-0.2454 -2.5757 -0.2698 0.9896
-0.1618 -2.4566 -0.2567 0.9901
-0.0617 -2.8151 -0.2936 0.9887
0.0614 -2.8011 -0.2921 0.9888
0.1022 -2.7964 -0.2918 0.9888
0.7652 -9.5015 -0.9939 0.9624
1.3187 -9.4384 -0.9936 0.9624
1.3661 -8.0530 -0.8516 0.9677
1.6084 -8.0478 -0.8557 0.9675
1.7305 -8.0451 -0.8580 0.9674
2.1393 -9.2836 -0.9933 0.9624
2.4094 -9.2161 -0.9932 0.9624
2.8105 -9.1002 -0.9930 0.9624
3.3366 -8.9185 -0.9928 0.9624
3.7236 -8.7623 -0.9927 0.9624
4.2282 -8.5281 -0.9925 0.9624
4.3521 -8.4650 -0.9924 0.9624
4.5972 -8.3334 -0.9923 0.9624
4.7182 -8.2649 -0.9923 0.9624
4.8382 -8.1946 -0.9922 0.9625
4.9572 -8.1227 -0.9922 0.9625
5.1919 -7.9736 -0.9921 0.9625
5.3076 -7.8965 -0.9920 0.9625
5.7588 -7.5716 -0.9918 0.9625
5.9770 -7.3994 -0.9917 0.9625
6.0842 -7.3109 -0.9917 0.9625
6.3979 -7.0364 -0.9916 0.9625
6.4998 -6.9419 -0.9915 0.9625
6.6003 -6.8459 -0.9915 0.9625
6.7969 -6.6495 -0.9914 0.9625
6.8931 -6.5493 -0.9914 0.9625
7.0810 -6.3445 -0.9913 0.9625
3.6256 -3.1542 -0.5011 0.9809
3.7403 -3.0667 -0.5043 0.9807
3.7982 -3.0225 -0.5061 0.9807
3.6900 -2.6809 -0.4756 0.9818
3.9672 -2.7088 -0.5009 0.9809
3.9471 -2.6113 -0.4934 0.9811
4.0059 -2.5670 -0.4961 0.9810
4.2306 -2.6245 -0.5191 0.9802
8.1480 -4.8913 -0.9909 0.9625
8.2183 -4.7716 -0.9908 0.9625
8.3538 -4.5291 -0.9908 0.9625
8.4821 -4.2829 -0.9907 0.9625
8.5436 -4.1584 -0.9907 0.9625
8.6610 -3.9068 -0.9907 0.9625
8.5833 -3.7218 -0.9754 0.9631
8.6881 -3.4693 -0.9754 0.9631
8.7376 -3.3419 -0.9754 0.9631
8.7854 -3.2137 -0.9754 0.9631
8.6259 -2.5951 -0.9392 0.9644
8.9957 -2.5637 -0.9753 0.9631
9.0321 -2.4319 -0.9753 0.9631
9.0665 -2.2997 -0.9752 0.9631
9.0990 -2.1669 -0.9752 0.9631
9.1296 -2.0337 -0.9752 0.9631
9.3279 -1.7936 -0.9904 0.9625
9.3530 -1.6570 -0.9904 0.9625
9.3761 -1.5202 -0.9904 0.9625
9.3973 -1.3830 -0.9903 0.9625
9.4335 -1.1078 -0.9903 0.9625
9.4486 -0.9698 -0.9903 0.9625
9.4617 -0.8317 -0.9903 0.9625
9.4729 -0.6933 -0.9903 0.9625
9.4820 -0.5548 -0.9903 0.9625
9.4941 -0.2775 -0.9903 0.9625
9.4971 -0.1388 -0.9903 0.9625
9.4981 0.0000 -0.9903 0.9625
9.4971 0.1388 -0.9903 0.9625
9.4890 0.4162 -0.9903 0.9625
9.4486 0.9698 -0.9903 0.9625
9.3530 1.6570 -0.9904 0.9625
9.3008 1.9296 -0.9904 0.9625
9.2407 2.2006 -0.9904 0.9625
9.1357 2.6036 -0.9905 0.9625
9.0969 2.7369 -0.9905 0.9625
9.0561 2.8695 -0.9905 0.9625
8.8233 3.5232 -0.9906 0.9625
8.4821 4.2829 -0.9907 0.9625
7.1625 4.0198 -0.8564 0.9675
7.1842 4.1712 -0.8662 0.9671
8.1479 4.8913 -0.9909 0.9625
8.0759 5.0100 -0.9909 0.9625
8.0020 5.1276 -0.9909 0.9625
5.8830 3.8921 -0.7355 0.9720
5.7310 3.9132 -0.7235 0.9725
5.7280 4.1616 -0.7382 0.9719
7.3513 6.0275 -0.9912 0.9625
3.6620 3.3789 -0.5195 0.9802
3.5689 3.3909 -0.5133 0.9804
3.4776 3.4022 -0.5073 0.9806
3.3885 3.4134 -0.5015 0.9808
2.9849 3.4820 -0.4782 0.9817
2.7623 3.5237 -0.4668 0.9822
2.6912 3.5384 -0.4635 0.9823
2.6320 3.5675 -0.4622 0.9823
2.5451 3.6695 -0.4656 0.9822
2.5389 3.7773 -0.4745 0.9819
2.7756 5.0312 -0.5991 0.9772
2.8737 5.7961 -0.6745 0.9743
2.9692 6.4561 -0.7409 0.9718
2.9688 6.7119 -0.7652 0.9709
3.6562 8.6034 -0.9747 0.9631
3.0192 8.8496 -0.9749 0.9631
2.8897 8.8933 -0.9750 0.9631
2.7596 8.9350 -0.9750 0.9631
2.6289 8.9749 -0.9751 0.9631
2.4976 9.0129 -0.9751 0.9631
2.3658 9.0489 -0.9752 0.9631
0.7592 3.5295 -0.3764 0.9856
0.6900 3.4525 -0.3671 0.9859
0.6316 3.4195 -0.3626 0.9861
0.4237 3.3934 -0.3566 0.9863
0.3741 3.3996 -0.3566 0.9863
0.3244 3.4057 -0.3567 0.9863
0.2748 3.4118 -0.3569 0.9863
0.2251 3.4178 -0.3571 0.9863
0.0754 3.4359 -0.3583 0.9863
0.0251 3.4417 -0.3589 0.9863
-0.0252 3.4476 -0.3595 0.9862
-0.0757 3.4534 -0.3602 0.9862
-0.2289 3.4766 -0.3633 0.9861
-0.3330 3.4957 -0.3661 0.9860
-0.4388 3.5151 -0.3693 0.9859
-0.4925 3.5248 -0.3711 0.9858
-0.6564 3.5534 -0.3768 0.9856
-0.7122 3.5634 -0.3789 0.9855
-0.7686 3.5733 -0.3811 0.9854
-0.8281 3.5934 -0.3845 0.9853
-2.6083 8.0277 -0.8801 0.9666
-3.4131 8.7322 -0.9776 0.9630
-3.5405 8.6819 -0.9776 0.9630
-3.6672 8.6297 -0.9777 0.9630
-3.7931 8.5756 -0.9777 0.9630
-3.9182 8.5197 -0.9778 0.9630
-4.0425 8.4620 -0.9778 0.9630
-4.2884 8.3411 -0.9779 0.9630
-4.4101 8.2780 -0.9780 0.9630
-4.6506 8.1464 -0.9781 0.9630
-4.7694 8.0780 -0.9781 0.9630
-4.8871 8.0078 -0.9782 0.9630
-5.1195 7.8624 -0.9782 0.9630
-5.2341 7.7871 -0.9783 0.9630
-5.6740 7.6908 -0.9965 0.9623
-5.3147 6.1997 -0.8514 0.9677
-0.5418 0.5620 -0.0814 0.9969
-0.5416 0.5455 -0.0801 0.9969
-0.5424 0.5307 -0.0791 0.9970
-0.5432 0.5161 -0.0781 0.9970
-0.5439 0.5018 -0.0772 0.9970
-0.5444 0.4878 -0.0762 0.9971
-0.5442 0.4734 -0.0752 0.9971
-0.5439 0.4594 -0.0742 0.9971
-0.5414 0.3814 -0.0690 0.9973
-0.5408 0.3693 -0.0683 0.9974
-0.5403 0.3575 -0.0676 0.9974
-0.5392 0.3345 -0.0662 0.9975
-0.5379 0.3123 -0.0648 0.9975
-0.5372 0.3015 -0.0642 0.9975
-0.5368 0.2911 -0.0637 0.9975
-0.5365 0.2808 -0.0631 0.9976
-0.5362 0.2707 -0.0626 0.9976
-0.5358 0.2608 -0.0621 0.9976
-0.5354 0.2510 -0.0617 0.9976
-0.5350 0.2413 -0.0612 0.9976
-0.5340 0.2223 -0.0603 0.9977
-0.5328 0.2038 -0.0595 0.9977
-0.5318 0.1858 -0.0587 0.9977
-0.5310 0.1682 -0.0581 0.9978
-0.5306 0.1596 -0.0578 0.9978
-0.5296 0.1426 -0.0572 0.9978
-0.5290 0.1342 -0.0569 0.9978
-0.5285 0.1259 -0.0566 0.9978
-0.5272 0.1094 -0.0561 0.9978
-0.5267 0.1013 -0.0559 0.9978
-0.5226 0.0459 -0.0547 0.9979
-0.5219 0.0382 -0.0546 0.9979
-0.5204 0.0228 -0.0543 0.9979
-0.5196 0.0152 -0.0542 0.9979
-0.5019 -0.0073 -0.0580 0.9980
-0.5027 -0.0147 -0.0581 0.9980
-0.5042 -0.0295 -0.0583 0.9980
-0.5049 -0.0370 -0.0585 0.9980
-0.5055 -0.0444 -0.0586 0.9980
-0.5061 -0.0520 -0.0588 0.9980
-0.5072 -0.0671 -0.0591 0.9979
-0.5078 -0.0747 -0.0593 0.9979
-0.5082 -0.0824 -0.0595 0.9979
-0.5087 -0.0901 -0.0597 0.9979
-0.5098 -0.1136 -0.0603 0.9979
-0.5111 -0.1376 -0.0611 0.9979
-0.5119 -0.1540 -0.0617 0.9979
-0.5125 -0.1707 -0.0624 0.9978
-0.5133 -0.1963 -0.0635 0.9978
-0.5142 -0.2141 -0.0643 0.9978
-0.5148 -0.2322 -0.0652 0.9977
-0.5151 -0.2415 -0.0657 0.9977
-0.5155 -0.2603 -0.0667 0.9977
-0.5158 -0.2797 -0.0678 0.9976
-0.5159 -0.2895 -0.0683 0.9976
-0.5159 -0.2995 -0.0689 0.9976
-0.5159 -0.3097 -0.0695 0.9976
-0.5161 -0.3202 -0.0701 0.9976
-0.5168 -0.3419 -0.0716 0.9975
-0.5177 -0.3998 -0.0755 0.9974
-0.5178 -0.4121 -0.0764 0.9973
-0.5178 -0.4246 -0.0773 0.9973
-0.5178 -0.4374 -0.0783 0.9973
-0.5178 -0.4505 -0.0793 0.9972
-0.5176 -0.4638 -0.0803 0.9972
-0.5160 -0.5198 -0.0846 0.9971
-0.5148 -0.5340 -0.0857 0.9970
-0.5136 -0.5485 -0.0868 0.9970
-0.5206 -0.5725 -0.0894 0.9969
-0.6077 -0.6882 -0.1060 0.9963
-5.5195 -6.6323 -0.9964 0.9659
-5.3229 -6.7903 -0.9963 0.9659
-5.0196 -7.0161 -0.9962 0.9659
-4.9164 -7.0884 -0.9962 0.9659
-4.3849 -7.4268 -0.9960 0.9659
-4.0546 -7.6108 -0.9958 0.9659
-3.7167 -7.7801 -0.9957 0.9659
-3.6025 -7.8332 -0.9956 0.9659
-1.0609 -2.6015 -0.3244 0.9888
-0.9126 -2.6750 -0.3264 0.9887
-0.8752 -2.6936 -0.3271 0.9887
-0.8377 -2.7123 -0.3278 0.9886
-0.8000 -2.7311 -0.3286 0.9886
-0.6132 -2.3456 -0.2800 0.9903
-0.5820 -2.5254 -0.2993 0.9896
-0.4392 -2.8398 -0.3318 0.9885
-0.3863 -2.7650 -0.3224 0.9888
-0.3350 -2.6835 -0.3123 0.9892
-0.2891 -2.6272 -0.3052 0.9894
-0.2016 -2.5031 -0.2900 0.9899
-0.1610 -2.4456 -0.2830 0.9902
-0.1033 -2.8278 -0.3268 0.9887
0.0616 -2.8088 -0.3244 0.9888
0.1025 -2.8042 -0.3240 0.9888
0.1840 -2.7950 -0.3235 0.9888
0.9412 -8.5542 -0.9938 0.9659
1.3661 -8.0530 -0.9432 0.9676
1.6861 -8.4364 -0.9935 0.9660
1.8091 -8.4104 -0.9934 0.9660
1.9317 -8.3827 -0.9934 0.9660
2.0539 -8.3531 -0.9933 0.9660
2.2969 -8.2887 -0.9932 0.9660
2.5378 -8.2173 -0.9931 0.9660
2.7766 -8.1388 -0.9931 0.9660
2.8951 -8.0970 -0.9930 0.9660
3.0129 -8.0534 -0.9930 0.9660
3.1301 -8.0082 -0.9929 0.9660
3.2466 -7.9612 -0.9929 0.9660
3.3624 -7.9125 -0.9928 0.9660
3.5919 -7.8102 -0.9927 0.9660
3.7054 -7.7565 -0.9927 0.9660
3.8182 -7.7011 -0.9926 0.9660
3.9301 -7.6441 -0.9926 0.9660
4.3692 -7.4002 -0.9924 0.9660
4.9991 -6.9874 -0.9921 0.9660
5.1004 -6.9133 -0.9921 0.9660
5.2007 -6.8378 -0.9921 0.9660
5.2998 -6.7608 -0.9920 0.9660
5.4947 -6.6025 -0.9919 0.9660
5.6848 -6.4386 -0.9919 0.9660
6.1385 -6.0054 -0.9917 0.9660
6.2253 -5.9148 -0.9916 0.9660
6.3950 -5.7300 -0.9916 0.9660
3.6347 -3.1622 -0.5563 0.9808
3.6921 -3.1185 -0.5581 0.9807
3.7498 -3.0745 -0.5600 0.9807
3.8665 -2.9855 -0.5641 0.9805
3.8298 -2.7825 -0.5467 0.9811
3.9879 -2.8093 -0.5633 0.9805
3.9806 -2.7180 -0.5566 0.9808
4.0261 -2.5798 -0.5522 0.9809
4.0386 -2.5054 -0.5488 0.9810
7.3590 -4.4177 -0.9912 0.9660
7.4846 -4.2005 -0.9911 0.9660
7.5450 -4.0906 -0.9911 0.9660
7.6609 -3.8682 -0.9911 0.9660
7.5981 -3.6982 -0.9758 0.9665
7.7027 -3.4745 -0.9758 0.9665
7.8006 -3.2478 -0.9758 0.9665
7.8918 -3.0184 -0.9757 0.9666
7.9350 -2.9027 -0.9757 0.9666
7.9764 -2.7864 -0.9757 0.9666
8.0161 -2.6695 -0.9757 0.9666
8.0541 -2.5520 -0.9757 0.9666
8.1579 -2.1966 -0.9756 0.9666
8.1890 -2.0771 -0.9756 0.9666
8.3744 -1.8655 -0.9908 0.9660
8.4251 -1.6199 -0.9907 0.9660
8.4687 -1.3730 -0.9907 0.9660
8.5206 -1.0005 -0.9907 0.9660
8.5561 -0.6262 -0.9907 0.9660
8.5707 -0.3759 -0.9907 0.9660
8.5789 0.0000 -0.9907 0.9660
8.5707 0.3760 -0.9907 0.9660
8.5643 0.5012 -0.9907 0.9660
8.5460 0.7512 -0.9907 0.9660
8.4687 1.3730 -0.9907 0.9660
8.4478 1.4966 -0.9907 0.9660
8.4251 1.6199 -0.9907 0.9660
8.3743 1.8655 -0.9908 0.9660
8.3164 2.1094 -0.9908 0.9660
8.2848 2.2307 -0.9908 0.9660
8.2163 2.4719 -0.9908 0.9660
8.1795 2.5918 -0.9908 0.9660
8.0585 2.9479 -0.9909 0.9660
7.9692 3.1822 -0.9909 0.9660
7.7703 3.6425 -0.9910 0.9660
7.3590 4.4177 -0.9912 0.9660
7.2939 4.5248 -0.9912 0.9660
7.2272 4.6311 -0.9912 0.9660
5.7019 4.0167 -0.8054 0.9723
5.7262 4.1603 -0.8174 0.9719
5.7482 4.3061 -0.8294 0.9715
5.7686 4.4543 -0.8416 0.9711
6.6393 5.4437 -0.9915 0.9660
3.9972 3.3762 -0.6042 0.9792
3.7877 3.3938 -0.5873 0.9797
3.6880 3.4030 -0.5795 0.9800
3.5939 3.4147 -0.5725 0.9802
3.4122 3.4372 -0.5593 0.9807
3.3242 3.4480 -0.5531 0.9809
3.0708 3.4780 -0.5358 0.9815
2.9897 3.4876 -0.5305 0.9817
2.9102 3.4970 -0.5254 0.9818
2.8323 3.5063 -0.5205 0.9820
2.7586 3.5191 -0.5164 0.9822
2.5378 3.6590 -0.5142 0.9822
2.5375 3.7752 -0.5253 0.9819
2.5339 3.8914 -0.5362 0.9815
2.5876 4.2399 -0.5736 0.9802
2.7503 4.9854 -0.6575 0.9773
2.9855 6.4916 -0.8251 0.9716
2.9688 6.7120 -0.8475 0.9709
2.8426 7.9500 -0.9750 0.9666
2.6094 8.0305 -0.9751 0.9666
2.3739 8.1041 -0.9752 0.9666
2.2553 8.1384 -0.9752 0.9666
2.0168 8.2016 -0.9753 0.9666
1.8968 8.2306 -0.9754 0.9666
0.6870 3.4376 -0.4048 0.9860
0.6301 3.4112 -0.4006 0.9861
0.5223 3.3771 -0.3946 0.9863
0.4721 3.3789 -0.3940 0.9864
0.4226 3.3850 -0.3939 0.9864
0.2245 3.4098 -0.3946 0.9863
0.1749 3.4162 -0.3950 0.9863
0.0752 3.4278 -0.3959 0.9863
-0.0251 3.4395 -0.3972 0.9862
-0.1262 3.4527 -0.3990 0.9862
-0.1771 3.4604 -0.4001 0.9861
-0.2284 3.4686 -0.4014 0.9861
-0.4912 3.5162 -0.4100 0.9858
-0.5996 3.5344 -0.4140 0.9857
-0.6546 3.5440 -0.4162 0.9856
-0.7103 3.5538 -0.4185 0.9855
-0.7665 3.5637 -0.4209 0.9854
-0.8257 3.5833 -0.4246 0.9853
-0.8921 3.6281 -0.4315 0.9851
-0.9638 3.6867 -0.4400 0.9848
-2.6149 8.0480 -0.9772 0.9665
-2.7324 8.0094 -0.9773 0.9665
-2.9655 7.9269 -0.9774 0.9665
-3.4874 7.8846 -0.9956 0.9659
-3.7167 7.7800 -0.9957 0.9659
-3.8301 7.7252 -0.9957 0.9659
-4.0546 7.6108 -0.9958 0.9659
-4.1656 7.5510 -0.9959 0.9659
-4.2757 7.4896 -0.9959 0.9659
-4.6004 7.2961 -0.9960 0.9659
-5.0196 7.0161 -0.9962 0.9659
-5.2229 6.8670 -0.9963 0.9659
-5.1132 6.3300 -0.9397 0.9678
-0.6076 0.6882 -0.1060 0.9963
-0.5205 0.5724 -0.0893 0.9969
-0.5160 0.5198 -0.0846 0.9971
-0.5178 0.4505 -0.0793 0.9972
-0.5178 0.4374 -0.0783 0.9973
-0.5177 0.3998 -0.0755 0.9974
-0.5176 0.3877 -0.0747 0.9974
-0.5174 0.3759 -0.0739 0.9974
-0.5170 0.3530 -0.0723 0.9975
-0.5168 0.3419 -0.0716 0.9975
-0.5161 0.3202 -0.0701 0.9976
-0.5159 0.2895 -0.0683 0.9976
-0.5158 0.2797 -0.0678 0.9976
-0.5155 0.2603 -0.0667 0.9977
-0.5151 0.2415 -0.0657 0.9977
-0.5141 0.2141 -0.0643 0.9978
-0.5138 0.2052 -0.0639 0.9978
-0.5122 0.1623 -0.0620 0.9978
-0.5119 0.1540 -0.0617 0.9978
-0.5115 0.1457 -0.0614 0.9979
-0.5111 0.1377 -0.0611 0.9979
-0.5078 0.0747 -0.0593 0.9979
-0.5073 0.0671 -0.0591 0.9979
-0.5067 0.0595 -0.0589 0.9979
-0.5061 0.0520 -0.0588 0.9980
-0.5042 0.0295 -0.0583 0.9980
-0.5035 0.0221 -0.0582 0.9980
-0.4869 -0.0142 -0.0617 0.9980
-0.4883 -0.0286 -0.0620 0.9980
-0.4900 -0.0503 -0.0624 0.9980
-0.4910 -0.0649 -0.0628 0.9980
-0.4915 -0.0723 -0.0630 0.9980
-0.4919 -0.0798 -0.0631 0.9980
-0.4923 -0.0872 -0.0634 0.9980
-0.4926 -0.0947 -0.0636 0.9980
-0.4929 -0.1022 -0.0638 0.9980
-0.4932 -0.1099 -0.0640 0.9980
-0.4934 -0.1175 -0.0643 0.9980
-0.4938 -0.1330 -0.0648 0.9979
-0.4942 -0.1408 -0.0651 0.9979
-0.4946 -0.1568 -0.0658 0.9979
-0.4950 -0.1729 -0.0664 0.9979
-0.4951 -0.1811 -0.0668 0.9979
-0.4952 -0.1894 -0.0672 0.9979
-0.4954 -0.1978 -0.0676 0.9979
-0.4957 -0.2064 -0.0680 0.9978
-0.4961 -0.2237 -0.0690 0.9978
-0.4962 -0.2326 -0.0695 0.9978
-0.4963 -0.2416 -0.0700 0.9978
-0.4964 -0.2506 -0.0705 0.9978
-0.4963 -0.2785 -0.0721 0.9977
-0.4962 -0.2880 -0.0727 0.9977
-0.4960 -0.2977 -0.0733 0.9977
-0.4954 -0.3175 -0.0746 0.9976
-0.4944 -0.4054 -0.0810 0.9974
-0.4938 -0.4296 -0.0829 0.9974
-0.4934 -0.4421 -0.0839 0.9973
-0.4923 -0.4678 -0.0861 0.9973
-0.4917 -0.4811 -0.0872 0.9972
-0.4902 -0.5085 -0.0895 0.9972
-0.4894 -0.5227 -0.0907 0.9971
-0.4882 -0.5370 -0.0920 0.9971
-0.4865 -0.5511 -0.0932 0.9970
-0.5820 -0.6994 -0.1153 0.9963
-4.8497 -6.1866 -0.9962 0.9688
-4.7586 -6.2566 -0.9961 0.9688
-4.6665 -6.3252 -0.9961 0.9688
-4.5734 -6.3924 -0.9960 0.9688
-4.4793 -6.4584 -0.9960 0.9688
-4.3843 -6.5229 -0.9960 0.9688
-4.1915 -6.6476 -0.9959 0.9688
-4.0938 -6.7079 -0.9958 0.9688
-3.9951 -6.7667 -0.9958 0.9688
-3.7954 -6.8800 -0.9957 0.9688
-3.4898 -7.0388 -0.9956 0.9688
-3.2824 -7.1372 -0.9955 0.9688
-3.1776 -7.1841 -0.9955 0.9688
-3.0722 -7.2295 -0.9954 0.9688
-2.9661 -7.2733 -0.9954 0.9688
-2.8594 -7.3155 -0.9953 0.9688
-2.7521 -7.3562 -0.9953 0.9688
-0.9468 -2.6480 -0.3564 0.9887
-0.8406 -2.7220 -0.3610 0.9886
-0.5945 -2.4178 -0.3155 0.9900
-0.5079 -2.7495 -0.3543 0.9888
-0.4589 -2.7053 -0.3477 0.9890
-0.3347 -2.6808 -0.3424 0.9892
-0.2877 -2.6145 -0.3333 0.9895
-0.1279 -2.4979 -0.3170 0.9900
-0.1036 -2.8357 -0.3596 0.9886
0.0206 -2.8214 -0.3576 0.9887
0.0618 -2.8167 -0.3570 0.9887
0.1028 -2.8121 -0.3566 0.9887
0.1437 -2.8074 -0.3562 0.9887
0.1846 -2.8028 -0.3560 0.9887
0.6296 -7.8180 -0.9939 0.9689
0.9715 -7.7818 -0.9938 0.9689
1.0850 -7.7663 -0.9937 0.9689
1.1984 -7.7493 -0.9937 0.9689
1.3114 -7.7306 -0.9936 0.9689
1.4242 -7.7103 -0.9936 0.9689
1.6487 -7.6646 -0.9935 0.9689
1.8718 -7.6125 -0.9934 0.9689
1.9827 -7.5840 -0.9934 0.9689
2.0932 -7.5539 -0.9933 0.9689
2.3129 -7.4888 -0.9932 0.9689
2.5304 -7.4174 -0.9932 0.9689
2.7459 -7.3396 -0.9931 0.9689
3.0645 -7.2113 -0.9929 0.9689
3.3771 -7.0692 -0.9928 0.9689
3.5819 -6.9669 -0.9927 0.9689
3.6832 -6.9135 -0.9927 0.9689
3.7837 -6.8587 -0.9926 0.9689
4.0801 -6.6855 -0.9925 0.9689
4.1772 -6.6249 -0.9925 0.9689
4.3686 -6.4995 -0.9924 0.9689
4.4630 -6.4347 -0.9924 0.9689
4.7401 -6.2323 -0.9922 0.9689
4.8305 -6.1621 -0.9922 0.9689
4.9198 -6.0906 -0.9922 0.9689
5.0081 -6.0179 -0.9921 0.9689
5.0953 -5.9438 -0.9921 0.9689
5.4331 -5.6352 -0.9920 0.9689
5.6743 -5.3912 -0.9919 0.9689
5.8290 -5.2228 -0.9918 0.9689
3.7014 -3.1264 -0.6140 0.9807
3.7515 -3.0759 -0.6148 0.9806
3.8591 -2.9798 -0.6179 0.9805
3.9526 -2.8717 -0.6191 0.9805
4.0087 -2.7371 -0.6151 0.9806
3.9735 -2.6288 -0.6038 0.9810
4.0465 -2.5929 -0.6090 0.9808
4.0589 -2.5180 -0.6053 0.9809
6.7079 -4.0268 -0.9914 0.9689
6.8248 -3.5721 -0.9762 0.9694
6.8761 -3.4720 -0.9761 0.9694
6.9743 -3.2694 -0.9761 0.9694
7.0666 -3.0641 -0.9761 0.9694
7.1105 -2.9605 -0.9760 0.9694
7.1529 -2.8562 -0.9760 0.9694
7.2330 -2.6459 -0.9760 0.9694
7.4063 -2.1107 -0.9759 0.9694
7.5808 -1.9228 -0.9911 0.9690
7.6336 -1.7005 -0.9911 0.9690
7.6576 -1.5887 -0.9911 0.9690
7.6799 -1.4766 -0.9910 0.9690
7.7006 -1.3643 -0.9910 0.9690
7.7370 -1.1387 -0.9910 0.9690
7.7528 -1.0255 -0.9910 0.9690
7.7902 -0.6848 -0.9910 0.9690
7.8068 -0.4568 -0.9910 0.9690
7.8193 0.1143 -0.9910 0.9690
7.8168 0.2285 -0.9910 0.9690
7.8126 0.3427 -0.9910 0.9690
7.8068 0.4568 -0.9910 0.9690
7.7993 0.5708 -0.9910 0.9690
7.7902 0.6847 -0.9910 0.9690
7.7528 1.0255 -0.9910 0.9690
7.7370 1.1387 -0.9910 0.9690
7.6799 1.4766 -0.9910 0.9690
7.4896 2.2532 -0.9911 0.9690
7.3456 2.6871 -0.9912 0.9690
7.3057 2.7941 -0.9912 0.9690
7.2211 3.0066 -0.9912 0.9690
7.0337 3.4235 -0.9913 0.9690
6.8774 3.7287 -0.9914 0.9689
6.8223 3.8288 -0.9914 0.9689
6.7658 3.9282 -0.9914 0.9689
6.7078 4.0268 -0.9914 0.9689
6.5876 4.2213 -0.9915 0.9689
5.7006 4.0158 -0.8837 0.9723
5.7241 4.1588 -0.8966 0.9719
5.7462 4.3045 -0.9098 0.9715
6.0517 4.9619 -0.9917 0.9689
3.8178 3.4207 -0.6496 0.9795
3.7178 3.4304 -0.6410 0.9798
3.5267 3.4503 -0.6252 0.9803
3.4363 3.4615 -0.6181 0.9805
3.0914 3.5014 -0.5919 0.9813
2.8526 3.5314 -0.5753 0.9819
2.5376 3.7754 -0.5765 0.9818
2.5339 3.8914 -0.5885 0.9815
2.5598 4.0598 -0.6082 0.9808
2.5876 4.2400 -0.6295 0.9802
2.6174 4.4332 -0.6524 0.9795
3.0198 6.5662 -0.9159 0.9713
2.9689 6.7121 -0.9301 0.9708
2.7458 7.3396 -0.9931 0.9689
2.6384 7.3792 -0.9931 0.9689
2.5304 7.4173 -0.9931 0.9689
2.4219 7.4538 -0.9932 0.9689
2.3129 7.4888 -0.9932 0.9689
2.2033 7.5221 -0.9933 0.9689
2.0932 7.5538 -0.9933 0.9689
1.9827 7.5839 -0.9934 0.9689
1.7604 7.6393 -0.9935 0.9689
0.7529 3.5003 -0.4537 0.9857
0.6841 3.4228 -0.4423 0.9860
0.6286 3.4030 -0.4385 0.9861
0.5211 3.3699 -0.4321 0.9863
0.4709 3.3705 -0.4313 0.9864
0.4216 3.3766 -0.4312 0.9864
0.2240 3.4018 -0.4320 0.9863
0.1744 3.4081 -0.4325 0.9863
0.0750 3.4198 -0.4335 0.9863
-0.0251 3.4320 -0.4349 0.9863
-0.1260 3.4460 -0.4370 0.9862
-0.1768 3.4536 -0.4382 0.9862
-0.3314 3.4787 -0.4428 0.9860
-0.3838 3.4883 -0.4447 0.9859
-0.4367 3.4980 -0.4467 0.9859
-0.5438 3.5166 -0.4509 0.9858
-0.5980 3.5256 -0.4532 0.9857
-0.6529 3.5348 -0.4555 0.9856
-0.7084 3.5443 -0.4580 0.9855
-0.8234 3.5732 -0.4647 0.9853
-0.9584 3.6662 -0.4802 0.9848
-1.0440 3.7675 -0.4954 0.9844
-2.2073 7.5357 -0.9951 0.9688
-2.7520 7.3561 -0.9953 0.9688
-3.0722 7.2294 -0.9954 0.9688
-3.2824 7.1371 -0.9955 0.9688
-3.4898 7.0388 -0.9956 0.9688
-3.5924 6.9873 -0.9956 0.9688
-3.8957 6.8241 -0.9958 0.9688
-4.1915 6.6476 -0.9959 0.9688
-4.3843 6.5228 -0.9960 0.9688
-4.4793 6.4583 -0.9960 0.9688
-4.6664 6.3251 -0.9961 0.9688
-4.7586 6.2565 -0.9961 0.9688
-4.8496 6.1865 -0.9961 0.9688
-4.9397 6.1152 -0.9962 0.9688
-0.4976 0.5805 -0.0969 0.9969
-0.4910 0.4946 -0.0883 0.9972
-0.4923 0.4678 -0.0861 0.9973
-0.4929 0.4548 -0.0850 0.9973
-0.4937 0.4296 -0.0829 0.9974
-0.4941 0.4174 -0.0820 0.9974
-0.4948 0.3820 -0.0792 0.9975
-0.4949 0.3708 -0.0784 0.9975
-0.4951 0.3597 -0.0775 0.9975
-0.4951 0.3488 -0.0768 0.9976
-0.4952 0.3381 -0.0760 0.9976
-0.4951 0.3276 -0.0752 0.9976
-0.4954 0.3175 -0.0746 0.9976
-0.4963 0.2785 -0.0721 0.9977
-0.4964 0.2598 -0.0710 0.9977
-0.4963 0.2416 -0.0700 0.9978
-0.4962 0.2326 -0.0695 0.9978
-0.4957 0.2064 -0.0680 0.9978
-0.4954 0.1978 -0.0676 0.9979
-0.4952 0.1894 -0.0672 0.9979
-0.4949 0.1648 -0.0661 0.9979
-0.4946 0.1568 -0.0658 0.9979
-0.4942 0.1409 -0.0651 0.9979
-0.4939 0.1330 -0.0648 0.9979
-0.4934 0.1175 -0.0643 0.9980
-0.4932 0.1098 -0.0640 0.9980
-0.4929 0.1023 -0.0638 0.9980
-0.4926 0.0947 -0.0636 0.9980
-0.4923 0.0872 -0.0634 0.9980
-0.4919 0.0798 -0.0631 0.9980
-0.4915 0.0723 -0.0630 0.9980
-0.4905 0.0576 -0.0626 0.9980
-0.4900 0.0503 -0.0624 0.9980
-0.4869 0.0142 -0.0617 0.9980
-0.4706 0.0000 -0.0649 0.9981
-0.4714 -0.0069 -0.0651 0.9981
-0.4733 -0.0277 -0.0654 0.9981
-0.4738 -0.0347 -0.0656 0.9981
-0.4749 -0.0487 -0.0659 0.9981
-0.4753 -0.0558 -0.0660 0.9981
-0.4758 -0.0629 -0.0662 0.9981
-0.4765 -0.0772 -0.0666 0.9981
-0.4768 -0.0845 -0.0668 0.9980
-0.4774 -0.0990 -0.0673 0.9980
-0.4776 -0.1064 -0.0675 0.9980
-0.4777 -0.1137 -0.0678 0.9980
-0.4778 -0.1212 -0.0680 0.9980
-0.4779 -0.1287 -0.0683 0.9980
-0.4780 -0.1362 -0.0686 0.9980
-0.4783 -0.1593 -0.0696 0.9980
-0.4784 -0.1671 -0.0699 0.9980
-0.4784 -0.1750 -0.0703 0.9979
-0.4786 -0.2330 -0.0735 0.9979
-0.4783 -0.2593 -0.0751 0.9978
-0.4780 -0.2683 -0.0756 0.9978
-0.4778 -0.2773 -0.0762 0.9978
-0.4775 -0.2866 -0.0768 0.9978
-0.4750 -0.3346 -0.0802 0.9977
-0.4745 -0.3448 -0.0809 0.9976
-0.4742 -0.3552 -0.0818 0.9976
-0.4738 -0.3659 -0.0826 0.9976
-0.4734 -0.3767 -0.0835 0.9976
-0.4729 -0.3878 -0.0844 0.9975
-0.4724 -0.3990 -0.0853 0.9975
-0.4718 -0.4105 -0.0863 0.9975
-0.4711 -0.4221 -0.0873 0.9974
-0.4704 -0.4341 -0.0883 0.9974
-0.4668 -0.4841 -0.0928 0.9973
-0.4645 -0.5109 -0.0953 0.9972
-0.4618 -0.5387 -0.0979 0.9971
-0.4603 -0.5530 -0.0993 0.9971
-0.4734 -0.5861 -0.1040 0.9970
-4.0255 -5.9890 -0.9958 0.9713
-3.9374 -6.0470 -0.9958 0.9713
-3.7588 -6.1590 -0.9957 0.9713
-3.6682 -6.2130 -0.9957 0.9713
-3.4849 -6.3170 -0.9956 0.9713
-3.2043 -6.4630 -0.9955 0.9713
-3.0139 -6.5533 -0.9954 0.9713
-2.9177 -6.5964 -0.9954 0.9713
-2.6255 -6.7171 -0.9953 0.9713
-2.5270 -6.7545 -0.9952 0.9713
-0.9436 -2.6390 -0.3868 0.9887
-0.9086 -2.6633 -0.3883 0.9887
-0.8733 -2.6878 -0.3900 0.9887
-0.8377 -2.7125 -0.3918 0.9886
-0.8018 -2.7374 -0.3936 0.9885
-0.5909 -2.4033 -0.3415 0.9901
-0.5747 -2.4940 -0.3532 0.9897
-0.3824 -2.7368 -0.3814 0.9889
-0.3330 -2.6676 -0.3710 0.9892
-0.2419 -2.5395 -0.3520 0.9898
-0.1458 -2.8487 -0.3936 0.9885
-0.1039 -2.8438 -0.3927 0.9886
-0.0622 -2.8390 -0.3919 0.9886
0.0207 -2.8294 -0.3905 0.9886
0.0620 -2.8247 -0.3899 0.9887
0.1442 -2.8154 -0.3890 0.9887
0.5782 -7.1793 -0.9939 0.9713
0.6830 -7.1698 -0.9939 0.9713
0.8921 -7.1462 -0.9938 0.9713
1.2043 -7.0993 -0.9937 0.9713
1.4111 -7.0604 -0.9936 0.9713
1.5141 -7.0388 -0.9936 0.9713
1.6167 -7.0156 -0.9935 0.9713
1.8208 -6.9648 -0.9934 0.9713
2.1240 -6.8775 -0.9933 0.9714
2.4231 -6.7770 -0.9932 0.9714
2.5217 -6.7405 -0.9932 0.9714
2.6199 -6.7027 -0.9931 0.9714
2.7174 -6.6634 -0.9931 0.9714
2.9107 -6.5807 -0.9930 0.9714
3.0064 -6.5372 -0.9930 0.9714
3.1015 -6.4923 -0.9929 0.9714
3.1960 -6.4460 -0.9929 0.9714
3.2897 -6.3984 -0.9928 0.9714
3.3827 -6.3494 -0.9928 0.9714
3.4749 -6.2991 -0.9928 0.9714
3.5665 -6.2474 -0.9927 0.9714
3.6572 -6.1944 -0.9927 0.9714
3.7472 -6.1400 -0.9927 0.9714
3.8364 -6.0844 -0.9926 0.9714
4.0989 -5.9098 -0.9925 0.9714
4.1847 -5.8491 -0.9925 0.9714
4.3535 -5.7239 -0.9924 0.9714
4.5997 -5.5271 -0.9923 0.9714
4.6798 -5.4591 -0.9923 0.9714
4.7589 -5.3900 -0.9922 0.9714
4.8370 -5.3197 -0.9922 0.9714
4.9140 -5.2483 -0.9922 0.9714
5.2116 -4.9517 -0.9921 0.9714
3.7108 -3.1343 -0.6703 0.9806
3.7689 -3.0902 -0.6726 0.9805
3.8490 -2.9721 -0.6711 0.9806
4.0067 -2.8225 -0.6763 0.9804
4.0845 -2.7889 -0.6825 0.9802
6.3157 -3.1890 -0.9764 0.9718
6.4908 -2.8144 -0.9763 0.9718
6.5311 -2.7192 -0.9763 0.9718
6.5700 -2.6234 -0.9763 0.9718
6.6075 -2.5271 -0.9762 0.9718
6.7435 -2.1368 -0.9762 0.9718
6.7739 -2.0380 -0.9762 0.9718
6.9367 -1.8677 -0.9914 0.9714
6.9632 -1.7662 -0.9913 0.9714
7.0337 -1.4593 -0.9913 0.9714
7.0542 -1.3564 -0.9913 0.9714
7.0732 -1.2531 -0.9913 0.9714
7.0907 -1.1496 -0.9913 0.9714
7.1067 -1.0459 -0.9913 0.9714
7.1212 -0.9419 -0.9913 0.9714
7.1342 -0.8378 -0.9913 0.9714
7.1456 -0.7334 -0.9913 0.9714
7.1555 -0.6290 -0.9913 0.9714
7.1823 -0.1049 -0.9913 0.9714
7.1830 0.0000 -0.9913 0.9714
7.1800 0.2099 -0.9913 0.9714
7.1761 0.3148 -0.9913 0.9714
7.1639 0.5244 -0.9913 0.9714
7.1555 0.6289 -0.9913 0.9714
7.1342 0.8377 -0.9913 0.9714
7.1212 0.9420 -0.9913 0.9714
7.0907 1.1496 -0.9913 0.9714
7.0732 1.2531 -0.9913 0.9714
7.0337 1.4593 -0.9913 0.9714
7.0117 1.5620 -0.9913 0.9714
6.9882 1.6642 -0.9913 0.9714
6.7104 2.5665 -0.9914 0.9714
6.6327 2.7616 -0.9915 0.9714
6.5917 2.8582 -0.9915 0.9714
6.5494 2.9543 -0.9915 0.9714
6.4140 3.2386 -0.9916 0.9714
6.2144 3.6080 -0.9916 0.9714
6.1611 3.6986 -0.9917 0.9714
6.1066 3.7883 -0.9917 0.9714
6.0507 3.8772 -0.9917 0.9714
5.9936 3.9653 -0.9917 0.9714
5.9351 4.0525 -0.9918 0.9714
5.8754 4.1389 -0.9918 0.9714
5.8145 4.2245 -0.9918 0.9714
5.7522 4.3091 -0.9918 0.9714
5.6242 4.4755 -0.9919 0.9714
5.5584 4.5574 -0.9919 0.9714
4.1011 3.5680 -0.7502 0.9783
3.9981 3.5823 -0.7408 0.9786
3.9678 3.6611 -0.7450 0.9784
3.5517 3.4746 -0.6857 0.9801
3.3710 3.4965 -0.6702 0.9806
3.2832 3.5064 -0.6629 0.9808
3.1123 3.5250 -0.6489 0.9812
2.9510 3.5460 -0.6366 0.9815
2.8733 3.5570 -0.6310 0.9817
2.6494 3.5912 -0.6159 0.9821
2.5950 3.6271 -0.6154 0.9822
2.5487 3.6747 -0.6171 0.9821
2.5339 3.8915 -0.6408 0.9814
2.5877 4.2400 -0.6855 0.9801
2.6175 4.4333 -0.7105 0.9794
3.4749 6.2991 -0.9928 0.9714
3.3826 6.3494 -0.9928 0.9714
3.2896 6.3984 -0.9928 0.9714
3.1959 6.4460 -0.9929 0.9714
3.1015 6.4922 -0.9929 0.9714
3.0065 6.5371 -0.9929 0.9714
2.9107 6.5806 -0.9930 0.9714
2.8143 6.6227 -0.9930 0.9714
2.7174 6.6634 -0.9931 0.9714
2.6199 6.7027 -0.9931 0.9714
2.4231 6.7769 -0.9932 0.9714
2.1240 6.8774 -0.9933 0.9714
2.0234 6.9080 -0.9933 0.9714
1.7190 6.9909 -0.9935 0.9713
1.6167 7.0155 -0.9935 0.9713
0.7487 3.4809 -0.4913 0.9857
0.6822 3.4134 -0.4804 0.9860
0.5731 3.3787 -0.4729 0.9863
0.5200 3.3628 -0.4696 0.9864
0.4698 3.3621 -0.4685 0.9864
0.4205 3.3682 -0.4684 0.9864
0.3713 3.3744 -0.4685 0.9864
0.3221 3.3809 -0.4687 0.9864
0.2235 3.3939 -0.4694 0.9864
0.1245 3.4060 -0.4703 0.9863
0.0748 3.4118 -0.4709 0.9863
0.0250 3.4184 -0.4718 0.9863
-0.0250 3.4254 -0.4727 0.9863
-0.0753 3.4324 -0.4738 0.9862
-0.1257 3.4395 -0.4750 0.9862
-0.2275 3.4552 -0.4778 0.9861
-0.2789 3.4634 -0.4795 0.9861
-0.3307 3.4717 -0.4813 0.9860
-0.3829 3.4800 -0.4831 0.9860
-0.4356 3.4894 -0.4853 0.9859
-0.7624 3.5446 -0.5003 0.9855
-2.0267 6.9195 -0.9950 0.9713
-2.1277 6.8894 -0.9950 0.9713
-2.2283 6.8579 -0.9951 0.9713
-2.3283 6.8248 -0.9951 0.9713
-2.4279 6.7904 -0.9952 0.9713
-2.5269 6.7545 -0.9952 0.9713
-3.0138 6.5533 -0.9954 0.9713
-3.2043 6.4629 -0.9955 0.9713
-3.2985 6.4157 -0.9955 0.9713
-3.5769 6.2657 -0.9956 0.9713
-3.7587 6.1589 -0.9957 0.9713
-3.8485 6.1036 -0.9957 0.9713
-4.0254 5.9889 -0.9958 0.9713
-4.1127 5.9297 -0.9958 0.9713
-4.2845 5.8074 -0.9959 0.9713
-4.3690 5.7444 -0.9960 0.9713
-0.5516 0.7037 -0.1234 0.9964
-0.4618 0.5386 -0.0979 0.9971
-0.4632 0.5246 -0.0966 0.9972
-0.4644 0.5108 -0.0953 0.9972
-0.4704 0.4341 -0.0883 0.9974
-0.4711 0.4222 -0.0873 0.9974
-0.4718 0.4105 -0.0863 0.9975
-0.4738 0.3659 -0.0826 0.9976
-0.4742 0.3552 -0.0818 0.9976
-0.4745 0.3448 -0.0809 0.9976
-0.4757 0.3248 -0.0795 0.9977
-0.4771 0.2960 -0.0775 0.9977
-0.4775 0.2866 -0.0768 0.9978
-0.4780 0.2683 -0.0756 0.9978
-0.4784 0.2504 -0.0745 0.9978
-0.4785 0.2416 -0.0740 0.9978
-0.4786 0.2330 -0.0735 0.9979
-0.4787 0.2159 -0.0725 0.9979
-0.4786 0.2075 -0.0720 0.9979
-0.4783 0.1593 -0.0696 0.9980
-0.4781 0.1438 -0.0689 0.9980
-0.4775 0.1064 -0.0675 0.9980
-0.4774 0.0991 -0.0673 0.9980
-0.4768 0.0845 -0.0668 0.9980
-0.4761 0.0701 -0.0664 0.9981
-0.4758 0.0629 -0.0662 0.9981
-0.4749 0.0487 -0.0659 0.9981
-0.4733 0.0277 -0.0654 0.9981
-0.4727 0.0207 -0.0653 0.9981
-0.4567 0.0000 -0.0682 0.9982
-0.4573 -0.0067 -0.0683 0.9982
-0.4580 -0.0134 -0.0684 0.9981
-0.4601 -0.0404 -0.0690 0.9981
-0.4617 -0.0679 -0.0697 0.9981
-0.4620 -0.0749 -0.0699 0.9981
-0.4623 -0.0819 -0.0701 0.9981
-0.4625 -0.0889 -0.0703 0.9981
-0.4627 -0.0960 -0.0706 0.9981
-0.4630 -0.1174 -0.0713 0.9981
-0.4630 -0.1393 -0.0722 0.9980
-0.4628 -0.1617 -0.0732 0.9980
-0.4627 -0.1693 -0.0736 0.9980
-0.4626 -0.1770 -0.0740 0.9980
-0.4625 -0.1847 -0.0744 0.9980
-0.4624 -0.1925 -0.0748 0.9980
-0.4624 -0.2005 -0.0752 0.9980
-0.4623 -0.2086 -0.0757 0.9980
-0.4622 -0.2167 -0.0762 0.9979
-0.4617 -0.2416 -0.0778 0.9979
-0.4614 -0.2502 -0.0784 0.9979
-0.4611 -0.2587 -0.0789 0.9979
-0.4606 -0.2675 -0.0795 0.9978
-0.4602 -0.2763 -0.0801 0.9978
-0.4592 -0.2942 -0.0814 0.9978
-0.4579 -0.3127 -0.0828 0.9978
-0.4572 -0.3220 -0.0835 0.9977
-0.4547 -0.3511 -0.0858 0.9977
-0.4539 -0.3612 -0.0866 0.9977
-0.4532 -0.3716 -0.0875 0.9976
-0.4525 -0.3822 -0.0884 0.9976
-0.4517 -0.3930 -0.0894 0.9976
-0.4489 -0.4266 -0.0925 0.9975
-0.4479 -0.4381 -0.0935 0.9975
-0.4454 -0.4620 -0.0958 0.9974
-0.4427 -0.4868 -0.0982 0.9973
-0.4412 -0.4996 -0.0995 0.9973
-0.4395 -0.5127 -0.1008 0.9973
-0.4379 -0.5586 -0.1060 0.9971
-0.4613 -0.6065 -0.1138 0.9969
-3.7201 -5.5346 -0.9957 0.9734
-3.4736 -5.6917 -0.9956 0.9734
-3.3056 -5.7904 -0.9955 0.9734
-3.2205 -5.8379 -0.9955 0.9734
-3.1348 -5.8841 -0.9955 0.9734
-3.0483 -5.9291 -0.9954 0.9734
-2.9613 -5.9729 -0.9954 0.9734
-2.7853 -6.0564 -0.9953 0.9734
-2.6070 -6.1347 -0.9952 0.9734
-2.5170 -6.1719 -0.9952 0.9734
-2.3353 -6.2423 -0.9951 0.9734
-0.9054 -2.6541 -0.4187 0.9887
-0.8703 -2.6785 -0.4205 0.9887
-0.6116 -2.8430 -0.4342 0.9883
-0.4589 -2.7053 -0.4097 0.9890
-0.4323 -2.7954 -0.4223 0.9886
-0.3314 -2.6544 -0.3994 0.9892
-0.2408 -2.5276 -0.3791 0.9898
-0.1589 -2.4129 -0.3610 0.9903
-0.1462 -2.8569 -0.4271 0.9885
-0.1042 -2.8520 -0.4261 0.9885
-0.0208 -2.8423 -0.4244 0.9886
0.0207 -2.8375 -0.4237 0.9886
0.0621 -2.8327 -0.4231 0.9886
0.5344 -6.6356 -0.9940 0.9734
0.8246 -6.6050 -0.9938 0.9734
0.9210 -6.5920 -0.9938 0.9734
1.3043 -6.5259 -0.9936 0.9734
1.5888 -6.4617 -0.9935 0.9734
1.9633 -6.3569 -0.9934 0.9735
2.0559 -6.3273 -0.9933 0.9735
2.1480 -6.2964 -0.9933 0.9735
2.2397 -6.2641 -0.9933 0.9735
2.4216 -6.1955 -0.9932 0.9735
2.6014 -6.1216 -0.9931 0.9735
2.7790 -6.0426 -0.9930 0.9735
2.9542 -5.9584 -0.9930 0.9735
3.0408 -5.9143 -0.9929 0.9735
3.1268 -5.8691 -0.9929 0.9735
3.3806 -5.7258 -0.9928 0.9735
3.6279 -5.5716 -0.9927 0.9735
3.7088 -5.5178 -0.9927 0.9735
3.7889 -5.4628 -0.9926 0.9735
3.8682 -5.4067 -0.9926 0.9735
4.0242 -5.2911 -0.9925 0.9735
4.1010 -5.2315 -0.9925 0.9735
4.1769 -5.1709 -0.9925 0.9735
4.3259 -5.0463 -0.9924 0.9735
4.5425 -4.8514 -0.9923 0.9735
4.6128 -4.7845 -0.9923 0.9735
4.6821 -4.7164 -0.9923 0.9735
4.7503 -4.6473 -0.9922 0.9735
4.8176 -4.5773 -0.9922 0.9735
5.0132 -4.3614 -0.9921 0.9735
3.7204 -3.1424 -0.7271 0.9805
3.8373 -3.0536 -0.7322 0.9804
5.2588 -4.0607 -0.9920 0.9735
4.0067 -2.8225 -0.7318 0.9804
5.4025 -3.6888 -0.9767 0.9739
5.5077 -3.5293 -0.9767 0.9739
5.5586 -3.4484 -0.9767 0.9739
5.6082 -3.3667 -0.9767 0.9739
5.7040 -3.2012 -0.9766 0.9739
5.7949 -3.0331 -0.9766 0.9739
5.8385 -2.9480 -0.9766 0.9739
5.9219 -2.7761 -0.9765 0.9739
6.0376 -2.5138 -0.9765 0.9739
6.1417 -2.2467 -0.9764 0.9739
6.1737 -2.1567 -0.9764 0.9739
6.2045 -2.0662 -0.9764 0.9739
6.2339 -1.9753 -0.9764 0.9739
6.3596 -1.9133 -0.9916 0.9735
6.3868 -1.8202 -0.9916 0.9735
6.4126 -1.7266 -0.9916 0.9735
6.4819 -1.4439 -0.9915 0.9735
6.5023 -1.3490 -0.9915 0.9735
6.5389 -1.1584 -0.9915 0.9735
6.5698 -0.9669 -0.9915 0.9735
6.5952 -0.7745 -0.9915 0.9735
6.6404 0.0000 -0.9915 0.9735
6.6340 0.2910 -0.9915 0.9735
6.6291 0.3879 -0.9915 0.9735
6.6227 0.4847 -0.9915 0.9735
6.6058 0.6780 -0.9915 0.9735
6.5832 0.8708 -0.9915 0.9735
6.5698 0.9669 -0.9915 0.9735
6.5213 1.2539 -0.9915 0.9735
6.4819 1.4439 -0.9915 0.9735
6.4602 1.5384 -0.9915 0.9735
6.4371 1.6327 -0.9916 0.9735
6.4126 1.7266 -0.9916 0.9735
6.3596 1.9133 -0.9916 0.9735
6.3310 2.0061 -0.9916 0.9735
6.3011 2.0984 -0.9916 0.9735
6.2699 2.1903 -0.9916 0.9735
6.2373 2.2816 -0.9916 0.9735
6.2033 2.3726 -0.9916 0.9735
6.1681 2.4630 -0.9917 0.9735
6.1316 2.5529 -0.9917 0.9735
6.0937 2.6423 -0.9917 0.9735
6.0545 2.7311 -0.9917 0.9735
5.9724 2.9069 -0.9917 0.9735
5.7928 3.2511 -0.9918 0.9735
5.5406 3.6656 -0.9919 0.9735
5.4313 3.8261 -0.9920 0.9735
5.3175 3.9834 -0.9920 0.9735
5.1382 4.2129 -0.9921 0.9735
4.1334 3.5961 -0.8180 0.9781
3.9678 3.6611 -0.8061 0.9784
4.0079 3.9210 -0.8372 0.9776
4.6128 4.7844 -0.9923 0.9735
4.4712 4.9174 -0.9924 0.9735
4.3991 4.9824 -0.9924 0.9735
4.3259 5.0463 -0.9924 0.9735
3.0648 3.6828 -0.7154 0.9808
2.8942 3.5830 -0.6877 0.9815
2.5339 3.8915 -0.6934 0.9814
2.5599 4.0599 -0.7166 0.9808
2.5877 4.2401 -0.7417 0.9801
2.6175 4.4333 -0.7687 0.9794
3.1267 5.8690 -0.9929 0.9735
2.8668 6.0010 -0.9930 0.9735
2.6904 6.0827 -0.9931 0.9735
2.6014 6.1216 -0.9931 0.9735
2.2397 6.2640 -0.9933 0.9735
2.1480 6.2963 -0.9933 0.9735
1.8702 6.3851 -0.9934 0.9735
1.7768 6.4120 -0.9934 0.9734
1.5888 6.4617 -0.9935 0.9734
1.4943 6.4845 -0.9936 0.9734
0.6805 3.4048 -0.5184 0.9861
0.6254 3.3856 -0.5141 0.9862
0.5717 3.3700 -0.5104 0.9863
0.5189 3.3556 -0.5070 0.9864
0.4195 3.3600 -0.5056 0.9864
0.3214 3.3730 -0.5059 0.9864
-0.0751 3.4258 -0.5116 0.9862
-0.1255 3.4328 -0.5129 0.9862
-0.2271 3.4484 -0.5160 0.9861
-0.3301 3.4649 -0.5197 0.9860
-0.5951 3.5082 -0.5313 0.9857
-0.6496 3.5171 -0.5340 0.9856
-0.7605 3.5354 -0.5399 0.9855
-1.0390 3.7495 -0.5809 0.9844
-1.8731 6.3949 -0.9949 0.9734
-2.2438 6.2755 -0.9951 0.9734
-2.3354 6.2423 -0.9951 0.9734
-2.4264 6.2078 -0.9952 0.9734
-2.5169 6.1719 -0.9952 0.9734
-2.6069 6.1346 -0.9952 0.9734
-2.7853 6.0563 -0.9953 0.9734
-2.9613 5.9728 -0.9954 0.9734
-3.0483 5.9291 -0.9954 0.9734
-3.3056 5.7904 -0.9955 0.9734
-3.3900 5.7417 -0.9956 0.9734
-3.6387 5.5882 -0.9957 0.9734
-3.7201 5.5346 -0.9957 0.9734
-3.8007 5.4798 -0.9957 0.9734
-3.8805 5.4239 -0.9958 0.9734
-0.5185 0.7029 -0.1304 0.9965
-0.4612 0.6065 -0.1138 0.9969
-0.4379 0.5586 -0.1060 0.9971
-0.4385 0.5429 -0.1042 0.9972
-0.4395 0.5127 -0.1008 0.9973
-0.4411 0.4996 -0.0995 0.9973
-0.4427 0.4869 -0.0982 0.9973
-0.4441 0.4743 -0.0970 0.9974
-0.4454 0.4620 -0.0958 0.9974
-0.4467 0.4500 -0.0947 0.9974
-0.4478 0.4381 -0.0935 0.9975
-0.4489 0.4266 -0.0925 0.9975
-0.4499 0.4152 -0.0914 0.9975
-0.4517 0.3930 -0.0894 0.9976
-0.4525 0.3822 -0.0884 0.9976
-0.4532 0.3716 -0.0875 0.9976
-0.4564 0.3316 -0.0842 0.9977
-0.4586 0.3034 -0.0821 0.9978
-0.4592 0.2942 -0.0814 0.9978
-0.4597 0.2852 -0.0808 0.9978
-0.4602 0.2763 -0.0801 0.9978
-0.4614 0.2502 -0.0784 0.9979
-0.4617 0.2416 -0.0778 0.9979
-0.4621 0.2249 -0.0767 0.9979
-0.4622 0.2167 -0.0762 0.9979
-0.4623 0.2085 -0.0757 0.9980
-0.4624 0.1925 -0.0748 0.9980
-0.4626 0.1770 -0.0740 0.9980
-0.4628 0.1693 -0.0736 0.9980
-0.4628 0.1541 -0.0728 0.9980
-0.4629 0.1467 -0.0725 0.9980
-0.4630 0.1393 -0.0722 0.9980
-0.4630 0.1320 -0.0719 0.9981
-0.4630 0.1175 -0.0713 0.9981
-0.4629 0.1103 -0.0711 0.9981
-0.4628 0.1031 -0.0708 0.9981
-0.4627 0.0960 -0.0706 0.9981
-0.4617 0.0680 -0.0697 0.9981
-0.4610 0.0541 -0.0693 0.9981
-0.4601 0.0405 -0.0690 0.9981
-0.4596 0.0337 -0.0688 0.9981
-0.4591 0.0268 -0.0687 0.9981
-0.4580 0.0134 -0.0684 0.9981
-0.4458 -0.0261 -0.0717 0.9982
-0.4467 -0.0393 -0.0720 0.9982
-0.4481 -0.0659 -0.0728 0.9982
-0.4487 -0.0862 -0.0734 0.9982
-0.4488 -0.0931 -0.0736 0.9981
-0.4490 -0.1139 -0.0744 0.9981
-0.4485 -0.1493 -0.0759 0.9981
-0.4482 -0.1566 -0.0763 0.9981
-0.4481 -0.1639 -0.0766 0.9981
-0.4479 -0.1713 -0.0770 0.9981
-0.4476 -0.1787 -0.0774 0.9980
-0.4474 -0.1863 -0.0779 0.9980
-0.4470 -0.2016 -0.0788 0.9980
-0.4463 -0.2254 -0.0803 0.9980
-0.4447 -0.2582 -0.0826 0.9979
-0.4441 -0.2666 -0.0832 0.9979
-0.4429 -0.2838 -0.0845 0.9979
-0.4422 -0.2925 -0.0852 0.9979
-0.4406 -0.3104 -0.0866 0.9978
-0.4397 -0.3195 -0.0873 0.9978
-0.4387 -0.3287 -0.0881 0.9978
-0.4377 -0.3380 -0.0888 0.9978
-0.4366 -0.3475 -0.0896 0.9977
-0.4311 -0.3978 -0.0942 0.9976
-0.4299 -0.4084 -0.0953 0.9976
-0.4286 -0.4194 -0.0963 0.9976
-0.4254 -0.4679 -0.1016 0.9974
-0.4249 -0.4812 -0.1031 0.9974
-0.4242 -0.4949 -0.1047 0.9974
-0.4235 -0.5089 -0.1064 0.9973
-0.4228 -0.5234 -0.1081 0.9973
-0.4210 -0.5536 -0.1117 0.9972
-0.4648 -0.6497 -0.1283 0.9968
-3.3813 -5.1929 -0.9956 0.9752
-3.1502 -5.3356 -0.9955 0.9752
-3.0718 -5.3809 -0.9954 0.9752
-2.9928 -5.4251 -0.9954 0.9752
-2.7519 -5.5505 -0.9953 0.9752
-2.5884 -5.6281 -0.9952 0.9752
-2.5058 -5.6652 -0.9952 0.9752
-2.1703 -5.8011 -0.9951 0.9752
-0.8673 -2.6693 -0.4509 0.9887
-0.8319 -2.6937 -0.4529 0.9886
-0.5676 -2.4632 -0.4061 0.9898
-0.5078 -2.7494 -0.4492 0.9887
-0.4589 -2.7052 -0.4408 0.9889
-0.3785 -2.7091 -0.4395 0.9890
-0.2397 -2.5157 -0.4060 0.9898
-0.1582 -2.4021 -0.3867 0.9903
-0.0626 -2.8552 -0.4588 0.9885
-0.0208 -2.8504 -0.4580 0.9885
0.0623 -2.8408 -0.4565 0.9886
0.1450 -2.8313 -0.4555 0.9886
0.4066 -6.1738 -0.9940 0.9752
0.4967 -6.1670 -0.9940 0.9752
