ply
format ascii 1.0
element vertex 1593
property float32 x
property float32 y
property float32 z
property float32 I
end_header
-0.2846 0.5343 -0.1604 0.9975
-0.2942 0.4982 -0.1533 0.9976
-0.2971 0.4867 -0.1511 0.9976
-0.2998 0.4755 -0.1489 0.9977
-0.3076 0.4436 -0.1430 0.9978
-0.3106 0.4341 -0.1414 0.9978
-0.3134 0.4248 -0.1399 0.9978
-0.3161 0.4156 -0.1384 0.9978
-0.3261 0.3804 -0.1328 0.9979
-0.3285 0.3721 -0.1315 0.9979
-0.3308 0.3638 -0.1303 0.9980
-0.3352 0.3476 -0.1280 0.9980
-0.3386 0.3312 -0.1255 0.9980
-0.3400 0.3230 -0.1243 0.9981
-0.3414 0.3150 -0.1231 0.9981
-0.3439 0.2993 -0.1208 0.9981
-0.3452 0.2915 -0.1197 0.9981
-0.3463 0.2839 -0.1187 0.9981
-0.3494 0.2618 -0.1157 0.9982
-0.3504 0.2545 -0.1147 0.9982
-0.3536 0.2266 -0.1113 0.9983
-0.3543 0.2198 -0.1105 0.9983
-0.3549 0.2131 -0.1097 0.9983
-0.3555 0.2064 -0.1089 0.9983
-0.3566 0.1934 -0.1075 0.9983
-0.3575 0.1871 -0.1069 0.9983
-0.3584 0.1810 -0.1064 0.9983
-0.3592 0.1748 -0.1059 0.9983
-0.3600 0.1688 -0.1054 0.9984
-0.3612 0.1566 -0.1043 0.9984
-0.3618 0.1506 -0.1038 0.9984
-0.3627 0.1387 -0.1029 0.9984
-0.3639 0.1212 -0.1016 0.9984
-0.3653 0.0870 -0.0995 0.9984
-0.3655 0.0814 -0.0992 0.9985
-0.3657 0.0703 -0.0987 0.9985
-0.3657 0.0648 -0.0984 0.9985
-0.3657 0.0593 -0.0982 0.9985
-0.3657 0.0538 -0.0979 0.9985
-0.3653 0.0321 -0.0972 0.9985
-0.3651 0.0268 -0.0970 0.9985
-0.3644 0.0107 -0.0966 0.9985
-0.3642 0.0054 -0.0965 0.9985
-0.3583 -0.0105 -0.0993 0.9985
-0.3586 -0.0157 -0.0994 0.9985
-0.3590 -0.0262 -0.0997 0.9985
-0.3593 -0.0369 -0.1000 0.9985
-0.3594 -0.0422 -0.1002 0.9985
-0.3595 -0.0637 -0.1011 0.9985
-0.3589 -0.0910 -0.1025 0.9985
-0.3584 -0.1021 -0.1032 0.9985
-0.3581 -0.1077 -0.1035 0.9984
-0.3578 -0.1134 -0.1039 0.9984
-0.3575 -0.1190 -0.1043 0.9984
-0.3571 -0.1247 -0.1047 0.9984
-0.3567 -0.1305 -0.1052 0.9984
-0.3557 -0.1420 -0.1061 0.9984
-0.3552 -0.1479 -0.1065 0.9984
-0.3541 -0.1597 -0.1075 0.9984
-0.3534 -0.1657 -0.1081 0.9984
-0.3526 -0.1716 -0.1086 0.9984
-0.3518 -0.1776 -0.1091 0.9984
-0.3509 -0.1836 -0.1096 0.9984
-0.3499 -0.1897 -0.1102 0.9983
-0.3472 -0.2154 -0.1131 0.9983
-0.3465 -0.2220 -0.1139 0.9983
-0.3431 -0.2492 -0.1174 0.9982
-0.3421 -0.2563 -0.1184 0.9982
-0.3411 -0.2634 -0.1193 0.9982
-0.3400 -0.2705 -0.1203 0.9982
-0.3365 -0.2927 -0.1235 0.9982
-0.3352 -0.3003 -0.1246 0.9981
-0.3338 -0.3080 -0.1258 0.9981
-0.3324 -0.3158 -0.1269 0.9981
-0.3294 -0.3318 -0.1294 0.9981
-0.3255 -0.3477 -0.1319 0.9980
-0.3233 -0.3555 -0.1330 0.9980
-0.3136 -0.3882 -0.1382 0.9979
-0.3084 -0.4055 -0.1410 0.9979
-0.3057 -0.4143 -0.1425 0.9979
-0.3028 -0.4232 -0.1441 0.9978
-0.2999 -0.4323 -0.1457 0.9978
-0.2937 -0.4510 -0.1490 0.9978
-0.2907 -0.4610 -0.1509 0.9977
-0.2879 -0.4717 -0.1530 0.9977
-0.2849 -0.4826 -0.1552 0.9977
-0.2819 -0.4937 -0.1574 0.9976
-0.2787 -0.5051 -0.1597 0.9976
-0.2682 -0.5409 -0.1672 0.9975
-0.2604 -0.5662 -0.1726 0.9974
-0.2857 -0.7005 -0.2095 0.9969
-1.2878 -3.2948 -0.9795 0.9854
-1.2395 -3.3132 -0.9794 0.9854
-1.1422 -3.3478 -0.9794 0.9854
-1.0931 -3.3641 -0.9794 0.9854
-1.0438 -3.3796 -0.9794 0.9854
-0.9943 -3.3945 -0.9793 0.9854
-0.9446 -3.4086 -0.9793 0.9854
-0.8946 -3.4220 -0.9793 0.9854
-0.6424 -3.4777 -0.9792 0.9854
-0.5404 -3.4949 -0.9792 0.9854
-0.4894 -3.5023 -0.9791 0.9854
-0.3867 -3.5150 -0.9791 0.9854
-0.2839 -3.5247 -0.9791 0.9854
-0.2323 -3.5283 -0.9790 0.9854
-0.1808 -3.5313 -0.9790 0.9854
0.0258 -3.5355 -0.9789 0.9854
0.0775 -3.5347 -0.9789 0.9854
0.1291 -3.5331 -0.9789 0.9854
0.3353 -3.5192 -0.9788 0.9854
0.3866 -3.5139 -0.9788 0.9854
0.3178 -2.5459 -0.7104 0.9894
0.4212 -2.7239 -0.7632 0.9886
0.4914 -2.6604 -0.7491 0.9888
0.5591 -2.5991 -0.7361 0.9890
0.8439 -3.4321 -0.9786 0.9854
0.8939 -3.4195 -0.9786 0.9854
1.0921 -3.3611 -0.9785 0.9854
1.1898 -3.3276 -0.9785 0.9854
1.2864 -3.2913 -0.9784 0.9854
1.3344 -3.2721 -0.9784 0.9854
1.3820 -3.2521 -0.9784 0.9854
1.4764 -3.2103 -0.9783 0.9854
1.5231 -3.1883 -0.9783 0.9854
1.5695 -3.1657 -0.9783 0.9854
1.6156 -3.1423 -0.9783 0.9854
1.7066 -3.0937 -0.9783 0.9854
1.7516 -3.0683 -0.9782 0.9854
1.7962 -3.0423 -0.9782 0.9854
1.8405 -3.0157 -0.9782 0.9854
1.8843 -2.9884 -0.9782 0.9854
1.9277 -2.9605 -0.9782 0.9854
2.0133 -2.9029 -0.9781 0.9854
2.0555 -2.8730 -0.9781 0.9854
2.0972 -2.8427 -0.9781 0.9854
2.1385 -2.8117 -0.9781 0.9854
2.1793 -2.7801 -0.9781 0.9854
2.2990 -2.6818 -0.9780 0.9854
2.3763 -2.6134 -0.9780 0.9854
2.4141 -2.5784 -0.9780 0.9854
2.4515 -2.5427 -0.9780 0.9854
2.5247 -2.4700 -0.9779 0.9854
2.5957 -2.3950 -0.9779 0.9854
2.6981 -2.2789 -0.9779 0.9854
2.7634 -2.1991 -0.9778 0.9854
2.8570 -2.0758 -0.9778 0.9854
2.9452 -1.9485 -0.9778 0.9854
3.0475 -1.8905 -0.9930 0.9852
3.0747 -1.8457 -0.9929 0.9852
3.1526 -1.7092 -0.9929 0.9852
3.2243 -1.5694 -0.9929 0.9852
3.2899 -1.4265 -0.9929 0.9852
3.3104 -1.3783 -0.9928 0.9852
3.3492 -1.2809 -0.9928 0.9852
3.3852 -1.1825 -0.9928 0.9852
3.4182 -1.0831 -0.9928 0.9852
3.4483 -0.9827 -0.9928 0.9852
3.4998 -0.7796 -0.9928 0.9852
3.5306 -0.6255 -0.9928 0.9852
3.5393 -0.5738 -0.9928 0.9852
3.5473 -0.5220 -0.9928 0.9852
3.5546 -0.4702 -0.9927 0.9852
3.5717 -0.3139 -0.9927 0.9852
3.5759 -0.2618 -0.9927 0.9852
3.5793 -0.2095 -0.9927 0.9852
3.5820 -0.1571 -0.9927 0.9852
3.5839 -0.1048 -0.9927 0.9852
3.5851 0.0524 -0.9927 0.9852
3.5820 0.1571 -0.9927 0.9852
3.5794 0.2095 -0.9927 0.9852
3.5717 0.3139 -0.9927 0.9852
3.5473 0.5221 -0.9928 0.9852
3.5393 0.5739 -0.9928 0.9852
3.4998 0.7796 -0.9928 0.9852
3.4880 0.8307 -0.9928 0.9852
3.4756 0.8816 -0.9928 0.9852
3.4623 0.9322 -0.9928 0.9852
3.4337 1.0330 -0.9928 0.9852
3.4182 1.0831 -0.9928 0.9852
3.4021 1.1330 -0.9928 0.9852
3.3851 1.1825 -0.9928 0.9852
3.3492 1.2810 -0.9928 0.9852
3.2469 1.5221 -0.9929 0.9852
3.1771 1.6630 -0.9929 0.9852
3.1013 1.8007 -0.9929 0.9852
3.0747 1.8458 -0.9929 0.9852
3.0196 1.9349 -0.9930 0.9852
2.9910 1.9789 -0.9930 0.9852
2.8704 2.1503 -0.9930 0.9852
2.8387 2.1920 -0.9930 0.9852
2.8064 2.2333 -0.9931 0.9852
2.7736 2.2741 -0.9931 0.9852
2.7060 2.3543 -0.9931 0.9852
2.6361 2.4323 -0.9931 0.9852
2.6003 2.4707 -0.9931 0.9852
2.4897 2.5823 -0.9932 0.9852
2.4132 2.6541 -0.9932 0.9852
2.3743 2.6891 -0.9932 0.9852
2.3347 2.7236 -0.9932 0.9852
2.2542 2.7907 -0.9933 0.9852
2.2132 2.8234 -0.9933 0.9852
2.1718 2.8554 -0.9933 0.9852
2.1299 2.8870 -0.9933 0.9852
2.0875 2.9179 -0.9933 0.9852
2.0447 2.9481 -0.9934 0.9852
2.0014 2.9777 -0.9934 0.9852
1.8242 3.0897 -0.9934 0.9852
1.7332 3.1418 -0.9935 0.9852
1.6871 3.1669 -0.9935 0.9852
1.5939 3.2150 -0.9935 0.9852
1.5468 3.2380 -0.9936 0.9852
1.4994 3.2603 -0.9936 0.9852
1.4516 3.2819 -0.9936 0.9852
1.4035 3.3029 -0.9936 0.9852
1.1588 3.3968 -0.9937 0.9852
1.0591 3.4293 -0.9938 0.9852
1.0089 3.4446 -0.9938 0.9852
0.9079 3.4727 -0.9938 0.9852
0.8570 3.4857 -0.9938 0.9852
0.8060 3.4979 -0.9939 0.9852
0.7549 3.5093 -0.9939 0.9852
0.5486 3.5478 -0.9940 0.9852
0.4967 3.5555 -0.9940 0.9852
0.4447 3.5624 -0.9940 0.9852
0.3927 3.5686 -0.9940 0.9852
0.3404 3.5740 -0.9940 0.9852
0.2359 3.5826 -0.9941 0.9852
0.1836 3.5857 -0.9941 0.9852
0.1311 3.5881 -0.9941 0.9852
-0.2360 3.5833 -0.9943 0.9852
-0.3928 3.5697 -0.9943 0.9852
-0.4449 3.5637 -0.9944 0.9852
-0.4970 3.5569 -0.9944 0.9852
-0.6007 3.5410 -0.9944 0.9852
-0.7040 3.5221 -0.9945 0.9852
-0.7554 3.5115 -0.9945 0.9852
-0.8577 3.4881 -0.9945 0.9852
-0.9086 3.4752 -0.9945 0.9852
-1.1599 3.4000 -0.9947 0.9852
-1.2095 3.3827 -0.9947 0.9852
-1.3079 3.3461 -0.9947 0.9852
-0.2857 0.7006 -0.2095 0.9969
-0.2754 0.6480 -0.1949 0.9971
-0.2644 0.5535 -0.1698 0.9975
-0.2753 0.5168 -0.1621 0.9976
-0.2787 0.5052 -0.1597 0.9976
-0.2907 0.4611 -0.1509 0.9977
-0.2937 0.4510 -0.1490 0.9978
-0.2968 0.4416 -0.1473 0.9978
-0.3028 0.4232 -0.1441 0.9978
-0.3056 0.4143 -0.1425 0.9979
-0.3084 0.4055 -0.1410 0.9979
-0.3161 0.3798 -0.1368 0.9980
-0.3186 0.3716 -0.1355 0.9980
-0.3294 0.3318 -0.1294 0.9981
-0.3309 0.3237 -0.1282 0.9981
-0.3324 0.3158 -0.1269 0.9981
-0.3352 0.3004 -0.1246 0.9981
-0.3365 0.2927 -0.1235 0.9982
-0.3377 0.2853 -0.1224 0.9982
-0.3400 0.2706 -0.1203 0.9982
-0.3421 0.2563 -0.1184 0.9982
-0.3449 0.2355 -0.1156 0.9983
-0.3457 0.2287 -0.1148 0.9983
-0.3479 0.2089 -0.1123 0.9983
-0.3485 0.2024 -0.1116 0.9983
-0.3526 0.1717 -0.1086 0.9984
-0.3541 0.1597 -0.1075 0.9984
-0.3547 0.1538 -0.1070 0.9984
-0.3552 0.1479 -0.1065 0.9984
-0.3571 0.1248 -0.1047 0.9984
-0.3578 0.1134 -0.1039 0.9984
-0.3582 0.1077 -0.1035 0.9984
-0.3584 0.1021 -0.1032 0.9985
-0.3587 0.0966 -0.1028 0.9985
-0.3592 0.0800 -0.1019 0.9985
-0.3593 0.0746 -0.1016 0.9985
-0.3594 0.0637 -0.1011 0.9985
-0.3595 0.0583 -0.1008 0.9985
-0.3594 0.0422 -0.1002 0.9985
-0.3593 0.0369 -0.1000 0.9985
-0.3590 0.0263 -0.0997 0.9985
-0.3588 0.0210 -0.0995 0.9985
-0.3584 0.0105 -0.0993 0.9985
-0.3580 0.0052 -0.0991 0.9985
-0.3519 0.0000 -0.1016 0.9985
-0.3526 -0.0154 -0.1019 0.9985
-0.3530 -0.0258 -0.1022 0.9985
-0.3533 -0.0362 -0.1026 0.9985
-0.3534 -0.0415 -0.1028 0.9985
-0.3531 -0.0786 -0.1045 0.9985
-0.3527 -0.0895 -0.1051 0.9985
-0.3522 -0.1004 -0.1058 0.9985
-0.3519 -0.1059 -0.1062 0.9985
-0.3516 -0.1114 -0.1065 0.9985
-0.3509 -0.1225 -0.1073 0.9985
-0.3504 -0.1282 -0.1078 0.9984
-0.3495 -0.1395 -0.1087 0.9984
-0.3489 -0.1452 -0.1092 0.9984
-0.3483 -0.1510 -0.1097 0.9984
-0.3462 -0.1685 -0.1112 0.9984
-0.3454 -0.1743 -0.1117 0.9984
-0.3418 -0.1984 -0.1141 0.9984
-0.3411 -0.2047 -0.1149 0.9983
-0.3404 -0.2111 -0.1157 0.9983
-0.3396 -0.2176 -0.1165 0.9983
-0.3388 -0.2241 -0.1173 0.9983
-0.3379 -0.2307 -0.1182 0.9983
-0.3361 -0.2442 -0.1200 0.9983
-0.3318 -0.2720 -0.1239 0.9982
-0.3305 -0.2792 -0.1250 0.9982
-0.3292 -0.2864 -0.1261 0.9982
-0.3183 -0.3400 -0.1345 0.9981
-0.3113 -0.3631 -0.1382 0.9980
-0.3088 -0.3711 -0.1394 0.9980
-0.3037 -0.3873 -0.1422 0.9980
-0.3010 -0.3957 -0.1436 0.9979
-0.2982 -0.4042 -0.1451 0.9979
-0.2924 -0.4216 -0.1482 0.9979
-0.2894 -0.4305 -0.1498 0.9978
-0.2862 -0.4395 -0.1515 0.9978
-0.2762 -0.4679 -0.1569 0.9977
-0.2731 -0.4784 -0.1591 0.9977
-0.2699 -0.4893 -0.1614 0.9977
-0.2666 -0.5004 -0.1637 0.9976
-0.2594 -0.5232 -0.1687 0.9976
-0.2556 -0.5350 -0.1713 0.9975
-0.2475 -0.5595 -0.1767 0.9975
-0.2529 -0.6200 -0.1934 0.9972
-0.2609 -0.6675 -0.2070 0.9970
-1.1416 -3.1928 -0.9794 0.9860
-1.0478 -3.2247 -0.9794 0.9860
-1.0005 -3.2396 -0.9793 0.9860
-0.9054 -3.2673 -0.9793 0.9860
-0.8575 -3.2801 -0.9793 0.9860
-0.8095 -3.2922 -0.9793 0.9860
-0.7613 -3.3037 -0.9793 0.9860
-0.7129 -3.3143 -0.9792 0.9860
-0.6158 -3.3336 -0.9792 0.9860
-0.5670 -3.3422 -0.9792 0.9860
-0.5181 -3.3500 -0.9792 0.9860
-0.2721 -3.3786 -0.9791 0.9860
-0.0743 -3.3884 -0.9790 0.9860
0.0247 -3.3891 -0.9789 0.9860
0.0742 -3.3882 -0.9789 0.9860
0.1732 -3.3845 -0.9789 0.9860
0.2227 -3.3815 -0.9789 0.9860
0.3214 -3.3734 -0.9788 0.9860
0.3706 -3.3683 -0.9788 0.9860
0.4198 -3.3625 -0.9788 0.9860
0.4688 -3.3559 -0.9788 0.9860
0.8089 -3.2900 -0.9786 0.9860
0.9047 -3.2649 -0.9786 0.9860
1.0469 -3.2219 -0.9785 0.9860
1.1405 -3.1898 -0.9785 0.9860
1.5045 -3.0345 -0.9783 0.9860
1.5487 -3.0122 -0.9783 0.9860
1.5925 -2.9892 -0.9783 0.9860
1.7219 -2.9164 -0.9783 0.9860
1.7643 -2.8909 -0.9782 0.9860
1.8891 -2.8106 -0.9782 0.9860
1.9300 -2.7827 -0.9782 0.9860
1.9704 -2.7541 -0.9781 0.9860
2.0104 -2.7250 -0.9781 0.9860
2.1278 -2.6341 -0.9781 0.9860
2.1660 -2.6027 -0.9781 0.9860
2.2038 -2.5707 -0.9781 0.9860
2.2779 -2.5052 -0.9780 0.9860
2.3142 -2.4716 -0.9780 0.9860
2.3854 -2.4029 -0.9780 0.9860
2.4545 -2.3320 -0.9780 0.9860
2.4883 -2.2959 -0.9779 0.9860
2.5215 -2.2593 -0.9779 0.9860
2.5542 -2.2222 -0.9779 0.9860
2.6180 -2.1465 -0.9779 0.9860
2.6795 -2.0691 -0.9779 0.9860
2.7094 -2.0296 -0.9779 0.9860
2.7388 -1.9898 -0.9778 0.9860
3.0221 -1.6385 -0.9930 0.9858
3.0686 -1.5495 -0.9929 0.9858
3.1538 -1.3675 -0.9929 0.9858
3.1923 -1.2747 -0.9929 0.9858
3.2106 -1.2279 -0.9929 0.9858
3.2282 -1.1809 -0.9929 0.9858
3.2613 -1.0861 -0.9929 0.9858
3.2916 -0.9903 -0.9929 0.9858
3.3057 -0.9421 -0.9928 0.9858
3.3317 -0.8451 -0.9928 0.9858
3.3437 -0.7963 -0.9928 0.9858
3.3550 -0.7473 -0.9928 0.9858
3.3655 -0.6982 -0.9928 0.9858
3.3754 -0.6490 -0.9928 0.9858
3.4005 -0.5004 -0.9928 0.9858
3.4192 -0.3509 -0.9928 0.9858
3.4313 -0.2007 -0.9928 0.9858
3.4338 -0.1506 -0.9928 0.9858
3.4368 -0.0502 -0.9928 0.9858
3.4371 0.0000 -0.9928 0.9858
3.4356 0.1004 -0.9928 0.9858
3.4338 0.1506 -0.9928 0.9858
3.4313 0.2008 -0.9928 0.9858
3.4279 0.2509 -0.9928 0.9858
3.4137 0.4009 -0.9928 0.9858
3.4075 0.4507 -0.9928 0.9858
3.4005 0.5005 -0.9928 0.9858
3.3550 0.7473 -0.9928 0.9858
3.3317 0.8451 -0.9928 0.9858
3.3191 0.8937 -0.9928 0.9858
3.3057 0.9421 -0.9928 0.9858
3.2916 0.9903 -0.9929 0.9858
3.2768 1.0383 -0.9929 0.9858
3.2613 1.0861 -0.9929 0.9858
3.2450 1.1336 -0.9929 0.9858
3.2282 1.1809 -0.9929 0.9858
3.2106 1.2280 -0.9929 0.9858
3.1923 1.2748 -0.9929 0.9858
3.1125 1.4591 -0.9929 0.9858
3.0686 1.5495 -0.9929 0.9858
3.0221 1.6385 -0.9930 0.9858
2.9979 1.6825 -0.9930 0.9858
2.9730 1.7261 -0.9930 0.9858
2.9475 1.7694 -0.9930 0.9858
2.8946 1.8548 -0.9930 0.9858
2.8672 1.8969 -0.9930 0.9858
2.8106 1.9800 -0.9930 0.9858
2.7516 2.0613 -0.9931 0.9858
2.6903 2.1409 -0.9931 0.9858
2.6588 2.1800 -0.9931 0.9858
2.6267 2.2186 -0.9931 0.9858
2.5940 2.2568 -0.9931 0.9858
2.5608 2.2945 -0.9931 0.9858
2.5270 2.3317 -0.9932 0.9858
2.4927 2.3684 -0.9932 0.9858
2.3866 2.4754 -0.9932 0.9858
2.3133 2.5443 -0.9932 0.9858
2.2381 2.6108 -0.9933 0.9858
2.1997 2.6432 -0.9933 0.9858
2.1609 2.6752 -0.9933 0.9858
2.0417 2.7674 -0.9934 0.9858
1.9185 2.8544 -0.9934 0.9858
1.7487 2.9618 -0.9935 0.9858
1.7052 2.9871 -0.9935 0.9858
1.6614 3.0118 -0.9935 0.9858
1.6173 3.0357 -0.9935 0.9858
1.5728 3.0591 -0.9935 0.9858
1.5279 3.0818 -0.9936 0.9858
1.4828 3.1039 -0.9936 0.9858
1.2990 3.1854 -0.9937 0.9858
1.2524 3.2041 -0.9937 0.9858
1.2054 3.2221 -0.9937 0.9858
1.1582 3.2395 -0.9937 0.9858
1.0631 3.2721 -0.9938 0.9858
0.9671 3.3018 -0.9938 0.9858
0.9188 3.3157 -0.9938 0.9858
0.8703 3.3289 -0.9938 0.9858
0.7726 3.3530 -0.9939 0.9858
0.7236 3.3640 -0.9939 0.9858
0.6250 3.3838 -0.9939 0.9858
0.5755 3.3927 -0.9940 0.9858
0.2763 3.4304 -0.9941 0.9858
0.2261 3.4342 -0.9941 0.9858
0.1759 3.4372 -0.9941 0.9858
0.0251 3.4418 -0.9942 0.9858
-0.0755 3.4412 -0.9942 0.9858
-0.1760 3.4377 -0.9943 0.9858
-0.2262 3.4348 -0.9943 0.9858
-0.3265 3.4268 -0.9943 0.9858
-0.4265 3.4160 -0.9944 0.9858
-0.6254 3.3855 -0.9944 0.9858
-0.7731 3.3551 -0.9945 0.9858
-0.8709 3.3312 -0.9945 0.9858
-1.0161 3.2900 -0.9946 0.9858
-1.0641 3.2749 -0.9946 0.9858
-1.1594 3.2425 -0.9947 0.9858
-0.2529 0.6201 -0.1934 0.9972
-0.2475 0.5595 -0.1767 0.9975
-0.2594 0.5232 -0.1687 0.9976
-0.2666 0.5004 -0.1637 0.9976
-0.2699 0.4893 -0.1614 0.9977
-0.2762 0.4679 -0.1569 0.9977
-0.2829 0.4488 -0.1532 0.9978
-0.2894 0.4305 -0.1498 0.9978
-0.2954 0.4129 -0.1466 0.9979
-0.2982 0.4042 -0.1451 0.9979
-0.3010 0.3957 -0.1436 0.9979
-0.3088 0.3711 -0.1394 0.9980
-0.3113 0.3631 -0.1382 0.9980
-0.3137 0.3553 -0.1369 0.9980
-0.3183 0.3400 -0.1345 0.9981
-0.3203 0.3322 -0.1333 0.9981
-0.3220 0.3243 -0.1320 0.9981
-0.3251 0.3089 -0.1295 0.9981
-0.3293 0.2865 -0.1261 0.9982
-0.3306 0.2792 -0.1250 0.9982
-0.3340 0.2579 -0.1219 0.9982
-0.3351 0.2511 -0.1209 0.9983
-0.3361 0.2442 -0.1200 0.9983
-0.3379 0.2307 -0.1182 0.9983
-0.3388 0.2242 -0.1173 0.9983
-0.3396 0.2177 -0.1165 0.9983
-0.3404 0.2112 -0.1157 0.9983
-0.3418 0.1984 -0.1141 0.9984
-0.3425 0.1922 -0.1134 0.9984
-0.3435 0.1862 -0.1128 0.9984
-0.3445 0.1803 -0.1123 0.9984
-0.3454 0.1744 -0.1117 0.9984
-0.3462 0.1685 -0.1112 0.9984
-0.3477 0.1569 -0.1102 0.9984
-0.3489 0.1453 -0.1092 0.9984
-0.3495 0.1395 -0.1087 0.9984
-0.3500 0.1339 -0.1082 0.9984
-0.3504 0.1282 -0.1078 0.9984
-0.3508 0.1226 -0.1073 0.9985
-0.3512 0.1170 -0.1069 0.9985
-0.3525 0.0949 -0.1054 0.9985
-0.3529 0.0841 -0.1048 0.9985
-0.3533 0.0679 -0.1039 0.9985
-0.3534 0.0573 -0.1034 0.9985
-0.3533 0.0362 -0.1026 0.9985
-0.3531 0.0311 -0.1024 0.9985
-0.3530 0.0258 -0.1022 0.9985
-0.3528 0.0207 -0.1021 0.9985
-0.3524 0.0103 -0.1018 0.9985
-0.3463 -0.0050 -0.1042 0.9986
-0.3470 -0.0203 -0.1046 0.9985
-0.3472 -0.0254 -0.1047 0.9985
-0.3473 -0.0305 -0.1049 0.9985
-0.3475 -0.0511 -0.1057 0.9985
-0.3475 -0.0563 -0.1059 0.9985
-0.3475 -0.0615 -0.1062 0.9985
-0.3474 -0.0668 -0.1064 0.9985
-0.3473 -0.0720 -0.1067 0.9985
-0.3471 -0.0773 -0.1070 0.9985
-0.3470 -0.0826 -0.1073 0.9985
-0.3468 -0.0879 -0.1076 0.9985
-0.3459 -0.1041 -0.1087 0.9985
-0.3452 -0.1150 -0.1095 0.9985
-0.3448 -0.1204 -0.1099 0.9985
-0.3443 -0.1259 -0.1103 0.9985
-0.3438 -0.1315 -0.1108 0.9985
-0.3433 -0.1371 -0.1112 0.9985
-0.3416 -0.1541 -0.1127 0.9984
-0.3409 -0.1598 -0.1133 0.9984
-0.3382 -0.1770 -0.1149 0.9984
-0.3372 -0.1828 -0.1154 0.9984
-0.3362 -0.1887 -0.1160 0.9984
-0.3345 -0.2008 -0.1174 0.9984
-0.3330 -0.2133 -0.1190 0.9983
-0.3321 -0.2197 -0.1198 0.9983
-0.3303 -0.2327 -0.1216 0.9983
-0.3293 -0.2392 -0.1225 0.9983
-0.3283 -0.2459 -0.1234 0.9983
-0.3249 -0.2664 -0.1264 0.9982
-0.3236 -0.2733 -0.1275 0.9982
-0.3195 -0.2948 -0.1308 0.9982
-0.3132 -0.3248 -0.1358 0.9981
-0.3113 -0.3325 -0.1371 0.9981
-0.3067 -0.3474 -0.1394 0.9981
-0.2966 -0.3783 -0.1446 0.9980
-0.2911 -0.3946 -0.1475 0.9980
-0.2883 -0.4029 -0.1491 0.9979
-0.2823 -0.4199 -0.1522 0.9979
-0.2791 -0.4286 -0.1539 0.9979
-0.2758 -0.4375 -0.1556 0.9978
-0.2583 -0.4848 -0.1653 0.9977
-0.2548 -0.4955 -0.1676 0.9977
-0.2473 -0.5176 -0.1726 0.9976
-0.2433 -0.5291 -0.1752 0.9976
-0.2392 -0.5407 -0.1779 0.9975
-0.2349 -0.5527 -0.1807 0.9975
-0.2304 -0.5649 -0.1836 0.9975
-0.2451 -0.6855 -0.2190 0.9970
-0.9605 -3.1098 -0.9793 0.9865
-0.8691 -3.1364 -0.9793 0.9865
-0.5911 -3.2001 -0.9792 0.9865
-0.4503 -3.2228 -0.9791 0.9865
-0.4031 -3.2289 -0.9791 0.9865
-0.3559 -3.2344 -0.9791 0.9865
-0.3086 -3.2392 -0.9791 0.9865
-0.1664 -3.2495 -0.9790 0.9865
-0.1188 -3.2514 -0.9790 0.9865
-0.0713 -3.2528 -0.9790 0.9865
0.0238 -3.2534 -0.9789 0.9865
0.1188 -3.2511 -0.9789 0.9865
0.1663 -3.2490 -0.9789 0.9865
0.3558 -3.2335 -0.9788 0.9865
0.4501 -3.2216 -0.9788 0.9865
0.5255 -2.6295 -0.8068 0.9889
0.5590 -2.5991 -0.7999 0.9890
0.7304 -3.1694 -0.9787 0.9865
0.9142 -3.1211 -0.9786 0.9865
1.0049 -3.0930 -0.9785 0.9865
1.0500 -3.0779 -0.9785 0.9865
1.0949 -3.0621 -0.9785 0.9865
1.1395 -3.0458 -0.9785 0.9865
1.2718 -2.9928 -0.9784 0.9865
1.3153 -2.9739 -0.9784 0.9865
1.4443 -2.9132 -0.9784 0.9865
1.4867 -2.8917 -0.9783 0.9865
1.5287 -2.8696 -0.9783 0.9865
1.6119 -2.8236 -0.9783 0.9865
1.8136 -2.6982 -0.9782 0.9865
2.0056 -2.5584 -0.9781 0.9865
2.0427 -2.5288 -0.9781 0.9865
2.0794 -2.4986 -0.9781 0.9865
2.1514 -2.4368 -0.9781 0.9865
2.1868 -2.4050 -0.9781 0.9865
2.2561 -2.3400 -0.9780 0.9865
2.2900 -2.3068 -0.9780 0.9865
2.3887 -2.2041 -0.9780 0.9865
2.4830 -2.0972 -0.9779 0.9865
2.5431 -2.0237 -0.9779 0.9865
2.6011 -1.9485 -0.9779 0.9865
2.6457 -1.9222 -0.9840 0.9864
2.7257 -1.8611 -0.9931 0.9863
2.7788 -1.7807 -0.9931 0.9863
2.8296 -1.6986 -0.9930 0.9863
2.8541 -1.6571 -0.9930 0.9863
2.8780 -1.6152 -0.9930 0.9863
2.9013 -1.5730 -0.9930 0.9863
2.9239 -1.5304 -0.9930 0.9863
2.9459 -1.4875 -0.9930 0.9863
2.9673 -1.4443 -0.9930 0.9863
3.0082 -1.3570 -0.9930 0.9863
3.0277 -1.3128 -0.9930 0.9863
3.0465 -1.2684 -0.9930 0.9863
3.0647 -1.2237 -0.9929 0.9863
3.1154 -1.0883 -0.9929 0.9863
3.1309 -1.0426 -0.9929 0.9863
3.1458 -0.9968 -0.9929 0.9863
3.1600 -0.9507 -0.9929 0.9863
3.1985 -0.8113 -0.9929 0.9863
3.2101 -0.7645 -0.9929 0.9863
3.2208 -0.7175 -0.9929 0.9863
3.2310 -0.6704 -0.9929 0.9863
3.2492 -0.5756 -0.9929 0.9863
3.2572 -0.5281 -0.9929 0.9863
3.2646 -0.4804 -0.9929 0.9863
3.2772 -0.3848 -0.9929 0.9863
3.2871 -0.2889 -0.9929 0.9863
3.2994 -0.0482 -0.9929 0.9863
3.2994 0.0482 -0.9929 0.9863
3.2965 0.1446 -0.9929 0.9863
3.2941 0.1928 -0.9929 0.9863
3.2909 0.2409 -0.9929 0.9863
3.2870 0.2889 -0.9929 0.9863
3.2824 0.3369 -0.9929 0.9863
3.2572 0.5281 -0.9929 0.9863
3.2310 0.6704 -0.9929 0.9863
3.2100 0.7645 -0.9929 0.9863
3.1985 0.8113 -0.9929 0.9863
3.1864 0.8580 -0.9929 0.9863
3.1600 0.9507 -0.9929 0.9863
3.1457 0.9968 -0.9929 0.9863
3.1309 1.0427 -0.9929 0.9863
3.1154 1.0883 -0.9929 0.9863
3.0991 1.1337 -0.9929 0.9863
3.0822 1.1789 -0.9929 0.9863
3.0465 1.2685 -0.9930 0.9863
3.0277 1.3129 -0.9930 0.9863
3.0082 1.3570 -0.9930 0.9863
2.9881 1.4008 -0.9930 0.9863
2.9673 1.4443 -0.9930 0.9863
2.9239 1.5304 -0.9930 0.9863
2.8780 1.6152 -0.9930 0.9863
2.8541 1.6571 -0.9930 0.9863
2.8296 1.6987 -0.9930 0.9863
2.8046 1.7398 -0.9931 0.9863
2.7788 1.7807 -0.9931 0.9863
2.6702 1.9400 -0.9931 0.9863
2.6416 1.9789 -0.9931 0.9863
2.5827 2.0552 -0.9931 0.9863
2.5524 2.0928 -0.9932 0.9863
2.4584 2.2027 -0.9932 0.9863
2.3596 2.3084 -0.9932 0.9863
2.3256 2.3427 -0.9932 0.9863
2.2208 2.4425 -0.9933 0.9863
2.1849 2.4747 -0.9933 0.9863
2.1486 2.5064 -0.9933 0.9863
2.1117 2.5376 -0.9933 0.9863
2.0367 2.5982 -0.9934 0.9863
1.9210 2.6852 -0.9934 0.9863
1.8418 2.7402 -0.9934 0.9863
1.8016 2.7668 -0.9935 0.9863
1.7610 2.7929 -0.9935 0.9863
1.7200 2.8184 -0.9935 0.9863
1.6787 2.8433 -0.9935 0.9863
1.5950 2.8912 -0.9935 0.9863
1.5526 2.9143 -0.9936 0.9863
1.4234 2.9796 -0.9936 0.9863
1.3798 3.0002 -0.9936 0.9863
1.2916 3.0394 -0.9937 0.9863
1.2471 3.0580 -0.9937 0.9863
1.2023 3.0759 -0.9937 0.9863
1.1572 3.0932 -0.9937 0.9863
1.0664 3.1258 -0.9938 0.9863
0.9746 3.1558 -0.9938 0.9863
0.9284 3.1697 -0.9938 0.9863
0.8820 3.1830 -0.9938 0.9863
0.8354 3.1956 -0.9938 0.9863
0.7886 3.2076 -0.9939 0.9863
0.6946 3.2294 -0.9939 0.9863
0.6000 3.2484 -0.9939 0.9863
0.5525 3.2569 -0.9940 0.9863
0.5049 3.2647 -0.9940 0.9863
0.4093 3.2782 -0.9940 0.9863
0.3133 3.2889 -0.9941 0.9863
0.2652 3.2932 -0.9941 0.9863
0.0724 3.3032 -0.9942 0.9863
0.0241 3.3040 -0.9942 0.9863
-0.1207 3.3021 -0.9942 0.9863
-0.1689 3.3000 -0.9943 0.9863
-0.2171 3.2973 -0.9943 0.9863
-0.3615 3.2848 -0.9943 0.9863
-0.4094 3.2793 -0.9943 0.9863
-0.4573 3.2730 -0.9944 0.9863
-0.5051 3.2660 -0.9944 0.9863
-0.7422 3.2207 -0.9945 0.9863
-0.8360 3.1978 -0.9945 0.9863
-0.9754 3.1582 -0.9946 0.9863
-1.0215 3.1437 -0.9946 0.9863
-1.0673 3.1286 -0.9946 0.9863
-0.2383 0.6370 -0.2046 0.9972
-0.2322 0.5940 -0.1919 0.9973
-0.2304 0.5650 -0.1836 0.9975
-0.2349 0.5527 -0.1807 0.9975
-0.2433 0.5291 -0.1752 0.9976
-0.2473 0.5177 -0.1726 0.9976
-0.2511 0.5065 -0.1701 0.9976
-0.2548 0.4955 -0.1676 0.9977
-0.2583 0.4848 -0.1653 0.9977
-0.2654 0.4649 -0.1610 0.9978
-0.2690 0.4556 -0.1592 0.9978
-0.2725 0.4464 -0.1574 0.9978
-0.2758 0.4375 -0.1556 0.9978
-0.2823 0.4200 -0.1522 0.9979
-0.2883 0.4029 -0.1491 0.9979
-0.2911 0.3946 -0.1475 0.9980
-0.2939 0.3864 -0.1461 0.9980
-0.2966 0.3783 -0.1446 0.9980
-0.2993 0.3705 -0.1433 0.9980
-0.3018 0.3627 -0.1420 0.9980
-0.3043 0.3550 -0.1407 0.9980
-0.3091 0.3399 -0.1382 0.9981
-0.3165 0.3096 -0.1332 0.9982
-0.3195 0.2948 -0.1308 0.9982
-0.3210 0.2875 -0.1297 0.9982
-0.3223 0.2804 -0.1285 0.9982
-0.3236 0.2734 -0.1275 0.9982
-0.3249 0.2664 -0.1264 0.9982
-0.3261 0.2595 -0.1254 0.9983
-0.3272 0.2527 -0.1244 0.9983
-0.3312 0.2261 -0.1207 0.9983
-0.3321 0.2197 -0.1198 0.9983
-0.3338 0.2070 -0.1182 0.9984
-0.3345 0.2008 -0.1174 0.9984
-0.3352 0.1946 -0.1166 0.9984
-0.3382 0.1770 -0.1149 0.9984
-0.3391 0.1713 -0.1143 0.9984
-0.3400 0.1655 -0.1138 0.9984
-0.3409 0.1598 -0.1133 0.9984
-0.3416 0.1541 -0.1127 0.9984
-0.3428 0.1427 -0.1117 0.9985
-0.3433 0.1371 -0.1112 0.9985
-0.3443 0.1260 -0.1103 0.9985
-0.3448 0.1205 -0.1099 0.9985
-0.3452 0.1150 -0.1095 0.9985
-0.3459 0.1041 -0.1087 0.9985
-0.3462 0.0986 -0.1083 0.9985
-0.3467 0.0880 -0.1076 0.9985
-0.3470 0.0827 -0.1073 0.9985
-0.3471 0.0773 -0.1070 0.9985
-0.3473 0.0721 -0.1067 0.9985
-0.3475 0.0616 -0.1062 0.9985
-0.3475 0.0564 -0.1059 0.9985
-0.3475 0.0460 -0.1055 0.9985
-0.3475 0.0408 -0.1053 0.9985
-0.3474 0.0357 -0.1051 0.9985
-0.3473 0.0305 -0.1049 0.9985
-0.3472 0.0254 -0.1047 0.9985
-0.3470 0.0203 -0.1046 0.9985
-0.3464 0.0050 -0.1042 0.9986
-0.3404 0.0000 -0.1066 0.9986
-0.3410 -0.0100 -0.1068 0.9986
-0.3414 -0.0199 -0.1070 0.9986
-0.3415 -0.0250 -0.1072 0.9986
-0.3416 -0.0300 -0.1073 0.9986
-0.3418 -0.0452 -0.1079 0.9986
-0.3418 -0.0554 -0.1084 0.9985
-0.3417 -0.0605 -0.1086 0.9985
-0.3414 -0.0760 -0.1095 0.9985
-0.3412 -0.0812 -0.1098 0.9985
-0.3409 -0.0864 -0.1101 0.9985
-0.3404 -0.0970 -0.1108 0.9985
-0.3401 -0.1023 -0.1112 0.9985
-0.3397 -0.1076 -0.1115 0.9985
-0.3393 -0.1130 -0.1119 0.9985
-0.3389 -0.1184 -0.1124 0.9985
-0.3384 -0.1238 -0.1128 0.9985
-0.3379 -0.1293 -0.1132 0.9985
-0.3374 -0.1347 -0.1137 0.9985
-0.3362 -0.1457 -0.1147 0.9985
-0.3356 -0.1514 -0.1152 0.9985
-0.3340 -0.1625 -0.1163 0.9984
-0.3331 -0.1682 -0.1168 0.9984
-0.3321 -0.1738 -0.1173 0.9984
-0.3311 -0.1795 -0.1179 0.9984
-0.3274 -0.2031 -0.1206 0.9984
-0.3265 -0.2092 -0.1214 0.9984
-0.3257 -0.2154 -0.1222 0.9984
-0.3248 -0.2218 -0.1231 0.9984
-0.3194 -0.2542 -0.1278 0.9983
-0.3182 -0.2609 -0.1288 0.9983
-0.3156 -0.2746 -0.1309 0.9982
-0.3112 -0.2957 -0.1344 0.9982
-0.3063 -0.3177 -0.1381 0.9982
-0.3000 -0.3398 -0.1419 0.9981
-0.2899 -0.3697 -0.1471 0.9980
-0.2871 -0.3775 -0.1484 0.9980
-0.2843 -0.3853 -0.1499 0.9980
-0.2754 -0.4097 -0.1545 0.9979
-0.2723 -0.4181 -0.1562 0.9979
-0.2690 -0.4266 -0.1579 0.9979
-0.2657 -0.4353 -0.1596 0.9979
-0.2622 -0.4441 -0.1614 0.9978
-0.2511 -0.4712 -0.1671 0.9978
-0.2471 -0.4805 -0.1691 0.9977
-0.2433 -0.4906 -0.1714 0.9977
-0.2395 -0.5012 -0.1739 0.9977
-0.2355 -0.5121 -0.1764 0.9976
-0.2271 -0.5344 -0.1818 0.9976
-0.2227 -0.5459 -0.1846 0.9975
-0.2180 -0.5578 -0.1875 0.9975
-0.2132 -0.5698 -0.1904 0.9975
-0.2176 -0.6084 -0.2023 0.9973
-0.2225 -0.6521 -0.2157 0.9971
-0.9232 -2.9893 -0.9793 0.9870
-0.7470 -3.0379 -0.9792 0.9870
-0.7025 -3.0485 -0.9792 0.9870
-0.6579 -3.0584 -0.9792 0.9870
-0.5682 -3.0761 -0.9792 0.9870
-0.4328 -3.0979 -0.9791 0.9870
-0.3875 -3.1039 -0.9791 0.9870
-0.2966 -3.1137 -0.9791 0.9870
-0.2511 -3.1177 -0.9790 0.9870
-0.2055 -3.1210 -0.9790 0.9870
0.0229 -3.1273 -0.9789 0.9870
0.1142 -3.1252 -0.9789 0.9870
0.1598 -3.1232 -0.9789 0.9870
0.2966 -3.1130 -0.9788 0.9870
0.3420 -3.1082 -0.9788 0.9870
0.4566 -2.6918 -0.8546 0.9886
0.4913 -2.6604 -0.8468 0.9887
0.5590 -2.5991 -0.8322 0.9889
0.7021 -3.0467 -0.9787 0.9870
0.7908 -3.0248 -0.9786 0.9870
0.8349 -3.0128 -0.9786 0.9870
0.8788 -3.0002 -0.9786 0.9870
0.9225 -2.9871 -0.9786 0.9870
1.0954 -2.9279 -0.9785 0.9870
1.1380 -2.9114 -0.9785 0.9870
1.1804 -2.8945 -0.9785 0.9870
1.2225 -2.8768 -0.9785 0.9870
1.2644 -2.8586 -0.9784 0.9870
1.4292 -2.7797 -0.9784 0.9870
1.5890 -2.6913 -0.9783 0.9870
1.6281 -2.6678 -0.9783 0.9870
1.7053 -2.6189 -0.9783 0.9870
1.8184 -2.5416 -0.9782 0.9870
1.8918 -2.4873 -0.9782 0.9870
1.9279 -2.4594 -0.9782 0.9870
1.9637 -2.4309 -0.9782 0.9870
1.9989 -2.4019 -0.9781 0.9870
2.0337 -2.3724 -0.9781 0.9870
2.1357 -2.2809 -0.9781 0.9870
2.2335 -2.1851 -0.9780 0.9870
2.3270 -2.0850 -0.9780 0.9870
2.3869 -2.0161 -0.9780 0.9870
2.4161 -1.9809 -0.9780 0.9870
2.4447 -1.9454 -0.9780 0.9870
2.6713 -1.7117 -0.9931 0.9868
2.6960 -1.6725 -0.9931 0.9868
2.7666 -1.5527 -0.9931 0.9868
2.8320 -1.4300 -0.9930 0.9868
2.8525 -1.3884 -0.9930 0.9868
2.8725 -1.3465 -0.9930 0.9868
2.9461 -1.1764 -0.9930 0.9868
2.9792 -1.0898 -0.9930 0.9868
2.9948 -1.0462 -0.9930 0.9868
3.0097 -1.0023 -0.9930 0.9868
3.0241 -0.9582 -0.9930 0.9868
3.0377 -0.9139 -0.9930 0.9868
3.0748 -0.7799 -0.9929 0.9868
3.0963 -0.6897 -0.9929 0.9868
3.1060 -0.6444 -0.9929 0.9868
3.1235 -0.5534 -0.9929 0.9868
3.1312 -0.5076 -0.9929 0.9868
3.1383 -0.4618 -0.9929 0.9868
3.1447 -0.4159 -0.9929 0.9868
3.1504 -0.3700 -0.9929 0.9868
3.1599 -0.2777 -0.9929 0.9868
3.1636 -0.2316 -0.9929 0.9868
3.1666 -0.1853 -0.9929 0.9868
3.1707 -0.0927 -0.9929 0.9868
3.1717 -0.0463 -0.9929 0.9868
3.1717 0.0463 -0.9929 0.9868
3.1707 0.0927 -0.9929 0.9868
3.1636 0.2316 -0.9929 0.9868
3.1599 0.2778 -0.9929 0.9868
3.1555 0.3239 -0.9929 0.9868
3.1504 0.3700 -0.9929 0.9868
3.1447 0.4160 -0.9929 0.9868
3.1312 0.5077 -0.9929 0.9868
3.1235 0.5534 -0.9929 0.9868
3.1151 0.5990 -0.9929 0.9868
3.1060 0.6444 -0.9929 0.9868
3.0748 0.7799 -0.9929 0.9868
3.0507 0.8694 -0.9930 0.9868
3.0097 1.0023 -0.9930 0.9868
2.9792 1.0899 -0.9930 0.9868
2.9630 1.1332 -0.9930 0.9868
2.9461 1.1764 -0.9930 0.9868
2.9286 1.2193 -0.9930 0.9868
2.8725 1.3466 -0.9930 0.9868
2.8525 1.3884 -0.9930 0.9868
2.8320 1.4300 -0.9930 0.9868
2.7890 1.5121 -0.9931 0.9868
2.7437 1.5930 -0.9931 0.9868
2.6461 1.7507 -0.9931 0.9868
2.6202 1.7891 -0.9931 0.9868
2.5938 1.8272 -0.9931 0.9868
2.5394 1.9023 -0.9932 0.9868
2.5113 1.9392 -0.9932 0.9868
2.4828 1.9757 -0.9932 0.9868
2.4536 2.0118 -0.9932 0.9868
2.3938 2.0827 -0.9932 0.9868
2.3321 2.1518 -0.9932 0.9868
2.2682 2.2191 -0.9933 0.9868
2.2025 2.2845 -0.9933 0.9868
2.1689 2.3164 -0.9933 0.9868
2.0300 2.4393 -0.9934 0.9868
1.9579 2.4977 -0.9934 0.9868
1.9213 2.5261 -0.9934 0.9868
1.8467 2.5812 -0.9934 0.9868
1.8088 2.6080 -0.9935 0.9868
1.7705 2.6342 -0.9935 0.9868
1.7319 2.6598 -0.9935 0.9868
1.6535 2.7093 -0.9935 0.9868
1.5736 2.7565 -0.9935 0.9868
1.4514 2.8230 -0.9936 0.9868
1.4100 2.8440 -0.9936 0.9868
1.3264 2.8840 -0.9936 0.9868
1.2416 2.9217 -0.9937 0.9868
1.1124 2.9735 -0.9937 0.9868
1.0688 2.9894 -0.9938 0.9868
0.7130 3.0941 -0.9939 0.9868
0.6223 3.1138 -0.9939 0.9868
0.5768 3.1226 -0.9940 0.9868
0.5311 3.1307 -0.9940 0.9868
0.4853 3.1382 -0.9940 0.9868
0.4394 3.1450 -0.9940 0.9868
0.3473 3.1567 -0.9940 0.9868
0.2086 3.1690 -0.9941 0.9868
0.1623 3.1718 -0.9941 0.9868
0.1160 3.1739 -0.9941 0.9868
0.0696 3.1754 -0.9942 0.9868
-0.0232 3.1761 -0.9942 0.9868
-0.0696 3.1755 -0.9942 0.9868
-0.1624 3.1722 -0.9942 0.9868
-0.2087 3.1696 -0.9943 0.9868
-0.2550 3.1662 -0.9943 0.9868
-0.3013 3.1623 -0.9943 0.9868
-0.3935 3.1522 -0.9943 0.9868
-0.4855 3.1395 -0.9944 0.9868
-0.5313 3.1321 -0.9944 0.9868
-0.6226 3.1154 -0.9944 0.9868
-0.6681 3.1060 -0.9945 0.9868
-0.7586 3.0852 -0.9945 0.9868
-0.8036 3.0739 -0.9945 0.9868
-0.8485 3.0619 -0.9945 0.9868
-0.8931 3.0492 -0.9945 0.9868
-0.9819 3.0219 -0.9946 0.9868
-0.2132 0.5699 -0.1904 0.9975
-0.2180 0.5578 -0.1875 0.9975
-0.2314 0.5232 -0.1791 0.9976
-0.2355 0.5121 -0.1764 0.9976
-0.2395 0.5013 -0.1739 0.9977
-0.2511 0.4712 -0.1671 0.9978
-0.2586 0.4530 -0.1633 0.9978
-0.2622 0.4441 -0.1614 0.9978
-0.2690 0.4267 -0.1579 0.9979
-0.2785 0.4015 -0.1530 0.9980
-0.2815 0.3934 -0.1514 0.9980
-0.2871 0.3775 -0.1484 0.9980
-0.2951 0.3546 -0.1444 0.9981
-0.3024 0.3325 -0.1407 0.9981
-0.3112 0.2957 -0.1344 0.9982
-0.3182 0.2609 -0.1288 0.9983
-0.3194 0.2542 -0.1278 0.9983
-0.3206 0.2476 -0.1268 0.9983
-0.3228 0.2345 -0.1249 0.9983
-0.3238 0.2281 -0.1240 0.9983
-0.3248 0.2218 -0.1231 0.9984
-0.3281 0.1970 -0.1198 0.9984
-0.3301 0.1853 -0.1185 0.9984
-0.3312 0.1795 -0.1179 0.9984
-0.3321 0.1739 -0.1173 0.9984
-0.3331 0.1682 -0.1168 0.9984
-0.3340 0.1625 -0.1163 0.9984
-0.3356 0.1514 -0.1152 0.9985
-0.3362 0.1458 -0.1147 0.9985
-0.3374 0.1348 -0.1137 0.9985
-0.3379 0.1293 -0.1132 0.9985
-0.3384 0.1238 -0.1128 0.9985
-0.3389 0.1184 -0.1124 0.9985
-0.3397 0.1077 -0.1115 0.9985
-0.3404 0.0971 -0.1108 0.9985
-0.3407 0.0918 -0.1104 0.9985
-0.3412 0.0812 -0.1098 0.9985
-0.3415 0.0709 -0.1092 0.9985
-0.3418 0.0554 -0.1084 0.9985
-0.3418 0.0504 -0.1081 0.9986
-0.3418 0.0452 -0.1079 0.9986
-0.3418 0.0402 -0.1077 0.9986
-0.3417 0.0351 -0.1075 0.9986
-0.3415 0.0250 -0.1072 0.9986
-0.3355 -0.0098 -0.1091 0.9986
-0.3357 -0.0147 -0.1093 0.9986
-0.3359 -0.0196 -0.1094 0.9986
-0.3360 -0.0246 -0.1096 0.9986
-0.3361 -0.0295 -0.1097 0.9986
-0.3362 -0.0345 -0.1099 0.9986
-0.3363 -0.0445 -0.1103 0.9986
-0.3362 -0.0495 -0.1105 0.9986
-0.3344 -0.1006 -0.1136 0.9985
-0.3336 -0.1111 -0.1143 0.9985
-0.3332 -0.1164 -0.1148 0.9985
-0.3322 -0.1270 -0.1157 0.9985
-0.3316 -0.1324 -0.1161 0.9985
-0.3304 -0.1432 -0.1171 0.9985
-0.3297 -0.1487 -0.1176 0.9985
-0.3272 -0.1652 -0.1192 0.9985
-0.3253 -0.1763 -0.1203 0.9984
-0.3242 -0.1820 -0.1209 0.9984
-0.3231 -0.1876 -0.1215 0.9984
-0.3211 -0.1992 -0.1229 0.9984
-0.3194 -0.2113 -0.1246 0.9984
-0.3175 -0.2237 -0.1263 0.9984
-0.3153 -0.2362 -0.1281 0.9983
-0.3118 -0.2556 -0.1311 0.9983
-0.3091 -0.2689 -0.1333 0.9983
-0.3077 -0.2757 -0.1344 0.9983
-0.3031 -0.2965 -0.1379 0.9982
-0.3014 -0.3036 -0.1391 0.9982
-0.2936 -0.3325 -0.1442 0.9981
-0.2911 -0.3396 -0.1455 0.9981
-0.2886 -0.3468 -0.1467 0.9981
-0.2807 -0.3689 -0.1508 0.9981
-0.2778 -0.3765 -0.1522 0.9980
-0.2719 -0.3920 -0.1552 0.9980
-0.2658 -0.4081 -0.1584 0.9980
-0.2625 -0.4163 -0.1601 0.9979
-0.2592 -0.4246 -0.1618 0.9979
-0.2557 -0.4330 -0.1636 0.9979
-0.2521 -0.4416 -0.1654 0.9979
-0.2484 -0.4503 -0.1673 0.9978
-0.2407 -0.4680 -0.1712 0.9978
-0.2366 -0.4772 -0.1732 0.9978
-0.2324 -0.4864 -0.1753 0.9977
-0.2241 -0.5065 -0.1801 0.9977
-0.2198 -0.5171 -0.1828 0.9976
-0.2154 -0.5281 -0.1855 0.9976
-0.2060 -0.5506 -0.1912 0.9975
-0.2010 -0.5622 -0.1942 0.9975
-0.1985 -0.5819 -0.2000 0.9974
-0.2019 -0.6213 -0.2125 0.9973
-0.2055 -0.6654 -0.2265 0.9971
-0.8464 -2.8897 -0.9793 0.9874
-0.8041 -2.9017 -0.9793 0.9874
-0.7189 -2.9239 -0.9792 0.9874
-0.6761 -2.9340 -0.9792 0.9874
-0.6332 -2.9435 -0.9792 0.9874
-0.5901 -2.9524 -0.9792 0.9874
-0.5035 -2.9682 -0.9791 0.9874
-0.4601 -2.9752 -0.9791 0.9874
-0.4166 -2.9816 -0.9791 0.9874
-0.3729 -2.9873 -0.9791 0.9874
-0.2417 -3.0006 -0.9790 0.9874
-0.1978 -3.0038 -0.9790 0.9874
-0.1539 -3.0063 -0.9790 0.9874
-0.1099 -3.0082 -0.9790 0.9874
-0.0660 -3.0094 -0.9790 0.9874
-0.0220 -3.0100 -0.9790 0.9874
0.2416 -3.0000 -0.9788 0.9874
0.2854 -2.9961 -0.9788 0.9874
0.3728 -2.9864 -0.9788 0.9874
0.4164 -2.9805 -0.9788 0.9874
0.4212 -2.7239 -0.8964 0.9885
0.4914 -2.6603 -0.8798 0.9887
0.6757 -2.9324 -0.9787 0.9874
0.7185 -2.9221 -0.9787 0.9874
0.8036 -2.8998 -0.9786 0.9874
0.8458 -2.8877 -0.9786 0.9874
0.8879 -2.8750 -0.9786 0.9874
0.9298 -2.8616 -0.9786 0.9874
1.0542 -2.8180 -0.9785 0.9874
1.0953 -2.8022 -0.9785 0.9874
1.4530 -2.6340 -0.9784 0.9874
1.5294 -2.5903 -0.9783 0.9874
1.5670 -2.5677 -0.9783 0.9874
1.6044 -2.5445 -0.9783 0.9874
1.6413 -2.5207 -0.9783 0.9874
1.7142 -2.4716 -0.9783 0.9874
1.7502 -2.4462 -0.9782 0.9874
1.7857 -2.4204 -0.9782 0.9874
1.8556 -2.3671 -0.9782 0.9874
1.9239 -2.3118 -0.9782 0.9874
1.9906 -2.2546 -0.9781 0.9874
2.1188 -2.1343 -0.9781 0.9874
2.1497 -2.1031 -0.9781 0.9874
2.2102 -2.0394 -0.9781 0.9874
2.2397 -2.0068 -0.9780 0.9874
2.2688 -1.9738 -0.9780 0.9874
2.3436 -1.9216 -0.9857 0.9873
2.4171 -1.8664 -0.9932 0.9872
2.4706 -1.7950 -0.9932 0.9872
2.6181 -1.5717 -0.9931 0.9872
2.6629 -1.4945 -0.9931 0.9872
2.6844 -1.4554 -0.9931 0.9872
2.7054 -1.4160 -0.9931 0.9872
2.7258 -1.3763 -0.9931 0.9872
2.7648 -1.2961 -0.9931 0.9872
2.8014 -1.2147 -0.9931 0.9872
2.8188 -1.1736 -0.9930 0.9872
2.8357 -1.1323 -0.9930 0.9872
2.8675 -1.0490 -0.9930 0.9872
2.9106 -0.9223 -0.9930 0.9872
2.9238 -0.8796 -0.9930 0.9872
2.9363 -0.8368 -0.9930 0.9872
2.9895 -0.6202 -0.9930 0.9872
2.9983 -0.5765 -0.9930 0.9872
3.0063 -0.5326 -0.9930 0.9872
3.0268 -0.4004 -0.9930 0.9872
3.0371 -0.3118 -0.9930 0.9872
3.0479 -0.1783 -0.9930 0.9872
3.0502 -0.1338 -0.9930 0.9872
3.0518 -0.0892 -0.9930 0.9872
3.0528 0.0446 -0.9930 0.9872
3.0518 0.0893 -0.9930 0.9872
3.0479 0.1783 -0.9930 0.9872
3.0450 0.2229 -0.9930 0.9872
3.0372 0.3118 -0.9930 0.9872
3.0323 0.3561 -0.9930 0.9872
3.0138 0.4886 -0.9930 0.9872
3.0064 0.5327 -0.9930 0.9872
2.9895 0.6203 -0.9930 0.9872
2.9802 0.6639 -0.9930 0.9872
2.9701 0.7073 -0.9930 0.9872
2.9482 0.7939 -0.9930 0.9872
2.8675 1.0489 -0.9930 0.9872
2.8357 1.1323 -0.9930 0.9872
2.8188 1.1737 -0.9930 0.9872
2.7834 1.2555 -0.9931 0.9872
2.7455 1.3364 -0.9931 0.9872
2.7257 1.3763 -0.9931 0.9872
2.7054 1.4160 -0.9931 0.9872
2.6844 1.4554 -0.9931 0.9872
2.6629 1.4945 -0.9931 0.9872
2.6181 1.5717 -0.9931 0.9872
2.5711 1.6476 -0.9931 0.9872
2.4706 1.7950 -0.9932 0.9872
2.4441 1.8310 -0.9932 0.9872
2.3896 1.9016 -0.9932 0.9872
2.2746 2.0380 -0.9933 0.9872
2.2446 2.0711 -0.9933 0.9872
2.2141 2.1036 -0.9933 0.9872
2.1831 2.1358 -0.9933 0.9872
2.0876 2.2296 -0.9933 0.9872
2.0215 2.2896 -0.9934 0.9872
1.9194 2.3761 -0.9934 0.9872
1.8492 2.4313 -0.9934 0.9872
1.7409 2.5101 -0.9935 0.9872
1.6293 2.5841 -0.9935 0.9872
1.5914 2.6077 -0.9935 0.9872
1.5532 2.6307 -0.9936 0.9872
1.3571 2.7373 -0.9936 0.9872
1.2359 2.7943 -0.9937 0.9872
1.1538 2.8293 -0.9937 0.9872
1.1123 2.8458 -0.9937 0.9872
1.0707 2.8618 -0.9938 0.9872
0.9443 2.9061 -0.9938 0.9872
0.9017 2.9197 -0.9938 0.9872
0.7297 2.9676 -0.9939 0.9872
0.6427 2.9878 -0.9939 0.9872
0.5990 2.9969 -0.9939 0.9872
0.5551 3.0054 -0.9940 0.9872
0.3343 3.0381 -0.9940 0.9872
0.2454 3.0467 -0.9941 0.9872
0.0670 3.0561 -0.9942 0.9872
-0.0223 3.0569 -0.9942 0.9872
-0.1117 3.0550 -0.9942 0.9872
-0.1563 3.0531 -0.9942 0.9872
-0.2454 3.0473 -0.9943 0.9872
-0.3344 3.0390 -0.9943 0.9872
-0.4230 3.0281 -0.9944 0.9872
-0.5114 3.0145 -0.9944 0.9872
-0.5554 3.0068 -0.9944 0.9872
-0.5993 2.9984 -0.9944 0.9872
-0.6867 2.9797 -0.9945 0.9872
-0.7301 2.9694 -0.9945 0.9872
-0.8596 2.9347 -0.9945 0.9872
-0.2019 0.6214 -0.2125 0.9973
-0.2011 0.5623 -0.1942 0.9975
-0.2060 0.5506 -0.1912 0.9975
-0.2108 0.5393 -0.1883 0.9976
-0.2154 0.5282 -0.1855 0.9976
-0.2281 0.4961 -0.1776 0.9977
-0.2406 0.4681 -0.1712 0.9978
-0.2446 0.4592 -0.1692 0.9978
-0.2484 0.4503 -0.1673 0.9978
-0.2592 0.4246 -0.1618 0.9979
-0.2625 0.4163 -0.1601 0.9979
-0.2689 0.4001 -0.1568 0.9980
-0.2720 0.3921 -0.1552 0.9980
-0.2778 0.3765 -0.1522 0.9980
-0.2807 0.3690 -0.1508 0.9981
-0.2861 0.3541 -0.1480 0.9981
-0.2959 0.3254 -0.1430 0.9982
-0.3014 0.3036 -0.1391 0.9982
-0.3062 0.2825 -0.1355 0.9982
-0.3091 0.2689 -0.1333 0.9983
-0.3105 0.2623 -0.1322 0.9983
-0.3130 0.2491 -0.1301 0.9983
-0.3175 0.2237 -0.1263 0.9984
-0.3203 0.2053 -0.1237 0.9984
-0.3211 0.1992 -0.1229 0.9984
-0.3220 0.1933 -0.1221 0.9984
-0.3231 0.1876 -0.1215 0.9984
-0.3272 0.1652 -0.1192 0.9985
-0.3297 0.1487 -0.1176 0.9985
-0.3310 0.1378 -0.1166 0.9985
-0.3331 0.1164 -0.1148 0.9985
-0.3336 0.1111 -0.1143 0.9985
-0.3344 0.1006 -0.1136 0.9985
-0.3350 0.0902 -0.1128 0.9985
-0.3360 0.0646 -0.1113 0.9986
-0.3362 0.0545 -0.1108 0.9986
-0.3362 0.0495 -0.1105 0.9986
-0.3362 0.0395 -0.1101 0.9986
-0.3362 0.0345 -0.1099 0.9986
-0.3360 0.0246 -0.1096 0.9986
-0.3357 0.0148 -0.1093 0.9986
-0.3355 0.0098 -0.1091 0.9986
-0.3353 0.0049 -0.1090 0.9986
-0.3296 0.0000 -0.1113 0.9986
-0.3299 -0.0048 -0.1114 0.9986
-0.3301 -0.0096 -0.1115 0.9986
-0.3303 -0.0145 -0.1116 0.9986
-0.3305 -0.0193 -0.1117 0.9986
-0.3308 -0.0339 -0.1122 0.9986
-0.3308 -0.0389 -0.1124 0.9986
-0.3307 -0.0586 -0.1133 0.9986
-0.3302 -0.0736 -0.1142 0.9986
-0.3300 -0.0786 -0.1145 0.9986
-0.3295 -0.0887 -0.1152 0.9986
-0.3288 -0.0989 -0.1159 0.9986
-0.3280 -0.1092 -0.1167 0.9985
-0.3265 -0.1249 -0.1180 0.9985
-0.3260 -0.1302 -0.1185 0.9985
-0.3241 -0.1462 -0.1200 0.9985
-0.3233 -0.1515 -0.1205 0.9985
-0.3195 -0.1732 -0.1227 0.9985
-0.3174 -0.1843 -0.1239 0.9985
-0.3163 -0.1898 -0.1245 0.9984
-0.3134 -0.2073 -0.1268 0.9984
-0.3124 -0.2133 -0.1277 0.9984
-0.3114 -0.2193 -0.1286 0.9984
-0.3092 -0.2316 -0.1304 0.9984
-0.3081 -0.2379 -0.1314 0.9984
-0.3029 -0.2635 -0.1355 0.9983
-0.2999 -0.2767 -0.1377 0.9983
-0.2967 -0.2903 -0.1401 0.9982
-0.2950 -0.2972 -0.1413 0.9982
-0.2933 -0.3042 -0.1426 0.9982
-0.2915 -0.3113 -0.1439 0.9982
-0.2824 -0.3393 -0.1490 0.9981
-0.2798 -0.3464 -0.1503 0.9981
-0.2772 -0.3536 -0.1516 0.9981
-0.2744 -0.3607 -0.1530 0.9981
-0.2716 -0.3681 -0.1544 0.9981
-0.2562 -0.4064 -0.1622 0.9980
-0.2529 -0.4144 -0.1639 0.9980
-0.2495 -0.4225 -0.1656 0.9979
-0.2422 -0.4391 -0.1693 0.9979
-0.2384 -0.4475 -0.1712 0.9979
-0.2345 -0.4562 -0.1731 0.9978
-0.2305 -0.4649 -0.1751 0.9978
-0.2220 -0.4828 -0.1794 0.9978
-0.2130 -0.5012 -0.1838 0.9977
-0.2040 -0.5218 -0.1891 0.9976
-0.1892 -0.5547 -0.1978 0.9975
-0.1831 -0.5926 -0.2094 0.9974
-0.7748 -2.7959 -0.9793 0.9878
-0.6927 -2.8173 -0.9792 0.9878
-0.6515 -2.8271 -0.9792 0.9878
-0.6101 -2.8362 -0.9792 0.9878
-0.5685 -2.8448 -0.9792 0.9878
-0.3594 -2.8784 -0.9791 0.9878
-0.1906 -2.8943 -0.9790 0.9878
-0.1059 -2.8986 -0.9790 0.9878
0.0212 -2.9003 -0.9789 0.9878
0.0635 -2.8996 -0.9789 0.9878
0.1059 -2.8983 -0.9789 0.9878
0.1906 -2.8939 -0.9789 0.9878
0.3171 -2.8826 -0.9788 0.9878
0.6511 -2.8255 -0.9787 0.9878
0.7334 -2.8052 -0.9786 0.9878
0.8556 -2.7702 -0.9786 0.9878
0.8959 -2.7574 -0.9786 0.9878
0.9361 -2.7439 -0.9786 0.9878
1.0947 -2.6844 -0.9785 0.9878
1.1338 -2.6681 -0.9785 0.9878
1.2112 -2.6337 -0.9785 0.9878
1.2496 -2.6157 -0.9784 0.9878
1.3254 -2.5780 -0.9784 0.9878
1.4001 -2.5381 -0.9784 0.9878
1.6169 -2.4056 -0.9783 0.9878
1.6518 -2.3816 -0.9783 0.9878
1.7207 -2.3323 -0.9783 0.9878
1.7546 -2.3068 -0.9782 0.9878
1.7880 -2.2809 -0.9782 0.9878
1.8211 -2.2545 -0.9782 0.9878
1.9181 -2.1725 -0.9782 0.9878
1.9807 -2.1154 -0.9781 0.9878
2.0416 -2.0566 -0.9781 0.9878
2.0714 -2.0265 -0.9781 0.9878
2.1008 -1.9960 -0.9781 0.9878
2.1297 -1.9651 -0.9781 0.9878
2.1597 -1.9352 -0.9788 0.9878
2.2756 -1.8658 -0.9933 0.9877
2.3291 -1.7985 -0.9932 0.9877
2.3552 -1.7643 -0.9932 0.9877
2.3806 -1.7297 -0.9932 0.9877
2.4057 -1.6946 -0.9932 0.9877
2.4301 -1.6593 -0.9932 0.9877
2.4541 -1.6236 -0.9932 0.9877
2.4775 -1.5875 -0.9932 0.9877
2.5004 -1.5512 -0.9932 0.9877
2.5446 -1.4775 -0.9932 0.9877
2.5659 -1.4401 -0.9931 0.9877
2.6069 -1.3645 -0.9931 0.9877
2.6265 -1.3262 -0.9931 0.9877
2.6641 -1.2489 -0.9931 0.9877
2.6994 -1.1705 -0.9931 0.9877
2.7776 -0.9703 -0.9931 0.9877
2.7914 -0.9296 -0.9931 0.9877
2.8518 -0.7233 -0.9930 0.9877
2.8969 -0.5132 -0.9930 0.9877
2.9107 -0.4283 -0.9930 0.9877
2.9219 -0.3431 -0.9930 0.9877
2.9266 -0.3004 -0.9930 0.9877
2.9307 -0.2576 -0.9930 0.9877
2.9342 -0.2148 -0.9930 0.9877
2.9370 -0.1718 -0.9930 0.9877
2.9392 -0.1289 -0.9930 0.9877
2.9407 -0.0860 -0.9930 0.9877
2.9307 0.2576 -0.9930 0.9877
2.9219 0.3431 -0.9930 0.9877
2.9166 0.3858 -0.9930 0.9877
2.9107 0.4284 -0.9930 0.9877
2.9041 0.4709 -0.9930 0.9877
2.8969 0.5132 -0.9930 0.9877
2.8807 0.5977 -0.9930 0.9877
2.8717 0.6397 -0.9930 0.9877
2.8174 0.8477 -0.9930 0.9877
2.7481 1.0511 -0.9931 0.9877
2.7325 1.0911 -0.9931 0.9877
2.6995 1.1705 -0.9931 0.9877
2.6821 1.2098 -0.9931 0.9877
2.6641 1.2489 -0.9931 0.9877
2.6265 1.3262 -0.9931 0.9877
2.6069 1.3645 -0.9931 0.9877
2.5867 1.4024 -0.9931 0.9877
2.5659 1.4401 -0.9931 0.9877
2.5228 1.5145 -0.9932 0.9877
2.4541 1.6236 -0.9932 0.9877
2.4301 1.6593 -0.9932 0.9877
2.4056 1.6946 -0.9932 0.9877
2.3807 1.7296 -0.9932 0.9877
2.2756 1.8659 -0.9933 0.9877
2.2482 1.8989 -0.9933 0.9877
2.2202 1.9316 -0.9933 0.9877
2.1037 2.0581 -0.9933 0.9877
2.0734 2.0886 -0.9933 0.9877
2.0427 2.1187 -0.9934 0.9877
1.8495 2.2896 -0.9934 0.9877
1.6776 2.4187 -0.9935 0.9877
1.6421 2.4430 -0.9935 0.9877
1.6062 2.4668 -0.9935 0.9876
1.5335 2.5127 -0.9936 0.9876
1.4966 2.5349 -0.9936 0.9876
1.4594 2.5566 -0.9936 0.9876
1.3077 2.6375 -0.9937 0.9876
1.2690 2.6564 -0.9937 0.9876
1.2301 2.6748 -0.9937 0.9876
1.1515 2.7097 -0.9937 0.9876
1.1117 2.7262 -0.9937 0.9876
1.0317 2.7577 -0.9938 0.9876
0.9913 2.7725 -0.9938 0.9876
0.9507 2.7867 -0.9938 0.9876
0.7863 2.8376 -0.9939 0.9876
0.7448 2.8489 -0.9939 0.9876
0.6193 2.8790 -0.9939 0.9876
0.5771 2.8877 -0.9940 0.9876
0.5349 2.8959 -0.9940 0.9876
0.4500 2.9104 -0.9940 0.9876
0.4075 2.9167 -0.9940 0.9876
0.2364 2.9357 -0.9941 0.9876
0.1076 2.9434 -0.9941 0.9876
0.0215 2.9454 -0.9942 0.9876
-0.0215 2.9455 -0.9942 0.9876
-0.0646 2.9449 -0.9942 0.9876
-0.1506 2.9418 -0.9942 0.9876
-0.1936 2.9394 -0.9943 0.9876
-0.2365 2.9363 -0.9943 0.9876
-0.3650 2.9233 -0.9943 0.9876
-0.4076 2.9177 -0.9943 0.9876
-0.4928 2.9046 -0.9944 0.9876
-0.5774 2.8891 -0.9944 0.9876
-0.6616 2.8711 -0.9945 0.9876
-0.7035 2.8611 -0.9945 0.9876
-0.7453 2.8506 -0.9945 0.9876
-0.1852 0.6323 -0.2224 0.9972
-0.2040 0.5218 -0.1891 0.9976
-0.2085 0.5112 -0.1864 0.9977
-0.2220 0.4828 -0.1794 0.9978
-0.2263 0.4738 -0.1772 0.9978
-0.2305 0.4649 -0.1751 0.9978
-0.2345 0.4562 -0.1731 0.9978
-0.2422 0.4391 -0.1693 0.9979
-0.2459 0.4307 -0.1674 0.9979
-0.2495 0.4225 -0.1656 0.9979
-0.2529 0.4144 -0.1639 0.9980
-0.2626 0.3907 -0.1589 0.9980
-0.2657 0.3830 -0.1573 0.9980
-0.2771 0.3536 -0.1516 0.9981
-0.2798 0.3464 -0.1503 0.9981
-0.2873 0.3254 -0.1465 0.9982
-0.2915 0.3113 -0.1439 0.9982
-0.2933 0.3042 -0.1426 0.9982
-0.2950 0.2972 -0.1413 0.9982
-0.2984 0.2834 -0.1389 0.9983
-0.2999 0.2767 -0.1377 0.9983
-0.3134 0.2073 -0.1268 0.9984
-0.3143 0.2014 -0.1260 0.9984
-0.3174 0.1843 -0.1239 0.9985
-0.3185 0.1787 -0.1233 0.9985
-0.3215 0.1624 -0.1216 0.9985
-0.3233 0.1516 -0.1205 0.9985
-0.3241 0.1462 -0.1200 0.9985
-0.3247 0.1408 -0.1195 0.9985
-0.3260 0.1302 -0.1185 0.9985
-0.3265 0.1249 -0.1180 0.9985
-0.3271 0.1196 -0.1175 0.9985
-0.3275 0.1145 -0.1171 0.9985
-0.3280 0.1093 -0.1167 0.9985
-0.3284 0.1041 -0.1163 0.9985
-0.3288 0.0989 -0.1159 0.9986
-0.3297 0.0836 -0.1148 0.9986
-0.3300 0.0786 -0.1145 0.9986
-0.3302 0.0736 -0.1142 0.9986
-0.3304 0.0686 -0.1139 0.9986
-0.3305 0.0636 -0.1136 0.9986
-0.3308 0.0536 -0.1131 0.9986
-0.3308 0.0487 -0.1129 0.9986
-0.3308 0.0437 -0.1126 0.9986
-0.3308 0.0388 -0.1124 0.9986
-0.3308 0.0340 -0.1122 0.9986
-0.3307 0.0291 -0.1120 0.9986
-0.3306 0.0242 -0.1119 0.9986
-0.3305 0.0194 -0.1117 0.9986
-0.3301 0.0096 -0.1115 0.9986
-0.3247 -0.0047 -0.1136 0.9986
-0.3249 -0.0095 -0.1137 0.9986
-0.3251 -0.0142 -0.1139 0.9986
-0.3252 -0.0190 -0.1140 0.9986
-0.3255 -0.0479 -0.1151 0.9986
-0.3254 -0.0527 -0.1154 0.9986
-0.3254 -0.0576 -0.1156 0.9986
-0.3252 -0.0625 -0.1159 0.9986
-0.3251 -0.0674 -0.1162 0.9986
-0.3249 -0.0723 -0.1165 0.9986
-0.3246 -0.0773 -0.1168 0.9986
-0.3244 -0.0823 -0.1171 0.9986
-0.3230 -0.1023 -0.1186 0.9986
-0.3192 -0.1384 -0.1218 0.9985
-0.3159 -0.1595 -0.1238 0.9985
-0.3150 -0.1649 -0.1244 0.9985
-0.3139 -0.1702 -0.1250 0.9985
-0.3129 -0.1756 -0.1256 0.9985
-0.3118 -0.1810 -0.1262 0.9985
-0.3095 -0.1920 -0.1274 0.9985
-0.3075 -0.2034 -0.1290 0.9984
-0.3044 -0.2212 -0.1317 0.9984
-0.3032 -0.2271 -0.1326 0.9984
-0.3021 -0.2332 -0.1335 0.9984
-0.3008 -0.2394 -0.1345 0.9984
-0.2982 -0.2519 -0.1366 0.9983
-0.2968 -0.2582 -0.1377 0.9983
-0.2954 -0.2646 -0.1388 0.9983
-0.2938 -0.2711 -0.1399 0.9983
-0.2922 -0.2777 -0.1411 0.9983
-0.2906 -0.2843 -0.1422 0.9983
-0.2889 -0.2910 -0.1435 0.9983
-0.2871 -0.2978 -0.1447 0.9982
-0.2738 -0.3389 -0.1525 0.9982
-0.2712 -0.3459 -0.1538 0.9981
-0.2684 -0.3529 -0.1551 0.9981
-0.2656 -0.3599 -0.1565 0.9981
-0.2627 -0.3671 -0.1580 0.9981
-0.2435 -0.4124 -0.1676 0.9980
-0.2287 -0.4448 -0.1750 0.9979
-0.2205 -0.4616 -0.1790 0.9978
-0.2119 -0.4790 -0.1833 0.9978
-0.2074 -0.4879 -0.1855 0.9978
-0.2027 -0.4970 -0.1878 0.9977
-0.1979 -0.5062 -0.1902 0.9977
-0.1880 -0.5258 -0.1954 0.9976
-0.1830 -0.5364 -0.1983 0.9976
-0.1778 -0.5471 -0.2013 0.9976
-0.1668 -0.5694 -0.2076 0.9975
-0.1667 -0.6015 -0.2184 0.9974
-0.7078 -2.7075 -0.9792 0.9882
-0.5885 -2.7357 -0.9792 0.9882
-0.4276 -2.7653 -0.9791 0.9882
-0.3872 -2.7712 -0.9791 0.9882
-0.3466 -2.7765 -0.9791 0.9882
-0.2653 -2.7853 -0.9791 0.9882
-0.0613 -2.7970 -0.9790 0.9882
0.0204 -2.7975 -0.9789 0.9882
0.1430 -2.7938 -0.9789 0.9882
0.1838 -2.7914 -0.9789 0.9882
0.2246 -2.7884 -0.9789 0.9882
0.2653 -2.7848 -0.9788 0.9882
0.4566 -2.6918 -0.9553 0.9885
0.4913 -2.6603 -0.9466 0.9886
0.5255 -2.6294 -0.9383 0.9887
0.5590 -2.5990 -0.9302 0.9888
0.6280 -2.7255 -0.9787 0.9882
0.7469 -2.6952 -0.9786 0.9882
0.8642 -2.6598 -0.9786 0.9882
0.9030 -2.6468 -0.9786 0.9882
0.9415 -2.6333 -0.9786 0.9882
0.9799 -2.6193 -0.9785 0.9882
1.0180 -2.6046 -0.9785 0.9882
1.0560 -2.5894 -0.9785 0.9882
1.1312 -2.5573 -0.9785 0.9882
1.1684 -2.5405 -0.9785 0.9882
1.2053 -2.5232 -0.9785 0.9882
1.3506 -2.4482 -0.9784 0.9882
1.3862 -2.4282 -0.9784 0.9882
1.4566 -2.3866 -0.9784 0.9882
1.4912 -2.3650 -0.9783 0.9882
1.5256 -2.3430 -0.9783 0.9882
1.6598 -2.2497 -0.9783 0.9882
1.7567 -2.1747 -0.9782 0.9882
1.7883 -2.1488 -0.9782 0.9882
1.8195 -2.1224 -0.9782 0.9882
1.8806 -2.0683 -0.9782 0.9882
2.0331 -1.9316 -0.9813 0.9882
2.0779 -1.9173 -0.9893 0.9881
2.1142 -1.8944 -0.9933 0.9880
2.1416 -1.8632 -0.9933 0.9880
2.1687 -1.8317 -0.9933 0.9880
2.1952 -1.7998 -0.9933 0.9880
2.2467 -1.7349 -0.9933 0.9880
2.2718 -1.7018 -0.9933 0.9880
2.2964 -1.6684 -0.9933 0.9880
2.3205 -1.6347 -0.9932 0.9880
2.3442 -1.6006 -0.9932 0.9880
2.4120 -1.4963 -0.9932 0.9880
2.4752 -1.3891 -0.9932 0.9880
2.4952 -1.3528 -0.9932 0.9880
2.5336 -1.2793 -0.9932 0.9880
2.5520 -1.2421 -0.9932 0.9880
2.5699 -1.2047 -0.9931 0.9880
2.6358 -1.0525 -0.9931 0.9880
2.6509 -1.0139 -0.9931 0.9880
2.6927 -0.8967 -0.9931 0.9880
2.7608 -0.6575 -0.9931 0.9880
2.8014 -0.4542 -0.9931 0.9880
2.8134 -0.3721 -0.9930 0.9880
2.8304 -0.2071 -0.9930 0.9880
