ply
format ascii 1.0
element vertex 1585
property float32 x
property float32 y
property float32 z
property float32 I
end_header
-0.6685 0.1387 -0.0255 0.9973
-0.6621 0.0974 -0.0250 0.9973
-0.6588 0.0774 -0.0248 0.9973
-0.6572 0.0675 -0.0247 0.9974
-0.6539 0.0479 -0.0245 0.9974
-0.6522 0.0382 -0.0244 0.9974
-0.6208 0.0000 -0.0301 0.9975
-0.6221 -0.0091 -0.0302 0.9975
-0.6246 -0.0273 -0.0303 0.9975
-0.6258 -0.0366 -0.0304 0.9975
-0.6344 -0.0934 -0.0311 0.9974
-0.6358 -0.1030 -0.0313 0.9974
-0.6386 -0.1228 -0.0316 0.9974
-0.6428 -0.1530 -0.0321 0.9974
-0.6468 -0.1843 -0.0326 0.9973
-0.6500 -0.2059 -0.0331 0.9973
-0.6518 -0.2170 -0.0333 0.9973
-0.6539 -0.2284 -0.0336 0.9972
-0.6588 -0.2520 -0.0342 0.9972
-0.6638 -0.2764 -0.0349 0.9971
-0.6664 -0.2889 -0.0352 0.9971
-0.6689 -0.3017 -0.0356 0.9971
-0.6741 -0.3280 -0.0364 0.9970
-0.6767 -0.3416 -0.0368 0.9970
-0.6793 -0.3555 -0.0372 0.9969
-0.6820 -0.3697 -0.0376 0.9969
-0.6846 -0.3842 -0.0381 0.9969
-0.6863 -0.3984 -0.0385 0.9968
-0.6880 -0.4130 -0.0389 0.9968
-0.6896 -0.4278 -0.0394 0.9968
-0.6913 -0.4430 -0.0398 0.9967
-0.6982 -0.5073 -0.0419 0.9965
-0.7000 -0.5244 -0.0424 0.9965
-0.7017 -0.5419 -0.0430 0.9965
-0.7347 -0.5846 -0.0456 0.9962
-3.0067 -2.7743 -0.1985 0.9837
-8.6811 -9.0042 -0.6069 0.9511
-8.6827 -9.5491 -0.6262 0.9496
-13.2031 -15.4018 -0.9843 0.9220
-12.7450 -15.7779 -0.9841 0.9220
-6.1257 -8.0539 -0.4910 0.9603
-5.9389 -8.0499 -0.4854 0.9607
-5.7564 -8.0459 -0.4800 0.9612
-5.6109 -8.0898 -0.4777 0.9613
-5.1165 -8.1147 -0.4654 0.9623
-4.6245 -8.1008 -0.4526 0.9633
-4.1569 -8.0852 -0.4411 0.9642
-4.0007 -8.0692 -0.4370 0.9646
-3.6974 -8.0395 -0.4293 0.9652
-3.5464 -8.0177 -0.4254 0.9655
-2.9937 -8.0021 -0.4145 0.9664
-2.8601 -7.9992 -0.4122 0.9666
-2.7979 -8.2014 -0.4204 0.9659
-2.6106 -8.0347 -0.4099 0.9667
-2.2935 -8.2766 -0.4167 0.9662
-2.2849 -11.4321 -0.5656 0.9544
-3.3792 -19.9200 -0.9803 0.9223
-3.0874 -19.9649 -0.9802 0.9223
-1.9150 -20.1015 -0.9797 0.9223
-0.3789 -10.3677 -0.5034 0.9593
-0.2270 -10.3541 -0.5025 0.9594
0.0761 -10.4102 -0.5051 0.9592
0.2301 -10.4971 -0.5094 0.9588
1.9120 -20.0697 -0.9782 0.9224
1.7080 -11.0446 -0.5422 0.9562
0.5976 -2.9902 -0.1480 0.9879
0.6751 -2.9298 -0.1459 0.9880
0.7506 -2.8711 -0.1440 0.9882
0.7176 -2.5895 -0.1304 0.9893
0.7410 -2.5299 -0.1279 0.9895
0.7856 -2.5436 -0.1292 0.9894
0.8310 -2.5575 -0.1305 0.9893
0.8774 -2.5717 -0.1318 0.9892
0.9247 -2.5863 -0.1333 0.9891
0.9656 -2.2723 -0.1198 0.9902
1.1396 -2.4779 -0.1323 0.9891
1.1793 -2.4685 -0.1327 0.9891
1.2003 -2.4210 -0.1311 0.9892
1.2209 -2.3746 -0.1296 0.9894
1.2617 -2.3683 -0.1302 0.9893
1.2636 -2.2904 -0.1269 0.9896
1.4136 -2.4762 -0.1383 0.9886
1.4757 -2.4995 -0.1408 0.9884
1.5146 -2.4818 -0.1411 0.9884
1.5469 -2.4533 -0.1407 0.9885
1.6728 -2.5690 -0.1487 0.9878
6.4887 -9.6537 -0.5644 0.9545
6.6366 -9.5686 -0.5650 0.9544
6.7681 -9.4600 -0.5644 0.9545
6.9803 -9.4614 -0.5705 0.9540
7.1018 -9.3373 -0.5692 0.9541
13.2809 -15.0420 -0.9736 0.9228
9.2163 -9.0164 -0.6256 0.9497
9.2101 -8.7507 -0.6164 0.9504
3.9361 -3.3246 -0.2500 0.9796
3.9136 -3.2088 -0.2456 0.9799
3.6997 -2.8568 -0.2268 0.9815
3.6978 -2.6866 -0.2218 0.9819
3.6971 -2.6045 -0.2194 0.9821
3.6961 -2.4453 -0.2150 0.9824
4.0060 -2.4852 -0.2287 0.9813
4.0477 -2.4298 -0.2291 0.9813
4.5722 -2.2254 -0.2467 0.9798
4.5419 -2.0487 -0.2418 0.9802
6.9452 -3.0114 -0.3673 0.9701
7.0586 -2.5821 -0.3647 0.9703
7.0772 -2.4722 -0.3637 0.9704
7.4266 -2.2343 -0.3763 0.9694
10.0478 -2.3928 -0.5011 0.9595
10.3958 -2.3157 -0.5168 0.9582
10.6194 -2.0418 -0.5247 0.9576
10.4601 -1.8531 -0.5154 0.9584
17.4431 -2.8281 -0.8574 0.9317
19.7782 -2.9107 -0.9700 0.9231
19.8182 -2.6214 -0.9699 0.9231
19.8541 -2.3315 -0.9699 0.9231
19.8858 -2.0411 -0.9699 0.9231
20.2439 -1.7794 -0.9860 0.9218
20.2676 -1.4834 -0.9860 0.9218
20.3020 -0.8905 -0.9860 0.9218
20.3128 -0.5938 -0.9860 0.9218
20.3214 0.0000 -0.9860 0.9218
20.2676 1.4834 -0.9860 0.9218
20.2160 2.0750 -0.9860 0.9218
20.1065 2.9591 -0.9861 0.9218
19.9010 4.1289 -0.9861 0.9218
19.8391 4.4194 -0.9862 0.9218
19.7729 4.7089 -0.9862 0.9218
12.3634 3.3289 -0.6212 0.9500
9.6807 2.7589 -0.4884 0.9605
9.3263 2.8059 -0.4725 0.9617
8.3939 2.9323 -0.4314 0.9650
8.1230 2.9715 -0.4197 0.9660
7.8665 3.0087 -0.4086 0.9668
7.5271 3.5286 -0.4033 0.9673
7.4913 3.7826 -0.4072 0.9670
7.5410 4.5269 -0.4267 0.9654
7.5616 4.6909 -0.4317 0.9650
7.8098 5.1670 -0.4544 0.9632
7.9684 5.9692 -0.4831 0.9609
8.0117 6.1864 -0.4911 0.9603
7.9890 6.5503 -0.5013 0.9595
8.0326 6.7847 -0.5102 0.9588
8.0753 7.0255 -0.5193 0.9580
8.2405 7.6034 -0.5440 0.9561
8.2157 7.8059 -0.5499 0.9556
14.3370 14.0261 -0.9732 0.9228
13.9234 14.4416 -0.9733 0.9228
13.7121 14.6448 -0.9734 0.9228
13.4978 14.8448 -0.9735 0.9228
13.2807 15.0418 -0.9736 0.9228
13.0607 15.2357 -0.9737 0.9228
12.8378 15.4262 -0.9738 0.9228
12.6123 15.6137 -0.9738 0.9228
12.3840 15.7978 -0.9739 0.9228
12.1530 15.9786 -0.9740 0.9228
11.6832 16.3301 -0.9742 0.9227
11.2032 16.6678 -0.9744 0.9227
10.4653 17.1480 -0.9747 0.9227
4.2851 7.7678 -0.4304 0.9651
4.0223 7.8234 -0.4268 0.9654
3.8925 7.8511 -0.4252 0.9655
3.7637 7.8785 -0.4236 0.9656
3.3387 7.8565 -0.4142 0.9664
3.1841 7.8079 -0.4091 0.9668
3.0364 7.7684 -0.4047 0.9671
2.7452 8.0470 -0.4125 0.9665
2.6303 8.0952 -0.4130 0.9665
2.5242 8.1732 -0.4150 0.9663
2.0292 8.2527 -0.4123 0.9665
1.7785 8.2682 -0.4103 0.9667
1.5167 8.2111 -0.4051 0.9671
1.3657 8.0504 -0.3962 0.9678
1.1981 8.5750 -0.4201 0.9659
1.6187 20.0977 -0.9783 0.9224
1.3250 20.1216 -0.9784 0.9224
1.0310 20.1413 -0.9785 0.9224
0.2316 6.3369 -0.3077 0.9749
-0.0940 4.2877 -0.2081 0.9830
-0.2381 3.6168 -0.1759 0.9856
-0.2882 3.5784 -0.1742 0.9857
-0.3382 3.5496 -0.1730 0.9858
-0.3874 3.5213 -0.1719 0.9859
-0.4393 3.5191 -0.1721 0.9859
-0.4922 3.5227 -0.1726 0.9859
-0.5458 3.5294 -0.1733 0.9858
-0.5999 3.5362 -0.1740 0.9857
-0.6544 3.5430 -0.1748 0.9857
-0.7649 3.5559 -0.1765 0.9855
-0.8774 3.5686 -0.1783 0.9854
-0.9346 3.5750 -0.1793 0.9853
-1.0526 3.5937 -0.1817 0.9851
-1.1750 3.6163 -0.1845 0.9849
-1.2376 3.6277 -0.1860 0.9848
-1.3656 3.6502 -0.1891 0.9845
-1.4312 3.6614 -0.1907 0.9844
-1.4994 3.6768 -0.1927 0.9842
-1.5780 3.7134 -0.1958 0.9840
-2.8376 6.4154 -0.3404 0.9723
-2.9121 6.0959 -0.3278 0.9733
-2.9487 5.9473 -0.3221 0.9738
-2.9765 5.7893 -0.3158 0.9743
-3.0479 5.3390 -0.2983 0.9757
-3.0682 5.1968 -0.2928 0.9761
-3.0877 5.0594 -0.2876 0.9765
-3.1263 4.8012 -0.2780 0.9773
-3.1477 4.6830 -0.2738 0.9777
-3.1728 4.4348 -0.2646 0.9784
-3.1818 4.3128 -0.2600 0.9788
-3.1909 4.1954 -0.2557 0.9791
-3.2029 4.0859 -0.2519 0.9794
-3.2129 3.9776 -0.2481 0.9797
-3.2264 3.8770 -0.2447 0.9800
-3.2590 3.6912 -0.2389 0.9805
-3.5350 3.4584 -0.2399 0.9804
-3.6279 3.4469 -0.2428 0.9802
-3.8665 3.4645 -0.2519 0.9794
-4.1437 3.5000 -0.2632 0.9785
-0.7346 0.5846 -0.0456 0.9962
-0.7017 0.5419 -0.0430 0.9965
-0.7000 0.5244 -0.0424 0.9965
-0.6982 0.5073 -0.0419 0.9965
-0.6948 0.4744 -0.0408 0.9966
-0.6930 0.4586 -0.0403 0.9967
-0.6913 0.4430 -0.0398 0.9967
-0.6897 0.4278 -0.0394 0.9968
-0.6879 0.4130 -0.0389 0.9968
-0.6862 0.3984 -0.0385 0.9968
-0.6846 0.3842 -0.0381 0.9969
-0.6820 0.3698 -0.0376 0.9969
-0.6793 0.3556 -0.0372 0.9969
-0.6767 0.3417 -0.0368 0.9970
-0.6741 0.3281 -0.0364 0.9970
-0.6639 0.2764 -0.0349 0.9971
-0.6614 0.2641 -0.0346 0.9972
-0.6589 0.2520 -0.0342 0.9972
-0.6564 0.2402 -0.0339 0.9972
-0.6482 0.1951 -0.0328 0.9973
-0.6468 0.1843 -0.0326 0.9973
-0.6441 0.1634 -0.0322 0.9973
-0.6428 0.1531 -0.0321 0.9974
-0.6358 0.1031 -0.0313 0.9974
-0.6344 0.0934 -0.0311 0.9974
-0.6330 0.0837 -0.0310 0.9974
-0.6315 0.0742 -0.0309 0.9975
-0.6301 0.0647 -0.0307 0.9975
-0.6286 0.0553 -0.0306 0.9975
-0.6271 0.0459 -0.0305 0.9975
-0.6246 0.0274 -0.0303 0.9975
-0.6234 0.0182 -0.0303 0.9975
-0.6221 0.0091 -0.0302 0.9975
-0.5972 0.0000 -0.0356 0.9976
-0.5983 -0.0087 -0.0357 0.9976
-0.5995 -0.0175 -0.0358 0.9976
-0.6006 -0.0263 -0.0359 0.9976
-0.6017 -0.0352 -0.0359 0.9976
-0.6028 -0.0441 -0.0360 0.9976
-0.6039 -0.0530 -0.0361 0.9976
-0.6051 -0.0621 -0.0363 0.9976
-0.6064 -0.0712 -0.0364 0.9976
-0.6076 -0.0804 -0.0366 0.9975
-0.6114 -0.1083 -0.0370 0.9975
-0.6126 -0.1178 -0.0372 0.9975
-0.6138 -0.1273 -0.0374 0.9975
-0.6150 -0.1370 -0.0376 0.9975
-0.6162 -0.1467 -0.0378 0.9975
-0.6173 -0.1566 -0.0380 0.9975
-0.6196 -0.1766 -0.0384 0.9974
-0.6207 -0.1867 -0.0387 0.9974
-0.6220 -0.1971 -0.0389 0.9974
-0.6364 -0.2870 -0.0416 0.9972
-0.6427 -0.3245 -0.0429 0.9971
-0.6557 -0.4068 -0.0460 0.9969
-0.6570 -0.4209 -0.0465 0.9969
-0.6582 -0.4354 -0.0471 0.9968
-0.6594 -0.4502 -0.0476 0.9968
-0.6618 -0.4808 -0.0488 0.9967
-0.6653 -0.5295 -0.0507 0.9966
-0.6665 -0.5464 -0.0514 0.9966
-0.8167 -0.7105 -0.0646 0.9957
-3.1182 -2.7939 -0.2497 0.9834
-2.9244 -2.7785 -0.2405 0.9840
-3.0835 -3.0167 -0.2572 0.9829
-8.6920 -9.2831 -0.7584 0.9503
-10.8832 -12.3265 -0.9806 0.9362
-10.5167 -12.6373 -0.9804 0.9362
-10.3302 -12.7886 -0.9803 0.9362
-5.9389 -8.0499 -0.5965 0.9607
-5.4178 -8.0604 -0.5792 0.9618
-5.0949 -8.0805 -0.5697 0.9624
-4.9289 -8.0764 -0.5642 0.9628
-4.7664 -8.0730 -0.5591 0.9631
-4.6076 -8.0712 -0.5542 0.9634
-3.9947 -8.0571 -0.5363 0.9646
-3.8417 -8.0416 -0.5315 0.9649
-3.6917 -8.0271 -0.5269 0.9652
-3.2657 -8.0080 -0.5157 0.9659
-3.1289 -8.0050 -0.5125 0.9661
-2.9937 -8.0021 -0.5095 0.9663
-2.8601 -7.9992 -0.5066 0.9665
-2.7654 -8.1059 -0.5107 0.9663
-2.6067 -8.0226 -0.5030 0.9668
-2.2886 -8.2591 -0.5111 0.9662
-2.9157 -11.1527 -0.6874 0.9549
-2.4376 -11.3321 -0.6912 0.9546
-2.2650 -11.3327 -0.6892 0.9547
-2.9854 -16.1630 -0.9802 0.9363
-2.5114 -16.2401 -0.9800 0.9363
-2.2736 -16.2735 -0.9799 0.9363
-1.5578 -16.3527 -0.9796 0.9363
-1.3186 -16.3721 -0.9795 0.9363
-1.0791 -16.3880 -0.9794 0.9363
-0.5292 -10.3386 -0.6173 0.9594
-0.2253 -10.2787 -0.6131 0.9596
-0.0751 -10.2836 -0.6133 0.9596
1.0782 -16.3734 -0.9785 0.9364
1.5559 -16.3316 -0.9783 0.9364
1.7941 -16.3056 -0.9782 0.9364
2.0320 -16.2760 -0.9781 0.9364
1.8510 -10.9115 -0.6600 0.9566
0.5992 -2.9983 -0.1823 0.9878
0.6384 -2.9677 -0.1810 0.9879
0.6770 -2.9376 -0.1798 0.9880
0.7526 -2.8787 -0.1774 0.9881
0.7656 -2.6139 -0.1624 0.9891
0.8793 -2.5774 -0.1624 0.9891
0.9268 -2.5921 -0.1642 0.9890
0.9547 -2.4424 -0.1564 0.9895
0.9767 -2.2984 -0.1489 0.9900
1.1470 -2.4939 -0.1637 0.9891
1.1628 -2.4340 -0.1609 0.9892
1.2251 -2.3827 -0.1598 0.9893
1.3869 -2.5140 -0.1712 0.9886
1.6778 -2.5767 -0.1834 0.9878
6.6474 -9.8897 -0.7106 0.9534
6.7244 -9.6953 -0.7036 0.9538
6.7385 -9.4187 -0.6906 0.9547
7.2201 -9.4930 -0.7112 0.9533
7.5556 -9.6384 -0.7303 0.9521
7.9370 -9.8258 -0.7532 0.9506
8.1479 -9.7907 -0.7596 0.9502
10.6073 -12.3737 -0.9719 0.9368
11.1369 -11.8944 -0.9717 0.9368
9.3279 -9.1257 -0.7782 0.9491
9.3034 -8.8393 -0.7653 0.9499
4.0850 -3.6602 -0.3271 0.9783
3.6415 -2.7279 -0.2713 0.9819
3.6687 -2.5844 -0.2676 0.9822
3.6962 -2.4454 -0.2643 0.9824
3.7100 -2.3773 -0.2628 0.9825
3.7239 -2.3102 -0.2613 0.9826
4.0004 -2.1689 -0.2714 0.9819
4.2531 -2.2261 -0.2863 0.9809
4.3748 -2.1293 -0.2901 0.9807
4.3621 -2.0449 -0.2873 0.9809
6.9781 -3.0257 -0.4536 0.9700
6.9523 -2.6590 -0.4439 0.9706
6.8359 -2.5006 -0.4341 0.9713
6.8890 -2.4065 -0.4352 0.9712
7.5668 -2.3976 -0.4733 0.9687
7.5618 -2.2750 -0.4709 0.9689
7.6197 -2.1715 -0.4725 0.9688
7.7748 -2.0934 -0.4801 0.9683
9.9722 -2.5293 -0.6135 0.9596
10.1254 -2.2554 -0.6186 0.9593
10.7097 -2.2219 -0.6523 0.9571
10.6220 -2.0423 -0.6450 0.9576
16.0409 -2.8419 -0.9715 0.9368
16.1166 -2.3719 -0.9714 0.9368
16.1493 -2.1361 -0.9714 0.9368
16.5156 -1.2088 -0.9875 0.9358
16.5314 -0.9673 -0.9875 0.9358
16.5525 -0.4839 -0.9875 0.9358
16.5577 0.2420 -0.9875 0.9358
16.5525 0.4839 -0.9875 0.9358
16.5313 0.9674 -0.9875 0.9358
16.5156 1.2088 -0.9875 0.9358
16.4735 1.6909 -0.9875 0.9358
16.4175 2.1716 -0.9876 0.9358
16.2636 3.1271 -0.9876 0.9358
16.1659 3.6011 -0.9877 0.9358
16.1120 3.8370 -0.9877 0.9358
16.0545 4.0721 -0.9877 0.9358
15.9937 4.3064 -0.9877 0.9358
11.1745 3.5408 -0.6990 0.9541
8.7580 2.9166 -0.5505 0.9637
8.4626 2.9562 -0.5346 0.9647
8.1879 2.9952 -0.5199 0.9657
7.6812 3.0672 -0.4932 0.9674
7.4505 3.1021 -0.4813 0.9682
7.4642 3.2366 -0.4852 0.9679
7.4782 3.3732 -0.4892 0.9677
7.5000 3.5159 -0.4940 0.9674
7.5230 3.6616 -0.4989 0.9670
7.4352 3.8916 -0.5004 0.9669
7.4913 4.2044 -0.5123 0.9662
7.5216 4.3671 -0.5187 0.9657
13.0308 9.7612 -0.9709 0.9368
12.8875 9.9512 -0.9710 0.9368
8.0320 6.7842 -0.6270 0.9587
12.0051 11.0770 -0.9741 0.9366
11.8427 11.2520 -0.9742 0.9366
11.6779 11.4246 -0.9742 0.9366
11.3406 11.7627 -0.9744 0.9366
10.9936 12.0907 -0.9745 0.9366
10.8166 12.2510 -0.9746 0.9366
10.6373 12.4087 -0.9746 0.9366
10.4556 12.5637 -0.9747 0.9366
10.0856 12.8659 -0.9749 0.9366
9.8973 13.0128 -0.9749 0.9366
9.5143 13.2986 -0.9751 0.9366
9.3198 13.4373 -0.9752 0.9366
8.9246 13.7061 -0.9753 0.9366
8.7241 13.8361 -0.9754 0.9366
8.5217 13.9633 -0.9755 0.9366
4.5946 7.7820 -0.5389 0.9644
4.1400 7.7710 -0.5251 0.9653
4.0552 7.8874 -0.5289 0.9651
3.9274 7.9214 -0.5273 0.9652
3.7368 7.8220 -0.5169 0.9659
3.6333 7.9002 -0.5185 0.9658
3.1793 7.7962 -0.5021 0.9668
2.8842 8.0666 -0.5109 0.9663
2.6729 7.8349 -0.4937 0.9674
2.6644 8.2003 -0.5142 0.9660
2.5481 8.2507 -0.5150 0.9660
2.3579 8.0500 -0.5002 0.9669
2.0180 8.2070 -0.5040 0.9667
1.8061 8.3964 -0.5122 0.9662
1.6351 8.1811 -0.4975 0.9671
1.3541 7.9823 -0.4828 0.9681
1.3286 8.5911 -0.5184 0.9658
1.2096 8.6580 -0.5213 0.9656
2.0320 16.2759 -0.9781 0.9364
1.7941 16.3054 -0.9782 0.9364
1.3171 16.3541 -0.9784 0.9364
0.2311 6.3233 -0.3773 0.9750
0.1264 5.7640 -0.3438 0.9772
-0.0344 4.7058 -0.2806 0.9813
-0.1413 3.8668 -0.2307 0.9846
-0.1896 3.7032 -0.2211 0.9853
-0.2378 3.6109 -0.2158 0.9856
-0.4907 3.5126 -0.2115 0.9859
-0.5441 3.5183 -0.2123 0.9858
-0.5979 3.5250 -0.2132 0.9858
-0.7072 3.5382 -0.2152 0.9856
-0.8747 3.5573 -0.2185 0.9854
-0.9317 3.5637 -0.2197 0.9853
-1.2333 3.6151 -0.2278 0.9848
-1.4261 3.6485 -0.2336 0.9844
-1.4956 3.6675 -0.2362 0.9843
-1.5675 3.6887 -0.2390 0.9841
-2.8138 6.3616 -0.4148 0.9725
-2.8712 6.2431 -0.4098 0.9728
-2.9099 6.0912 -0.4026 0.9733
-2.9468 5.9436 -0.3956 0.9738
-2.9761 5.7887 -0.3881 0.9743
-3.1062 4.9263 -0.3473 0.9769
-3.1248 4.7991 -0.3415 0.9773
-3.1449 4.6789 -0.3362 0.9777
-3.1783 4.3080 -0.3193 0.9788
-3.1871 4.1904 -0.3140 0.9791
-3.1981 4.0798 -0.3091 0.9794
-3.2108 3.9749 -0.3047 0.9797
-3.2240 3.8741 -0.3006 0.9800
-3.2548 3.6865 -0.2933 0.9805
-3.3133 3.5387 -0.2891 0.9808
-3.3526 3.4774 -0.2881 0.9808
-3.4154 3.4405 -0.2891 0.9808
-3.4936 3.4178 -0.2914 0.9806
-3.8200 3.4227 -0.3059 0.9797
-0.7163 0.6051 -0.0559 0.9962
-0.6654 0.5295 -0.0507 0.9966
-0.6642 0.5129 -0.0500 0.9966
-0.6618 0.4809 -0.0488 0.9967
-0.6537 0.3924 -0.0455 0.9969
-0.6513 0.3782 -0.0449 0.9970
-0.6448 0.3375 -0.0434 0.9971
-0.6427 0.3245 -0.0429 0.9971
-0.6406 0.3118 -0.0425 0.9971
-0.6322 0.2632 -0.0408 0.9973
-0.6301 0.2516 -0.0405 0.9973
-0.6264 0.2292 -0.0398 0.9973
-0.6250 0.2183 -0.0395 0.9974
-0.6207 0.1868 -0.0387 0.9974
-0.6196 0.1766 -0.0384 0.9974
-0.6185 0.1665 -0.0382 0.9974
-0.6173 0.1566 -0.0380 0.9975
-0.6162 0.1468 -0.0378 0.9975
-0.6150 0.1370 -0.0376 0.9975
-0.6138 0.1273 -0.0374 0.9975
-0.6126 0.1178 -0.0372 0.9975
-0.6114 0.1084 -0.0370 0.9975
-0.6089 0.0896 -0.0367 0.9975
-0.6076 0.0804 -0.0366 0.9975
-0.6051 0.0621 -0.0363 0.9976
-0.6038 0.0531 -0.0361 0.9976
-0.6006 0.0263 -0.0359 0.9976
-0.5752 0.0000 -0.0407 0.9977
-0.5774 -0.0169 -0.0409 0.9977
-0.5784 -0.0254 -0.0410 0.9977
-0.5832 -0.0685 -0.0415 0.9976
-0.5842 -0.0772 -0.0417 0.9976
-0.5897 -0.1223 -0.0426 0.9976
-0.5907 -0.1316 -0.0428 0.9976
-0.5917 -0.1409 -0.0430 0.9976
-0.5936 -0.1598 -0.0435 0.9975
-0.5946 -0.1695 -0.0437 0.9975
-0.5955 -0.1791 -0.0440 0.9975
-0.5964 -0.1889 -0.0443 0.9975
-0.5975 -0.1990 -0.0446 0.9975
-0.6023 -0.2405 -0.0459 0.9974
-0.6050 -0.2623 -0.0467 0.9974
-0.6068 -0.2737 -0.0471 0.9973
-0.6102 -0.2970 -0.0480 0.9973
-0.6154 -0.3336 -0.0495 0.9972
-0.6171 -0.3462 -0.0501 0.9972
-0.6258 -0.4141 -0.0531 0.9970
-0.6274 -0.4284 -0.0538 0.9970
-0.6282 -0.4425 -0.0544 0.9969
-0.6289 -0.4569 -0.0550 0.9969
-0.6311 -0.5022 -0.0571 0.9968
-0.6323 -0.5341 -0.0586 0.9967
-0.6330 -0.5507 -0.0594 0.9966
-0.6970 -0.6245 -0.0662 0.9963
-0.7910 -0.7298 -0.0762 0.9957
-3.0956 -3.0284 -0.3064 0.9828
-9.3164 -10.2461 -0.9799 0.9460
-9.1651 -10.3805 -0.9799 0.9460
-8.8567 -10.6426 -0.9798 0.9460
-8.6997 -10.7701 -0.9797 0.9460
-8.5409 -10.8954 -0.9796 0.9460
-5.7564 -8.0459 -0.7001 0.9611
-5.0740 -8.0471 -0.6732 0.9626
-4.9092 -8.0440 -0.6668 0.9629
-4.7475 -8.0410 -0.6608 0.9632
-4.2793 -8.0324 -0.6440 0.9642
-3.8355 -8.0287 -0.6296 0.9649
-3.6865 -8.0158 -0.6243 0.9652
-3.5592 -8.0468 -0.6226 0.9653
-3.4043 -8.0109 -0.6159 0.9657
-3.2657 -8.0080 -0.6120 0.9659
-2.8601 -7.9992 -0.6011 0.9665
-2.9641 -9.5973 -0.7108 0.9605
-2.8101 -9.5940 -0.7074 0.9607
-2.9230 -11.1805 -0.8178 0.9547
-2.7638 -11.2404 -0.8191 0.9546
-2.4478 -11.3795 -0.8237 0.9544
-2.5083 -13.5798 -0.9772 0.9461
-2.3094 -13.6140 -0.9771 0.9461
-2.1101 -13.6452 -0.9770 0.9461
-1.5550 -12.4552 -0.8882 0.9509
-1.5097 -13.7211 -0.9768 0.9462
-1.3090 -13.7405 -0.9767 0.9462
-1.1080 -13.7571 -0.9766 0.9462
-0.5039 -13.7890 -0.9764 0.9462
-0.0802 -10.9760 -0.7767 0.9569
0.1008 -13.7944 -0.9761 0.9462
0.7050 -13.7732 -0.9759 0.9462
1.5079 -13.7040 -0.9756 0.9462
1.7078 -13.6794 -0.9755 0.9462
1.7363 -11.2281 -0.8040 0.9555
2.0336 -11.0099 -0.7923 0.9561
2.1525 -10.7702 -0.7772 0.9569
0.7105 -2.5641 -0.1883 0.9894
0.9086 -2.4287 -0.1835 0.9897
0.9605 -2.4573 -0.1867 0.9895
0.9880 -2.3250 -0.1788 0.9899
1.1545 -2.5103 -0.1955 0.9890
1.2293 -2.3910 -0.1902 0.9893
1.4744 -2.4972 -0.2052 0.9884
1.5066 -2.4687 -0.2047 0.9885
6.4513 -9.9078 -0.8366 0.9537
6.8103 -9.8191 -0.8456 0.9532
7.1399 -9.3875 -0.8346 0.9538
8.1474 -9.7901 -0.9013 0.9502
9.0962 -10.3025 -0.9725 0.9464
9.2452 -10.1678 -0.9724 0.9464
9.3922 -10.0310 -0.9724 0.9464
9.8587 -9.9309 -0.9902 0.9454
3.6898 -3.6098 -0.3653 0.9795
3.7006 -3.5160 -0.3612 0.9797
3.7114 -3.4245 -0.3573 0.9800
3.7223 -3.3352 -0.3537 0.9802
3.7332 -3.2479 -0.3502 0.9804
3.7553 -3.0790 -0.3436 0.9807
3.7664 -2.9972 -0.3406 0.9809
3.4547 -2.6676 -0.3089 0.9826
3.7406 -2.7177 -0.3272 0.9816
3.8554 -2.6325 -0.3303 0.9815
3.7378 -2.4729 -0.3171 0.9822
3.7962 -2.4326 -0.3190 0.9821
3.6043 -2.2359 -0.3001 0.9831
3.7110 -2.2277 -0.3063 0.9828
3.8223 -2.2193 -0.3128 0.9824
4.1839 -2.1899 -0.3342 0.9812
4.1963 -2.1188 -0.3326 0.9813
6.9634 -2.5473 -0.5247 0.9707
7.5857 -2.2821 -0.5605 0.9687
10.0895 -2.4027 -0.7339 0.9593
10.3016 -2.2947 -0.7468 0.9586
10.3859 -2.1547 -0.7506 0.9584
13.5098 -2.5976 -0.9735 0.9463
13.5461 -2.3998 -0.9735 0.9463
13.5795 -2.2016 -0.9735 0.9463
13.6101 -2.0030 -0.9735 0.9463
13.8501 -1.8320 -0.9886 0.9455
13.8974 -1.4264 -0.9886 0.9455
13.9462 -0.8160 -0.9886 0.9455
13.9640 -0.4082 -0.9885 0.9455
13.9685 -0.2041 -0.9885 0.9455
13.9700 0.0000 -0.9885 0.9455
13.9685 0.2041 -0.9885 0.9455
13.9640 0.4082 -0.9885 0.9455
13.9567 0.6122 -0.9885 0.9455
13.9462 0.8161 -0.9886 0.9455
13.9166 1.2233 -0.9886 0.9455
13.8752 1.6295 -0.9886 0.9455
13.8219 2.0342 -0.9886 0.9455
13.7909 2.2359 -0.9886 0.9455
13.5920 3.2369 -0.9887 0.9455
13.5435 3.4352 -0.9887 0.9455
13.4922 3.6329 -0.9887 0.9455
13.4379 3.8296 -0.9888 0.9455
13.2582 4.4152 -0.9888 0.9455
9.5784 3.6635 -0.7257 0.9597
9.6099 3.8373 -0.7322 0.9594
9.6396 4.0135 -0.7389 0.9590
9.6656 4.1911 -0.7455 0.9586
12.6559 5.9328 -0.9891 0.9455
12.5682 6.1173 -0.9891 0.9455
7.5257 3.9390 -0.6011 0.9665
7.4615 4.0454 -0.6006 0.9665
9.9352 6.3663 -0.8350 0.9538
9.9037 6.5522 -0.8403 0.9535
9.9404 6.7874 -0.8517 0.9529
11.4325 8.0537 -0.9896 0.9455
11.1093 8.0712 -0.9717 0.9464
10.9907 8.2330 -0.9717 0.9464
9.6801 9.7509 -0.9723 0.9464
9.3922 10.0307 -0.9724 0.9464
9.2452 10.1675 -0.9724 0.9464
8.9705 10.4644 -0.9753 0.9462
8.6621 10.7234 -0.9754 0.9462
8.1854 11.0949 -0.9756 0.9462
8.0230 11.2141 -0.9757 0.9462
7.6929 11.4452 -0.9758 0.9462
7.5254 11.5573 -0.9759 0.9462
7.3562 11.6668 -0.9760 0.9462
7.1855 11.7738 -0.9760 0.9462
7.0132 11.8784 -0.9761 0.9462
4.4997 7.8821 -0.6422 0.9643
4.3637 7.9101 -0.6393 0.9644
4.1159 7.7258 -0.6194 0.9655
3.8901 7.8463 -0.6197 0.9655
3.2849 7.7301 -0.5943 0.9669
3.1395 7.6985 -0.5883 0.9672
2.5221 8.1666 -0.6048 0.9663
2.1782 7.8604 -0.5772 0.9678
2.1014 8.0379 -0.5879 0.9672
1.6415 8.2134 -0.5927 0.9670
1.3490 8.7230 -0.6246 0.9652
1.7126 13.7180 -0.9782 0.9461
1.5121 13.7427 -0.9783 0.9461
1.3113 13.7645 -0.9784 0.9461
0.7070 13.8121 -0.9787 0.9461
0.0378 5.1793 -0.3665 0.9794
-0.1408 3.8516 -0.2727 0.9847
-0.2374 3.6051 -0.2557 0.9856
-0.2868 3.5607 -0.2528 0.9858
-0.3856 3.5045 -0.2495 0.9860
-0.4898 3.5055 -0.2505 0.9859
-0.5424 3.5073 -0.2511 0.9859
-0.7049 3.5270 -0.2545 0.9857
-0.8157 3.5398 -0.2570 0.9855
-0.8719 3.5461 -0.2584 0.9855
-0.9287 3.5523 -0.2598 0.9854
-0.9862 3.5590 -0.2613 0.9853
-1.1059 3.5808 -0.2652 0.9851
-1.1670 3.5917 -0.2672 0.9850
-1.2290 3.6026 -0.2694 0.9849
-1.4918 3.6581 -0.2796 0.9843
-1.5635 3.6792 -0.2829 0.9841
-2.8138 6.3615 -0.4922 0.9725
-2.8718 6.2443 -0.4864 0.9728
-2.9069 6.0850 -0.4772 0.9733
-3.0227 5.4793 -0.4428 0.9752
-3.0860 5.0566 -0.4192 0.9765
-3.1054 4.9250 -0.4120 0.9769
-3.1240 4.7978 -0.4051 0.9773
-3.1563 4.5508 -0.3919 0.9780
-3.1750 4.3036 -0.3784 0.9788
-3.1841 4.1864 -0.3722 0.9791
-3.2014 3.8469 -0.3541 0.9801
-3.2518 3.6830 -0.3477 0.9805
-3.3246 3.4484 -0.3390 0.9810
-3.3864 3.4112 -0.3401 0.9809
-3.5542 3.3770 -0.3469 0.9805
-0.6970 0.6246 -0.0662 0.9963
-0.6330 0.5507 -0.0594 0.9966
-0.6324 0.5341 -0.0586 0.9967
-0.6317 0.5180 -0.0578 0.9967
-0.6311 0.5023 -0.0571 0.9968
-0.6297 0.4717 -0.0557 0.9968
-0.6290 0.4570 -0.0550 0.9969
-0.6240 0.3999 -0.0524 0.9970
-0.6222 0.3860 -0.0518 0.9971
-0.6205 0.3725 -0.0512 0.9971
-0.6188 0.3593 -0.0506 0.9971
-0.6171 0.3463 -0.0501 0.9972
-0.6137 0.3212 -0.0490 0.9972
-0.6119 0.3090 -0.0485 0.9973
-0.6102 0.2970 -0.0480 0.9973
-0.6085 0.2853 -0.0476 0.9973
-0.6068 0.2738 -0.0471 0.9973
-0.6051 0.2623 -0.0467 0.9974
-0.6035 0.2513 -0.0463 0.9974
-0.6023 0.2405 -0.0459 0.9974
-0.6012 0.2299 -0.0455 0.9974
-0.6000 0.2195 -0.0452 0.9974
-0.5964 0.1889 -0.0443 0.9975
-0.5936 0.1598 -0.0435 0.9975
-0.5917 0.1409 -0.0430 0.9976
-0.5865 0.0951 -0.0420 0.9976
-0.5854 0.0862 -0.0419 0.9976
-0.5842 0.0773 -0.0417 0.9976
-0.5832 0.0685 -0.0415 0.9976
-0.5823 0.0598 -0.0414 0.9977
-0.5794 0.0339 -0.0411 0.9977
-0.5763 0.0084 -0.0408 0.9977
-0.5548 0.0000 -0.0454 0.9978
-0.5558 -0.0081 -0.0455 0.9978
-0.5604 -0.0493 -0.0461 0.9977
-0.5621 -0.0660 -0.0464 0.9977
-0.5628 -0.0744 -0.0465 0.9977
-0.5636 -0.0829 -0.0467 0.9977
-0.5655 -0.1002 -0.0470 0.9977
-0.5664 -0.1089 -0.0472 0.9977
-0.5673 -0.1177 -0.0475 0.9977
-0.5682 -0.1265 -0.0477 0.9977
-0.5714 -0.1629 -0.0487 0.9976
-0.5729 -0.1816 -0.0492 0.9976
-0.5736 -0.1910 -0.0495 0.9976
-0.5746 -0.2007 -0.0499 0.9976
-0.5802 -0.2617 -0.0521 0.9974
-0.5812 -0.2724 -0.0526 0.9974
-0.5840 -0.2948 -0.0536 0.9974
-0.5867 -0.3180 -0.0547 0.9973
-0.5906 -0.3545 -0.0564 0.9972
-0.5932 -0.3801 -0.0577 0.9972
-0.5945 -0.3933 -0.0584 0.9971
-0.5958 -0.4068 -0.0591 0.9971
-0.5971 -0.4206 -0.0598 0.9971
-0.5984 -0.4348 -0.0606 0.9970
-0.5995 -0.4491 -0.0614 0.9970
-0.6004 -0.4923 -0.0636 0.9969
-0.6007 -0.5227 -0.0652 0.9968
-0.6009 -0.5545 -0.0670 0.9967
-3.1078 -3.0404 -0.3561 0.9827
-8.5811 -8.6440 -0.9977 0.9523
-8.4535 -8.7680 -0.9976 0.9523
-8.0599 -9.1286 -0.9974 0.9523
-7.7888 -9.3592 -0.9973 0.9523
-7.5112 -9.5818 -0.9972 0.9523
-6.1256 -8.0539 -0.8288 0.9602
-5.9389 -8.0499 -0.8194 0.9606
-5.6620 -8.1635 -0.8137 0.9609
-6.7897 -10.1015 -0.9969 0.9523
-6.6410 -10.1990 -0.9969 0.9523
-6.3732 -10.1079 -0.9788 0.9532
-5.7764 -9.7837 -0.9306 0.9554
-5.9231 -10.3755 -0.9786 0.9532
-5.6167 -10.5429 -0.9784 0.9532
-5.4617 -10.6232 -0.9784 0.9532
-5.3055 -10.7011 -0.9783 0.9532
-5.1483 -10.7768 -0.9783 0.9532
-3.1289 -8.0050 -0.7040 0.9661
-3.1195 -9.6007 -0.8268 0.9603
-3.1388 -11.3269 -0.9627 0.9539
-2.3320 -11.6678 -0.9746 0.9534
-2.1666 -11.7303 -0.9771 0.9533
-1.9949 -11.7598 -0.9770 0.9533
-1.6501 -11.8114 -0.9768 0.9533
-1.1307 -11.8699 -0.9766 0.9533
-0.9571 -11.8843 -0.9766 0.9533
-0.7833 -11.8961 -0.9765 0.9533
-0.2429 -11.0802 -0.9078 0.9565
0.0871 -11.9173 -0.9761 0.9533
0.2612 -11.9139 -0.9761 0.9533
0.6091 -11.8995 -0.9759 0.9533
0.7829 -11.8884 -0.9759 0.9533
1.4756 -11.8190 -0.9756 0.9533
1.5733 -11.2611 -0.9313 0.9554
2.0239 -10.9572 -0.9127 0.9563
2.2081 -11.0480 -0.9228 0.9558
0.7566 -2.8939 -0.2450 0.9881
0.7580 -2.5879 -0.2209 0.9892
0.8832 -2.5890 -0.2241 0.9891
0.9744 -2.3892 -0.2113 0.9897
0.9996 -2.3524 -0.2094 0.9898
1.1352 -2.5664 -0.2299 0.9888
1.1778 -2.4655 -0.2238 0.9891
1.2129 -2.4465 -0.2237 0.9891
1.2402 -2.3279 -0.2160 0.9895
1.4089 -2.4680 -0.2328 0.9887
1.4704 -2.4905 -0.2369 0.9885
1.5026 -2.4621 -0.2363 0.9885
1.6365 -2.5955 -0.2513 0.9878
6.8679 -9.5996 -0.9668 0.9537
6.9973 -9.4844 -0.9654 0.9538
7.3261 -9.6322 -0.9912 0.9526
7.4656 -9.5236 -0.9912 0.9526
7.6036 -9.4130 -0.9911 0.9526
7.7398 -9.3004 -0.9911 0.9526
7.8745 -9.1858 -0.9910 0.9526
8.0074 -9.0693 -0.9910 0.9526
8.3958 -8.7083 -0.9908 0.9526
8.5218 -8.5842 -0.9907 0.9526
8.6458 -8.4584 -0.9907 0.9526
3.8197 -3.0396 -0.3998 0.9806
3.6224 -2.7136 -0.3707 0.9820
3.6102 -2.3134 -0.3512 0.9829
3.7180 -2.3066 -0.3584 0.9826
3.8843 -2.1800 -0.3648 0.9823
7.0429 -3.4280 -0.6416 0.9691
6.9753 -3.2698 -0.6310 0.9696
7.0213 -3.0445 -0.6269 0.9698
6.7881 -2.7106 -0.5987 0.9711
6.7710 -2.5897 -0.5938 0.9713
6.9908 -2.5573 -0.6097 0.9706
6.7986 -2.3749 -0.5899 0.9715
6.9990 -2.3308 -0.6042 0.9708
7.5265 -2.2644 -0.6438 0.9689
7.7956 -2.2216 -0.6639 0.9680
9.8802 -2.5060 -0.8349 0.9599
9.9830 -2.3773 -0.8405 0.9597
11.6802 -2.2458 -0.9742 0.9534
11.9502 -1.7587 -0.9894 0.9527
11.9745 -1.5839 -0.9894 0.9527
12.0154 -1.2333 -0.9893 0.9527
12.0321 -1.0576 -0.9893 0.9527
12.0462 -0.8816 -0.9893 0.9527
12.0577 -0.7055 -0.9893 0.9527
12.0667 -0.5293 -0.9893 0.9527
12.0783 0.0000 -0.9893 0.9527
12.0770 0.1765 -0.9893 0.9527
12.0731 0.3529 -0.9893 0.9527
12.0667 0.5293 -0.9893 0.9527
12.0577 0.7055 -0.9893 0.9527
12.0462 0.8817 -0.9893 0.9527
12.0154 1.2333 -0.9893 0.9527
11.9963 1.4087 -0.9893 0.9527
11.9745 1.5839 -0.9893 0.9527
11.9502 1.7587 -0.9894 0.9527
11.8939 2.1072 -0.9894 0.9527
11.8276 2.4539 -0.9894 0.9527
11.7907 2.6265 -0.9894 0.9527
11.7512 2.7986 -0.9894 0.9527
11.5686 3.4805 -0.9895 0.9527
11.5167 3.6492 -0.9895 0.9527
11.4624 3.8172 -0.9896 0.9527
9.7401 3.7253 -0.8542 0.9590
9.6623 4.1897 -0.8626 0.9586
11.0148 4.9685 -0.9897 0.9527
7.7782 3.9274 -0.7137 0.9656
7.5544 3.9541 -0.6984 0.9664
7.4605 4.0449 -0.6951 0.9665
7.4891 4.2031 -0.7034 0.9661
7.5160 4.3638 -0.7119 0.9657
7.5391 4.5258 -0.7202 0.9653
7.5602 4.6901 -0.7287 0.9649
10.1774 6.5216 -0.9901 0.9526
10.0814 6.6698 -0.9901 0.9526
9.9833 6.8166 -0.9902 0.9526
9.7806 7.1061 -0.9902 0.9526
9.6762 7.2485 -0.9903 0.9526
9.5696 7.3895 -0.9903 0.9526
8.7274 8.0526 -0.9726 0.9535
8.6092 8.1796 -0.9727 0.9535
8.4892 8.3049 -0.9727 0.9535
8.3674 8.4285 -0.9728 0.9535
7.9912 8.7885 -0.9729 0.9534
7.8624 8.9048 -0.9730 0.9534
7.7319 9.0192 -0.9730 0.9534
7.5996 9.1317 -0.9731 0.9534
7.0549 9.5622 -0.9733 0.9534
6.7732 9.7654 -0.9734 0.9534
6.6302 9.8639 -0.9735 0.9534
6.1927 10.1468 -0.9737 0.9534
4.6377 7.8551 -0.7472 0.9641
4.5078 7.8964 -0.7447 0.9642
4.2784 7.7555 -0.7255 0.9651
4.1268 7.7462 -0.7189 0.9654
3.8406 7.7463 -0.7082 0.9659
3.8087 7.9726 -0.7237 0.9652
3.7288 8.1078 -0.7310 0.9648
3.5245 7.9684 -0.7137 0.9656
3.3014 7.7688 -0.6914 0.9667
3.0918 7.5814 -0.6706 0.9677
3.0755 7.8683 -0.6920 0.9667
3.0152 8.0596 -0.7048 0.9661
2.6856 8.2655 -0.7119 0.9657
2.5883 8.3808 -0.7184 0.9654
2.4143 8.2425 -0.7035 0.9661
2.1634 7.8071 -0.6636 0.9680
2.0994 8.0305 -0.6799 0.9672
2.0231 8.2281 -0.6940 0.9666
1.7910 8.3264 -0.6976 0.9664
1.6309 8.1602 -0.6816 0.9672
1.3612 8.8021 -0.7295 0.9649
1.2337 8.8305 -0.7303 0.9648
1.3065 11.8736 -0.9784 0.9532
0.9591 11.9084 -0.9786 0.9532
0.7851 11.9220 -0.9786 0.9532
-0.0934 4.2598 -0.3490 0.9830
-0.1402 3.8374 -0.3145 0.9847
-0.2370 3.5993 -0.2954 0.9856
-0.3352 3.5183 -0.2895 0.9859
-0.4888 3.4986 -0.2893 0.9859
-0.5942 3.5028 -0.2910 0.9858
-1.1022 3.5687 -0.3059 0.9851
-1.2248 3.5902 -0.3107 0.9849
-1.2875 3.6011 -0.3132 0.9848
-1.5595 3.6698 -0.3266 0.9841
-2.9418 5.9335 -0.5424 0.9738
-2.9761 5.7886 -0.5331 0.9742
-3.0650 5.1912 -0.4938 0.9761
-3.1047 4.9240 -0.4768 0.9769
-3.1413 4.6736 -0.4612 0.9777
-3.1535 4.5467 -0.4532 0.9780
-3.1625 4.4204 -0.4452 0.9784
-3.1708 4.0449 -0.4210 0.9796
-3.2160 3.7516 -0.4047 0.9804
-3.2304 3.6587 -0.3998 0.9806
-3.3180 3.4415 -0.3916 0.9810
-0.6009 0.5545 -0.0670 0.9967
-0.6006 0.5073 -0.0644 0.9968
-0.6004 0.4923 -0.0636 0.9969
-0.6001 0.4776 -0.0628 0.9969
-0.5998 0.4632 -0.0621 0.9970
-0.5984 0.4348 -0.0606 0.9970
-0.5971 0.4206 -0.0598 0.9971
-0.5945 0.3934 -0.0584 0.9971
-0.5919 0.3672 -0.0570 0.9972
-0.5893 0.3421 -0.0558 0.9973
-0.5880 0.3300 -0.0552 0.9973
-0.5853 0.3064 -0.0541 0.9974
-0.5802 0.2618 -0.0521 0.9974
-0.5784 0.2409 -0.0513 0.9975
-0.5775 0.2306 -0.0509 0.9975
-0.5756 0.2106 -0.0502 0.9975
-0.5722 0.1721 -0.0489 0.9976
-0.5715 0.1629 -0.0487 0.9976
-0.5682 0.1266 -0.0477 0.9977
-0.5664 0.1089 -0.0472 0.9977
-0.5645 0.0916 -0.0468 0.9977
-0.5636 0.0830 -0.0467 0.9977
-0.5628 0.0745 -0.0465 0.9977
-0.5621 0.0660 -0.0464 0.9977
-0.5612 0.0576 -0.0462 0.9977
-0.5595 0.0409 -0.0460 0.9978
-0.5577 0.0245 -0.0457 0.9978
-0.5568 0.0162 -0.0456 0.9978
-0.5376 -0.0157 -0.0501 0.9978
-0.5384 -0.0236 -0.0502 0.9978
-0.5401 -0.0395 -0.0504 0.9978
-0.5409 -0.0475 -0.0505 0.9978
-0.5423 -0.0637 -0.0508 0.9978
-0.5430 -0.0718 -0.0510 0.9978
-0.5437 -0.0800 -0.0512 0.9978
-0.5458 -0.1049 -0.0517 0.9978
-0.5473 -0.1219 -0.0522 0.9977
-0.5480 -0.1305 -0.0524 0.9977
-0.5487 -0.1391 -0.0527 0.9977
-0.5494 -0.1479 -0.0530 0.9977
-0.5500 -0.1567 -0.0532 0.9977
-0.5512 -0.1746 -0.0538 0.9977
-0.5517 -0.1837 -0.0541 0.9977
-0.5523 -0.1929 -0.0544 0.9977
-0.5539 -0.2118 -0.0552 0.9976
-0.5546 -0.2215 -0.0556 0.9976
-0.5553 -0.2312 -0.0560 0.9976
-0.5567 -0.2511 -0.0568 0.9975
-0.5573 -0.2612 -0.0573 0.9975
-0.5579 -0.2716 -0.0578 0.9975
-0.5585 -0.2820 -0.0582 0.9975
-0.5594 -0.2928 -0.0588 0.9975
-0.5604 -0.3038 -0.0593 0.9974
-0.5615 -0.3151 -0.0599 0.9974
-0.5624 -0.3265 -0.0605 0.9974
-0.5634 -0.3382 -0.0612 0.9974
-0.5643 -0.3501 -0.0618 0.9973
-0.5670 -0.3871 -0.0639 0.9972
-0.5679 -0.4000 -0.0647 0.9972
-0.5696 -0.4267 -0.0662 0.9971
-0.5704 -0.4405 -0.0671 0.9971
-0.5720 -0.4689 -0.0688 0.9970
-0.5716 -0.4973 -0.0705 0.9970
-0.5710 -0.5269 -0.0723 0.9969
-0.5706 -0.5422 -0.0733 0.9968
-0.5702 -0.5578 -0.0742 0.9968
-0.6550 -0.6597 -0.0865 0.9963
-7.4362 -7.7129 -0.9972 0.9579
-7.3224 -7.8204 -0.9971 0.9579
-7.2070 -7.9262 -0.9971 0.9579
-6.9717 -8.1327 -0.9970 0.9579
-6.8518 -8.2333 -0.9970 0.9579
-5.8098 -8.1207 -0.9293 0.9607
-5.8424 -8.9725 -0.9965 0.9579
-5.4427 -9.2184 -0.9964 0.9579
-4.8938 -9.5185 -0.9962 0.9579
-4.7539 -9.5884 -0.9961 0.9579
-4.6131 -9.6563 -0.9961 0.9579
-3.4043 -8.0109 -0.8101 0.9656
-3.2657 -8.0079 -0.8049 0.9659
-2.9937 -8.0021 -0.7952 0.9663
-2.8601 -7.9992 -0.7907 0.9664
-2.9640 -9.5973 -0.9349 0.9605
-2.9517 -10.0776 -0.9774 0.9587
-2.5068 -10.1954 -0.9772 0.9587
-1.9065 -10.3219 -0.9769 0.9587
-1.6039 -10.3719 -0.9768 0.9587
-0.8422 -10.4580 -0.9765 0.9587
-0.6893 -10.4685 -0.9765 0.9587
-0.3831 -10.4829 -0.9763 0.9587
-0.0766 -10.4882 -0.9762 0.9587
0.0767 -10.4876 -0.9761 0.9587
0.6890 -10.4625 -0.9759 0.9588
0.8417 -10.4507 -0.9758 0.9588
1.1466 -10.4203 -0.9757 0.9588
1.6018 -10.3581 -0.9755 0.9588
1.9036 -10.3056 -0.9754 0.9588
0.6436 -2.9918 -0.2848 0.9878
0.6824 -2.9613 -0.2828 0.9879
0.7586 -2.9016 -0.2791 0.9880
0.7959 -2.8723 -0.2774 0.9881
0.8852 -2.5948 -0.2552 0.9890
0.9050 -2.4189 -0.2404 0.9897
0.9724 -2.4877 -0.2486 0.9893
1.0116 -2.3804 -0.2407 0.9897
1.0354 -2.3408 -0.2382 0.9898
1.2172 -2.4551 -0.2551 0.9891
1.2305 -2.3934 -0.2505 0.9892
1.3796 -2.5008 -0.2658 0.9886
1.4987 -2.4556 -0.2678 0.9885
1.6415 -2.6034 -0.2865 0.9877
5.8147 -8.9302 -0.9918 0.9581
6.1996 -8.6654 -0.9917 0.9581
6.5723 -8.3841 -0.9915 0.9581
6.6938 -8.2868 -0.9915 0.9581
7.0495 -7.9843 -0.9913 0.9581
7.1651 -7.8801 -0.9913 0.9581
7.5025 -7.5575 -0.9912 0.9581
7.7194 -7.3344 -0.9911 0.9581
4.0953 -3.7787 -0.5186 0.9779
3.9538 -3.4398 -0.4878 0.9792
3.7668 -3.0884 -0.4534 0.9806
3.8408 -2.9658 -0.4517 0.9807
3.5407 -2.6523 -0.4118 0.9824
3.5849 -2.6045 -0.4124 0.9824
3.6284 -2.5561 -0.4131 0.9823
3.5121 -2.3981 -0.3958 0.9831
3.6167 -2.3928 -0.4036 0.9827
3.8775 -2.2513 -0.4173 0.9821
3.9168 -2.1983 -0.4181 0.9821
3.9555 -2.1445 -0.4188 0.9821
3.9936 -2.0902 -0.4195 0.9821
4.5465 -2.2957 -0.4740 0.9797
4.8863 -2.3783 -0.5058 0.9784
7.0601 -3.3096 -0.7257 0.9692
6.9650 -2.8999 -0.7022 0.9701
6.7006 -2.6756 -0.6715 0.9714
6.6956 -2.5609 -0.6672 0.9716
7.0713 -2.3548 -0.6937 0.9705
10.1524 -2.5750 -0.9748 0.9588
10.1887 -2.4264 -0.9748 0.9588
10.2229 -2.2773 -0.9748 0.9588
10.4990 -1.7022 -0.9899 0.9582
10.5226 -1.5486 -0.9899 0.9582
10.5948 -0.9312 -0.9899 0.9582
10.6253 -0.4661 -0.9899 0.9582
10.6343 -0.1554 -0.9899 0.9582
10.6354 0.0000 -0.9899 0.9582
10.6309 0.3108 -0.9899 0.9582
10.5801 1.0860 -0.9899 0.9582
10.5632 1.2405 -0.9899 0.9582
10.5226 1.5486 -0.9899 0.9582
10.4449 2.0083 -0.9900 0.9582
10.3821 2.3127 -0.9900 0.9582
10.2299 2.9154 -0.9901 0.9582
10.1864 3.0646 -0.9901 0.9582
10.0929 3.3611 -0.9901 0.9582
9.9907 3.6547 -0.9901 0.9582
9.9365 3.8004 -0.9902 0.9582
9.8802 3.9453 -0.9902 0.9582
9.6319 4.0103 -0.9711 0.9590
9.6985 4.3748 -0.9903 0.9582
9.5670 4.6566 -0.9903 0.9582
9.4982 4.7959 -0.9903 0.9582
7.4587 4.0439 -0.7897 0.9665
7.4864 4.2016 -0.7990 0.9661
7.5583 4.6889 -0.8279 0.9649
8.7015 6.1298 -0.9907 0.9581
8.6113 6.2565 -0.9907 0.9581
8.5193 6.3819 -0.9907 0.9581
8.3298 6.6286 -0.9908 0.9581
8.1333 6.8698 -0.9909 0.9581
7.9297 7.1050 -0.9910 0.9581
7.6117 7.4466 -0.9911 0.9581
7.5024 7.5574 -0.9912 0.9581
7.0495 7.9843 -0.9913 0.9581
6.5726 8.1365 -0.9735 0.9589
6.4533 8.2320 -0.9736 0.9588
6.3327 8.3259 -0.9736 0.9588
6.2106 8.4179 -0.9737 0.9588
6.0873 8.5082 -0.9737 0.9588
5.9626 8.5967 -0.9738 0.9588
5.7095 8.7681 -0.9739 0.9588
5.4514 8.9322 -0.9740 0.9588
4.4577 7.8086 -0.8369 0.9645
4.3024 7.7991 -0.8290 0.9649
3.8258 8.0085 -0.8261 0.9650
3.3181 7.8081 -0.7896 0.9665
3.3160 8.1312 -0.8173 0.9653
3.0783 7.8757 -0.7870 0.9666
2.8044 8.2202 -0.8084 0.9657
2.7064 8.3296 -0.8152 0.9654
2.5650 8.3052 -0.8090 0.9657
2.0850 7.9750 -0.7672 0.9674
2.0179 8.2066 -0.7866 0.9666
1.9163 8.3159 -0.7943 0.9663
1.7752 8.2526 -0.7857 0.9667
1.6168 8.0895 -0.7678 0.9674
1.4971 8.8255 -0.8332 0.9647
1.3023 10.4312 -0.9784 0.9586
1.1498 10.4498 -0.9785 0.9586
0.9971 10.4661 -0.9785 0.9586
0.8441 10.4802 -0.9786 0.9586
0.3452 6.7435 -0.6285 0.9732
0.1265 5.7702 -0.5372 0.9771
0.0379 5.1887 -0.4830 0.9794
-0.0344 4.7164 -0.4390 0.9812
-0.1869 3.6506 -0.3402 0.9854
-0.2859 3.5493 -0.3314 0.9858
-0.3841 3.4906 -0.3268 0.9860
-0.5400 3.4920 -0.3289 0.9859
-0.5925 3.4924 -0.3297 0.9859
-0.6462 3.4983 -0.3311 0.9858
-0.7004 3.5046 -0.3326 0.9857
-0.7552 3.5109 -0.3342 0.9857
-0.8105 3.5171 -0.3359 0.9856
-0.9228 3.5298 -0.3396 0.9854
-1.0387 3.5462 -0.3439 0.9853
-1.2205 3.5778 -0.3518 0.9849
-1.4146 3.6193 -0.3617 0.9845
-2.8486 6.1939 -0.6345 0.9730
-2.8995 6.0695 -0.6261 0.9733
-2.9984 5.6283 -0.5935 0.9747
-3.0431 5.3305 -0.5713 0.9756
-3.0643 5.1902 -0.5610 0.9761
-3.1041 4.9230 -0.5417 0.9769
-3.1225 4.7955 -0.5326 0.9773
-3.1403 4.6720 -0.5239 0.9776
-3.1536 4.5468 -0.5150 0.9780
-3.1624 4.4203 -0.5059 0.9784
-3.1704 4.2974 -0.4970 0.9788
-3.1708 4.0450 -0.4784 0.9796
-3.2014 3.8469 -0.4658 0.9801
-3.2631 3.5888 -0.4515 0.9807
-3.2789 3.5019 -0.4465 0.9809
-3.3112 3.4345 -0.4440 0.9810
-0.5702 0.5578 -0.0742 0.9968
-0.5710 0.5269 -0.0723 0.9969
-0.5713 0.5119 -0.0714 0.9969
-0.5716 0.4973 -0.0705 0.9970
-0.5718 0.4829 -0.0697 0.9970
-0.5704 0.4405 -0.0671 0.9971
-0.5696 0.4267 -0.0662 0.9971
-0.5679 0.4001 -0.0647 0.9972
-0.5670 0.3872 -0.0639 0.9972
-0.5652 0.3622 -0.0625 0.9973
-0.5643 0.3501 -0.0618 0.9973
-0.5624 0.3266 -0.0605 0.9974
-0.5615 0.3152 -0.0599 0.9974
-0.5604 0.3039 -0.0593 0.9974
-0.5595 0.2928 -0.0588 0.9975
-0.5573 0.2613 -0.0573 0.9975
-0.5567 0.2511 -0.0568 0.9975
-0.5553 0.2312 -0.0560 0.9976
-0.5546 0.2215 -0.0556 0.9976
-0.5523 0.1929 -0.0544 0.9977
-0.5512 0.1746 -0.0538 0.9977
-0.5506 0.1657 -0.0535 0.9977
-0.5500 0.1568 -0.0532 0.9977
-0.5480 0.1305 -0.0524 0.9977
-0.5466 0.1134 -0.0520 0.9978
-0.5458 0.1049 -0.0517 0.9978
-0.5450 0.0966 -0.0515 0.9978
-0.5444 0.0883 -0.0513 0.9978
-0.5430 0.0718 -0.0510 0.9978
-0.5401 0.0395 -0.0504 0.9978
-0.5393 0.0316 -0.0503 0.9978
-0.5367 0.0079 -0.0500 0.9978
-0.5179 0.0000 -0.0540 0.9979
-0.5219 -0.0382 -0.0546 0.9979
-0.5226 -0.0459 -0.0547 0.9979
-0.5240 -0.0615 -0.0550 0.9979
-0.5246 -0.0694 -0.0552 0.9979
-0.5257 -0.0852 -0.0555 0.9979
-0.5267 -0.1013 -0.0559 0.9978
-0.5272 -0.1094 -0.0561 0.9978
-0.5290 -0.1342 -0.0569 0.9978
-0.5301 -0.1511 -0.0575 0.9978
-0.5310 -0.1682 -0.0581 0.9978
-0.5314 -0.1770 -0.0584 0.9977
-0.5318 -0.1857 -0.0587 0.9977
-0.5329 -0.2038 -0.0595 0.9977
-0.5335 -0.2130 -0.0599 0.9977
-0.5340 -0.2223 -0.0603 0.9977
-0.5345 -0.2318 -0.0607 0.9977
-0.5350 -0.2413 -0.0612 0.9976
-0.5358 -0.2608 -0.0621 0.9976
-0.5362 -0.2707 -0.0626 0.9976
-0.5365 -0.2808 -0.0631 0.9976
-0.5372 -0.3014 -0.0642 0.9975
-0.5386 -0.3233 -0.0655 0.9975
-0.5398 -0.3459 -0.0668 0.9974
-0.5414 -0.3814 -0.0690 0.9973
-0.5424 -0.4063 -0.0707 0.9973
-0.5428 -0.4191 -0.0715 0.9972
-0.5432 -0.4323 -0.0724 0.9972
-0.5436 -0.4457 -0.0733 0.9972
-0.5442 -0.4734 -0.0752 0.9971
-0.5444 -0.4878 -0.0762 0.9971
-0.5416 -0.5455 -0.0802 0.9969
-0.5419 -0.5621 -0.0814 0.9969
-0.6320 -0.6749 -0.0964 0.9963
-6.2216 -7.2577 -0.9967 0.9623
-6.1146 -7.3474 -0.9967 0.9623
-6.0063 -7.4357 -0.9966 0.9623
-5.8968 -7.5223 -0.9966 0.9623
-5.7860 -7.6073 -0.9965 0.9623
-5.6739 -7.6907 -0.9965 0.9623
-5.5607 -7.7725 -0.9964 0.9623
-5.4463 -7.8525 -0.9964 0.9623
-5.2141 -8.0075 -0.9963 0.9623
-4.9774 -8.1557 -0.9962 0.9623
-3.2657 -8.0080 -0.9017 0.9658
-3.1289 -8.0050 -0.8961 0.9660
-2.1431 -9.2998 -0.9951 0.9623
-2.0068 -9.3296 -0.9950 0.9623
-1.8702 -9.3575 -0.9949 0.9624
-1.5958 -9.4071 -0.9948 0.9624
-1.0433 -9.4821 -0.9946 0.9624
-0.9046 -9.4958 -0.9946 0.9624
0.0696 -9.5348 -0.9942 0.9624
0.2090 -9.5322 -0.9941 0.9624
0.4873 -9.5209 -0.9940 0.9624
0.6263 -9.5123 -0.9939 0.9624
0.7653 -9.5016 -0.9939 0.9624
1.1807 -9.4573 -0.9937 0.9624
1.3187 -9.4385 -0.9937 0.9624
1.4563 -9.4177 -0.9936 0.9624
1.7307 -9.3701 -0.9935 0.9624
1.8674 -9.3432 -0.9934 0.9624
0.6453 -3.0000 -0.3199 0.9877
0.6842 -2.9693 -0.3177 0.9878
0.7606 -2.9093 -0.3135 0.9880
0.7980 -2.8799 -0.3116 0.9881
0.7505 -2.5622 -0.2784 0.9893
0.8402 -2.5859 -0.2835 0.9891
0.9784 -2.5032 -0.2802 0.9892
1.0222 -2.5066 -0.2822 0.9892
1.0238 -2.4092 -0.2729 0.9895
1.0441 -2.3605 -0.2691 0.9897
1.1787 -2.5629 -0.2941 0.9887
1.2004 -2.5127 -0.2903 0.9889
1.4627 -2.4774 -0.3000 0.9885
1.4947 -2.4492 -0.2992 0.9885
5.0752 -8.0491 -0.9921 0.9625
5.4223 -7.8179 -0.9920 0.9625
5.5357 -7.7375 -0.9920 0.9625
5.6479 -7.6554 -0.9919 0.9625
5.7589 -7.5718 -0.9919 0.9625
5.8687 -7.4865 -0.9918 0.9625
6.2949 -7.1296 -0.9916 0.9625
6.3981 -7.0366 -0.9916 0.9625
6.6995 -6.7487 -0.9915 0.9625
6.7971 -6.6498 -0.9914 0.9625
4.0866 -3.7708 -0.5798 0.9779
3.8564 -3.3550 -0.5330 0.9797
3.8607 -3.2610 -0.5269 0.9799
3.6832 -2.7591 -0.4798 0.9817
3.7057 -2.6923 -0.4776 0.9817
3.8491 -2.4664 -0.4766 0.9818
3.9628 -2.3009 -0.4778 0.9817
3.9427 -2.2127 -0.4714 0.9820
4.3283 -2.3467 -0.5133 0.9804
4.3979 -2.3019 -0.5176 0.9802
4.5044 -2.2745 -0.5261 0.9799
4.5097 -2.1141 -0.5193 0.9802
4.5123 -2.0354 -0.5161 0.9803
6.9521 -2.8945 -0.7852 0.9702
7.0379 -2.4586 -0.7773 0.9705
7.1283 -2.3738 -0.7833 0.9702
9.0324 -2.4320 -0.9753 0.9631
9.0669 -2.2997 -0.9753 0.9631
9.1300 -2.0338 -0.9753 0.9631
9.1586 -1.9002 -0.9752 0.9631
9.3283 -1.7936 -0.9904 0.9625
9.3534 -1.6571 -0.9904 0.9625
9.3976 -1.3831 -0.9904 0.9625
9.4168 -1.2455 -0.9904 0.9625
9.4894 -0.4162 -0.9904 0.9625
9.4944 0.2775 -0.9904 0.9625
9.4894 0.4162 -0.9904 0.9625
9.4621 0.8317 -0.9904 0.9625
9.4490 0.9699 -0.9904 0.9625
9.3534 1.6571 -0.9904 0.9625
9.3283 1.7936 -0.9904 0.9625
9.2721 2.0655 -0.9904 0.9625
9.2410 2.2007 -0.9905 0.9625
9.2080 2.3356 -0.9905 0.9625
9.1730 2.4699 -0.9905 0.9625
9.0972 2.7370 -0.9905 0.9625
9.0564 2.8696 -0.9905 0.9625
8.7714 3.6520 -0.9906 0.9625
8.7173 3.7798 -0.9907 0.9625
8.6035 4.0332 -0.9907 0.9625
8.5438 4.1585 -0.9907 0.9625
7.8749 4.1218 -0.9267 0.9649
7.6098 4.1258 -0.9025 0.9658
7.4836 4.2000 -0.8948 0.9661
7.5093 4.3599 -0.9054 0.9657
7.5333 4.5223 -0.9161 0.9653
7.9268 5.2443 -0.9910 0.9625
7.8496 5.3598 -0.9910 0.9625
7.7707 5.4741 -0.9910 0.9625
7.6901 5.5872 -0.9911 0.9625
7.6079 5.6991 -0.9911 0.9625
6.9880 6.4478 -0.9914 0.9625
6.8932 6.5495 -0.9914 0.9625
6.2948 7.1296 -0.9916 0.9625
6.1903 7.2211 -0.9917 0.9625
6.0844 7.3112 -0.9917 0.9625
5.9771 7.3996 -0.9918 0.9625
5.5357 7.7375 -0.9919 0.9625
5.3077 7.8967 -0.9920 0.9625
5.1920 7.9737 -0.9921 0.9625
4.8676 7.9755 -0.9742 0.9631
4.2826 7.7632 -0.9244 0.9650
4.0193 7.8176 -0.9165 0.9653
3.9081 7.8824 -0.9173 0.9652
3.7843 7.9214 -0.9153 0.9653
3.2730 8.0258 -0.9037 0.9657
3.0812 7.8830 -0.8825 0.9665
3.0210 8.0750 -0.8989 0.9659
2.7690 8.1166 -0.8942 0.9661
2.6394 8.1234 -0.8906 0.9662
2.0706 7.9202 -0.8535 0.9676
2.0037 8.1487 -0.8749 0.9668
1.7595 8.1799 -0.8724 0.9669
1.6029 8.0199 -0.8527 0.9676
1.5630 8.4622 -0.8972 0.9660
1.3786 8.9146 -0.9405 0.9644
1.1594 9.2857 -0.9757 0.9631
0.8877 9.3168 -0.9758 0.9631
0.6151 9.3398 -0.9759 0.9631
0.3452 6.7438 -0.7041 0.9732
-0.0865 3.9472 -0.4116 0.9842
-0.1390 3.8025 -0.3967 0.9848
-0.1860 3.6334 -0.3793 0.9855
-0.2362 3.5877 -0.3749 0.9856
-0.2854 3.5437 -0.3707 0.9858
-0.3335 3.5006 -0.3666 0.9860
-0.4350 3.4841 -0.3661 0.9860
-0.4868 3.4845 -0.3668 0.9859
-0.5913 3.4854 -0.3686 0.9859
-0.6982 3.4934 -0.3714 0.9858
-0.8079 3.5059 -0.3751 0.9856
-0.8636 3.5121 -0.3771 0.9856
-0.9199 3.5185 -0.3792 0.9855
-0.9768 3.5248 -0.3814 0.9854
-1.0947 3.5446 -0.3868 0.9852
-1.4834 3.6376 -0.4096 0.9843
-2.8514 6.2002 -0.7115 0.9729
-2.9265 5.9026 -0.6869 0.9739
-2.9601 5.7574 -0.6750 0.9743
-3.0611 5.1847 -0.6278 0.9761
-3.1525 4.5453 -0.5767 0.9780
-3.1708 4.0449 -0.5359 0.9795
-3.1863 3.9446 -0.5287 0.9798
-3.2014 3.8468 -0.5218 0.9801
-3.2303 3.6587 -0.5089 0.9806
-0.6320 0.6750 -0.0964 0.9963
-0.5420 0.5621 -0.0814 0.9969
-0.5439 0.5018 -0.0772 0.9970
-0.5442 0.4735 -0.0752 0.9971
-0.5432 0.4323 -0.0724 0.9972
-0.5428 0.4192 -0.0715 0.9972
-0.5424 0.4063 -0.0707 0.9973
-0.5419 0.3937 -0.0698 0.9973
-0.5409 0.3693 -0.0683 0.9974
-0.5398 0.3459 -0.0668 0.9974
-0.5392 0.3345 -0.0662 0.9975
-0.5372 0.3015 -0.0642 0.9975
-0.5354 0.2510 -0.0617 0.9976
-0.5350 0.2413 -0.0612 0.9976
-0.5345 0.2318 -0.0607 0.9977
-0.5340 0.2223 -0.0603 0.9977
-0.5329 0.2038 -0.0595 0.9977
-0.5318 0.1858 -0.0587 0.9977
-0.5314 0.1770 -0.0584 0.9977
-0.5310 0.1683 -0.0581 0.9978
-0.5306 0.1596 -0.0578 0.9978
-0.5296 0.1426 -0.0572 0.9978
-0.5285 0.1259 -0.0566 0.9978
-0.5272 0.1094 -0.0561 0.9978
-0.5262 0.0933 -0.0557 0.9979
-0.5257 0.0852 -0.0555 0.9979
-0.5246 0.0694 -0.0552 0.9979
-0.5239 0.0616 -0.0550 0.9979
-0.5212 0.0305 -0.0544 0.9979
-0.5204 0.0228 -0.0543 0.9979
-0.5196 0.0152 -0.0542 0.9979
-0.5012 0.0000 -0.0579 0.9980
-0.5020 -0.0073 -0.0580 0.9980
-0.5028 -0.0147 -0.0581 0.9980
-0.5035 -0.0221 -0.0582 0.9980
-0.5067 -0.0595 -0.0589 0.9979
-0.5073 -0.0671 -0.0591 0.9979
-0.5083 -0.0824 -0.0595 0.9979
-0.5091 -0.0979 -0.0599 0.9979
-0.5095 -0.1057 -0.0601 0.9979
-0.5099 -0.1136 -0.0603 0.9979
-0.5102 -0.1215 -0.0606 0.9979
-0.5111 -0.1376 -0.0611 0.9979
-0.5119 -0.1540 -0.0617 0.9978
-0.5122 -0.1623 -0.0620 0.9978
-0.5130 -0.1877 -0.0631 0.9978
-0.5151 -0.2415 -0.0657 0.9977
-0.5155 -0.2603 -0.0667 0.9977
-0.5157 -0.2699 -0.0672 0.9977
-0.5158 -0.2796 -0.0678 0.9976
-0.5159 -0.2895 -0.0683 0.9976
-0.5168 -0.3419 -0.0716 0.9975
-0.5174 -0.3759 -0.0739 0.9974
-0.5176 -0.3877 -0.0747 0.9974
-0.5179 -0.4374 -0.0783 0.9973
-0.5177 -0.4638 -0.0803 0.9972
-0.5175 -0.4775 -0.0813 0.9972
-0.5172 -0.4914 -0.0824 0.9971
-0.5169 -0.5057 -0.0835 0.9971
-5.3229 -6.7902 -0.9963 0.9659
-5.0196 -7.0161 -0.9962 0.9659
-4.9163 -7.0884 -0.9962 0.9659
-4.8120 -7.1591 -0.9961 0.9659
-4.7067 -7.2284 -0.9961 0.9659
-4.6004 -7.2961 -0.9960 0.9659
-4.4931 -7.3622 -0.9960 0.9659
-4.2757 -7.4896 -0.9959 0.9659
-4.1656 -7.5510 -0.9959 0.9659
-3.8302 -7.7252 -0.9957 0.9659
-3.0204 -8.0733 -0.9954 0.9659
-2.9019 -8.1161 -0.9954 0.9659
-2.6633 -8.1967 -0.9953 0.9659
-2.5431 -8.2343 -0.9952 0.9659
-1.8118 -8.4229 -0.9949 0.9659
-1.5648 -8.4714 -0.9948 0.9659
-1.4407 -8.4929 -0.9948 0.9659
-1.3164 -8.5126 -0.9947 0.9659
-1.1918 -8.5305 -0.9947 0.9659
-1.0670 -8.5466 -0.9946 0.9659
-0.8167 -8.5732 -0.9945 0.9659
-0.6914 -8.5838 -0.9945 0.9659
-0.1887 -8.6078 -0.9943 0.9659
-0.0629 -8.6092 -0.9942 0.9659
0.0629 -8.6088 -0.9942 0.9659
0.6909 -8.5791 -0.9939 0.9659
0.8162 -8.5675 -0.9939 0.9659
1.0661 -8.5392 -0.9938 0.9659
1.1907 -8.5223 -0.9937 0.9659
1.5628 -8.4606 -0.9936 0.9659
1.6861 -8.4365 -0.9935 0.9660
1.8091 -8.4105 -0.9935 0.9660
0.6861 -2.9774 -0.3528 0.9878
0.7246 -2.9471 -0.3505 0.9879
0.8002 -2.8876 -0.3460 0.9880
0.7960 -2.5773 -0.3115 0.9892
0.8892 -2.6065 -0.3180 0.9890
0.8792 -2.4591 -0.3016 0.9895
0.9179 -2.4534 -0.3025 0.9895
1.0530 -2.3807 -0.3006 0.9896
1.1830 -2.5723 -0.3270 0.9887
1.3085 -2.4561 -0.3214 0.9889
1.3724 -2.4878 -0.3281 0.9886
1.6003 -2.6222 -0.3547 0.9877
4.6887 -7.2009 -0.9923 0.9660
4.8968 -7.0602 -0.9922 0.9660
5.1005 -6.9135 -0.9921 0.9660
5.3979 -6.6825 -0.9920 0.9660
5.5905 -6.5214 -0.9919 0.9660
5.7782 -6.3548 -0.9919 0.9660
5.8702 -6.2695 -0.9918 0.9660
5.9610 -6.1828 -0.9918 0.9660
6.0504 -6.0948 -0.9917 0.9660
6.1386 -6.0055 -0.9917 0.9660
6.2255 -5.9150 -0.9917 0.9660
6.3111 -5.8232 -0.9916 0.9660
3.7788 -3.2875 -0.5784 0.9800
3.8280 -3.2332 -0.5786 0.9800
3.7854 -3.1037 -0.5653 0.9805
3.7688 -2.9102 -0.5499 0.9810
3.8125 -2.8560 -0.5501 0.9810
3.6418 -2.4866 -0.5092 0.9824
3.7715 -2.4952 -0.5222 0.9820
3.9784 -2.4680 -0.5407 0.9813
4.2353 -2.3769 -0.5608 0.9806
4.3513 -2.2775 -0.5672 0.9804
4.4191 -2.1509 -0.5676 0.9804
4.4981 -2.0290 -0.5698 0.9803
4.7681 -2.0675 -0.6002 0.9793
7.3826 -2.9479 -0.9180 0.9685
7.1280 -2.7262 -0.8813 0.9697
7.0756 -2.5883 -0.8700 0.9701
6.8598 -2.3963 -0.8391 0.9712
7.6395 -2.4206 -0.9254 0.9682
8.0907 -2.4341 -0.9757 0.9666
8.1253 -2.3156 -0.9757 0.9666
8.1581 -2.1966 -0.9757 0.9666
8.1893 -2.0771 -0.9756 0.9666
8.2187 -1.9572 -0.9756 0.9666
8.3747 -1.8655 -0.9908 0.9660
8.4009 -1.7430 -0.9908 0.9660
8.4690 -1.3731 -0.9908 0.9660
8.5054 -1.1250 -0.9908 0.9660
8.5464 -0.7512 -0.9907 0.9660
8.5755 -0.2507 -0.9907 0.9660
8.5783 -0.1254 -0.9907 0.9660
8.5783 0.1254 -0.9907 0.9660
8.5646 0.5011 -0.9907 0.9660
8.5464 0.7512 -0.9907 0.9660
8.5345 0.8761 -0.9907 0.9660
8.5208 1.0006 -0.9907 0.9660
8.4881 1.2492 -0.9908 0.9660
8.4690 1.3730 -0.9908 0.9660
8.4481 1.4967 -0.9908 0.9660
8.4254 1.6200 -0.9908 0.9660
8.4009 1.7430 -0.9908 0.9660
8.3746 1.8655 -0.9908 0.9660
8.3466 1.9877 -0.9908 0.9660
8.3168 2.1095 -0.9908 0.9660
8.2852 2.2308 -0.9908 0.9660
8.2518 2.3516 -0.9909 0.9660
8.2167 2.4720 -0.9909 0.9660
8.1798 2.5919 -0.9909 0.9660
8.1411 2.7111 -0.9909 0.9660
8.1008 2.8299 -0.9909 0.9660
7.9695 3.1823 -0.9910 0.9660
7.8228 3.5287 -0.9910 0.9660
7.6612 3.8684 -0.9911 0.9660
7.5452 4.0908 -0.9911 0.9660
7.4848 4.2007 -0.9912 0.9660
7.4228 4.3097 -0.9912 0.9660
7.3592 4.4178 -0.9912 0.9660
7.2941 4.5250 -0.9912 0.9660
7.0894 4.8407 -0.9913 0.9660
7.0181 4.9439 -0.9913 0.9660
6.9453 5.0461 -0.9914 0.9660
6.7953 5.2472 -0.9914 0.9660
6.7181 5.3461 -0.9915 0.9660
6.6395 5.4439 -0.9915 0.9660
6.5595 5.5405 -0.9915 0.9660
6.3110 5.8232 -0.9916 0.9660
6.1386 6.0055 -0.9917 0.9660
5.9609 6.1828 -0.9918 0.9660
5.8702 6.2694 -0.9918 0.9660
5.6849 6.4387 -0.9919 0.9660
5.2008 6.8379 -0.9921 0.9660
4.9992 6.9876 -0.9922 0.9660
4.8967 7.0601 -0.9922 0.9660
4.4767 7.3354 -0.9924 0.9660
4.1515 7.5255 -0.9925 0.9660
4.0413 7.5857 -0.9925 0.9660
3.8183 7.7012 -0.9926 0.9660
