ply
format ascii 1.0
element vertex 1597
property float32 x
property float32 y
property float32 z
property float32 I
end_header
-2.5883 -5.6281 -0.9952 0.9752
-2.4227 -5.7009 -0.9952 0.9752
-2.3390 -5.7355 -0.9951 0.9752
-1.9997 -5.8615 -0.9950 0.9752
-1.8274 -5.9171 -0.9949 0.9752
-1.5662 -5.9909 -0.9948 0.9752
-1.3020 -6.0531 -0.9947 0.9752
-1.2134 -6.0712 -0.9947 0.9752
-1.0354 -6.1036 -0.9946 0.9752
-0.8565 -6.1309 -0.9945 0.9752
-0.6770 -6.1528 -0.9945 0.9752
-0.3164 -6.1810 -0.9943 0.9752
-0.0452 -6.1882 -0.9942 0.9752
0.0452 -6.1880 -0.9942 0.9752
0.2260 -6.1836 -0.9941 0.9752
0.3163 -6.1794 -0.9941 0.9752
0.7664 -6.1386 -0.9939 0.9752
0.8559 -6.1266 -0.9938 0.9752
1.0346 -6.0985 -0.9938 0.9753
1.1235 -6.0825 -0.9937 0.9753
1.2122 -6.0652 -0.9937 0.9753
1.3888 -6.0268 -0.9936 0.9753
1.4767 -6.0057 -0.9936 0.9753
1.5642 -5.9832 -0.9936 0.9753
1.6514 -5.9595 -0.9935 0.9753
1.9108 -5.8808 -0.9934 0.9753
2.0817 -5.8221 -0.9933 0.9753
2.1664 -5.7908 -0.9933 0.9753
2.3346 -5.7246 -0.9932 0.9753
1.3699 -2.9787 -0.5267 0.9868
1.4085 -2.9485 -0.5250 0.9868
1.4469 -2.9184 -0.5233 0.9869
1.4851 -2.8886 -0.5218 0.9869
1.5230 -2.8589 -0.5204 0.9870
1.4598 -2.5571 -0.4731 0.9881
1.4845 -2.5144 -0.4691 0.9882
1.5628 -2.5607 -0.4820 0.9879
1.6456 -2.6098 -0.4957 0.9876
1.6991 -2.4498 -0.4790 0.9880
1.7400 -2.4322 -0.4804 0.9880
1.7486 -2.3703 -0.4732 0.9881
1.9242 -2.5299 -0.5107 0.9872
3.9521 -4.7489 -0.9926 0.9753
4.0210 -4.6906 -0.9926 0.9753
4.0889 -4.6312 -0.9925 0.9753
4.3520 -4.3839 -0.9924 0.9753
4.5396 -4.1887 -0.9923 0.9753
4.7761 -3.9160 -0.9923 0.9753
4.8327 -3.8457 -0.9922 0.9753
4.8133 -3.7167 -0.9770 0.9757
4.8670 -3.6459 -0.9770 0.9757
4.4424 -3.2276 -0.8822 0.9780
4.3393 -3.0569 -0.8528 0.9787
4.6233 -3.1569 -0.8994 0.9776
4.2636 -2.7321 -0.8135 0.9797
4.3150 -2.6769 -0.8158 0.9796
4.6727 -2.8051 -0.8756 0.9782
5.3021 -2.9757 -0.9768 0.9757
4.7725 -2.4980 -0.8654 0.9784
5.4665 -2.6607 -0.9767 0.9757
5.5417 -2.4998 -0.9767 0.9757
5.5776 -2.4185 -0.9767 0.9757
5.6457 -2.2544 -0.9767 0.9757
5.9116 -1.7786 -0.9918 0.9753
5.9369 -1.6920 -0.9918 0.9753
5.9609 -1.6050 -0.9918 0.9753
6.0052 -1.4301 -0.9918 0.9753
6.0443 -1.2540 -0.9917 0.9753
6.0783 -1.0769 -0.9917 0.9753
6.0933 -0.9880 -0.9917 0.9753
6.1071 -0.8988 -0.9917 0.9753
6.1195 -0.8094 -0.9917 0.9753
6.1307 -0.7200 -0.9917 0.9753
6.1490 -0.5405 -0.9917 0.9753
6.1622 -0.3606 -0.9917 0.9753
6.1668 0.2705 -0.9917 0.9753
6.1490 0.5405 -0.9917 0.9753
6.1307 0.7199 -0.9917 0.9753
6.1071 0.8988 -0.9917 0.9753
6.0933 0.9879 -0.9917 0.9753
6.0783 1.0768 -0.9917 0.9753
6.0620 1.1656 -0.9917 0.9753
6.0052 1.4301 -0.9918 0.9753
5.9609 1.6050 -0.9918 0.9753
5.9369 1.6920 -0.9918 0.9753
5.8572 1.9505 -0.9918 0.9753
5.7664 2.2054 -0.9919 0.9753
5.6644 2.4561 -0.9919 0.9753
5.6280 2.5387 -0.9919 0.9753
5.5904 2.6206 -0.9919 0.9753
5.5516 2.7021 -0.9919 0.9753
5.5116 2.7830 -0.9920 0.9753
5.4704 2.8632 -0.9920 0.9753
5.2473 3.2552 -0.9921 0.9753
5.1502 3.4073 -0.9921 0.9753
5.0999 3.4823 -0.9921 0.9753
4.9962 3.6300 -0.9922 0.9753
4.8882 3.7745 -0.9922 0.9753
4.7760 3.9159 -0.9923 0.9753
4.6598 4.0540 -0.9923 0.9753
4.6002 4.1218 -0.9923 0.9753
4.4155 4.3197 -0.9924 0.9753
4.3520 4.3839 -0.9924 0.9753
4.2876 4.4471 -0.9924 0.9753
4.2223 4.5095 -0.9925 0.9753
4.0889 4.6311 -0.9925 0.9753
4.0209 4.6905 -0.9926 0.9753
3.7405 4.9179 -0.9927 0.9753
3.4472 5.1287 -0.9928 0.9753
3.3720 5.1786 -0.9928 0.9753
3.1421 5.3220 -0.9929 0.9753
2.9855 5.4118 -0.9930 0.9753
2.8262 5.4971 -0.9930 0.9753
2.6646 5.5777 -0.9931 0.9753
2.5829 5.6162 -0.9931 0.9753
2.5007 5.6536 -0.9932 0.9753
2.4179 5.6897 -0.9932 0.9753
2.3345 5.7246 -0.9932 0.9753
2.1664 5.7908 -0.9933 0.9753
1.9965 5.8520 -0.9934 0.9753
1.9108 5.8807 -0.9934 0.9753
1.8247 5.9083 -0.9934 0.9753
1.4767 6.0056 -0.9936 0.9753
1.2122 6.0652 -0.9937 0.9753
1.0345 6.0984 -0.9938 0.9753
0.9454 6.1132 -0.9938 0.9753
0.8560 6.1265 -0.9938 0.9753
0.3343 3.5089 -0.5663 0.9858
0.2806 3.4835 -0.5615 0.9859
0.1789 3.4946 -0.5622 0.9859
0.0768 3.5034 -0.5630 0.9859
0.0256 3.5040 -0.5630 0.9859
-0.0770 3.5115 -0.5643 0.9859
-0.1804 3.5244 -0.5670 0.9858
-0.2327 3.5329 -0.5688 0.9858
-0.2852 3.5415 -0.5708 0.9857
-0.3382 3.5503 -0.5730 0.9857
-0.4454 3.5677 -0.5776 0.9855
-0.4997 3.5764 -0.5802 0.9855
-0.5545 3.5854 -0.5829 0.9854
-0.6099 3.5951 -0.5858 0.9853
-0.7238 3.6214 -0.5933 0.9851
-0.8413 3.6511 -0.6020 0.9849
-0.9007 3.6631 -0.6060 0.9848
-1.7407 5.9429 -0.9949 0.9752
-2.0852 5.8319 -0.9950 0.9752
-2.1703 5.8010 -0.9951 0.9752
-2.2548 5.7689 -0.9951 0.9752
-2.3390 5.7355 -0.9951 0.9752
-2.4226 5.7009 -0.9952 0.9752
-2.5057 5.6651 -0.9952 0.9752
-2.5883 5.6281 -0.9952 0.9752
-2.6704 5.5899 -0.9953 0.9752
-2.7519 5.5504 -0.9953 0.9752
-2.8328 5.5098 -0.9953 0.9752
-2.9131 5.4680 -0.9954 0.9752
-2.9927 5.4250 -0.9954 0.9752
-3.0718 5.3809 -0.9954 0.9752
-3.1502 5.3355 -0.9955 0.9752
-0.4210 0.5536 -0.1117 0.9972
-0.4228 0.5234 -0.1081 0.9973
-0.4236 0.5089 -0.1064 0.9973
-0.4242 0.4949 -0.1047 0.9974
-0.4260 0.4549 -0.1001 0.9975
-0.4264 0.4423 -0.0987 0.9975
-0.4287 0.4193 -0.0963 0.9976
-0.4299 0.4084 -0.0953 0.9976
-0.4311 0.3977 -0.0942 0.9976
-0.4321 0.3872 -0.0932 0.9977
-0.4377 0.3380 -0.0888 0.9978
-0.4387 0.3287 -0.0881 0.9978
-0.4406 0.3104 -0.0866 0.9978
-0.4414 0.3014 -0.0859 0.9978
-0.4429 0.2837 -0.0845 0.9979
-0.4456 0.2416 -0.0814 0.9979
-0.4463 0.2254 -0.0803 0.9980
-0.4469 0.2094 -0.0793 0.9980
-0.4481 0.1639 -0.0766 0.9981
-0.4483 0.1566 -0.0763 0.9981
-0.4485 0.1493 -0.0759 0.9981
-0.4488 0.1350 -0.0753 0.9981
-0.4489 0.1279 -0.0750 0.9981
-0.4490 0.1069 -0.0742 0.9981
-0.4490 0.1000 -0.0739 0.9981
-0.4487 0.0863 -0.0734 0.9982
-0.4483 0.0727 -0.0730 0.9982
-0.4481 0.0659 -0.0728 0.9982
-0.4478 0.0592 -0.0726 0.9982
-0.4475 0.0525 -0.0724 0.9982
-0.4462 0.0326 -0.0719 0.9982
-0.4457 0.0261 -0.0717 0.9982
-0.4315 -0.0063 -0.0743 0.9982
-0.4321 -0.0127 -0.0744 0.9982
-0.4326 -0.0190 -0.0745 0.9982
-0.4331 -0.0254 -0.0746 0.9982
-0.4339 -0.0382 -0.0749 0.9982
-0.4343 -0.0446 -0.0751 0.9982
-0.4349 -0.0575 -0.0755 0.9982
-0.4352 -0.0641 -0.0757 0.9982
-0.4356 -0.0772 -0.0761 0.9982
-0.4357 -0.0838 -0.0763 0.9982
-0.4358 -0.0904 -0.0766 0.9982
-0.4358 -0.1105 -0.0774 0.9982
-0.4347 -0.1519 -0.0792 0.9981
-0.4344 -0.1589 -0.0796 0.9981
-0.4340 -0.1660 -0.0799 0.9981
-0.4337 -0.1732 -0.0803 0.9981
-0.4334 -0.1804 -0.0808 0.9981
-0.4330 -0.1878 -0.0812 0.9981
-0.4321 -0.2104 -0.0827 0.9981
-0.4317 -0.2180 -0.0832 0.9980
-0.4313 -0.2257 -0.0838 0.9980
-0.4308 -0.2336 -0.0843 0.9980
-0.4284 -0.2658 -0.0867 0.9980
-0.4269 -0.2825 -0.0881 0.9979
-0.4260 -0.2909 -0.0887 0.9979
-0.4251 -0.2995 -0.0895 0.9979
-0.4241 -0.3081 -0.0902 0.9979
-0.4219 -0.3258 -0.0917 0.9978
-0.4181 -0.3532 -0.0942 0.9978
-0.4167 -0.3625 -0.0950 0.9978
-0.4157 -0.3725 -0.0960 0.9977
-0.4148 -0.3827 -0.0971 0.9977
-0.4139 -0.4049 -0.0996 0.9977
-0.4134 -0.4164 -0.1010 0.9976
-0.4115 -0.4525 -0.1052 0.9975
-0.4108 -0.4652 -0.1068 0.9975
-0.4091 -0.4915 -0.1100 0.9974
-0.4081 -0.5052 -0.1117 0.9974
-0.4071 -0.5193 -0.1135 0.9973
-0.4034 -0.5639 -0.1193 0.9972
-0.4236 -0.6108 -0.1279 0.9970
-0.4671 -0.6950 -0.1441 0.9966
-2.9415 -4.9820 -0.9954 0.9768
-2.7201 -5.1057 -0.9953 0.9768
-2.5695 -5.1826 -0.9952 0.9768
-2.4169 -5.2552 -0.9952 0.9768
-2.3398 -5.2898 -0.9951 0.9768
-2.2621 -5.3232 -0.9951 0.9768
-2.1840 -5.3555 -0.9951 0.9768
-2.0265 -5.4167 -0.9950 0.9768
-1.9471 -5.4456 -0.9950 0.9768
-1.6254 -5.5493 -0.9948 0.9768
-1.4625 -5.5941 -0.9948 0.9768
-1.3805 -5.6146 -0.9947 0.9768
-1.1330 -5.6692 -0.9946 0.9768
-1.0501 -5.6850 -0.9946 0.9768
-0.9669 -5.6995 -0.9946 0.9768
-0.6322 -5.7454 -0.9944 0.9768
-0.5482 -5.7539 -0.9944 0.9768
-0.4640 -5.7611 -0.9944 0.9768
-0.1267 -5.7775 -0.9942 0.9768
-0.0423 -5.7786 -0.9942 0.9768
0.1266 -5.7769 -0.9941 0.9768
0.4638 -5.7589 -0.9940 0.9768
0.7156 -5.7325 -0.9939 0.9768
0.7993 -5.7212 -0.9939 0.9768
1.0491 -5.6801 -0.9938 0.9768
1.2146 -5.6466 -0.9937 0.9768
1.2969 -5.6281 -0.9937 0.9768
1.3790 -5.6083 -0.9936 0.9768
1.4607 -5.5874 -0.9936 0.9768
1.6233 -5.5420 -0.9935 0.9768
1.7844 -5.4918 -0.9935 0.9768
1.9439 -5.4370 -0.9934 0.9768
2.0231 -5.4078 -0.9934 0.9768
2.1019 -5.3775 -0.9933 0.9768
2.1802 -5.3461 -0.9933 0.9768
1.4122 -2.9561 -0.5636 0.9868
1.5596 -2.8271 -0.5555 0.9870
1.4970 -2.5356 -0.5066 0.9881
1.5763 -2.5830 -0.5206 0.9878
1.6602 -2.6331 -0.5355 0.9874
1.7344 -2.5804 -0.5349 0.9875
1.7098 -2.4653 -0.5162 0.9879
1.7520 -2.4489 -0.5180 0.9879
1.7605 -2.3863 -0.5102 0.9880
1.7688 -2.3256 -0.5027 0.9882
1.9729 -2.4425 -0.5402 0.9873
3.7552 -4.3805 -0.9927 0.9769
3.8187 -4.3251 -0.9926 0.9769
3.8814 -4.2687 -0.9926 0.9769
4.0043 -4.1532 -0.9926 0.9769
4.0644 -4.0943 -0.9925 0.9769
4.1237 -4.0343 -0.9925 0.9769
4.2962 -3.8495 -0.9924 0.9769
4.3921 -3.6012 -0.9772 0.9772
4.4953 -3.4712 -0.9771 0.9772
4.6428 -3.2707 -0.9771 0.9772
4.5294 -2.9967 -0.9344 0.9782
4.6309 -2.7800 -0.9293 0.9783
4.7650 -2.7666 -0.9480 0.9779
4.9045 -2.7525 -0.9676 0.9774
4.9918 -2.7064 -0.9769 0.9772
5.0308 -2.6332 -0.9769 0.9772
5.1054 -2.4850 -0.9769 0.9772
5.1757 -2.3346 -0.9769 0.9772
5.2092 -2.2587 -0.9768 0.9772
5.2416 -2.1823 -0.9768 0.9772
5.2728 -2.1055 -0.9768 0.9772
5.3319 -1.9505 -0.9768 0.9772
5.4345 -1.8985 -0.9904 0.9769
5.4964 -1.7416 -0.9920 0.9769
5.5212 -1.6611 -0.9920 0.9769
5.5448 -1.5802 -0.9919 0.9769
5.5885 -1.4175 -0.9919 0.9769
5.6086 -1.3357 -0.9919 0.9769
5.6275 -1.2536 -0.9919 0.9769
5.6616 -1.0886 -0.9919 0.9769
5.6909 -0.9227 -0.9919 0.9769
5.7497 -0.4209 -0.9919 0.9769
5.7553 -0.3368 -0.9919 0.9769
5.7596 -0.2526 -0.9919 0.9769
5.7645 0.0843 -0.9919 0.9769
5.7626 0.1684 -0.9919 0.9769
5.7553 0.3368 -0.9919 0.9769
5.7497 0.4208 -0.9919 0.9769
5.7429 0.5048 -0.9919 0.9769
5.7154 0.7560 -0.9919 0.9769
5.7038 0.8394 -0.9919 0.9769
5.6909 0.9227 -0.9919 0.9769
5.6451 1.1712 -0.9919 0.9769
5.6274 1.2536 -0.9919 0.9769
5.6086 1.3356 -0.9919 0.9769
5.5885 1.4175 -0.9919 0.9769
5.5672 1.4990 -0.9919 0.9769
5.5448 1.5802 -0.9919 0.9769
5.4964 1.7416 -0.9920 0.9769
5.4432 1.9014 -0.9920 0.9769
5.3855 2.0598 -0.9920 0.9769
5.3231 2.2163 -0.9920 0.9769
5.2903 2.2939 -0.9920 0.9769
5.2562 2.3710 -0.9921 0.9769
5.1849 2.5236 -0.9921 0.9769
5.1475 2.5992 -0.9921 0.9769
5.1091 2.6741 -0.9921 0.9769
5.0289 2.8224 -0.9921 0.9769
4.9006 3.0402 -0.9922 0.9769
4.8558 3.1116 -0.9922 0.9769
4.8099 3.1822 -0.9922 0.9769
4.7151 3.3215 -0.9923 0.9769
4.5652 3.5251 -0.9923 0.9769
4.5133 3.5916 -0.9924 0.9769
4.4067 3.7221 -0.9924 0.9769
4.2962 3.8494 -0.9924 0.9769
4.1821 3.9735 -0.9925 0.9769
4.1237 4.0343 -0.9925 0.9769
4.0043 4.1533 -0.9926 0.9769
3.7552 4.3805 -0.9927 0.9769
3.6909 4.4350 -0.9927 0.9769
3.6258 4.4886 -0.9927 0.9769
3.4932 4.5929 -0.9928 0.9769
3.2194 4.7896 -0.9929 0.9768
2.8616 5.0126 -0.9930 0.9768
2.7881 5.0540 -0.9931 0.9768
2.7140 5.0944 -0.9931 0.9768
2.1019 5.3775 -0.9933 0.9768
1.7844 5.4918 -0.9935 0.9768
1.6232 5.5419 -0.9935 0.9768
1.5421 5.5652 -0.9936 0.9768
1.2146 5.6466 -0.9937 0.9768
1.1320 5.6639 -0.9937 0.9768
0.9661 5.6950 -0.9938 0.9768
0.8828 5.7086 -0.9938 0.9768
0.7993 5.7211 -0.9939 0.9768
0.1789 3.4959 -0.6023 0.9859
0.1279 3.5015 -0.6028 0.9859
0.0769 3.5072 -0.6035 0.9859
0.0256 3.5093 -0.6038 0.9859
-0.1288 3.5246 -0.6068 0.9858
-0.2859 3.5504 -0.6128 0.9856
-0.3390 3.5591 -0.6151 0.9856
-0.3926 3.5678 -0.6175 0.9855
-0.4465 3.5766 -0.6201 0.9855
-0.5559 3.5945 -0.6258 0.9853
-0.7250 3.6276 -0.6365 0.9851
-0.7832 3.6409 -0.6407 0.9850
-0.8417 3.6527 -0.6449 0.9849
-0.9011 3.6646 -0.6493 0.9848
-1.0279 3.7093 -0.6622 0.9845
-1.6254 5.5493 -0.9948 0.9768
-1.8672 5.4733 -0.9949 0.9768
-1.9470 5.4456 -0.9950 0.9768
-2.0265 5.4167 -0.9950 0.9768
-2.1055 5.3867 -0.9950 0.9768
-2.1840 5.3555 -0.9951 0.9768
-2.5695 5.1826 -0.9952 0.9768
-2.7201 5.1056 -0.9953 0.9768
-2.7944 5.0655 -0.9953 0.9768
-2.9414 4.9820 -0.9954 0.9768
-2.5630 3.9362 -0.8081 0.9811
-0.4034 0.5639 -0.1193 0.9972
-0.4048 0.5486 -0.1173 0.9972
-0.4071 0.5193 -0.1135 0.9973
-0.4081 0.5052 -0.1117 0.9974
-0.4108 0.4652 -0.1068 0.9975
-0.4122 0.4402 -0.1038 0.9976
-0.4134 0.4164 -0.1010 0.9976
-0.4148 0.3827 -0.0971 0.9977
-0.4156 0.3724 -0.0960 0.9977
-0.4167 0.3625 -0.0950 0.9978
-0.4195 0.3439 -0.0933 0.9978
-0.4207 0.3348 -0.0925 0.9978
-0.4219 0.3258 -0.0917 0.9978
-0.4230 0.3169 -0.0909 0.9979
-0.4241 0.3081 -0.0902 0.9979
-0.4251 0.2994 -0.0895 0.9979
-0.4277 0.2740 -0.0874 0.9979
-0.4284 0.2658 -0.0867 0.9980
-0.4308 0.2336 -0.0843 0.9980
-0.4321 0.2103 -0.0827 0.9981
-0.4324 0.2027 -0.0822 0.9981
-0.4327 0.1952 -0.0817 0.9981
-0.4330 0.1877 -0.0812 0.9981
-0.4337 0.1732 -0.0803 0.9981
-0.4347 0.1518 -0.0792 0.9981
-0.4350 0.1449 -0.0789 0.9981
-0.4357 0.1173 -0.0776 0.9982
-0.4358 0.1105 -0.0774 0.9982
-0.4358 0.1038 -0.0771 0.9982
-0.4358 0.0904 -0.0766 0.9982
-0.4357 0.0838 -0.0763 0.9982
-0.4355 0.0771 -0.0761 0.9982
-0.4354 0.0706 -0.0759 0.9982
-0.4352 0.0640 -0.0757 0.9982
-0.4346 0.0511 -0.0753 0.9982
-0.4339 0.0381 -0.0749 0.9982
-0.4335 0.0317 -0.0748 0.9982
-0.4326 0.0189 -0.0745 0.9982
-0.4321 0.0126 -0.0744 0.9982
-0.4191 0.0000 -0.0769 0.9983
-0.4202 -0.0123 -0.0771 0.9983
-0.4207 -0.0185 -0.0773 0.9983
-0.4211 -0.0246 -0.0774 0.9983
-0.4215 -0.0309 -0.0775 0.9983
-0.4219 -0.0371 -0.0777 0.9983
-0.4225 -0.0496 -0.0781 0.9983
-0.4227 -0.0559 -0.0782 0.9983
-0.4229 -0.0623 -0.0784 0.9983
-0.4233 -0.0750 -0.0789 0.9983
-0.4234 -0.0814 -0.0791 0.9982
-0.4234 -0.0879 -0.0793 0.9982
-0.4234 -0.0943 -0.0796 0.9982
-0.4232 -0.1139 -0.0804 0.9982
-0.4231 -0.1206 -0.0807 0.9982
-0.4229 -0.1272 -0.0810 0.9982
-0.4223 -0.1407 -0.0817 0.9982
-0.4216 -0.1543 -0.0824 0.9982
-0.4197 -0.1820 -0.0839 0.9981
-0.4188 -0.1964 -0.0849 0.9981
-0.4175 -0.2186 -0.0865 0.9981
-0.4157 -0.2414 -0.0882 0.9980
-0.4150 -0.2491 -0.0888 0.9980
-0.4142 -0.2570 -0.0894 0.9980
-0.4125 -0.2729 -0.0908 0.9980
-0.4106 -0.2892 -0.0921 0.9980
-0.4096 -0.2976 -0.0929 0.9979
-0.4092 -0.3065 -0.0938 0.9979
-0.4073 -0.3339 -0.0966 0.9979
-0.4027 -0.3826 -0.1019 0.9977
-0.4014 -0.3927 -0.1030 0.9977
-0.4008 -0.4037 -0.1044 0.9977
-0.3975 -0.4502 -0.1102 0.9976
-0.3965 -0.4625 -0.1118 0.9975
-0.3955 -0.4752 -0.1134 0.9975
-0.3918 -0.5152 -0.1188 0.9974
-0.3904 -0.5292 -0.1207 0.9973
-0.3874 -0.5586 -0.1247 0.9972
-0.3970 -0.5907 -0.1306 0.9971
-0.4679 -0.7421 -0.1610 0.9964
-2.7579 -4.6712 -0.9953 0.9782
-2.6894 -4.7109 -0.9953 0.9782
-2.4801 -4.8239 -0.9952 0.9782
-2.4093 -4.8595 -0.9952 0.9782
-2.3380 -4.8940 -0.9951 0.9782
-2.1211 -4.9913 -0.9950 0.9782
-1.9742 -5.0508 -0.9950 0.9782
-1.8256 -5.1061 -0.9949 0.9782
-1.7508 -5.1320 -0.9949 0.9782
-1.6756 -5.1569 -0.9949 0.9782
-1.5241 -5.2033 -0.9948 0.9782
-1.4478 -5.2248 -0.9948 0.9782
-1.3713 -5.2454 -0.9947 0.9782
-1.2945 -5.2646 -0.9947 0.9782
-0.9846 -5.3306 -0.9946 0.9782
-0.9066 -5.3443 -0.9946 0.9782
-0.8284 -5.3568 -0.9945 0.9782
-0.6715 -5.3783 -0.9945 0.9782
-0.5928 -5.3874 -0.9944 0.9782
-0.4351 -5.4021 -0.9944 0.9782
-0.2771 -5.4121 -0.9943 0.9782
-0.1979 -5.4154 -0.9943 0.9782
0.0396 -5.4184 -0.9942 0.9782
0.1187 -5.4170 -0.9941 0.9782
0.1979 -5.4145 -0.9941 0.9782
0.2770 -5.4109 -0.9941 0.9782
0.3560 -5.4061 -0.9940 0.9782
0.5925 -5.3848 -0.9939 0.9782
0.7495 -5.3648 -0.9939 0.9782
0.8278 -5.3532 -0.9939 0.9782
0.9059 -5.3403 -0.9938 0.9782
0.9838 -5.3263 -0.9938 0.9782
1.2162 -5.2776 -0.9937 0.9782
1.3698 -5.2395 -0.9936 0.9782
1.5222 -5.1969 -0.9936 0.9782
1.5979 -5.1739 -0.9935 0.9782
1.8972 -5.0712 -0.9934 0.9782
1.9710 -5.0428 -0.9934 0.9782
2.1174 -4.9827 -0.9933 0.9782
2.1899 -4.9511 -0.9933 0.9782
1.4545 -2.9336 -0.6008 0.9868
1.4922 -2.9023 -0.5988 0.9868
1.4337 -2.5115 -0.5306 0.9883
1.7314 -2.6590 -0.5822 0.9872
1.6955 -2.3700 -0.5347 0.9882
1.7726 -2.4026 -0.5478 0.9879
1.7807 -2.3413 -0.5397 0.9881
1.9416 -2.4768 -0.5774 0.9873
1.9681 -2.4365 -0.5747 0.9873
3.5215 -4.1080 -0.9928 0.9782
3.6399 -4.0031 -0.9927 0.9782
3.6979 -3.9494 -0.9927 0.9782
3.8116 -3.8395 -0.9926 0.9782
3.8618 -3.6693 -0.9774 0.9786
3.9150 -3.6123 -0.9774 0.9786
3.9672 -3.5546 -0.9773 0.9786
4.0186 -3.4962 -0.9773 0.9786
4.1677 -3.3166 -0.9773 0.9786
4.3983 -3.0032 -0.9772 0.9786
4.4625 -2.7684 -0.9635 0.9789
4.5659 -2.7410 -0.9771 0.9786
4.6439 -2.6063 -0.9771 0.9786
4.7879 -2.3304 -0.9770 0.9786
4.8853 -2.1183 -0.9770 0.9786
5.1048 -1.7833 -0.9921 0.9782
5.1303 -1.7085 -0.9921 0.9782
5.1546 -1.6333 -0.9921 0.9783
5.1779 -1.5579 -0.9921 0.9783
5.2211 -1.4058 -0.9921 0.9783
5.2599 -1.2526 -0.9921 0.9783
5.2776 -1.1757 -0.9921 0.9783
5.2941 -1.0984 -0.9920 0.9783
5.3096 -1.0209 -0.9920 0.9783
5.3492 -0.7873 -0.9920 0.9783
5.3698 -0.6306 -0.9920 0.9783
5.3785 -0.5521 -0.9920 0.9783
5.3859 -0.4734 -0.9920 0.9783
5.3923 -0.3946 -0.9920 0.9783
5.3974 -0.3158 -0.9920 0.9783
5.4043 -0.1580 -0.9920 0.9783
5.4061 -0.0790 -0.9920 0.9783
5.4067 -0.0000 -0.9920 0.9783
5.4061 0.0790 -0.9920 0.9783
5.4043 0.1580 -0.9920 0.9783
5.3859 0.4734 -0.9920 0.9783
5.3785 0.5521 -0.9920 0.9783
5.3698 0.6305 -0.9920 0.9783
5.3601 0.7090 -0.9920 0.9783
5.3492 0.7872 -0.9920 0.9783
5.3371 0.8653 -0.9920 0.9783
5.3239 0.9432 -0.9920 0.9783
5.3096 1.0209 -0.9920 0.9783
5.2942 1.0984 -0.9920 0.9783
5.2776 1.1756 -0.9920 0.9783
5.2599 1.2526 -0.9921 0.9783
5.2411 1.3294 -0.9921 0.9783
5.2211 1.4058 -0.9921 0.9783
5.1779 1.5578 -0.9921 0.9783
5.1546 1.6332 -0.9921 0.9783
4.9294 2.2236 -0.9922 0.9782
4.8625 2.3667 -0.9922 0.9782
4.8274 2.4375 -0.9922 0.9782
4.7543 2.5777 -0.9923 0.9782
4.7162 2.6468 -0.9923 0.9782
4.6370 2.7836 -0.9923 0.9782
4.5108 2.9843 -0.9924 0.9782
4.4218 3.1149 -0.9924 0.9782
4.3291 3.2429 -0.9924 0.9782
4.2813 3.3059 -0.9925 0.9782
4.2326 3.3682 -0.9925 0.9782
4.1326 3.4905 -0.9925 0.9782
4.0812 3.5507 -0.9925 0.9782
4.0290 3.6100 -0.9926 0.9782
3.9759 3.6686 -0.9926 0.9782
3.8672 3.7833 -0.9926 0.9782
3.8116 3.8395 -0.9926 0.9782
3.6979 3.9494 -0.9927 0.9782
3.5811 4.0560 -0.9927 0.9782
3.5216 4.1080 -0.9928 0.9782
3.4612 4.1591 -0.9928 0.9782
3.4002 4.2093 -0.9928 0.9782
3.2759 4.3071 -0.9929 0.9782
3.2127 4.3546 -0.9929 0.9782
3.0842 4.4469 -0.9929 0.9782
3.0190 4.4916 -0.9930 0.9782
2.9531 4.5354 -0.9930 0.9782
2.8866 4.5782 -0.9930 0.9782
2.8195 4.6200 -0.9930 0.9782
2.7518 4.6607 -0.9931 0.9782
2.6835 4.7006 -0.9931 0.9782
2.5451 4.7773 -0.9932 0.9782
2.4751 4.8141 -0.9932 0.9782
2.3335 4.8846 -0.9932 0.9782
2.2620 4.9184 -0.9933 0.9782
2.1174 4.9827 -0.9933 0.9782
2.0444 5.0132 -0.9934 0.9782
1.4461 5.2187 -0.9936 0.9782
1.2931 5.2590 -0.9937 0.9782
1.1390 5.2949 -0.9937 0.9782
0.8278 5.3531 -0.9938 0.9782
0.7495 5.3648 -0.9939 0.9782
0.4575 3.6643 -0.6775 0.9851
0.3893 3.5380 -0.6531 0.9856
0.3339 3.5052 -0.6460 0.9858
0.2808 3.4862 -0.6417 0.9859
-0.1292 3.5333 -0.6487 0.9857
-0.2338 3.5505 -0.6528 0.9856
-0.5022 3.5946 -0.6659 0.9853
-0.5573 3.6036 -0.6690 0.9853
-0.9846 5.3306 -0.9946 0.9782
-0.9167 3.9782 -0.7490 0.9835
-0.9576 3.8943 -0.7358 0.9838
-1.5241 5.2033 -0.9948 0.9782
-1.6000 5.1806 -0.9948 0.9782
-1.6756 5.1569 -0.9949 0.9782
-1.9001 5.0789 -0.9949 0.9782
-1.9742 5.0508 -0.9950 0.9782
-2.1210 4.9913 -0.9950 0.9782
-2.1938 4.9599 -0.9951 0.9782
-2.4093 4.8594 -0.9952 0.9782
-2.6201 4.7496 -0.9952 0.9782
-2.7580 4.6712 -0.9953 0.9782
-2.8260 4.6306 -0.9953 0.9782
-0.3970 0.5907 -0.1306 0.9971
-0.3890 0.5436 -0.1227 0.9973
-0.3904 0.5292 -0.1207 0.9973
-0.3918 0.5152 -0.1188 0.9974
-0.3955 0.4752 -0.1134 0.9975
-0.3965 0.4626 -0.1118 0.9975
-0.3984 0.4382 -0.1087 0.9976
-0.4008 0.4037 -0.1044 0.9977
-0.4014 0.3927 -0.1030 0.9977
-0.4027 0.3826 -0.1019 0.9977
-0.4042 0.3729 -0.1009 0.9978
-0.4058 0.3531 -0.0987 0.9978
-0.4086 0.3155 -0.0947 0.9979
-0.4091 0.3065 -0.0938 0.9979
-0.4097 0.2976 -0.0929 0.9979
-0.4169 0.2261 -0.0870 0.9981
-0.4184 0.2036 -0.0854 0.9981
-0.4188 0.1963 -0.0849 0.9981
-0.4192 0.1891 -0.0844 0.9981
-0.4197 0.1820 -0.0839 0.9981
-0.4207 0.1680 -0.0831 0.9982
-0.4220 0.1474 -0.0820 0.9982
-0.4223 0.1407 -0.0817 0.9982
-0.4226 0.1339 -0.0813 0.9982
-0.4231 0.1205 -0.0807 0.9982
-0.4232 0.1139 -0.0804 0.9982
-0.4234 0.0943 -0.0796 0.9982
-0.4234 0.0879 -0.0793 0.9982
-0.4234 0.0814 -0.0791 0.9982
-0.4231 0.0686 -0.0786 0.9983
-0.4229 0.0622 -0.0784 0.9983
-0.4227 0.0559 -0.0782 0.9983
-0.4225 0.0496 -0.0781 0.9983
-0.4222 0.0433 -0.0779 0.9983
-0.4219 0.0371 -0.0777 0.9983
-0.4211 0.0246 -0.0774 0.9983
-0.4202 0.0123 -0.0771 0.9983
-0.4078 0.0000 -0.0795 0.9983
-0.4093 -0.0180 -0.0799 0.9983
-0.4101 -0.0300 -0.0802 0.9983
-0.4104 -0.0361 -0.0803 0.9983
-0.4110 -0.0483 -0.0807 0.9983
-0.4112 -0.0544 -0.0809 0.9983
-0.4114 -0.0606 -0.0811 0.9983
-0.4115 -0.0667 -0.0813 0.9983
-0.4116 -0.0729 -0.0815 0.9983
-0.4117 -0.0791 -0.0817 0.9983
-0.4117 -0.0854 -0.0820 0.9983
-0.4116 -0.0980 -0.0825 0.9983
-0.4113 -0.1108 -0.0830 0.9983
-0.4111 -0.1172 -0.0833 0.9983
-0.4106 -0.1301 -0.0840 0.9982
-0.4099 -0.1432 -0.0846 0.9982
-0.4095 -0.1498 -0.0850 0.9982
-0.4090 -0.1564 -0.0854 0.9982
-0.4073 -0.1766 -0.0866 0.9982
-0.4060 -0.1904 -0.0874 0.9982
-0.4050 -0.2045 -0.0885 0.9982
-0.4045 -0.2117 -0.0890 0.9981
-0.4034 -0.2264 -0.0902 0.9981
-0.4025 -0.2497 -0.0923 0.9981
-0.4021 -0.2577 -0.0931 0.9981
-0.4012 -0.2739 -0.0947 0.9980
-0.3940 -0.3635 -0.1045 0.9978
-0.3927 -0.3731 -0.1056 0.9978
-0.3910 -0.3825 -0.1066 0.9978
-0.3880 -0.4024 -0.1090 0.9977
-0.3754 -0.5248 -0.1258 0.9974
-0.3737 -0.5388 -0.1278 0.9973
-0.3723 -0.5718 -0.1330 0.9972
-0.3916 -0.6212 -0.1432 0.9970
-2.5954 -4.3959 -0.9952 0.9794
-2.5308 -4.4332 -0.9952 0.9794
-2.4657 -4.4696 -0.9952 0.9794
-2.3340 -4.5396 -0.9951 0.9794
-2.2673 -4.5730 -0.9951 0.9794
-2.2002 -4.6055 -0.9951 0.9794
-2.0646 -4.6677 -0.9950 0.9794
-1.9272 -4.7257 -0.9950 0.9794
-1.8579 -4.7532 -0.9949 0.9794
-1.7882 -4.7797 -0.9949 0.9794
-1.6476 -4.8296 -0.9949 0.9794
-1.1457 -4.9716 -0.9946 0.9794
-0.9998 -5.0027 -0.9946 0.9794
-0.8532 -5.0295 -0.9945 0.9794
-0.7796 -5.0412 -0.9945 0.9794
-0.7058 -5.0519 -0.9945 0.9794
-0.4837 -5.0776 -0.9944 0.9794
-0.3351 -5.0892 -0.9943 0.9794
-0.2607 -5.0934 -0.9943 0.9794
-0.1118 -5.0985 -0.9942 0.9794
-0.0373 -5.0995 -0.9942 0.9794
0.0372 -5.0993 -0.9942 0.9794
0.2607 -5.0924 -0.9941 0.9794
0.3350 -5.0878 -0.9940 0.9794
0.4093 -5.0823 -0.9940 0.9794
0.4835 -5.0756 -0.9940 0.9794
0.5576 -5.0679 -0.9940 0.9794
0.7054 -5.0491 -0.9939 0.9794
0.9990 -4.9986 -0.9938 0.9794
1.0719 -4.9834 -0.9938 0.9794
1.2892 -4.9312 -0.9937 0.9794
1.3610 -4.9116 -0.9936 0.9794
1.7157 -4.7985 -0.9935 0.9794
1.7856 -4.7728 -0.9935 0.9794
1.8551 -4.7461 -0.9934 0.9794
2.1289 -4.6291 -0.9933 0.9794
1.4196 -2.9716 -0.6420 0.9867
1.4583 -2.9412 -0.6400 0.9867
1.5349 -2.8812 -0.6364 0.9868
1.5525 -2.8142 -0.6266 0.9870
1.4458 -2.5326 -0.5685 0.9882
1.5956 -2.6145 -0.5971 0.9876
1.6869 -2.6754 -0.6166 0.9872
1.7061 -2.3847 -0.5716 0.9881
1.7699 -2.3990 -0.5812 0.9879
1.7929 -2.3572 -0.5774 0.9880
1.9368 -2.4707 -0.6120 0.9873
1.9633 -2.4305 -0.6091 0.9873
3.2577 -3.9146 -0.9929 0.9795
3.3734 -3.7100 -0.9776 0.9798
3.5325 -3.5584 -0.9775 0.9798
3.6848 -3.4000 -0.9775 0.9798
3.7824 -3.2907 -0.9774 0.9798
3.8300 -3.2350 -0.9774 0.9798
3.9679 -3.0639 -0.9773 0.9798
4.0122 -3.0055 -0.9773 0.9798
4.0556 -2.9466 -0.9773 0.9798
4.1398 -2.8267 -0.9773 0.9798
4.1806 -2.7658 -0.9773 0.9798
4.2976 -2.5799 -0.9772 0.9798
4.3347 -2.5168 -0.9772 0.9798
4.3710 -2.4531 -0.9772 0.9798
4.4063 -2.3890 -0.9772 0.9798
4.4407 -2.3243 -0.9771 0.9798
4.4741 -2.2591 -0.9771 0.9798
4.5381 -2.1273 -0.9771 0.9798
4.5686 -2.0608 -0.9771 0.9798
4.5982 -1.9938 -0.9771 0.9798
4.6294 -1.9277 -0.9777 0.9798
4.8048 -1.6785 -0.9922 0.9795
4.8288 -1.6081 -0.9922 0.9795
4.8517 -1.5373 -0.9922 0.9795
4.8737 -1.4662 -0.9922 0.9795
4.8945 -1.3949 -0.9922 0.9795
4.9508 -1.1790 -0.9922 0.9795
4.9675 -1.1066 -0.9922 0.9795
5.0111 -0.8878 -0.9922 0.9795
5.0235 -0.8145 -0.9922 0.9795
5.0349 -0.7410 -0.9921 0.9795
5.0451 -0.6673 -0.9921 0.9795
5.0695 -0.4456 -0.9921 0.9795
5.0803 -0.2973 -0.9921 0.9795
5.0885 0.0743 -0.9921 0.9795
5.0803 0.2973 -0.9921 0.9795
5.0754 0.3714 -0.9921 0.9795
5.0695 0.4456 -0.9921 0.9795
5.0624 0.5196 -0.9921 0.9795
5.0544 0.5936 -0.9921 0.9795
5.0451 0.6673 -0.9921 0.9795
4.9976 0.9609 -0.9922 0.9795
4.9331 1.2513 -0.9922 0.9795
4.9143 1.3232 -0.9922 0.9795
4.8945 1.3949 -0.9922 0.9795
4.8288 1.6080 -0.9922 0.9795
4.8048 1.6784 -0.9922 0.9795
4.7798 1.7485 -0.9923 0.9795
4.7538 1.8182 -0.9923 0.9795
4.6698 2.0248 -0.9923 0.9795
4.6397 2.0929 -0.9923 0.9795
4.6087 2.1605 -0.9923 0.9795
4.5767 2.2276 -0.9923 0.9795
4.5437 2.2943 -0.9923 0.9795
4.5098 2.3605 -0.9924 0.9795
4.4749 2.4261 -0.9924 0.9795
4.4390 2.4913 -0.9924 0.9795
4.4022 2.5559 -0.9924 0.9795
4.3258 2.6836 -0.9924 0.9795
4.2862 2.7465 -0.9924 0.9795
4.2457 2.8089 -0.9925 0.9795
4.1619 2.9319 -0.9925 0.9795
4.1187 2.9924 -0.9925 0.9795
4.0296 3.1116 -0.9926 0.9795
3.7921 3.3978 -0.9926 0.9795
3.5875 3.6138 -0.9927 0.9795
3.4805 3.7172 -0.9928 0.9795
3.4259 3.7677 -0.9928 0.9795
3.3706 3.8175 -0.9928 0.9795
3.3145 3.8664 -0.9928 0.9795
3.2577 3.9146 -0.9929 0.9795
3.2003 3.9618 -0.9929 0.9795
3.0833 4.0538 -0.9929 0.9795
3.0238 4.0986 -0.9930 0.9795
2.9636 4.1424 -0.9930 0.9795
2.9029 4.1854 -0.9930 0.9795
2.7795 4.2686 -0.9931 0.9795
2.6537 4.3482 -0.9931 0.9795
2.5899 4.3867 -0.9931 0.9795
2.4608 4.4607 -0.9932 0.9795
2.3954 4.4963 -0.9932 0.9795
2.2631 4.5646 -0.9933 0.9795
2.1962 4.5973 -0.9933 0.9795
2.1289 4.6290 -0.9933 0.9795
2.0611 4.6597 -0.9933 0.9794
1.7856 4.7728 -0.9935 0.9794
1.7157 4.7985 -0.9935 0.9794
1.6454 4.8232 -0.9935 0.9794
1.5748 4.8468 -0.9935 0.9794
1.3611 4.9116 -0.9936 0.9794
1.2892 4.9311 -0.9937 0.9794
1.1446 4.9670 -0.9937 0.9794
1.0719 4.9833 -0.9937 0.9794
0.9990 4.9986 -0.9938 0.9794
0.8526 5.0260 -0.9938 0.9794
0.7791 5.0380 -0.9939 0.9794
0.4585 3.6730 -0.7216 0.9850
0.3515 3.6898 -0.7226 0.9850
0.3350 5.0878 -0.9940 0.9794
0.2607 5.0923 -0.9941 0.9794
0.1863 5.0957 -0.9941 0.9794
-0.0372 5.0995 -0.9942 0.9794
-0.1118 5.0986 -0.9942 0.9794
-0.2607 5.0934 -0.9943 0.9794
-0.3351 5.0892 -0.9943 0.9794
-0.4094 5.0839 -0.9943 0.9794
-0.5579 5.0701 -0.9944 0.9794
-0.6319 5.0616 -0.9944 0.9794
-0.7058 5.0519 -0.9945 0.9794
-0.9266 5.0166 -0.9946 0.9794
-0.8922 4.1476 -0.8271 0.9829
-0.9164 3.9768 -0.7956 0.9835
-0.9601 3.9045 -0.7839 0.9837
-1.0236 3.9152 -0.7889 0.9836
-1.0888 3.9292 -0.7949 0.9835
-1.5058 4.8754 -0.9948 0.9794
-1.6477 4.8296 -0.9948 0.9794
-1.7882 4.7797 -0.9949 0.9794
-1.8579 4.7532 -0.9949 0.9794
-1.9272 4.7257 -0.9950 0.9794
-1.9961 4.6971 -0.9950 0.9794
-2.0646 4.6676 -0.9950 0.9794
-2.1326 4.6371 -0.9950 0.9794
-2.2002 4.6055 -0.9951 0.9794
-2.4001 4.5051 -0.9952 0.9794
-2.4657 4.4696 -0.9952 0.9794
-2.5954 4.3959 -0.9952 0.9794
-0.3917 0.6211 -0.1432 0.9970
-0.3719 0.5532 -0.1299 0.9973
-0.3754 0.5247 -0.1258 0.9974
-0.3771 0.5111 -0.1238 0.9974
-0.3786 0.4978 -0.1219 0.9975
-0.3839 0.4479 -0.1150 0.9976
-0.3851 0.4361 -0.1134 0.9976
-0.3871 0.4134 -0.1104 0.9977
-0.3893 0.3922 -0.1077 0.9978
-0.3910 0.3825 -0.1066 0.9978
-0.3927 0.3731 -0.1056 0.9978
-0.3940 0.3635 -0.1045 0.9978
-0.3949 0.3539 -0.1034 0.9978
-0.3958 0.3444 -0.1023 0.9979
-0.3995 0.2993 -0.0973 0.9980
-0.4001 0.2907 -0.0964 0.9980
-0.4007 0.2823 -0.0955 0.9980
-0.4039 0.2189 -0.0896 0.9981
-0.4045 0.2117 -0.0890 0.9981
-0.4051 0.2045 -0.0885 0.9982
-0.4067 0.1834 -0.0870 0.9982
-0.4073 0.1766 -0.0866 0.9982
-0.4085 0.1631 -0.0858 0.9982
-0.4095 0.1498 -0.0850 0.9982
-0.4099 0.1432 -0.0846 0.9982
-0.4106 0.1301 -0.0840 0.9982
-0.4109 0.1236 -0.0836 0.9983
-0.4113 0.1107 -0.0830 0.9983
-0.4114 0.1044 -0.0828 0.9983
-0.4116 0.0980 -0.0825 0.9983
-0.4116 0.0917 -0.0822 0.9983
-0.4117 0.0854 -0.0820 0.9983
-0.4117 0.0791 -0.0817 0.9983
-0.4112 0.0544 -0.0809 0.9983
-0.4110 0.0482 -0.0807 0.9983
-0.4104 0.0361 -0.0803 0.9983
-0.4101 0.0300 -0.0802 0.9983
-0.4088 0.0120 -0.0797 0.9983
-0.4084 0.0060 -0.0796 0.9983
-0.3976 -0.0058 -0.0821 0.9984
-0.3980 -0.0117 -0.0822 0.9984
-0.3985 -0.0175 -0.0824 0.9984
-0.3989 -0.0234 -0.0825 0.9984
-0.3992 -0.0292 -0.0826 0.9984
-0.3998 -0.0411 -0.0830 0.9984
-0.4005 -0.0771 -0.0842 0.9983
-0.4000 -0.1077 -0.0855 0.9983
-0.3998 -0.1139 -0.0858 0.9983
-0.3995 -0.1202 -0.0861 0.9983
-0.3993 -0.1265 -0.0865 0.9983
-0.3988 -0.1393 -0.0872 0.9983
-0.3979 -0.1589 -0.0885 0.9983
-0.3976 -0.1655 -0.0889 0.9982
-0.3971 -0.1722 -0.0894 0.9982
-0.3967 -0.1789 -0.0899 0.9982
-0.3957 -0.1926 -0.0909 0.9982
-0.3956 -0.1997 -0.0915 0.9982
-0.3950 -0.2142 -0.0928 0.9982
-0.3948 -0.2216 -0.0935 0.9982
-0.3937 -0.2442 -0.0957 0.9981
-0.3932 -0.2520 -0.0964 0.9981
-0.3927 -0.2598 -0.0972 0.9981
-0.3910 -0.2841 -0.0998 0.9980
-0.3896 -0.3008 -0.1016 0.9980
-0.3862 -0.3360 -0.1057 0.9979
-0.3853 -0.3452 -0.1068 0.9979
-0.3842 -0.3545 -0.1079 0.9979
-0.3796 -0.3823 -0.1112 0.9978
-0.3778 -0.3918 -0.1124 0.9978
-0.3759 -0.4014 -0.1136 0.9978
-0.3693 -0.4572 -0.1214 0.9976
-0.3678 -0.4692 -0.1231 0.9976
-0.3646 -0.4941 -0.1268 0.9975
-0.3628 -0.5071 -0.1287 0.9975
-0.3568 -0.5479 -0.1350 0.9973
-0.3546 -0.5623 -0.1373 0.9973
-0.3850 -0.6520 -0.1564 0.9969
-0.4155 -0.7280 -0.1731 0.9966
-2.3280 -4.2199 -0.9951 0.9805
-2.2660 -4.2534 -0.9951 0.9805
-2.2035 -4.2859 -0.9951 0.9805
-2.1406 -4.3175 -0.9951 0.9805
-2.0772 -4.3482 -0.9950 0.9805
-1.9492 -4.4068 -0.9950 0.9805
-1.8846 -4.4348 -0.9949 0.9805
-1.7541 -4.4877 -0.9949 0.9805
-1.6883 -4.5127 -0.9949 0.9805
-1.5556 -4.5598 -0.9948 0.9805
-1.2864 -4.6424 -0.9947 0.9805
-1.2185 -4.6606 -0.9947 0.9805
-0.8749 -4.7364 -0.9945 0.9805
-0.8055 -4.7486 -0.9945 0.9805
-0.7361 -4.7597 -0.9945 0.9805
-0.6664 -4.7698 -0.9945 0.9805
-0.5966 -4.7789 -0.9944 0.9805
-0.5267 -4.7870 -0.9944 0.9805
-0.4567 -4.7940 -0.9944 0.9805
-0.3866 -4.8001 -0.9943 0.9805
-0.3164 -4.8050 -0.9943 0.9805
-0.2462 -4.8090 -0.9943 0.9805
-0.1055 -4.8139 -0.9942 0.9805
0.0352 -4.8146 -0.9942 0.9805
0.1055 -4.8135 -0.9941 0.9805
0.2461 -4.8081 -0.9941 0.9805
0.3163 -4.8038 -0.9941 0.9805
0.5265 -4.7849 -0.9940 0.9805
0.6660 -4.7672 -0.9939 0.9805
0.8050 -4.7455 -0.9939 0.9805
0.8742 -4.7331 -0.9938 0.9805
1.0121 -4.7052 -0.9938 0.9805
1.0807 -4.6898 -0.9937 0.9805
1.2172 -4.6560 -0.9937 0.9805
1.2851 -4.6376 -0.9937 0.9805
1.3527 -4.6182 -0.9936 0.9805
1.4200 -4.5978 -0.9936 0.9805
1.5536 -4.5541 -0.9936 0.9805
1.6859 -4.5065 -0.9935 0.9805
1.7516 -4.4812 -0.9935 0.9805
1.4234 -2.9795 -0.6818 0.9866
1.4621 -2.9490 -0.6797 0.9866
1.5390 -2.8887 -0.6758 0.9867
1.6365 -2.7718 -0.6646 0.9869
1.7661 -2.6275 -0.6537 0.9872
1.7543 -2.5294 -0.6356 0.9875
1.7974 -2.4362 -0.6251 0.9877
1.8053 -2.3735 -0.6157 0.9879
1.9321 -2.4647 -0.6466 0.9873
1.9585 -2.4246 -0.6436 0.9874
3.0289 -3.6396 -0.9777 0.9808
3.0817 -3.5949 -0.9777 0.9808
3.1338 -3.5494 -0.9777 0.9808
3.1853 -3.5032 -0.9777 0.9808
3.3355 -3.3600 -0.9776 0.9808
3.6607 -3.0014 -0.9775 0.9809
3.7041 -2.9476 -0.9774 0.9809
3.7467 -2.8931 -0.9774 0.9809
3.9476 -2.6117 -0.9773 0.9809
3.9853 -2.5537 -0.9773 0.9809
4.0221 -2.4952 -0.9773 0.9809
4.0580 -2.4361 -0.9773 0.9809
4.1932 -2.1948 -0.9772 0.9809
4.2247 -2.1332 -0.9772 0.9809
4.2554 -2.0712 -0.9772 0.9809
4.2852 -2.0088 -0.9772 0.9809
4.3140 -1.9459 -0.9772 0.9809
4.3984 -1.9072 -0.9899 0.9806
4.4369 -1.8473 -0.9924 0.9806
4.4634 -1.7823 -0.9924 0.9806
4.4889 -1.7168 -0.9924 0.9806
4.5135 -1.6511 -0.9924 0.9806
4.5371 -1.5849 -0.9923 0.9806
4.6021 -1.3846 -0.9923 0.9806
4.6218 -1.3172 -0.9923 0.9806
4.6405 -1.2495 -0.9923 0.9806
4.6907 -1.0449 -0.9923 0.9806
4.7054 -0.9762 -0.9923 0.9806
4.7319 -0.8383 -0.9923 0.9806
4.7436 -0.7691 -0.9923 0.9806
4.7543 -0.6997 -0.9923 0.9806
4.7640 -0.6302 -0.9923 0.9806
4.7803 -0.4907 -0.9923 0.9806
4.8008 -0.2106 -0.9922 0.9806
4.8049 -0.0702 -0.9922 0.9806
4.8054 -0.0000 -0.9922 0.9806
4.8034 0.1404 -0.9922 0.9806
4.7926 0.3508 -0.9922 0.9806
4.7727 0.5605 -0.9923 0.9806
4.7640 0.6302 -0.9923 0.9806
4.7543 0.6996 -0.9923 0.9806
4.7319 0.8383 -0.9923 0.9806
4.7192 0.9073 -0.9923 0.9806
4.6907 1.0449 -0.9923 0.9806
4.6749 1.1134 -0.9923 0.9806
4.5813 1.4516 -0.9923 0.9806
4.3519 2.0400 -0.9924 0.9806
4.2585 2.2289 -0.9925 0.9806
4.2255 2.2909 -0.9925 0.9806
4.1916 2.3524 -0.9925 0.9806
4.1568 2.4135 -0.9925 0.9806
4.1212 2.4740 -0.9925 0.9806
4.0846 2.5339 -0.9925 0.9806
4.0473 2.5934 -0.9925 0.9806
3.8891 2.8256 -0.9926 0.9806
3.8050 2.9382 -0.9926 0.9806
3.7617 2.9935 -0.9927 0.9806
3.7177 3.0482 -0.9927 0.9806
3.6272 3.1556 -0.9927 0.9806
3.5807 3.2083 -0.9927 0.9806
3.4856 3.3117 -0.9928 0.9806
3.4369 3.3624 -0.9928 0.9806
3.3373 3.4615 -0.9928 0.9806
3.2865 3.5100 -0.9929 0.9806
3.2349 3.5577 -0.9929 0.9806
3.1826 3.6047 -0.9929 0.9806
3.1297 3.6509 -0.9929 0.9806
3.0761 3.6963 -0.9929 0.9806
2.9669 3.7847 -0.9930 0.9805
2.9113 3.8278 -0.9930 0.9805
2.7984 3.9114 -0.9931 0.9805
2.6830 3.9917 -0.9931 0.9805
2.6245 4.0305 -0.9931 0.9805
2.5653 4.0686 -0.9931 0.9805
2.5057 4.1057 -0.9932 0.9805
2.3848 4.1774 -0.9932 0.9805
2.3235 4.2118 -0.9932 0.9805
2.2618 4.2455 -0.9933 0.9805
2.1996 4.2782 -0.9933 0.9805
2.1369 4.3100 -0.9933 0.9805
2.0737 4.3408 -0.9933 0.9805
2.0102 4.3708 -0.9934 0.9805
1.9461 4.3998 -0.9934 0.9805
1.6200 4.5307 -0.9935 0.9805
1.4870 4.5764 -0.9936 0.9805
1.3527 4.6181 -0.9936 0.9805
1.2851 4.6375 -0.9937 0.9805
1.0807 4.6898 -0.9937 0.9805
1.0121 4.7052 -0.9938 0.9805
0.8742 4.7330 -0.9938 0.9805
0.8050 4.7454 -0.9939 0.9805
0.2986 3.7071 -0.7679 0.9849
0.3163 4.8038 -0.9941 0.9805
0.2461 4.8081 -0.9941 0.9805
-0.0352 4.8148 -0.9942 0.9805
-0.1758 4.8120 -0.9943 0.9805
-0.2462 4.8090 -0.9943 0.9805
-0.3164 4.8050 -0.9943 0.9805
-0.4567 4.7940 -0.9944 0.9805
-0.5267 4.7870 -0.9944 0.9805
-0.5966 4.7789 -0.9944 0.9805
-0.7360 4.7597 -0.9945 0.9805
-0.8749 4.7364 -0.9945 0.9805
-0.8633 4.3195 -0.9096 0.9822
-0.9161 3.9752 -0.8423 0.9835
-1.0337 3.9539 -0.8439 0.9834
-1.3542 4.6232 -0.9947 0.9805
-1.4216 4.6031 -0.9948 0.9805
-1.4888 4.5819 -0.9948 0.9805
-1.5556 4.5598 -0.9948 0.9805
-1.7540 4.4877 -0.9949 0.9805
-1.8195 4.4617 -0.9949 0.9805
-1.8846 4.4346 -0.9949 0.9805
-1.9492 4.4068 -0.9950 0.9805
-2.0134 4.3780 -0.9950 0.9805
-2.0772 4.3482 -0.9950 0.9805
-2.1406 4.3175 -0.9950 0.9805
-2.2035 4.2858 -0.9951 0.9805
-2.3279 4.2199 -0.9951 0.9805
-0.4156 0.7280 -0.1731 0.9966
-0.3850 0.6520 -0.1564 0.9969
-0.3546 0.5623 -0.1373 0.9973
-0.3568 0.5479 -0.1350 0.9973
-0.3609 0.5203 -0.1307 0.9974
-0.3645 0.4941 -0.1268 0.9975
-0.3662 0.4815 -0.1249 0.9975
-0.3693 0.4572 -0.1214 0.9976
-0.3721 0.4340 -0.1180 0.9977
-0.3759 0.4015 -0.1136 0.9978
-0.3778 0.3918 -0.1124 0.9978
-0.3796 0.3823 -0.1112 0.9978
-0.3831 0.3640 -0.1091 0.9978
-0.3842 0.3545 -0.1079 0.9979
-0.3853 0.3452 -0.1068 0.9979
-0.3862 0.3360 -0.1057 0.9979
-0.3871 0.3270 -0.1046 0.9979
-0.3910 0.2841 -0.0998 0.9980
-0.3916 0.2758 -0.0989 0.9980
-0.3927 0.2598 -0.0972 0.9981
-0.3932 0.2520 -0.0964 0.9981
-0.3941 0.2365 -0.0949 0.9981
-0.3944 0.2290 -0.0942 0.9981
-0.3951 0.2142 -0.0928 0.9982
-0.3955 0.1997 -0.0915 0.9982
-0.3962 0.1857 -0.0904 0.9982
-0.3967 0.1789 -0.0899 0.9982
-0.3976 0.1655 -0.0889 0.9982
-0.3979 0.1589 -0.0885 0.9983
-0.3983 0.1523 -0.0880 0.9983
-0.3986 0.1458 -0.0876 0.9983
-0.3988 0.1393 -0.0872 0.9983
-0.3993 0.1265 -0.0865 0.9983
-0.3995 0.1202 -0.0861 0.9983
-0.3998 0.1139 -0.0858 0.9983
-0.4002 0.1015 -0.0853 0.9983
-0.4005 0.0831 -0.0845 0.9983
-0.4005 0.0770 -0.0842 0.9983
-0.4005 0.0709 -0.0840 0.9983
-0.4005 0.0649 -0.0838 0.9983
-0.4003 0.0589 -0.0836 0.9983
-0.3998 0.0411 -0.0830 0.9984
-0.3995 0.0351 -0.0828 0.9984
-0.3992 0.0293 -0.0826 0.9984
-0.3989 0.0233 -0.0825 0.9984
-0.3985 0.0175 -0.0824 0.9984
-0.3904 -0.0057 -0.0851 0.9984
-0.3910 -0.0171 -0.0853 0.9984
-0.3913 -0.0229 -0.0855 0.9984
-0.3916 -0.0287 -0.0856 0.9984
-0.3918 -0.0345 -0.0858 0.9984
-0.3920 -0.0403 -0.0859 0.9984
-0.3924 -0.0578 -0.0865 0.9984
-0.3926 -0.0695 -0.0869 0.9984
-0.3926 -0.0755 -0.0872 0.9984
-0.3926 -0.0814 -0.0874 0.9984
-0.3925 -0.0935 -0.0880 0.9983
-0.3925 -0.0995 -0.0883 0.9983
-0.3922 -0.1118 -0.0889 0.9983
-0.3918 -0.1241 -0.0896 0.9983
-0.3910 -0.1430 -0.0908 0.9983
-0.3907 -0.1494 -0.0912 0.9983
-0.3899 -0.1623 -0.0921 0.9983
-0.3890 -0.1755 -0.0931 0.9983
-0.3885 -0.1821 -0.0936 0.9982
-0.3878 -0.1887 -0.0941 0.9982
-0.3874 -0.1956 -0.0946 0.9982
-0.3871 -0.2026 -0.0953 0.9982
-0.3861 -0.2242 -0.0973 0.9982
-0.3856 -0.2315 -0.0981 0.9982
-0.3852 -0.2389 -0.0988 0.9981
-0.3846 -0.2465 -0.0996 0.9981
-0.3829 -0.2697 -0.1021 0.9981
-0.3822 -0.2777 -0.1030 0.9981
-0.3807 -0.2939 -0.1049 0.9980
-0.3790 -0.3107 -0.1069 0.9980
-0.3781 -0.3193 -0.1079 0.9980
-0.3771 -0.3280 -0.1090 0.9980
-0.3749 -0.3459 -0.1112 0.9979
-0.3665 -0.3914 -0.1169 0.9978
-0.3624 -0.4105 -0.1194 0.9978
-0.3528 -0.4782 -0.1296 0.9976
-0.3508 -0.4904 -0.1315 0.9975
-0.3489 -0.5030 -0.1335 0.9975
-0.3422 -0.5427 -0.1399 0.9974
-0.3420 -0.5793 -0.1467 0.9972
-0.3770 -0.6833 -0.1702 0.9968
-0.4093 -0.7684 -0.1898 0.9964
-2.0864 -4.0581 -0.9950 0.9815
-2.0268 -4.0880 -0.9950 0.9815
-1.9669 -4.1171 -0.9950 0.9815
-1.9064 -4.1453 -0.9950 0.9815
-1.8456 -4.1726 -0.9949 0.9815
-1.7844 -4.1990 -0.9949 0.9815
-1.6609 -4.2492 -0.9949 0.9815
-1.5986 -4.2729 -0.9948 0.9815
-1.5359 -4.2957 -0.9948 0.9815
-1.4729 -4.3175 -0.9948 0.9815
-1.4097 -4.3385 -0.9948 0.9815
-1.2181 -4.3958 -0.9947 0.9815
-1.0891 -4.4293 -0.9946 0.9815
-0.9591 -4.4589 -0.9946 0.9815
-0.5649 -4.5250 -0.9944 0.9815
-0.4988 -4.5327 -0.9944 0.9815
-0.4325 -4.5394 -0.9944 0.9815
-0.3661 -4.5451 -0.9943 0.9815
-0.2996 -4.5499 -0.9943 0.9815
-0.2331 -4.5536 -0.9943 0.9815
-0.0333 -4.5591 -0.9942 0.9815
0.0999 -4.5579 -0.9941 0.9815
0.2995 -4.5488 -0.9941 0.9815
0.4323 -4.5378 -0.9940 0.9815
0.8278 -4.4818 -0.9939 0.9815
0.8932 -4.4691 -0.9938 0.9815
1.0234 -4.4409 -0.9938 0.9815
1.0881 -4.4254 -0.9937 0.9815
1.2169 -4.3914 -0.9937 0.9815
1.4080 -4.3336 -0.9936 0.9815
1.5340 -4.2903 -0.9936 0.9815
1.7204 -4.2186 -0.9935 0.9815
1.7818 -4.1929 -0.9935 0.9815
1.9637 -4.1105 -0.9934 0.9815
1.5813 -2.8664 -0.7139 0.9867
1.6573 -2.8070 -0.7108 0.9867
1.5719 -2.5757 -0.6580 0.9877
1.7314 -2.6589 -0.6919 0.9871
1.7661 -2.6275 -0.6904 0.9871
1.8007 -2.5962 -0.6890 0.9871
1.7501 -2.4463 -0.6559 0.9878
1.9273 -2.4586 -0.6812 0.9873
2.9676 -3.3611 -0.9777 0.9818
3.2047 -3.1353 -0.9776 0.9818
3.2949 -3.0401 -0.9776 0.9818
3.3388 -2.9916 -0.9776 0.9818
3.3822 -2.9425 -0.9776 0.9818
3.4247 -2.8927 -0.9776 0.9818
3.5876 -2.6875 -0.9775 0.9818
3.6264 -2.6348 -0.9775 0.9818
3.6645 -2.5814 -0.9775 0.9818
3.7383 -2.4732 -0.9774 0.9818
3.7739 -2.4182 -0.9774 0.9818
3.8088 -2.3629 -0.9774 0.9818
3.8761 -2.2505 -0.9774 0.9818
3.9085 -2.1936 -0.9774 0.9818
3.9401 -2.1362 -0.9774 0.9818
3.9708 -2.0784 -0.9773 0.9818
4.0008 -2.0201 -0.9773 0.9818
4.0297 -1.9614 -0.9773 0.9818
4.3385 -1.3747 -0.9924 0.9815
4.3581 -1.3112 -0.9924 0.9815
4.4113 -1.1189 -0.9924 0.9815
4.4271 -1.0543 -0.9924 0.9815
4.4420 -0.9895 -0.9924 0.9815
4.4560 -0.9245 -0.9924 0.9815
4.4690 -0.8593 -0.9924 0.9815
4.4810 -0.7939 -0.9924 0.9815
4.4921 -0.7284 -0.9924 0.9815
4.5023 -0.6626 -0.9924 0.9815
4.5114 -0.5968 -0.9924 0.9815
4.5332 -0.3985 -0.9924 0.9815
4.5386 -0.3322 -0.9923 0.9815
4.5429 -0.2658 -0.9923 0.9815
4.5463 -0.1994 -0.9923 0.9815
4.5487 -0.1329 -0.9923 0.9815
4.5507 -0.0000 -0.9923 0.9815
4.5502 0.0664 -0.9923 0.9815
4.5488 0.1330 -0.9923 0.9815
4.5463 0.1994 -0.9923 0.9815
4.5429 0.2658 -0.9923 0.9815
4.5332 0.3984 -0.9924 0.9815
4.5269 0.4646 -0.9924 0.9815
4.5114 0.5967 -0.9924 0.9815
4.5023 0.6626 -0.9924 0.9815
4.4921 0.7283 -0.9924 0.9815
4.4810 0.7939 -0.9924 0.9815
4.4560 0.9245 -0.9924 0.9815
4.4113 1.1189 -0.9924 0.9815
4.3945 1.1832 -0.9924 0.9815
4.3767 1.2473 -0.9924 0.9815
4.3180 1.4380 -0.9924 0.9815
4.2742 1.5636 -0.9925 0.9815
4.2509 1.6258 -0.9925 0.9815
4.1489 1.8714 -0.9925 0.9815
4.0925 1.9920 -0.9925 0.9815
4.0014 2.1695 -0.9926 0.9815
3.9694 2.2277 -0.9926 0.9815
3.9364 2.2855 -0.9926 0.9815
3.8327 2.4559 -0.9926 0.9815
3.7215 2.6216 -0.9927 0.9815
3.6829 2.6757 -0.9927 0.9815
3.6434 2.7293 -0.9927 0.9815
3.6032 2.7823 -0.9927 0.9815
3.5623 2.8347 -0.9927 0.9815
3.5205 2.8865 -0.9928 0.9815
3.3908 3.0382 -0.9928 0.9815
3.3461 3.0875 -0.9928 0.9815
3.3007 3.1361 -0.9928 0.9815
3.2078 3.2313 -0.9929 0.9815
2.9129 3.5002 -0.9930 0.9815
2.8095 3.5839 -0.9930 0.9815
2.7569 3.6247 -0.9931 0.9815
2.7037 3.6647 -0.9931 0.9815
2.6499 3.7039 -0.9931 0.9815
2.5956 3.7423 -0.9931 0.9815
2.5406 3.7799 -0.9932 0.9815
2.4852 3.8167 -0.9932 0.9815
2.3727 3.8879 -0.9932 0.9815
2.3157 3.9222 -0.9932 0.9815
2.1418 4.0202 -0.9933 0.9815
2.0829 4.0512 -0.9933 0.9815
2.0235 4.0812 -0.9934 0.9815
1.9637 4.1105 -0.9934 0.9815
1.8428 4.1663 -0.9934 0.9815
1.5965 4.2673 -0.9935 0.9815
1.5340 4.2903 -0.9936 0.9815
1.4712 4.3124 -0.9936 0.9815
1.4080 4.3335 -0.9936 0.9815
1.0233 4.4408 -0.9938 0.9815
0.8932 4.4691 -0.9938 0.9815
0.8278 4.4818 -0.9938 0.9815
0.7623 4.4936 -0.9939 0.9815
0.6307 4.5141 -0.9939 0.9815
0.4622 3.7021 -0.8136 0.9848
0.4083 3.7107 -0.8141 0.9848
0.3543 3.7195 -0.8148 0.9848
0.3003 3.7284 -0.8157 0.9848
0.2995 4.5487 -0.9941 0.9815
0.1665 4.5558 -0.9941 0.9815
0.0999 4.5578 -0.9941 0.9815
0.0333 4.5589 -0.9942 0.9815
-0.0999 4.5582 -0.9942 0.9815
-0.2331 4.5536 -0.9943 0.9815
-0.3661 4.5450 -0.9943 0.9815
-0.5649 4.5250 -0.9944 0.9815
-0.7628 4.4963 -0.9945 0.9815
-0.8909 4.1418 -0.9238 0.9828
-1.1157 4.0262 -0.9111 0.9830
-1.2822 4.3775 -0.9947 0.9815
-1.4097 4.3384 -0.9948 0.9815
-1.4729 4.3175 -0.9948 0.9815
-1.5985 4.2729 -0.9948 0.9815
-1.6609 4.2491 -0.9949 0.9815
-1.8456 4.1726 -0.9949 0.9815
-1.9064 4.1453 -0.9950 0.9815
-2.0864 4.0581 -0.9950 0.9815
-0.3420 0.5792 -0.1467 0.9972
-0.3397 0.5566 -0.1422 0.9973
-0.3445 0.5291 -0.1377 0.9974
-0.3468 0.5159 -0.1355 0.9975
-0.3508 0.4904 -0.1315 0.9975
-0.3546 0.4662 -0.1277 0.9976
-0.3562 0.4545 -0.1259 0.9976
-0.3579 0.4430 -0.1242 0.9977
-0.3594 0.4318 -0.1225 0.9977
-0.3608 0.4209 -0.1209 0.9977
-0.3624 0.4105 -0.1194 0.9978
-0.3645 0.4009 -0.1182 0.9978
-0.3684 0.3821 -0.1157 0.9978
-0.3704 0.3730 -0.1146 0.9979
-0.3722 0.3642 -0.1136 0.9979
-0.3737 0.3551 -0.1124 0.9979
-0.3760 0.3369 -0.1101 0.9979
-0.3771 0.3280 -0.1090 0.9980
-0.3780 0.3193 -0.1079 0.9980
-0.3790 0.3107 -0.1069 0.9980
-0.3798 0.3023 -0.1059 0.9980
-0.3807 0.2939 -0.1049 0.9980
-0.3835 0.2618 -0.1013 0.9981
-0.3841 0.2541 -0.1004 0.9981
-0.3846 0.2465 -0.0996 0.9981
-0.3852 0.2389 -0.0988 0.9981
-0.3856 0.2315 -0.0981 0.9982
-0.3864 0.2169 -0.0966 0.9982
-0.3868 0.2097 -0.0959 0.9982
-0.3871 0.2026 -0.0953 0.9982
-0.3874 0.1956 -0.0946 0.9982
-0.3878 0.1888 -0.0941 0.9982
-0.3885 0.1821 -0.0936 0.9982
-0.3895 0.1689 -0.0926 0.9983
-0.3899 0.1623 -0.0921 0.9983
-0.3903 0.1559 -0.0916 0.9983
-0.3913 0.1367 -0.0904 0.9983
-0.3916 0.1304 -0.0900 0.9983
-0.3918 0.1241 -0.0896 0.9983
-0.3924 0.1056 -0.0886 0.9983
-0.3924 0.0995 -0.0883 0.9983
-0.3925 0.0935 -0.0880 0.9983
-0.3926 0.0814 -0.0874 0.9984
-0.3926 0.0755 -0.0872 0.9984
-0.3925 0.0636 -0.0867 0.9984
-0.3924 0.0578 -0.0865 0.9984
-0.3920 0.0402 -0.0859 0.9984
-0.3918 0.0344 -0.0858 0.9984
-0.3907 0.0114 -0.0852 0.9984
-0.3904 0.0057 -0.0851 0.9984
-0.3844 -0.0225 -0.0884 0.9984
-0.3846 -0.0282 -0.0886 0.9984
-0.3851 -0.0395 -0.0889 0.9984
-0.3852 -0.0452 -0.0891 0.9984
-0.3853 -0.0509 -0.0893 0.9984
-0.3855 -0.0742 -0.0902 0.9984
-0.3855 -0.0859 -0.0907 0.9984
-0.3854 -0.0918 -0.0910 0.9984
-0.3853 -0.0977 -0.0913 0.9984
-0.3852 -0.1037 -0.0916 0.9984
-0.3837 -0.1404 -0.0938 0.9983
-0.3825 -0.1593 -0.0952 0.9983
-0.3821 -0.1657 -0.0957 0.9983
-0.3816 -0.1721 -0.0961 0.9983
-0.3803 -0.1851 -0.0972 0.9983
-0.3795 -0.1916 -0.0977 0.9983
-0.3792 -0.1985 -0.0983 0.9982
-0.3789 -0.2054 -0.0990 0.9982
-0.3785 -0.2124 -0.0997 0.9982
-0.3780 -0.2195 -0.1004 0.9982
-0.3775 -0.2266 -0.1011 0.9982
-0.3770 -0.2339 -0.1019 0.9982
-0.3764 -0.2412 -0.1027 0.9982
-0.3759 -0.2486 -0.1035 0.9982
-0.3745 -0.2638 -0.1052 0.9981
-0.3703 -0.3036 -0.1100 0.9980
-0.3693 -0.3119 -0.1110 0.9980
-0.3683 -0.3204 -0.1121 0.9980
-0.3648 -0.3466 -0.1156 0.9979
-0.3635 -0.3556 -0.1168 0.9979
-0.3595 -0.3730 -0.1190 0.9979
-0.3575 -0.3818 -0.1201 0.9979
-0.3533 -0.4002 -0.1226 0.9978
-0.3489 -0.4192 -0.1253 0.9978
-0.3397 -0.4748 -0.1341 0.9976
-0.3376 -0.4868 -0.1361 0.9976
-0.3354 -0.4989 -0.1381 0.9975
-0.3306 -0.5243 -0.1424 0.9975
-0.3253 -0.5510 -0.1470 0.9974
-0.3335 -0.6046 -0.1586 0.9972
-1.5767 -4.0338 -0.9948 0.9824
-1.5175 -4.0563 -0.9948 0.9824
-1.2778 -4.1376 -0.9947 0.9824
-1.2172 -4.1557 -0.9947 0.9824
-1.0339 -4.2047 -0.9946 0.9824
-0.9105 -4.2330 -0.9946 0.9824
-0.8486 -4.2457 -0.9945 0.9824
-0.7241 -4.2685 -0.9945 0.9824
-0.5990 -4.2875 -0.9944 0.9824
-0.2844 -4.3193 -0.9943 0.9824
-0.0949 -4.3273 -0.9942 0.9824
0.0948 -4.3270 -0.9941 0.9824
0.2844 -4.3183 -0.9941 0.9824
0.3474 -4.3136 -0.9940 0.9824
0.4104 -4.3080 -0.9940 0.9824
0.4733 -4.3014 -0.9940 0.9824
0.7237 -4.2659 -0.9939 0.9824
0.7859 -4.2548 -0.9939 0.9824
0.9098 -4.2298 -0.9938 0.9824
1.0942 -4.1855 -0.9937 0.9824
1.1553 -4.1690 -0.9937 0.9824
1.2765 -4.1333 -0.9937 0.9824
1.3367 -4.1141 -0.9936 0.9824
1.3967 -4.0940 -0.9936 0.9824
1.5746 -4.0286 -0.9935 0.9824
1.6916 -3.9807 -0.9935 0.9824
1.7496 -3.9555 -0.9935 0.9824
1.8071 -3.9293 -0.9935 0.9824
1.4700 -2.9648 -0.7601 0.9865
1.5472 -2.9041 -0.7558 0.9866
2.0569 -3.7285 -0.9781 0.9827
2.1648 -3.6666 -0.9781 0.9827
1.5602 -2.5566 -0.6880 0.9878
1.6483 -2.6143 -0.7099 0.9874
1.7313 -2.6590 -0.7288 0.9871
1.7661 -2.6275 -0.7272 0.9871
1.8007 -2.5962 -0.7257 0.9871
2.4773 -3.4625 -0.9779 0.9827
2.5772 -3.3886 -0.9779 0.9827
2.6264 -3.3505 -0.9779 0.9827
2.6750 -3.3117 -0.9779 0.9827
2.7231 -3.2721 -0.9778 0.9827
2.7706 -3.2320 -0.9778 0.9827
2.8175 -3.1911 -0.9778 0.9827
2.8637 -3.1495 -0.9778 0.9827
2.9094 -3.1073 -0.9778 0.9827
2.9544 -3.0644 -0.9777 0.9827
2.9988 -3.0208 -0.9777 0.9827
3.0857 -2.9318 -0.9777 0.9827
3.2110 -2.7936 -0.9776 0.9827
3.2912 -2.6985 -0.9776 0.9827
3.3685 -2.6011 -0.9776 0.9827
3.4061 -2.5516 -0.9776 0.9827
3.4791 -2.4509 -0.9775 0.9827
3.5491 -2.3481 -0.9775 0.9827
3.5830 -2.2959 -0.9775 0.9827
3.6800 -2.1366 -0.9775 0.9827
3.7700 -1.9733 -0.9774 0.9827
3.8855 -1.8912 -0.9926 0.9824
3.9646 -1.7190 -0.9926 0.9824
4.0580 -1.4845 -0.9925 0.9824
4.0792 -1.4250 -0.9925 0.9824
4.0996 -1.3652 -0.9925 0.9824
4.1191 -1.3052 -0.9925 0.9824
4.1377 -1.2449 -0.9925 0.9824
4.1554 -1.1843 -0.9925 0.9824
4.1722 -1.1234 -0.9925 0.9824
4.2174 -0.9395 -0.9925 0.9824
4.2306 -0.8777 -0.9925 0.9824
4.2430 -0.8158 -0.9925 0.9824
4.2544 -0.7537 -0.9925 0.9824
4.2746 -0.6291 -0.9925 0.9824
4.2911 -0.5039 -0.9924 0.9824
4.3090 -0.3154 -0.9924 0.9824
4.3132 -0.2524 -0.9924 0.9824
4.3201 -0.0632 -0.9924 0.9824
4.3132 0.2524 -0.9924 0.9824
4.3091 0.3154 -0.9924 0.9824
4.2980 0.4411 -0.9924 0.9824
4.2911 0.5039 -0.9924 0.9824
4.2649 0.6915 -0.9925 0.9824
4.2544 0.7537 -0.9925 0.9824
4.2306 0.8777 -0.9925 0.9824
4.2173 0.9394 -0.9925 0.9824
4.2032 1.0009 -0.9925 0.9824
4.1882 1.0623 -0.9925 0.9824
4.1554 1.1842 -0.9925 0.9824
4.1377 1.2448 -0.9925 0.9824
4.1191 1.3052 -0.9925 0.9824
4.0996 1.3652 -0.9925 0.9824
4.0792 1.4250 -0.9925 0.9824
4.0359 1.5436 -0.9926 0.9824
4.0130 1.6024 -0.9926 0.9824
3.9892 1.6609 -0.9926 0.9824
3.9645 1.7190 -0.9926 0.9824
3.8575 1.9478 -0.9926 0.9824
3.7990 2.0597 -0.9926 0.9824
3.6724 2.2782 -0.9927 0.9824
3.6388 2.3317 -0.9927 0.9824
3.5692 2.4371 -0.9927 0.9824
3.4966 2.5404 -0.9928 0.9824
3.4591 2.5912 -0.9928 0.9824
3.3821 2.6913 -0.9928 0.9824
3.3424 2.7405 -0.9928 0.9824
3.1768 2.9312 -0.9929 0.9824
3.0455 3.0678 -0.9930 0.9824
3.0004 3.1120 -0.9930 0.9824
2.9083 3.1986 -0.9930 0.9824
2.8613 3.2407 -0.9930 0.9824
2.8137 3.2822 -0.9930 0.9824
2.7167 3.3632 -0.9931 0.9824
2.6673 3.4026 -0.9931 0.9824
2.6174 3.4413 -0.9931 0.9824
2.5668 3.4792 -0.9931 0.9824
2.5158 3.5164 -0.9932 0.9824
2.4642 3.5529 -0.9932 0.9824
2.4121 3.5886 -0.9932 0.9824
2.3595 3.6236 -0.9932 0.9824
2.2526 3.6911 -0.9933 0.9824
2.1985 3.7237 -0.9933 0.9824
2.1439 3.7555 -0.9933 0.9824
2.0334 3.8167 -0.9934 0.9824
1.9774 3.8461 -0.9934 0.9824
1.9211 3.8746 -0.9934 0.9824
1.8643 3.9024 -0.9934 0.9824
1.8071 3.9293 -0.9935 0.9824
1.6916 3.9806 -0.9935 0.9824
1.5156 4.0512 -0.9936 0.9824
1.4563 4.0731 -0.9936 0.9824
0.9715 4.2159 -0.9938 0.9824
0.7859 4.2548 -0.9939 0.9824
0.7237 4.2659 -0.9939 0.9824
0.6613 4.2761 -0.9939 0.9824
0.4121 3.7449 -0.8654 0.9847
0.3576 3.7539 -0.8662 0.9846
0.3031 3.7630 -0.8672 0.9846
