ply
format ascii 1.0
element vertex 1585
property float32 x
property float32 y
property float32 z
property float32 I
end_header
-0.9971 3.0688 -0.1566 0.9872
-1.0501 3.0780 -0.1578 0.9871
-1.1039 3.0874 -0.1591 0.9870
-1.1586 3.0969 -0.1604 0.9868
-4.3621 9.1311 -0.4910 0.9603
-4.4195 8.9139 -0.4827 0.9609
-4.5082 8.7685 -0.4784 0.9613
-4.6484 8.7253 -0.4797 0.9612
-4.2940 7.7838 -0.4313 0.9650
-4.5960 7.7844 -0.4386 0.9644
-4.9687 7.8802 -0.4520 0.9634
-5.5134 7.7063 -0.4597 0.9628
-5.7776 7.8313 -0.4722 0.9618
-5.8852 7.7379 -0.4717 0.9618
-6.0612 7.7321 -0.4767 0.9614
-6.4336 7.9647 -0.4968 0.9598
-6.9996 8.1653 -0.5218 0.9578
-14.0823 14.6065 -0.9844 0.9220
-14.2955 14.4004 -0.9845 0.9220
-14.5056 14.1912 -0.9846 0.9219
-14.7127 13.9789 -0.9847 0.9219
-15.1174 13.5452 -0.9848 0.9219
-15.3149 13.3240 -0.9849 0.9219
-15.5091 13.0998 -0.9850 0.9219
-0.7346 0.5846 -0.0455 0.9962
-0.6896 0.4279 -0.0394 0.9968
-0.6879 0.4130 -0.0389 0.9968
-0.6862 0.3985 -0.0385 0.9968
-0.6846 0.3842 -0.0381 0.9969
-0.6820 0.3698 -0.0376 0.9969
-0.6740 0.3281 -0.0364 0.9970
-0.6639 0.2764 -0.0349 0.9971
-0.6588 0.2520 -0.0342 0.9972
-0.6564 0.2401 -0.0339 0.9972
-0.6518 0.2171 -0.0333 0.9973
-0.6500 0.2060 -0.0331 0.9973
-0.6468 0.1843 -0.0326 0.9973
-0.6428 0.1530 -0.0321 0.9974
-0.6400 0.1328 -0.0317 0.9974
-0.6386 0.1228 -0.0316 0.9974
-0.6344 0.0934 -0.0311 0.9974
-0.6330 0.0837 -0.0310 0.9974
-0.6315 0.0741 -0.0309 0.9975
-0.6300 0.0647 -0.0307 0.9975
-0.6271 0.0459 -0.0305 0.9975
-0.6258 0.0366 -0.0304 0.9975
-0.5972 0.0000 -0.0356 0.9976
-0.5984 -0.0088 -0.0357 0.9976
-0.5995 -0.0175 -0.0358 0.9976
-0.6028 -0.0441 -0.0360 0.9976
-0.6038 -0.0530 -0.0361 0.9976
-0.6050 -0.0621 -0.0363 0.9976
-0.6077 -0.0804 -0.0366 0.9975
-0.6102 -0.0989 -0.0369 0.9975
-0.6126 -0.1178 -0.0372 0.9975
-0.6150 -0.1370 -0.0376 0.9975
-0.6162 -0.1467 -0.0378 0.9975
-0.6173 -0.1566 -0.0380 0.9975
-0.6185 -0.1665 -0.0382 0.9974
-0.6196 -0.1766 -0.0384 0.9974
-0.6220 -0.1970 -0.0389 0.9974
-0.6235 -0.2076 -0.0392 0.9974
-0.6280 -0.2402 -0.0401 0.9973
-0.6322 -0.2632 -0.0408 0.9973
-0.6363 -0.2870 -0.0416 0.9972
-0.6448 -0.3375 -0.0434 0.9971
-0.6470 -0.3507 -0.0439 0.9971
-0.6491 -0.3643 -0.0444 0.9970
-0.6557 -0.4068 -0.0460 0.9969
-0.6569 -0.4209 -0.0465 0.9969
-0.6581 -0.4354 -0.0471 0.9968
-0.6618 -0.4808 -0.0488 0.9967
-0.6642 -0.5128 -0.0500 0.9966
-0.6665 -0.5465 -0.0514 0.9966
-0.7163 -0.6050 -0.0559 0.9962
-12.0886 -11.1542 -0.9809 0.9362
-11.8613 -11.2697 -0.9757 0.9365
-11.5738 -11.3228 -0.9655 0.9372
-11.3282 -11.4113 -0.9589 0.9376
-11.1908 -11.6072 -0.9615 0.9374
-10.8811 -12.3242 -0.9804 0.9362
-10.6991 -12.4809 -0.9803 0.9362
-9.1351 -10.9770 -0.8516 0.9444
-1.9057 -2.5056 -0.1877 0.9875
-1.9177 -2.5993 -0.1926 0.9871
-1.9303 -2.6981 -0.1978 0.9868
-1.5425 -2.5275 -0.1766 0.9882
-1.5049 -2.5489 -0.1765 0.9882
-1.4673 -2.5704 -0.1765 0.9882
-1.2790 -2.6773 -0.1769 0.9882
-1.2217 -2.6566 -0.1744 0.9884
-1.1134 -2.6202 -0.1698 0.9887
-1.0866 -2.6646 -0.1716 0.9885
-1.0018 -2.8018 -0.1774 0.9881
-0.9735 -2.8535 -0.1798 0.9880
-0.7673 -2.4846 -0.1551 0.9896
-0.8812 -3.0085 -0.1869 0.9875
-0.8488 -3.0631 -0.1895 0.9873
-0.7363 -2.8166 -0.1736 0.9884
-2.3951 -9.7410 -0.5982 0.9606
-2.0201 -9.3914 -0.5729 0.9622
-1.9011 -9.5120 -0.5785 0.9619
-1.7656 -9.5587 -0.5797 0.9618
-1.4686 -9.4965 -0.5730 0.9622
-1.0397 -9.4496 -0.5669 0.9626
-0.3598 -16.4124 -0.9790 0.9363
0.1199 -16.4127 -0.9788 0.9363
0.3597 -16.4075 -0.9787 0.9364
0.5993 -16.3990 -0.9786 0.9364
0.5297 -8.0444 -0.4808 0.9682
0.8750 -7.9523 -0.4771 0.9685
1.1115 -7.9556 -0.4790 0.9683
1.2297 -7.9523 -0.4799 0.9683
1.3478 -7.9455 -0.4806 0.9682
1.4662 -7.9378 -0.4814 0.9682
1.7072 -7.9368 -0.4841 0.9680
1.8287 -7.9356 -0.4856 0.9679
1.9509 -7.9344 -0.4872 0.9678
2.0740 -7.9331 -0.4890 0.9677
2.1981 -7.9325 -0.4909 0.9676
2.3235 -7.9324 -0.4929 0.9674
2.4494 -7.9308 -0.4950 0.9673
2.5764 -7.9293 -0.4972 0.9671
2.8346 -7.9277 -0.5021 0.9668
1.2463 -3.0559 -0.1968 0.9869
1.3480 -3.0475 -0.1987 0.9867
1.3889 -3.0198 -0.1982 0.9868
1.7049 -3.3158 -0.2223 0.9852
1.3578 -2.5485 -0.1722 0.9885
1.4147 -2.5643 -0.1746 0.9883
1.4917 -2.5264 -0.1750 0.9883
1.7231 -2.5634 -0.1842 0.9877
1.6696 -2.4072 -0.1747 0.9883
1.7903 -2.4267 -0.1798 0.9880
2.0136 -2.5686 -0.1946 0.9870
2.0162 -2.4961 -0.1913 0.9872
2.2188 -2.6660 -0.2068 0.9862
2.2238 -2.5940 -0.2038 0.9864
2.2286 -2.5241 -0.2008 0.9866
2.2333 -2.4560 -0.1980 0.9868
11.4771 -11.5613 -0.9715 0.9368
12.1296 -10.8682 -0.9712 0.9368
12.5919 -10.3243 -0.9710 0.9368
13.2702 -9.9408 -0.9888 0.9357
4.0034 -2.9086 -0.2951 0.9804
4.0466 -2.8506 -0.2952 0.9804
4.0049 -2.6496 -0.2864 0.9809
4.0356 -2.5859 -0.2858 0.9810
14.0851 -8.7379 -0.9884 0.9357
14.3329 -8.3217 -0.9883 0.9357
14.4523 -8.1110 -0.9883 0.9357
14.6818 -7.6845 -0.9882 0.9358
14.7918 -7.4689 -0.9882 0.9358
15.2945 -6.3679 -0.9880 0.9358
15.6381 -5.4629 -0.9878 0.9358
15.7158 -5.2336 -0.9878 0.9358
15.8611 -4.7718 -0.9877 0.9358
15.9287 -4.5395 -0.9877 0.9358
15.9929 -4.3062 -0.9877 0.9358
16.0537 -4.0719 -0.9877 0.9358
15.9173 -3.5457 -0.9725 0.9367
15.9971 -3.0758 -0.9714 0.9368
16.0795 -2.6070 -0.9714 0.9368
16.4727 -1.6908 -0.9875 0.9358
16.4955 -1.4499 -0.9875 0.9358
16.5148 -1.2087 -0.9875 0.9358
16.5429 -0.7257 -0.9875 0.9358
16.5517 -0.4838 -0.9875 0.9358
16.5569 0.2420 -0.9875 0.9358
16.5429 0.7257 -0.9875 0.9358
16.5306 0.9673 -0.9875 0.9358
12.3169 1.6292 -0.7409 0.9514
12.4467 1.8318 -0.7502 0.9508
16.3466 2.6503 -0.9875 0.9358
16.3064 2.8889 -0.9875 0.9358
16.2628 3.1270 -0.9876 0.9358
16.1651 3.6009 -0.9876 0.9358
15.9929 4.3062 -0.9877 0.9358
15.9286 4.5395 -0.9877 0.9358
15.3548 5.3638 -0.9699 0.9369
15.2753 5.5877 -0.9699 0.9369
15.1926 5.8105 -0.9700 0.9369
15.1066 6.0321 -0.9700 0.9369
15.0173 6.2524 -0.9701 0.9369
14.9250 6.4714 -0.9701 0.9369
14.8294 6.6891 -0.9701 0.9369
14.7307 6.9054 -0.9702 0.9369
14.4158 7.5452 -0.9703 0.9369
14.3047 7.7554 -0.9703 0.9369
14.1904 7.9639 -0.9704 0.9369
13.9531 8.3759 -0.9705 0.9369
13.8299 8.5793 -0.9705 0.9369
12.1638 8.0475 -0.8697 0.9432
13.4428 9.1786 -0.9707 0.9369
13.0298 9.7605 -0.9708 0.9368
12.7406 10.1383 -0.9710 0.9368
12.5919 10.3240 -0.9710 0.9368
12.4757 10.5376 -0.9738 0.9367
12.3212 10.7194 -0.9739 0.9367
12.1640 10.8990 -0.9740 0.9366
3.5317 3.3555 -0.2905 0.9807
3.4223 3.3481 -0.2855 0.9810
3.2384 3.3589 -0.2782 0.9815
3.1534 3.3679 -0.2751 0.9817
2.8407 3.4135 -0.2648 0.9824
2.7680 3.4268 -0.2627 0.9825
2.6970 3.4405 -0.2607 0.9826
2.6281 3.4554 -0.2589 0.9828
2.5601 3.4700 -0.2571 0.9829
2.4932 3.4849 -0.2555 0.9830
2.3734 3.5311 -0.2537 0.9831
2.1959 3.8465 -0.2641 0.9824
2.1864 3.9633 -0.2699 0.9820
2.2535 4.5451 -0.3025 0.9799
2.2858 4.7849 -0.3162 0.9790
2.3309 5.0682 -0.3327 0.9779
2.5080 6.1499 -0.3961 0.9737
2.5799 6.6004 -0.4226 0.9720
2.6020 6.9550 -0.4428 0.9707
0.8187 2.7951 -0.1737 0.9884
0.7762 2.8008 -0.1733 0.9884
0.6915 2.8123 -0.1727 0.9885
0.6493 2.8179 -0.1724 0.9885
0.5655 2.8293 -0.1721 0.9885
0.5237 2.8349 -0.1719 0.9885
0.4401 2.8462 -0.1717 0.9885
0.3151 2.8632 -0.1718 0.9885
0.2733 2.8688 -0.1719 0.9885
0.1897 2.8802 -0.1721 0.9885
0.1478 2.8861 -0.1723 0.9885
0.0212 2.9037 -0.1732 0.9884
-0.0213 2.9096 -0.1735 0.9884
-0.0639 2.9155 -0.1739 0.9884
-0.1498 2.9275 -0.1748 0.9883
-0.2808 2.9473 -0.1765 0.9882
-0.3698 2.9624 -0.1780 0.9881
-0.4149 2.9700 -0.1788 0.9881
-0.5529 2.9934 -0.1815 0.9879
-0.6474 3.0096 -0.1836 0.9877
-0.7935 3.0350 -0.1871 0.9875
-0.8434 3.0437 -0.1883 0.9874
-0.8941 3.0526 -0.1897 0.9873
-0.9455 3.0615 -0.1911 0.9872
-0.9977 3.0706 -0.1925 0.9871
-1.0507 3.0798 -0.1941 0.9870
-1.1046 3.0892 -0.1956 0.9869
-1.1593 3.0987 -0.1973 0.9868
-1.3294 3.1284 -0.2027 0.9865
-4.1745 9.4378 -0.6154 0.9595
-4.2712 9.2872 -0.6096 0.9599
-4.5688 8.8864 -0.5959 0.9608
-4.1749 7.8366 -0.5295 0.9650
-4.4733 7.8359 -0.5381 0.9645
-4.6275 7.8379 -0.5428 0.9642
-4.8393 7.9295 -0.5540 0.9635
-5.3144 7.9066 -0.5681 0.9625
-5.9275 7.7934 -0.5839 0.9615
-6.0975 7.7784 -0.5894 0.9612
-6.6960 8.0460 -0.6242 0.9589
-6.8496 7.9902 -0.6276 0.9587
-7.3105 8.0400 -0.6480 0.9574
-7.4178 7.9223 -0.6472 0.9574
-11.6187 11.7039 -0.9834 0.9361
-11.7892 11.5336 -0.9835 0.9360
-11.9573 11.3609 -0.9836 0.9360
-12.2858 11.0082 -0.9837 0.9360
-0.8166 0.7105 -0.0645 0.9957
-0.6665 0.5465 -0.0514 0.9966
-0.6642 0.5129 -0.0500 0.9966
-0.6594 0.4503 -0.0476 0.9968
-0.6581 0.4355 -0.0471 0.9968
-0.6569 0.4210 -0.0465 0.9969
-0.6536 0.3924 -0.0455 0.9969
-0.6513 0.3782 -0.0449 0.9970
-0.6470 0.3508 -0.0439 0.9971
-0.6448 0.3376 -0.0434 0.9971
-0.6427 0.3245 -0.0429 0.9971
-0.6385 0.2993 -0.0420 0.9972
-0.6363 0.2870 -0.0416 0.9972
-0.6342 0.2750 -0.0412 0.9972
-0.6235 0.2076 -0.0392 0.9974
-0.6220 0.1971 -0.0389 0.9974
-0.6207 0.1868 -0.0387 0.9974
-0.6173 0.1566 -0.0380 0.9975
-0.6138 0.1274 -0.0374 0.9975
-0.6089 0.0896 -0.0367 0.9975
-0.6076 0.0804 -0.0366 0.9975
-0.6050 0.0621 -0.0363 0.9976
-0.6028 0.0441 -0.0360 0.9976
-0.6017 0.0352 -0.0359 0.9976
-0.5995 0.0175 -0.0358 0.9976
-0.5984 0.0088 -0.0357 0.9976
-0.5794 -0.0339 -0.0411 0.9977
-0.5842 -0.0773 -0.0417 0.9976
-0.5854 -0.0861 -0.0419 0.9976
-0.5864 -0.0951 -0.0420 0.9976
-0.5876 -0.1041 -0.0422 0.9976
-0.5886 -0.1131 -0.0424 0.9976
-0.5897 -0.1223 -0.0426 0.9976
-0.5907 -0.1316 -0.0428 0.9976
-0.5936 -0.1598 -0.0435 0.9975
-0.5963 -0.1889 -0.0443 0.9975
-0.5975 -0.1990 -0.0446 0.9975
-0.6012 -0.2299 -0.0455 0.9974
-0.6023 -0.2405 -0.0459 0.9974
-0.6035 -0.2512 -0.0463 0.9974
-0.6051 -0.2623 -0.0467 0.9974
-0.6068 -0.2737 -0.0471 0.9973
-0.6085 -0.2852 -0.0476 0.9973
-0.6154 -0.3336 -0.0495 0.9972
-0.6171 -0.3463 -0.0501 0.9972
-0.6187 -0.3592 -0.0506 0.9971
-0.6289 -0.4570 -0.0550 0.9969
-0.6297 -0.4716 -0.0557 0.9969
-0.6304 -0.4868 -0.0564 0.9968
-0.6311 -0.5022 -0.0571 0.9968
-0.6317 -0.5179 -0.0578 0.9967
-0.6323 -0.5341 -0.0586 0.9967
-0.6971 -0.6246 -0.0662 0.9963
-0.7910 -0.7298 -0.0762 0.9957
-9.9365 -10.0093 -0.9980 0.9450
-9.4639 -10.1077 -0.9798 0.9460
-9.1635 -10.3787 -0.9797 0.9460
-8.8551 -10.6407 -0.9796 0.9460
-1.8794 -2.5475 -0.2240 0.9874
-1.8833 -2.6324 -0.2290 0.9871
-1.8793 -2.7096 -0.2333 0.9869
-1.8705 -2.8727 -0.2426 0.9863
-1.5385 -2.5209 -0.2090 0.9882
-1.4635 -2.5636 -0.2089 0.9882
-1.4260 -2.5849 -0.2089 0.9882
-1.3470 -2.5285 -0.2027 0.9886
-1.1640 -2.3478 -0.1854 0.9895
-1.1021 -2.3965 -0.1867 0.9895
-0.8875 -2.3723 -0.1792 0.9899
-0.8627 -2.4129 -0.1813 0.9898
-0.8373 -2.4545 -0.1835 0.9897
-0.8673 -2.9610 -0.2183 0.9877
-0.8037 -3.0743 -0.2249 0.9873
-0.7813 -3.1775 -0.2315 0.9870
-0.6770 -3.1475 -0.2278 0.9872
-1.9135 -9.5740 -0.6909 0.9616
-1.7397 -9.4188 -0.6778 0.9623
-1.3498 -9.6614 -0.6903 0.9616
-1.0779 -9.7960 -0.6974 0.9613
-0.9430 -9.8989 -0.7036 0.9609
-0.6687 -10.1560 -0.7202 0.9600
-0.3684 -10.0795 -0.7137 0.9604
-0.2619 -11.9450 -0.8455 0.9532
-0.0912 -12.4805 -0.8832 0.9512
0.1008 -13.7925 -0.9760 0.9462
0.3023 -13.7884 -0.9759 0.9462
0.5037 -13.7814 -0.9758 0.9462
0.4313 -8.4256 -0.5970 0.9667
0.7588 -7.9652 -0.5662 0.9684
0.8752 -7.9538 -0.5662 0.9684
1.1121 -7.9600 -0.5687 0.9683
1.2303 -7.9557 -0.5697 0.9682
1.5870 -7.9404 -0.5730 0.9681
1.8287 -7.9357 -0.5763 0.9679
2.0741 -7.9334 -0.5803 0.9677
2.1981 -7.9323 -0.5825 0.9675
1.0990 -3.2213 -0.2409 0.9864
1.1206 -2.9953 -0.2263 0.9873
1.1063 -2.7127 -0.2073 0.9883
1.2926 -3.0414 -0.2338 0.9868
1.3934 -3.0296 -0.2360 0.9867
1.4342 -3.0020 -0.2354 0.9867
1.3799 -2.5901 -0.2077 0.9883
1.5765 -2.5002 -0.2092 0.9882
1.6411 -2.4416 -0.2082 0.9883
1.6887 -2.4348 -0.2097 0.9882
1.7370 -2.4280 -0.2113 0.9881
1.7929 -2.4300 -0.2137 0.9880
1.8876 -2.4078 -0.2165 0.9878
1.7408 -2.1550 -0.1960 0.9890
2.1760 -2.4645 -0.2326 0.9869
2.0601 -2.2655 -0.2167 0.9878
2.0922 -2.1075 -0.2101 0.9882
10.4187 -9.3352 -0.9899 0.9454
10.5534 -9.1815 -0.9898 0.9455
10.6859 -9.0258 -0.9898 0.9455
10.8160 -8.8683 -0.9897 0.9455
10.9439 -8.7088 -0.9897 0.9455
4.1166 -2.8108 -0.3527 0.9802
4.0107 -2.6534 -0.3403 0.9809
11.9864 -7.1955 -0.9893 0.9455
12.0898 -7.0193 -0.9892 0.9455
12.6550 -5.9324 -0.9890 0.9455
12.7399 -5.7467 -0.9890 0.9455
12.8221 -5.5597 -0.9889 0.9455
12.9783 -5.1824 -0.9889 0.9455
13.0522 -4.9920 -0.9888 0.9455
13.1234 -4.8007 -0.9888 0.9455
13.1918 -4.6083 -0.9888 0.9455
13.2574 -4.4149 -0.9888 0.9455
13.3201 -4.2206 -0.9887 0.9455
13.4371 -3.8294 -0.9887 0.9455
13.2845 -3.5769 -0.9735 0.9463
11.6267 -2.5899 -0.8429 0.9534
13.4951 -2.5947 -0.9724 0.9464
13.5647 -2.1993 -0.9724 0.9464
13.6369 -1.8037 -0.9734 0.9463
13.8965 -1.4264 -0.9885 0.9455
13.9321 -1.0197 -0.9885 0.9455
13.9454 -0.8160 -0.9885 0.9455
13.9632 -0.4082 -0.9885 0.9455
13.9676 -0.2041 -0.9885 0.9455
13.9691 0.0000 -0.9885 0.9455
13.9454 0.8160 -0.9885 0.9455
13.9158 1.2232 -0.9885 0.9455
13.7900 2.2358 -0.9886 0.9455
13.7192 2.6379 -0.9886 0.9455
13.6794 2.8381 -0.9886 0.9455
13.5912 3.2368 -0.9886 0.9455
13.5427 3.4350 -0.9887 0.9455
13.4913 3.6326 -0.9887 0.9455
13.3800 4.0255 -0.9887 0.9455
13.2573 4.4149 -0.9888 0.9455
13.1917 4.6083 -0.9888 0.9455
13.1234 4.8007 -0.9888 0.9455
12.8158 4.9015 -0.9709 0.9465
12.6678 5.2742 -0.9710 0.9465
12.5898 5.4589 -0.9710 0.9465
12.3397 6.0060 -0.9711 0.9465
12.2512 6.1859 -0.9712 0.9465
8.9080 5.1720 -0.7289 0.9595
11.5588 7.4066 -0.9714 0.9464
11.4498 7.5750 -0.9715 0.9464
11.3384 7.7418 -0.9715 0.9464
11.1084 8.0705 -0.9716 0.9464
10.9899 8.2324 -0.9717 0.9464
10.6201 8.7075 -0.9718 0.9464
10.4923 8.8621 -0.9719 0.9464
10.2301 9.1659 -0.9720 0.9464
3.5126 3.3373 -0.3429 0.9808
3.3166 3.3409 -0.3331 0.9813
3.2300 3.3502 -0.3293 0.9815
2.9877 3.3840 -0.3194 0.9821
2.8364 3.4084 -0.3138 0.9824
2.5543 3.4623 -0.3045 0.9829
2.3668 3.5212 -0.3002 0.9831
2.1986 3.7239 -0.3060 0.9828
2.1852 3.8278 -0.3119 0.9825
2.1727 3.9385 -0.3183 0.9821
2.2433 4.5246 -0.3574 0.9800
2.2785 4.7696 -0.3740 0.9790
2.3270 5.0597 -0.3941 0.9779
2.5594 6.5479 -0.4975 0.9722
2.6020 6.9551 -0.5255 0.9707
0.8191 2.7966 -0.2062 0.9884
0.7341 2.8080 -0.2054 0.9884
0.6918 2.8137 -0.2050 0.9884
0.5658 2.8307 -0.2043 0.9885
0.5239 2.8364 -0.2041 0.9885
0.4821 2.8420 -0.2040 0.9885
0.4404 2.8477 -0.2039 0.9885
0.3987 2.8534 -0.2039 0.9885
0.3569 2.8590 -0.2039 0.9885
0.3152 2.8646 -0.2039 0.9885
0.1478 2.8873 -0.2046 0.9885
-0.0639 2.9162 -0.2064 0.9884
-0.1932 2.9342 -0.2081 0.9883
-0.2808 2.9480 -0.2095 0.9882
-0.3252 2.9555 -0.2104 0.9881
-0.5067 2.9868 -0.2144 0.9879
-0.6477 3.0113 -0.2180 0.9877
-0.7939 3.0368 -0.2221 0.9875
-0.8439 3.0455 -0.2236 0.9874
-1.0513 3.0816 -0.2304 0.9870
-1.1052 3.0910 -0.2323 0.9869
-1.2157 3.1103 -0.2363 0.9867
-4.2964 8.9935 -0.7053 0.9608
-4.4340 8.9432 -0.7064 0.9608
-4.5815 8.9111 -0.7090 0.9606
-4.7538 7.7895 -0.6457 0.9641
-5.2197 8.0163 -0.6769 0.9624
-5.3259 7.9237 -0.6756 0.9624
-5.4317 7.8314 -0.6744 0.9625
-5.6423 7.6479 -0.6725 0.9626
-5.9704 7.8498 -0.6979 0.9612
-6.6579 8.0003 -0.7365 0.9591
-7.2764 8.0026 -0.7654 0.9576
-7.3833 7.8855 -0.7644 0.9576
-9.6111 9.9688 -0.9799 0.9460
-9.7563 9.8278 -0.9799 0.9460
-10.0405 9.5396 -0.9800 0.9460
-0.7909 0.7298 -0.0762 0.9957
-0.6970 0.6245 -0.0662 0.9963
-0.6329 0.5507 -0.0594 0.9966
-0.6324 0.5341 -0.0586 0.9967
-0.6310 0.5022 -0.0571 0.9968
-0.6304 0.4868 -0.0564 0.9968
-0.6289 0.4570 -0.0550 0.9969
-0.6282 0.4425 -0.0544 0.9969
-0.6258 0.4140 -0.0531 0.9970
-0.6222 0.3860 -0.0518 0.9971
-0.6204 0.3725 -0.0512 0.9971
-0.6188 0.3593 -0.0506 0.9971
-0.6119 0.3090 -0.0485 0.9973
-0.6085 0.2853 -0.0476 0.9973
-0.6035 0.2512 -0.0463 0.9974
-0.6023 0.2405 -0.0459 0.9974
-0.6011 0.2300 -0.0455 0.9974
-0.5999 0.2195 -0.0452 0.9974
-0.5963 0.1890 -0.0443 0.9975
-0.5955 0.1791 -0.0440 0.9975
-0.5946 0.1695 -0.0437 0.9975
-0.5927 0.1504 -0.0433 0.9976
-0.5917 0.1409 -0.0430 0.9976
-0.5897 0.1223 -0.0426 0.9976
-0.5886 0.1132 -0.0424 0.9976
-0.5876 0.1041 -0.0422 0.9976
-0.5854 0.0861 -0.0419 0.9976
-0.5843 0.0773 -0.0417 0.9976
-0.5822 0.0598 -0.0414 0.9977
-0.5803 0.0425 -0.0412 0.9977
-0.5784 0.0254 -0.0410 0.9977
-0.5773 0.0169 -0.0409 0.9977
-0.5763 0.0084 -0.0408 0.9977
-0.5558 -0.0081 -0.0455 0.9978
-0.5586 -0.0327 -0.0458 0.9978
-0.5604 -0.0492 -0.0461 0.9977
-0.5612 -0.0576 -0.0462 0.9977
-0.5621 -0.0660 -0.0464 0.9977
-0.5628 -0.0744 -0.0465 0.9977
-0.5636 -0.0830 -0.0467 0.9977
-0.5664 -0.1089 -0.0472 0.9977
-0.5682 -0.1266 -0.0477 0.9977
-0.5690 -0.1355 -0.0479 0.9977
-0.5736 -0.1910 -0.0495 0.9976
-0.5746 -0.2007 -0.0499 0.9976
-0.5775 -0.2306 -0.0509 0.9975
-0.5784 -0.2408 -0.0513 0.9975
-0.5794 -0.2512 -0.0517 0.9975
-0.5812 -0.2724 -0.0526 0.9974
-0.5826 -0.2835 -0.0531 0.9974
-0.5839 -0.2948 -0.0536 0.9974
-0.5853 -0.3063 -0.0541 0.9974
-0.5866 -0.3180 -0.0547 0.9973
-0.5906 -0.3545 -0.0564 0.9972
-0.5918 -0.3671 -0.0570 0.9972
-0.5958 -0.4068 -0.0591 0.9971
-0.5971 -0.4206 -0.0598 0.9971
-0.5984 -0.4347 -0.0606 0.9970
-0.6001 -0.4776 -0.0628 0.9969
-0.6006 -0.5073 -0.0644 0.9968
-0.6007 -0.5226 -0.0652 0.9968
-0.6766 -0.6429 -0.0764 0.9963
-8.7055 -8.5167 -0.9975 0.9523
-8.5796 -8.6425 -0.9975 0.9523
-8.4520 -8.7666 -0.9974 0.9523
-8.0585 -9.1271 -0.9973 0.9523
-2.0483 -2.6130 -0.2720 0.9868
-1.8200 -2.4670 -0.2511 0.9878
-1.8347 -2.5645 -0.2583 0.9874
-1.8299 -2.6383 -0.2630 0.9872
-1.8248 -2.7149 -0.2679 0.9870
-1.8194 -2.7943 -0.2731 0.9867
-1.5344 -2.5143 -0.2413 0.9882
-1.4970 -2.5356 -0.2412 0.9883
-1.4056 -2.5480 -0.2384 0.9884
-1.2947 -2.5182 -0.2319 0.9887
-1.0978 -2.3871 -0.2152 0.9895
-1.0849 -2.4529 -0.2197 0.9893
-1.0715 -2.5214 -0.2244 0.9891
-0.9072 -2.4248 -0.2121 0.9897
-0.8563 -2.5102 -0.2172 0.9894
-0.8300 -2.5546 -0.2200 0.9893
-0.8404 -3.0329 -0.2578 0.9874
-0.7989 -3.0559 -0.2587 0.9874
-0.6686 -3.1084 -0.2604 0.9873
-1.7786 -9.6293 -0.8021 0.9615
-1.6355 -9.6413 -0.8010 0.9615
-1.2090 -9.6837 -0.7993 0.9616
-1.0960 -9.9609 -0.8208 0.9606
-0.3800 -10.3970 -0.8522 0.9591
-0.2612 -11.9148 -0.9762 0.9533
-0.0870 -11.9165 -0.9761 0.9533
0.0871 -11.9157 -0.9760 0.9533
0.5294 -8.0396 -0.6599 0.9682
0.6435 -7.9892 -0.6565 0.9683
0.7890 -8.2825 -0.6815 0.9672
1.1122 -7.9608 -0.6584 0.9683
1.2304 -7.9563 -0.6594 0.9682
1.4664 -7.9390 -0.6613 0.9681
1.5888 -7.9495 -0.6640 0.9680
2.0756 -7.9392 -0.6721 0.9676
0.8280 -2.6808 -0.2298 0.9888
1.1653 -2.9812 -0.2622 0.9872
1.3416 -2.9170 -0.2630 0.9872
1.4463 -2.9170 -0.2667 0.9870
1.3451 -2.6161 -0.2410 0.9883
1.4029 -2.6331 -0.2444 0.9881
1.5267 -2.5015 -0.2400 0.9883
1.5362 -2.4361 -0.2359 0.9885
1.5542 -2.3121 -0.2282 0.9889
1.6903 -2.4370 -0.2429 0.9882
1.7225 -2.4075 -0.2425 0.9882
1.8195 -2.4660 -0.2510 0.9878
2.1197 -2.4725 -0.2668 0.9870
2.0865 -2.2283 -0.2500 0.9878
2.4560 -2.4739 -0.2855 0.9861
8.7673 -8.3300 -0.9906 0.9526
9.1226 -7.9366 -0.9904 0.9526
9.3497 -7.6659 -0.9903 0.9526
9.4604 -7.5282 -0.9903 0.9526
4.0174 -2.6579 -0.3946 0.9809
10.1766 -6.5210 -0.9900 0.9526
10.2705 -6.3713 -0.9900 0.9527
10.4515 -6.0681 -0.9899 0.9527
10.7063 -5.6037 -0.9898 0.9527
11.0139 -4.9682 -0.9897 0.9527
11.2201 -4.4803 -0.9896 0.9527
11.2841 -4.3158 -0.9896 0.9527
11.3393 -3.5930 -0.9743 0.9534
11.4273 -3.2566 -0.9733 0.9534
11.4735 -3.0893 -0.9732 0.9534
11.4513 -2.7271 -0.9642 0.9539
11.6335 -2.4137 -0.9732 0.9534
11.6988 -2.0726 -0.9731 0.9534
11.7397 -1.9034 -0.9741 0.9534
11.9493 -1.7586 -0.9893 0.9527
11.9737 -1.5838 -0.9893 0.9527
11.9954 -1.4086 -0.9893 0.9527
12.0312 -1.0575 -0.9893 0.9527
12.0569 -0.7055 -0.9892 0.9527
12.0761 -0.1764 -0.9892 0.9527
12.0774 0.0000 -0.9892 0.9527
12.0761 0.1765 -0.9892 0.9527
12.0722 0.3529 -0.9892 0.9527
12.0658 0.5293 -0.9892 0.9527
12.0569 0.7055 -0.9892 0.9527
12.0453 0.8816 -0.9893 0.9527
12.0312 1.0575 -0.9893 0.9527
11.9736 1.5838 -0.9893 0.9527
11.9225 1.9330 -0.9893 0.9527
11.8612 2.2806 -0.9893 0.9527
11.8268 2.4537 -0.9893 0.9527
11.7898 2.6263 -0.9894 0.9527
11.7503 2.7983 -0.9894 0.9527
11.6171 3.3108 -0.9894 0.9527
11.5677 3.4802 -0.9894 0.9527
11.4615 3.8169 -0.9895 0.9527
11.3456 4.1504 -0.9895 0.9527
11.2841 4.3158 -0.9896 0.9527
10.8144 4.8780 -0.9717 0.9535
10.6679 5.1923 -0.9718 0.9535
10.5123 5.5021 -0.9718 0.9535
8.9081 5.1721 -0.8436 0.9595
10.1744 6.1076 -0.9720 0.9535
10.0844 6.2559 -0.9720 0.9535
9.7032 6.8353 -0.9722 0.9535
9.6027 6.9766 -0.9722 0.9535
9.3955 7.2548 -0.9723 0.9535
9.2889 7.3917 -0.9723 0.9535
9.1804 7.5270 -0.9724 0.9535
3.5009 3.3263 -0.3955 0.9808
3.3080 3.3322 -0.3846 0.9813
3.0605 3.3659 -0.3726 0.9819
2.9825 3.3780 -0.3691 0.9821
2.9057 3.3896 -0.3657 0.9822
2.7581 3.4145 -0.3595 0.9825
2.5487 3.4545 -0.3516 0.9829
2.4831 3.4707 -0.3495 0.9830
2.3588 3.5094 -0.3463 0.9832
2.3004 3.5330 -0.3453 0.9832
2.2193 3.6364 -0.3489 0.9830
2.1795 3.8178 -0.3601 0.9825
2.1832 3.9575 -0.3702 0.9820
2.1531 4.0414 -0.3751 0.9818
2.1853 4.2503 -0.3915 0.9810
2.3286 5.0632 -0.4565 0.9779
2.3900 5.4034 -0.4839 0.9766
2.4518 5.7696 -0.5135 0.9752
2.5477 6.5182 -0.5732 0.9723
3.8524 11.2923 -0.9773 0.9532
0.9054 2.7864 -0.2400 0.9883
0.5661 2.8322 -0.2366 0.9885
0.5242 2.8379 -0.2364 0.9885
0.4406 2.8491 -0.2361 0.9885
0.3154 2.8661 -0.2362 0.9885
0.2318 2.8775 -0.2364 0.9885
0.1479 2.8888 -0.2369 0.9885
0.1058 2.8943 -0.2372 0.9884
0.0212 2.9052 -0.2380 0.9884
-0.1498 2.9271 -0.2401 0.9883
-0.1931 2.9326 -0.2407 0.9883
-0.2367 2.9387 -0.2415 0.9882
-0.3696 2.9605 -0.2444 0.9881
-0.5524 2.9905 -0.2491 0.9879
-0.6466 3.0058 -0.2518 0.9877
-0.6945 3.0136 -0.2533 0.9877
-0.7429 3.0214 -0.2549 0.9876
-0.7920 3.0294 -0.2565 0.9875
-0.8417 3.0374 -0.2582 0.9874
-0.8920 3.0455 -0.2599 0.9873
-0.9431 3.0536 -0.2618 0.9873
-0.9949 3.0619 -0.2637 0.9872
-1.0474 3.0702 -0.2657 0.9871
-1.1008 3.0787 -0.2678 0.9870
-1.2101 3.0959 -0.2723 0.9867
-4.2987 9.3471 -0.8427 0.9596
-4.2003 7.8843 -0.7317 0.9648
-4.3716 7.9245 -0.7413 0.9643
-4.8754 7.9887 -0.7666 0.9631
-5.1510 8.1694 -0.7910 0.9620
-5.0967 7.8273 -0.7651 0.9632
-5.3374 7.9409 -0.7837 0.9623
-5.5491 7.7562 -0.7811 0.9624
-6.0139 7.9071 -0.8137 0.9609
-6.0130 7.6706 -0.7983 0.9616
-6.6497 7.9905 -0.8515 0.9591
-6.7129 7.8308 -0.8448 0.9594
-7.1359 8.0822 -0.8831 0.9577
-8.0429 8.8455 -0.9793 0.9532
-8.4241 8.4858 -0.9794 0.9531
-0.6009 0.5545 -0.0670 0.9967
-0.6008 0.5384 -0.0661 0.9968
-0.6007 0.5227 -0.0652 0.9968
-0.6004 0.4923 -0.0636 0.9969
-0.5995 0.4491 -0.0614 0.9970
-0.5984 0.4348 -0.0606 0.9970
-0.5971 0.4206 -0.0598 0.9971
-0.5944 0.3933 -0.0584 0.9971
-0.5906 0.3545 -0.0564 0.9972
-0.5893 0.3421 -0.0558 0.9973
-0.5879 0.3300 -0.0552 0.9973
-0.5866 0.3180 -0.0547 0.9973
-0.5839 0.2949 -0.0536 0.9974
-0.5812 0.2725 -0.0526 0.9974
-0.5802 0.2617 -0.0521 0.9974
-0.5793 0.2512 -0.0517 0.9975
-0.5785 0.2409 -0.0513 0.9975
-0.5775 0.2306 -0.0509 0.9975
-0.5756 0.2105 -0.0502 0.9975
-0.5736 0.1910 -0.0495 0.9976
-0.5729 0.1816 -0.0492 0.9976
-0.5722 0.1721 -0.0489 0.9976
-0.5714 0.1629 -0.0487 0.9976
-0.5690 0.1355 -0.0479 0.9977
-0.5682 0.1266 -0.0477 0.9977
-0.5664 0.1089 -0.0472 0.9977
-0.5645 0.0916 -0.0468 0.9977
-0.5620 0.0661 -0.0464 0.9977
-0.5577 0.0245 -0.0457 0.9978
-0.5558 0.0081 -0.0455 0.9978
-0.5357 0.0000 -0.0499 0.9979
-0.5366 -0.0078 -0.0500 0.9978
-0.5392 -0.0315 -0.0503 0.9978
-0.5409 -0.0475 -0.0505 0.9978
-0.5430 -0.0718 -0.0510 0.9978
-0.5437 -0.0800 -0.0511 0.9978
-0.5449 -0.0966 -0.0515 0.9978
-0.5458 -0.1049 -0.0517 0.9978
-0.5465 -0.1134 -0.0520 0.9978
-0.5487 -0.1391 -0.0527 0.9977
-0.5494 -0.1479 -0.0530 0.9977
-0.5500 -0.1567 -0.0532 0.9977
-0.5506 -0.1656 -0.0535 0.9977
-0.5517 -0.1837 -0.0541 0.9977
-0.5539 -0.2118 -0.0552 0.9976
-0.5553 -0.2312 -0.0560 0.9976
-0.5560 -0.2411 -0.0564 0.9976
-0.5567 -0.2511 -0.0568 0.9975
-0.5573 -0.2612 -0.0573 0.9975
-0.5585 -0.2820 -0.0582 0.9975
-0.5594 -0.2928 -0.0588 0.9975
-0.5604 -0.3038 -0.0593 0.9974
-0.5615 -0.3151 -0.0599 0.9974
-0.5634 -0.3382 -0.0612 0.9974
-0.5643 -0.3501 -0.0618 0.9973
-0.5670 -0.3871 -0.0639 0.9972
-0.5679 -0.4001 -0.0647 0.9972
-0.5688 -0.4132 -0.0654 0.9972
-0.5704 -0.4404 -0.0671 0.9971
-0.5712 -0.4545 -0.0679 0.9971
-0.5717 -0.4830 -0.0697 0.9970
-0.5716 -0.4973 -0.0705 0.9970
-0.5710 -0.5269 -0.0723 0.9969
-0.6550 -0.6598 -0.0865 0.9963
-7.3212 -7.8191 -0.9970 0.9579
-7.2058 -7.9248 -0.9969 0.9579
-7.0889 -8.0289 -0.9969 0.9579
-6.9705 -8.1313 -0.9968 0.9579
-2.0868 -2.5076 -0.3036 0.9870
-1.7884 -2.4998 -0.2861 0.9877
-1.7577 -2.6151 -0.2933 0.9874
-1.6574 -2.5454 -0.2827 0.9879
-1.1059 -2.3150 -0.2388 0.9897
-1.0472 -2.2770 -0.2333 0.9900
-0.9527 -2.4373 -0.2436 0.9895
-0.9023 -2.5236 -0.2494 0.9893
-0.8182 -2.3982 -0.2358 0.9899
-0.8028 -2.4707 -0.2418 0.9896
-0.7653 -2.7618 -0.2667 0.9886
-0.7525 -3.0603 -0.2933 0.9874
-0.7095 -3.0789 -0.2941 0.9874
-0.5411 -3.1897 -0.3011 0.9871
-1.3777 -9.8609 -0.9267 0.9608
-0.2298 -10.4853 -0.9761 0.9587
-0.0766 -10.4868 -0.9761 0.9587
0.0767 -10.4862 -0.9760 0.9587
0.2299 -10.4833 -0.9760 0.9588
0.3830 -10.4781 -0.9759 0.9588
0.5360 -10.4708 -0.9758 0.9588
0.5298 -8.0452 -0.7504 0.9681
0.6441 -7.9972 -0.7468 0.9683
0.8751 -7.9530 -0.7447 0.9684
1.2299 -7.9530 -0.7490 0.9682
1.3479 -7.9459 -0.7501 0.9681
1.4662 -7.9381 -0.7513 0.9681
0.8867 -2.8710 -0.2797 0.9880
1.0238 -2.7363 -0.2719 0.9883
1.0572 -2.7046 -0.2703 0.9884
1.0904 -2.6736 -0.2687 0.9885
1.1232 -2.5392 -0.2584 0.9889
1.1887 -2.5844 -0.2648 0.9886
1.2211 -2.5559 -0.2636 0.9887
1.2534 -2.5278 -0.2626 0.9887
1.4178 -2.5700 -0.2732 0.9883
1.5471 -2.4535 -0.2700 0.9884
1.5860 -2.3595 -0.2646 0.9886
1.6458 -2.3727 -0.2688 0.9885
1.6824 -2.3516 -0.2691 0.9885
1.7922 -2.4291 -0.2810 0.9879
1.7161 -2.1890 -0.2589 0.9889
1.8024 -2.2312 -0.2670 0.9885
1.7934 -2.1549 -0.2609 0.9888
2.0777 -2.3530 -0.2922 0.9875
1.9628 -2.1586 -0.2715 0.9883
2.0901 -2.2321 -0.2846 0.9878
2.4074 -2.4969 -0.3228 0.9862
2.3537 -2.3709 -0.3109 0.9867
2.3957 -2.3437 -0.3119 0.9866
7.8247 -7.2198 -0.9909 0.9581
7.9290 -7.1045 -0.9909 0.9581
8.0316 -6.9875 -0.9909 0.9581
8.2317 -6.7493 -0.9908 0.9581
3.7849 -2.9226 -0.4451 0.9810
3.9958 -2.9031 -0.4597 0.9804
4.0364 -2.8434 -0.4595 0.9804
4.0243 -2.6624 -0.4491 0.9808
9.0427 -5.6098 -0.9904 0.9582
9.4266 -4.9340 -0.9903 0.9582
9.4974 -4.7955 -0.9903 0.9582
9.5662 -4.6561 -0.9902 0.9582
9.6330 -4.5157 -0.9902 0.9582
9.6977 -4.3744 -0.9902 0.9582
9.8209 -4.0890 -0.9901 0.9582
9.8794 -3.9449 -0.9901 0.9582
9.9357 -3.8001 -0.9901 0.9582
9.8368 -3.5984 -0.9749 0.9588
9.8780 -3.4507 -0.9739 0.9588
9.9742 -3.1605 -0.9738 0.9588
10.0191 -3.0143 -0.9738 0.9588
10.0620 -2.8676 -0.9738 0.9588
10.1411 -2.5722 -0.9738 0.9588
10.2436 -2.1253 -0.9737 0.9588
10.2735 -1.9753 -0.9737 0.9588
10.3117 -1.8269 -0.9747 0.9588
10.5624 -1.2403 -0.9898 0.9582
10.5939 -0.9312 -0.9898 0.9582
10.6064 -0.7763 -0.9898 0.9582
10.6245 -0.4660 -0.9898 0.9582
10.6301 -0.3107 -0.9898 0.9582
10.6335 -0.1554 -0.9898 0.9582
10.6335 0.1554 -0.9898 0.9582
10.6165 0.6212 -0.9898 0.9582
10.6064 0.7763 -0.9898 0.9582
10.5793 1.0859 -0.9898 0.9582
10.5218 1.5485 -0.9899 0.9582
10.4441 2.0081 -0.9899 0.9582
10.3812 2.3125 -0.9899 0.9582
10.3465 2.4640 -0.9899 0.9582
10.1855 3.0644 -0.9900 0.9582
10.0921 3.3609 -0.9900 0.9582
9.9899 3.6544 -0.9901 0.9582
9.8209 4.0890 -0.9901 0.9582
9.6977 4.3745 -0.9902 0.9582
9.6330 4.5158 -0.9902 0.9582
9.4974 4.7955 -0.9903 0.9582
9.2559 4.8445 -0.9724 0.9589
9.1844 4.9793 -0.9724 0.9589
9.1109 5.1132 -0.9724 0.9589
8.9581 5.3775 -0.9725 0.9589
8.7148 5.7655 -0.9726 0.9589
8.5432 6.0181 -0.9726 0.9589
8.4546 6.1425 -0.9727 0.9589
8.2721 6.3874 -0.9727 0.9589
8.0826 6.6269 -0.9728 0.9589
7.9852 6.7446 -0.9729 0.9589
7.8861 6.8608 -0.9729 0.9589
3.4989 3.3244 -0.4492 0.9808
2.9033 3.3867 -0.4152 0.9822
2.6818 3.4211 -0.4046 0.9827
2.6119 3.4341 -0.4016 0.9828
2.4781 3.4637 -0.3964 0.9830
2.4158 3.4831 -0.3945 0.9831
2.2929 3.5214 -0.3911 0.9833
2.1545 3.9054 -0.4151 0.9822
2.1530 4.0414 -0.4262 0.9818
2.2395 4.5169 -0.4692 0.9800
2.4987 6.1272 -0.6159 0.9738
0.9013 2.7737 -0.2715 0.9884
0.7313 2.7974 -0.2691 0.9885
0.6893 2.8032 -0.2687 0.9885
0.4803 2.8316 -0.2673 0.9885
0.4387 2.8372 -0.2672 0.9885
0.3971 2.8427 -0.2672 0.9885
0.3556 2.8483 -0.2672 0.9885
0.3140 2.8538 -0.2672 0.9885
0.2724 2.8593 -0.2673 0.9885
0.1890 2.8703 -0.2677 0.9885
0.1472 2.8757 -0.2680 0.9885
0.1053 2.8812 -0.2683 0.9885
0.0633 2.8866 -0.2687 0.9885
0.0212 2.8920 -0.2692 0.9884
-0.1063 2.9093 -0.2710 0.9884
-0.1923 2.9210 -0.2725 0.9883
-0.2795 2.9339 -0.2743 0.9882
-0.3680 2.9478 -0.2765 0.9881
-0.4128 2.9548 -0.2777 0.9881
-0.4580 2.9619 -0.2790 0.9880
-0.5037 2.9690 -0.2803 0.9880
-0.5497 2.9762 -0.2817 0.9879
-0.5963 2.9837 -0.2832 0.9879
-0.7393 3.0066 -0.2882 0.9876
-0.7881 3.0144 -0.2900 0.9876
-0.8876 3.0302 -0.2939 0.9874
-0.9383 3.0382 -0.2960 0.9873
-0.9898 3.0464 -0.2981 0.9872
-1.0421 3.0545 -0.3004 0.9871
-4.2492 9.6070 -0.9777 0.9587
-4.2901 9.3284 -0.9557 0.9596
-4.4693 9.3554 -0.9650 0.9592
-4.6669 9.4131 -0.9779 0.9587
-4.8043 9.3445 -0.9780 0.9587
-4.4787 7.8454 -0.8408 0.9644
-5.5612 7.7731 -0.8896 0.9623
-6.0452 8.1939 -0.9477 0.9599
-6.0565 7.7261 -0.9137 0.9613
-6.2457 7.7320 -0.9251 0.9609
-0.6549 0.6597 -0.0865 0.9963
-0.5702 0.5579 -0.0742 0.9968
-0.5706 0.5422 -0.0733 0.9968
-0.5713 0.5119 -0.0714 0.9969
-0.5696 0.4267 -0.0662 0.9971
-0.5679 0.4001 -0.0647 0.9972
-0.5670 0.3872 -0.0639 0.9972
-0.5614 0.3151 -0.0599 0.9974
-0.5585 0.2820 -0.0582 0.9975
-0.5579 0.2716 -0.0578 0.9975
-0.5560 0.2411 -0.0564 0.9976
-0.5546 0.2215 -0.0556 0.9976
-0.5531 0.2023 -0.0548 0.9976
-0.5487 0.1392 -0.0527 0.9977
-0.5473 0.1220 -0.0522 0.9977
-0.5449 0.0966 -0.0515 0.9978
-0.5430 0.0719 -0.0510 0.9978
-0.5423 0.0637 -0.0508 0.9978
-0.5416 0.0556 -0.0507 0.9978
-0.5408 0.0476 -0.0505 0.9978
-0.5384 0.0236 -0.0502 0.9978
-0.5376 0.0157 -0.0501 0.9978
-0.5366 0.0079 -0.0500 0.9978
-0.5187 -0.0076 -0.0541 0.9979
-0.5196 -0.0152 -0.0542 0.9979
-0.5211 -0.0305 -0.0544 0.9979
-0.5226 -0.0459 -0.0547 0.9979
-0.5233 -0.0537 -0.0548 0.9979
-0.5246 -0.0694 -0.0552 0.9979
-0.5257 -0.0852 -0.0555 0.9979
-0.5262 -0.0932 -0.0557 0.9979
-0.5267 -0.1013 -0.0559 0.9978
-0.5279 -0.1176 -0.0564 0.9978
-0.5305 -0.1596 -0.0578 0.9978
-0.5310 -0.1683 -0.0581 0.9978
-0.5314 -0.1770 -0.0584 0.9977
-0.5318 -0.1857 -0.0587 0.9977
-0.5322 -0.1947 -0.0591 0.9977
-0.5350 -0.2413 -0.0612 0.9976
-0.5354 -0.2510 -0.0617 0.9976
-0.5358 -0.2608 -0.0621 0.9976
-0.5362 -0.2707 -0.0626 0.9976
-0.5365 -0.2808 -0.0631 0.9976
-0.5368 -0.2910 -0.0637 0.9975
-0.5372 -0.3015 -0.0642 0.9975
-0.5392 -0.3345 -0.0662 0.9975
-0.5403 -0.3575 -0.0676 0.9974
-0.5419 -0.3937 -0.0698 0.9973
-0.5424 -0.4063 -0.0707 0.9973
-0.5428 -0.4191 -0.0715 0.9972
-0.5432 -0.4323 -0.0724 0.9972
-0.5439 -0.4594 -0.0742 0.9971
-0.5442 -0.4734 -0.0752 0.9971
-0.5444 -0.4878 -0.0762 0.9971
-0.5424 -0.5306 -0.0791 0.9970
-0.5416 -0.5455 -0.0802 0.9969
-0.5419 -0.5621 -0.0814 0.9969
-0.6320 -0.6749 -0.0964 0.9963
-6.3262 -7.1651 -0.9966 0.9623
-6.2206 -7.2565 -0.9965 0.9623
-6.1136 -7.3463 -0.9965 0.9623
-6.0054 -7.4345 -0.9965 0.9623
-5.6730 -7.6895 -0.9963 0.9623
-1.7809 -2.4892 -0.3191 0.9878
-1.7382 -2.5062 -0.3180 0.9878
-1.4773 -2.4206 -0.2957 0.9887
-1.3765 -2.4112 -0.2895 0.9889
-1.3123 -2.4633 -0.2910 0.9888
-1.1640 -2.2641 -0.2654 0.9898
-1.0930 -2.2880 -0.2644 0.9899
-1.0233 -2.4082 -0.2728 0.9895
-0.9992 -2.4502 -0.2759 0.9894
-0.9048 -2.3150 -0.2592 0.9901
-0.8916 -2.3832 -0.2653 0.9898
-0.8325 -2.5623 -0.2809 0.9892
-0.8325 -2.6958 -0.2942 0.9887
-0.8139 -2.7787 -0.3019 0.9884
-0.6817 -2.9582 -0.3165 0.9879
-0.6227 -2.8951 -0.3088 0.9882
-0.5025 -2.9626 -0.3133 0.9880
-0.4575 -2.9582 -0.3121 0.9880
-1.3199 -9.4473 -0.9946 0.9624
-1.1817 -9.4650 -0.9945 0.9624
-1.0432 -9.4808 -0.9945 0.9624
-0.9045 -9.4945 -0.9944 0.9624
-0.7656 -9.5062 -0.9944 0.9624
-0.3482 -9.5290 -0.9942 0.9624
-0.2090 -9.5325 -0.9941 0.9624
0.0696 -9.5335 -0.9940 0.9624
0.3481 -9.5264 -0.9939 0.9624
0.4873 -9.5197 -0.9939 0.9624
0.6263 -9.5110 -0.9938 0.9624
0.9928 -7.9522 -0.8356 0.9683
1.1110 -7.9520 -0.8372 0.9682
1.2293 -7.9490 -0.8386 0.9682
1.7305 -9.3689 -0.9934 0.9624
1.8671 -9.3421 -0.9933 0.9624
2.1391 -9.2826 -0.9932 0.9624
2.2744 -9.2498 -0.9931 0.9624
2.6771 -9.1398 -0.9930 0.9624
0.9925 -3.2136 -0.3507 0.9866
1.0519 -3.2371 -0.3549 0.9864
1.0446 -3.0617 -0.3373 0.9871
1.0641 -2.9757 -0.3295 0.9874
1.1489 -2.8170 -0.3172 0.9878
1.1885 -2.7966 -0.3168 0.9879
1.2026 -2.7188 -0.3100 0.9881
1.2611 -2.5434 -0.2960 0.9886
1.3095 -2.5468 -0.2986 0.9885
1.3594 -2.5514 -0.3014 0.9884
1.4078 -2.4659 -0.2960 0.9886
1.4064 -2.3819 -0.2884 0.9889
1.4736 -2.4144 -0.2949 0.9887
1.5437 -2.4481 -0.3018 0.9884
1.5960 -2.3743 -0.2983 0.9886
1.6387 -2.3625 -0.2998 0.9885
1.6648 -2.3270 -0.2983 0.9886
1.7799 -2.2033 -0.2953 0.9887
1.8049 -2.1687 -0.2942 0.9887
1.8473 -2.1548 -0.2959 0.9887
1.8488 -2.0938 -0.2912 0.9888
2.2955 -2.4515 -0.3502 0.9866
2.3374 -2.4243 -0.3511 0.9865
2.3797 -2.3970 -0.3522 0.9865
6.8926 -6.5489 -0.9913 0.9625
6.9873 -6.4472 -0.9913 0.9625
7.2623 -6.1341 -0.9912 0.9625
7.3509 -6.0271 -0.9911 0.9625
3.7936 -2.9293 -0.4997 0.9809
3.9233 -2.8504 -0.5056 0.9807
4.0330 -2.8411 -0.5144 0.9804
3.9992 -2.7307 -0.5049 0.9807
8.0016 -5.1273 -0.9909 0.9625
8.1475 -4.8910 -0.9908 0.9625
8.2865 -4.6506 -0.9908 0.9625
8.4817 -4.2827 -0.9907 0.9625
8.6606 -3.9066 -0.9906 0.9625
8.6362 -3.5957 -0.9754 0.9631
8.6787 -3.4655 -0.9744 0.9631
8.7759 -3.2103 -0.9743 0.9631
8.9861 -2.5609 -0.9742 0.9631
9.0224 -2.4293 -0.9742 0.9631
9.0568 -2.2972 -0.9742 0.9631
9.1199 -2.0315 -0.9742 0.9631
9.1578 -1.9000 -0.9752 0.9631
9.3526 -1.6570 -0.9903 0.9625
9.3757 -1.5201 -0.9903 0.9625
9.4160 -1.2454 -0.9903 0.9625
9.4331 -1.1077 -0.9903 0.9625
9.4482 -0.9698 -0.9903 0.9625
9.4613 -0.8316 -0.9903 0.9625
9.4815 -0.5548 -0.9903 0.9625
9.4886 -0.4162 -0.9903 0.9625
9.4937 -0.2775 -0.9903 0.9625
9.4967 -0.1388 -0.9903 0.9625
9.4977 0.0000 -0.9903 0.9625
9.4967 0.1388 -0.9903 0.9625
9.4936 0.2775 -0.9903 0.9625
9.4815 0.5548 -0.9903 0.9625
9.4724 0.6933 -0.9903 0.9625
9.4613 0.8316 -0.9903 0.9625
9.4482 0.9698 -0.9903 0.9625
9.4160 1.2455 -0.9903 0.9625
9.3004 1.9296 -0.9903 0.9625
9.2403 2.2005 -0.9904 0.9625
9.2072 2.3354 -0.9904 0.9625
9.1722 2.4697 -0.9904 0.9625
9.0964 2.7367 -0.9904 0.9625
9.0129 3.0015 -0.9905 0.9625
8.9682 3.1329 -0.9905 0.9625
8.8732 3.3937 -0.9905 0.9625
8.7165 3.7796 -0.9906 0.9625
8.6606 3.9066 -0.9906 0.9625
8.6028 4.0329 -0.9906 0.9625
8.4816 4.2827 -0.9907 0.9625
8.4184 4.4062 -0.9907 0.9625
8.2865 4.6506 -0.9907 0.9625
8.2179 4.7713 -0.9908 0.9625
7.7067 5.2620 -0.9730 0.9632
6.9522 6.2291 -0.9733 0.9632
6.8608 6.3303 -0.9733 0.9632
3.5005 3.3260 -0.5035 0.9808
3.3022 3.3264 -0.4887 0.9813
3.2180 3.3377 -0.4834 0.9815
3.0569 3.3620 -0.4738 0.9819
2.8276 3.3977 -0.4609 0.9824
2.7532 3.4084 -0.4568 0.9825
2.6807 3.4197 -0.4530 0.9827
2.6103 3.4320 -0.4496 0.9828
2.5410 3.4442 -0.4463 0.9829
2.4762 3.4612 -0.4437 0.9830
2.3524 3.4998 -0.4397 0.9832
2.2913 3.5190 -0.4378 0.9833
2.2086 3.6188 -0.4420 0.9831
2.2818 4.7763 -0.5519 0.9789
2.4408 5.7436 -0.6507 0.9752
2.6022 6.9556 -0.7743 0.9706
3.1478 8.8033 -0.9748 0.9631
3.0189 8.8488 -0.9748 0.9631
0.8971 2.7611 -0.3027 0.9884
0.7700 2.7789 -0.3007 0.9885
0.7280 2.7848 -0.3001 0.9885
0.6861 2.7905 -0.2996 0.9885
0.6444 2.7962 -0.2992 0.9885
0.5611 2.8077 -0.2985 0.9886
0.4782 2.8189 -0.2981 0.9886
0.4368 2.8245 -0.2980 0.9886
0.3126 2.8410 -0.2980 0.9886
0.2712 2.8465 -0.2981 0.9886
0.2297 2.8519 -0.2983 0.9886
0.1881 2.8575 -0.2986 0.9885
0.1466 2.8633 -0.2989 0.9885
0.0630 2.8748 -0.2998 0.9885
0.0210 2.8806 -0.3003 0.9885
-0.0634 2.8921 -0.3016 0.9884
-0.2348 2.9153 -0.3049 0.9883
-0.2784 2.9221 -0.3061 0.9883
-0.3223 2.9291 -0.3072 0.9882
-0.5016 2.9569 -0.3127 0.9880
-0.5475 2.9639 -0.3143 0.9880
-0.5938 2.9711 -0.3159 0.9879
-0.6406 2.9782 -0.3176 0.9878
-0.7359 2.9927 -0.3213 0.9877
-0.7843 3.0001 -0.3233 0.9876
-0.8831 3.0152 -0.3276 0.9874
-0.9336 3.0230 -0.3299 0.9874
-1.0367 3.0390 -0.3348 0.9872
-1.3091 3.0807 -0.3490 0.9866
-3.9176 8.5184 -0.9776 0.9630
-4.2878 8.3398 -0.9778 0.9630
-4.4120 7.7286 -0.9279 0.9648
-4.7630 7.8046 -0.9533 0.9639
-4.9457 7.8438 -0.9668 0.9634
-5.1335 7.8839 -0.9809 0.9629
-5.3268 7.9250 -0.9956 0.9623
-5.4454 7.8513 -0.9962 0.9623
-5.6730 7.6895 -0.9963 0.9623
-5.7851 7.6061 -0.9964 0.9623
-6.0054 7.4345 -0.9964 0.9623
-6.1136 7.3463 -0.9965 0.9623
-6.3262 7.1652 -0.9966 0.9623
-6.4305 7.0722 -0.9966 0.9623
-0.6319 0.6749 -0.0964 0.9963
-0.5418 0.5620 -0.0814 0.9969
-0.5416 0.5456 -0.0801 0.9969
-0.5432 0.5161 -0.0781 0.9970
-0.5439 0.5018 -0.0772 0.9970
-0.5444 0.4878 -0.0762 0.9971
-0.5439 0.4594 -0.0742 0.9971
-0.5436 0.4457 -0.0733 0.9972
-0.5432 0.4323 -0.0724 0.9972
-0.5428 0.4192 -0.0715 0.9972
-0.5424 0.4063 -0.0707 0.9973
-0.5419 0.3937 -0.0698 0.9973
-0.5414 0.3814 -0.0690 0.9973
-0.5408 0.3693 -0.0683 0.9974
-0.5403 0.3575 -0.0676 0.9974
-0.5392 0.3345 -0.0662 0.9975
-0.5379 0.3123 -0.0648 0.9975
-0.5368 0.2911 -0.0637 0.9975
-0.5365 0.2808 -0.0631 0.9976
-0.5345 0.2318 -0.0607 0.9977
-0.5340 0.2223 -0.0603 0.9977
-0.5328 0.2038 -0.0595 0.9977
-0.5318 0.1858 -0.0587 0.9977
-0.5310 0.1682 -0.0581 0.9978
-0.5306 0.1596 -0.0578 0.9978
-0.5296 0.1426 -0.0572 0.9978
-0.5285 0.1259 -0.0566 0.9978
-0.5278 0.1176 -0.0564 0.9978
-0.5267 0.1013 -0.0559 0.9978
-0.5257 0.0852 -0.0555 0.9979
-0.5251 0.0773 -0.0553 0.9979
-0.5239 0.0616 -0.0550 0.9979
-0.5219 0.0382 -0.0546 0.9979
-0.5211 0.0305 -0.0544 0.9979
-0.5196 0.0152 -0.0542 0.9979
-0.5011 0.0000 -0.0579 0.9980
-0.5020 -0.0073 -0.0580 0.9980
-0.5027 -0.0147 -0.0581 0.9980
-0.5035 -0.0221 -0.0582 0.9980
-0.5042 -0.0295 -0.0583 0.9980
-0.5055 -0.0445 -0.0586 0.9980
-0.5061 -0.0520 -0.0588 0.9980
-0.5067 -0.0595 -0.0589 0.9979
-0.5072 -0.0670 -0.0591 0.9979
-0.5078 -0.0747 -0.0593 0.9979
-0.5082 -0.0824 -0.0595 0.9979
-0.5087 -0.0901 -0.0597 0.9979
-0.5098 -0.1136 -0.0603 0.9979
-0.5122 -0.1623 -0.0620 0.9978
-0.5125 -0.1706 -0.0624 0.9978
-0.5138 -0.2052 -0.0639 0.9978
-0.5142 -0.2141 -0.0643 0.9978
-0.5148 -0.2322 -0.0652 0.9977
-0.5151 -0.2414 -0.0657 0.9977
-0.5154 -0.2508 -0.0662 0.9977
-0.5156 -0.2603 -0.0667 0.9977
-0.5157 -0.2699 -0.0672 0.9977
-0.5158 -0.2796 -0.0678 0.9976
-0.5159 -0.3097 -0.0695 0.9976
-0.5161 -0.3202 -0.0701 0.9976
-0.5172 -0.3644 -0.0731 0.9975
-0.5174 -0.3759 -0.0739 0.9974
-0.5176 -0.3877 -0.0747 0.9974
-0.5178 -0.3998 -0.0755 0.9974
-0.5178 -0.4121 -0.0764 0.9973
-0.5179 -0.4246 -0.0773 0.9973
-0.5177 -0.4638 -0.0803 0.9972
-0.5174 -0.4774 -0.0813 0.9972
-0.5169 -0.5056 -0.0835 0.9971
-0.5160 -0.5198 -0.0846 0.9971
-0.5149 -0.5340 -0.0857 0.9970
-0.5136 -0.5485 -0.0868 0.9970
-0.6077 -0.6882 -0.1060 0.9963
-5.5186 -6.6312 -0.9963 0.9659
-1.7212 -2.3331 -0.3348 0.9884
-1.6352 -2.4328 -0.3385 0.9883
-1.4910 -2.2898 -0.3155 0.9891
-1.4654 -2.3241 -0.3173 0.9890
-1.4131 -2.3934 -0.3210 0.9889
-1.2057 -2.1856 -0.2883 0.9900
-1.1842 -2.2228 -0.2908 0.9899
-1.1596 -2.2555 -0.2929 0.9898
-1.0419 -2.3555 -0.2974 0.9897
-0.9413 -2.5160 -0.3102 0.9892
-0.9156 -2.5609 -0.3141 0.9891
-0.7670 -2.7680 -0.3317 0.9885
-0.7199 -2.7536 -0.3287 0.9886
-0.6736 -2.7395 -0.3258 0.9887
-0.6281 -2.7257 -0.3230 0.9888
-0.5834 -2.7123 -0.3204 0.9889
-0.5394 -2.6991 -0.3179 0.9890
-0.5489 -2.9716 -0.3490 0.9879
-1.1916 -8.5293 -0.9945 0.9659
-0.9418 -8.5596 -0.9944 0.9659
-0.6912 -8.5827 -0.9943 0.9659
-0.4401 -8.5983 -0.9942 0.9659
-0.3144 -8.6034 -0.9942 0.9659
0.0629 -8.6076 -0.9940 0.9659
0.1886 -8.6054 -0.9940 0.9659
0.3143 -8.6013 -0.9939 0.9659
0.4400 -8.5953 -0.9939 0.9659
0.6909 -8.5779 -0.9938 0.9659
0.9923 -7.9483 -0.9250 0.9683
1.1104 -7.9475 -0.9267 0.9682
1.4389 -8.4820 -0.9935 0.9660
1.5626 -8.4595 -0.9934 0.9660
1.6859 -8.4354 -0.9934 0.9660
1.8089 -8.4095 -0.9933 0.9660
2.0537 -8.3522 -0.9932 0.9660
2.1754 -8.3209 -0.9932 0.9660
2.4173 -8.2530 -0.9931 0.9660
1.0770 -3.4870 -0.4214 0.9854
1.0512 -3.0811 -0.3759 0.9870
1.0568 -2.9554 -0.3625 0.9874
1.1965 -2.8154 -0.3533 0.9878
1.3173 -2.5620 -0.3327 0.9885
1.3665 -2.5648 -0.3356 0.9884
1.3812 -2.5035 -0.3302 0.9886
1.3981 -2.3678 -0.3175 0.9890
1.4683 -2.3285 -0.3179 0.9890
1.6691 -2.4064 -0.3382 0.9883
1.6652 -2.3273 -0.3305 0.9885
1.5721 -2.0669 -0.2999 0.9896
1.7731 -2.2618 -0.3319 0.9885
1.7986 -2.2264 -0.3305 0.9885
1.8238 -2.1914 -0.3292 0.9886
1.8986 -2.0880 -0.3259 0.9887
1.9212 -2.0517 -0.3246 0.9887
2.3506 -2.4379 -0.3911 0.9865
2.3697 -2.3869 -0.3884 0.9865
6.2249 -5.9144 -0.9916 0.9660
6.3946 -5.7296 -0.9915 0.9660
6.4774 -5.6354 -0.9915 0.9660
6.5589 -5.5399 -0.9914 0.9660
6.7175 -5.3455 -0.9914 0.9660
3.8023 -2.9360 -0.5548 0.9808
3.9995 -2.8175 -0.5650 0.9805
4.0061 -2.7353 -0.5602 0.9807
7.2267 -4.6307 -0.9912 0.9660
7.3586 -4.4174 -0.9911 0.9660
7.6033 -3.9796 -0.9910 0.9660
7.7160 -3.7555 -0.9910 0.9660
7.7441 -3.3578 -0.9747 0.9666
7.9264 -2.8995 -0.9747 0.9666
7.9678 -2.7833 -0.9746 0.9666
8.0075 -2.6666 -0.9746 0.9666
8.0817 -2.4314 -0.9746 0.9666
8.1490 -2.1942 -0.9746 0.9666
8.2179 -1.9571 -0.9755 0.9666
8.2504 -1.8379 -0.9761 0.9665
8.4002 -1.7428 -0.9907 0.9660
8.5046 -1.1249 -0.9907 0.9660
8.5456 -0.7512 -0.9906 0.9660
8.5748 0.2507 -0.9906 0.9660
8.5638 0.5011 -0.9906 0.9660
8.5556 0.6262 -0.9906 0.9660
8.4682 1.3730 -0.9907 0.9660
8.4246 1.6198 -0.9907 0.9660
8.3739 1.8654 -0.9907 0.9660
8.3458 1.9875 -0.9907 0.9660
8.3160 2.1093 -0.9907 0.9660
8.2511 2.3515 -0.9908 0.9660
8.1790 2.5916 -0.9908 0.9660
8.1404 2.7109 -0.9908 0.9660
8.0142 3.0652 -0.9909 0.9660
7.9687 3.1820 -0.9909 0.9660
7.8221 3.5284 -0.9909 0.9660
7.7698 3.6423 -0.9910 0.9660
7.7160 3.7556 -0.9910 0.9660
7.6605 3.8680 -0.9910 0.9660
7.6033 3.9796 -0.9910 0.9660
7.4222 4.3093 -0.9911 0.9660
7.2934 4.5246 -0.9911 0.9660
6.8903 4.8537 -0.9733 0.9666
6.8189 4.9541 -0.9733 0.9666
6.6716 5.1516 -0.9734 0.9666
6.4401 5.4395 -0.9735 0.9666
6.2788 5.6257 -0.9735 0.9666
3.5022 3.3275 -0.5579 0.9807
3.4004 3.3267 -0.5493 0.9810
3.3015 3.3257 -0.5412 0.9813
3.2173 3.3371 -0.5353 0.9815
3.0569 3.3620 -0.5247 0.9819
2.5405 3.4436 -0.4942 0.9829
2.4768 3.4619 -0.4916 0.9830
2.3533 3.5011 -0.4871 0.9832
2.2921 3.5202 -0.4851 0.9832
2.2134 3.6268 -0.4907 0.9830
2.1531 4.0415 -0.5288 0.9817
2.1853 4.2505 -0.5519 0.9809
2.3290 5.0641 -0.6437 0.9778
2.4350 5.7300 -0.7190 0.9752
2.6631 6.5302 -0.8144 0.9720
2.5582 6.5448 -0.8115 0.9721
2.6022 6.9557 -0.8576 0.9705
2.7261 7.9904 -0.9750 0.9666
0.7247 2.7722 -0.3309 0.9885
0.6415 2.7837 -0.3299 0.9886
0.5586 2.7951 -0.3292 0.9886
0.5173 2.8007 -0.3289 0.9886
0.3936 2.8174 -0.3285 0.9886
0.3525 2.8233 -0.3286 0.9886
0.3113 2.8291 -0.3287 0.9886
0.2701 2.8349 -0.3289 0.9886
0.1874 2.8464 -0.3294 0.9886
0.1045 2.8579 -0.3302 0.9886
0.0628 2.8637 -0.3308 0.9885
-0.0210 2.8751 -0.3320 0.9885
-0.2339 2.9038 -0.3364 0.9883
-0.2773 2.9105 -0.3376 0.9883
-0.3210 2.9173 -0.3389 0.9883
-0.4095 2.9310 -0.3418 0.9882
-0.4543 2.9379 -0.3433 0.9881
-0.5452 2.9518 -0.3466 0.9880
-0.6851 2.9730 -0.3523 0.9878
-0.8793 3.0021 -0.3612 0.9875
-0.9294 3.0095 -0.3637 0.9874
-1.0319 3.0246 -0.3690 0.9872
-1.1373 3.0401 -0.3748 0.9870
-3.4869 7.8834 -0.9954 0.9659
-3.6019 7.8320 -0.9955 0.9659
-4.1649 7.5498 -0.9957 0.9659
-4.3842 7.4255 -0.9958 0.9659
-4.5996 7.2949 -0.9959 0.9659
-4.9155 7.0873 -0.9960 0.9659
-5.1209 6.9412 -0.9961 0.9659
-5.2220 6.8659 -0.9961 0.9659
-5.3220 6.7891 -0.9962 0.9659
-5.4208 6.7109 -0.9962 0.9659
-0.5148 0.5341 -0.0857 0.9970
-0.5161 0.5198 -0.0846 0.9971
-0.5169 0.5057 -0.0835 0.9971
-0.5178 0.4505 -0.0793 0.9972
-0.5174 0.3759 -0.0739 0.9974
-0.5172 0.3644 -0.0731 0.9975
-0.5168 0.3419 -0.0716 0.9975
-0.5165 0.3310 -0.0708 0.9975
-0.5161 0.3202 -0.0701 0.9976
-0.5159 0.3097 -0.0695 0.9976
-0.5158 0.2797 -0.0678 0.9976
-0.5157 0.2700 -0.0672 0.9977
-0.5155 0.2604 -0.0667 0.9977
-0.5148 0.2322 -0.0652 0.9977
-0.5141 0.2141 -0.0643 0.9978
-0.5137 0.2052 -0.0639 0.9978
-0.5122 0.1623 -0.0620 0.9978
-0.5111 0.1376 -0.0611 0.9979
-0.5102 0.1215 -0.0606 0.9979
-0.5091 0.0979 -0.0599 0.9979
-0.5087 0.0901 -0.0597 0.9979
-0.5073 0.0671 -0.0591 0.9979
-0.5067 0.0595 -0.0589 0.9979
-0.5061 0.0520 -0.0588 0.9980
-0.5042 0.0295 -0.0583 0.9980
-0.5035 0.0221 -0.0582 0.9980
-0.5027 0.0147 -0.0581 0.9980
-0.4862 -0.0071 -0.0616 0.9980
-0.4869 -0.0142 -0.0617 0.9980
-0.4883 -0.0286 -0.0620 0.9980
-0.4889 -0.0358 -0.0621 0.9980
-0.4895 -0.0430 -0.0623 0.9980
-0.4900 -0.0503 -0.0624 0.9980
-0.4905 -0.0576 -0.0626 0.9980
-0.4910 -0.0650 -0.0628 0.9980
-0.4915 -0.0723 -0.0630 0.9980
-0.4919 -0.0797 -0.0631 0.9980
-0.4922 -0.0872 -0.0634 0.9980
-0.4926 -0.0947 -0.0636 0.9980
-0.4929 -0.1023 -0.0638 0.9980
-0.4934 -0.1175 -0.0643 0.9980
-0.4942 -0.1408 -0.0651 0.9979
-0.4950 -0.1729 -0.0664 0.9979
-0.4954 -0.1978 -0.0676 0.9979
-0.4959 -0.2150 -0.0685 0.9978
-0.4962 -0.2326 -0.0695 0.9978
-0.4963 -0.2416 -0.0700 0.9978
-0.4963 -0.2785 -0.0721 0.9977
-0.4958 -0.3075 -0.0739 0.9977
-0.4955 -0.3175 -0.0746 0.9976
-0.4952 -0.3381 -0.0760 0.9976
-0.4952 -0.3488 -0.0768 0.9976
-0.4950 -0.3707 -0.0784 0.9975
-0.4948 -0.3821 -0.0792 0.9975
-0.4946 -0.3936 -0.0801 0.9975
-0.4934 -0.4420 -0.0839 0.9973
-0.4923 -0.4677 -0.0861 0.9973
-0.4894 -0.5227 -0.0907 0.9971
-0.4865 -0.5511 -0.0932 0.9970
-0.4977 -0.5806 -0.0969 0.9969
-0.5820 -0.6993 -0.1153 0.9963
-4.7578 -6.2555 -0.9960 0.9688
-1.9647 -2.6630 -0.4194 0.9867
-1.7205 -2.4807 -0.3826 0.9879
-1.2958 -2.1232 -0.3152 0.9900
-1.2104 -2.2721 -0.3262 0.9897
-1.1053 -2.2293 -0.3153 0.9900
-1.0629 -2.2251 -0.3125 0.9901
-1.0396 -2.3504 -0.3257 0.9897
-0.9258 -2.2702 -0.3107 0.9902
-1.0090 -2.5814 -0.3512 0.9889
-0.9686 -2.5891 -0.3503 0.9889
-0.8520 -2.6222 -0.3494 0.9889
-0.8577 -2.7773 -0.3683 0.9883
-0.8185 -2.7944 -0.3690 0.9883
-0.7769 -2.8038 -0.3687 0.9883
-0.7291 -2.7889 -0.3653 0.9884
-0.5461 -2.7326 -0.3531 0.9888
-0.5471 -2.9622 -0.3817 0.9879
-0.4966 -2.9277 -0.3763 0.9881
-1.0859 -7.7723 -0.9945 0.9689
-0.9721 -7.7869 -0.9944 0.9689
-0.8582 -7.7999 -0.9944 0.9689
-0.7441 -7.8112 -0.9944 0.9689
-0.0573 -7.8443 -0.9941 0.9689
0.4009 -7.8327 -0.9939 0.9689
1.0849 -7.7655 -0.9936 0.9689
1.3112 -7.7297 -0.9935 0.9689
1.4240 -7.7094 -0.9935 0.9689
1.6485 -7.6638 -0.9934 0.9689
1.7602 -7.6386 -0.9934 0.9689
1.9825 -7.5832 -0.9933 0.9689
2.0930 -7.5530 -0.9932 0.9689
2.2030 -7.5214 -0.9932 0.9689
2.3126 -7.4880 -0.9931 0.9689
2.5302 -7.4166 -0.9930 0.9689
1.0687 -2.8564 -0.3865 0.9878
1.0668 -2.7291 -0.3713 0.9883
1.2096 -2.7344 -0.3789 0.9880
1.2582 -2.7356 -0.3816 0.9879
1.2164 -2.5460 -0.3576 0.9887
1.3514 -2.7257 -0.3855 0.9878
1.2164 -2.3657 -0.3371 0.9893
1.3061 -2.3673 -0.3426 0.9892
1.3977 -2.3671 -0.3484 0.9890
1.3887 -2.2752 -0.3378 0.9893
1.3997 -2.2198 -0.3326 0.9895
1.4629 -2.2466 -0.3397 0.9892
1.5974 -2.3030 -0.3552 0.9888
1.6873 -2.2184 -0.3532 0.9888
1.7751 -2.2645 -0.3646 0.9885
1.7238 -2.1339 -0.3476 0.9890
1.7362 -2.0861 -0.3439 0.9891
1.9044 -2.0943 -0.3587 0.9887
2.3021 -2.3188 -0.4141 0.9869
2.3258 -2.2753 -0.4123 0.9870
2.3051 -2.1900 -0.4029 0.9873
2.1435 -1.8647 -0.3600 0.9886
6.0513 -4.9615 -0.9916 0.9689
3.8521 -2.8856 -0.6099 0.9808
3.8086 -2.6005 -0.5844 0.9816
6.5250 -4.3169 -0.9915 0.9689
6.5872 -4.2209 -0.9914 0.9689
6.7074 -4.0265 -0.9914 0.9689
6.8219 -3.8286 -0.9913 0.9690
6.8770 -3.7284 -0.9913 0.9690
6.8243 -3.5719 -0.9761 0.9694
6.8686 -3.4681 -0.9751 0.9695
6.9184 -3.3673 -0.9751 0.9695
7.1028 -2.9573 -0.9750 0.9695
7.1859 -2.7484 -0.9749 0.9695
7.2990 -2.4307 -0.9749 0.9695
7.4282 -2.0001 -0.9749 0.9695
7.4642 -1.8932 -0.9758 0.9694
7.6076 -1.8117 -0.9910 0.9690
7.6571 -1.5886 -0.9910 0.9690
7.6795 -1.4766 -0.9910 0.9690
7.7001 -1.3641 -0.9910 0.9690
7.7897 -0.6847 -0.9909 0.9690
7.8064 -0.4568 -0.9909 0.9690
7.8163 -0.2285 -0.9909 0.9690
7.8188 -0.1142 -0.9909 0.9690
7.8197 0.0000 -0.9909 0.9690
7.8189 0.1143 -0.9909 0.9690
7.8163 0.2285 -0.9909 0.9690
7.8122 0.3427 -0.9909 0.9690
7.7989 0.5709 -0.9909 0.9690
7.7790 0.7985 -0.9910 0.9690
7.7524 1.0254 -0.9910 0.9690
7.7366 1.1386 -0.9910 0.9690
7.6571 1.5886 -0.9910 0.9690
7.6076 1.8118 -0.9910 0.9690
7.5516 2.0333 -0.9910 0.9690
7.4555 2.3624 -0.9911 0.9690
7.3835 2.5793 -0.9911 0.9690
7.3052 2.7940 -0.9911 0.9690
7.1761 3.1116 -0.9912 0.9690
7.0333 3.4233 -0.9912 0.9690
6.9827 3.5258 -0.9913 0.9690
6.6480 4.1242 -0.9914 0.9689
6.5250 4.3169 -0.9915 0.9689
6.4614 4.4119 -0.9915 0.9689
6.3300 4.5990 -0.9915 0.9689
6.2623 4.6911 -0.9916 0.9689
6.1933 4.7823 -0.9916 0.9689
6.1229 4.8725 -0.9916 0.9689
5.9417 4.8715 -0.9737 0.9695
5.8700 4.9580 -0.9737 0.9695
5.7230 5.1277 -0.9738 0.9695
3.5038 3.3291 -0.6125 0.9807
3.1361 3.3495 -0.5815 0.9817
