ply
format ascii 1.0
element vertex 1574
property float32 x
property float32 y
property float32 z
property float32 I
end_header
-0.2416 3.6688 0.1070 0.9854
-0.2968 3.6845 0.1076 0.9853
-0.3526 3.7011 0.1082 0.9852
-1.5251 7.6309 0.2264 0.9693
-1.6029 6.9561 0.2077 0.9718
-1.6822 6.4345 0.1935 0.9737
-1.6485 5.6282 0.1706 0.9768
-1.6980 5.2261 0.1599 0.9783
-1.7203 5.0427 0.1550 0.9789
-1.7611 4.7073 0.1462 0.9801
-1.7798 4.5534 0.1423 0.9806
-1.7975 4.4077 0.1385 0.9811
-1.8142 4.2692 0.1350 0.9816
-1.8600 3.8933 0.1255 0.9829
-1.8740 3.7797 0.1228 0.9833
-1.8872 3.6707 0.1201 0.9836
-1.8998 3.5661 0.1176 0.9840
-1.9453 3.1875 0.1087 0.9852
-1.9656 3.0187 0.1048 0.9857
-1.9747 2.9380 0.1030 0.9859
-2.0609 2.7934 0.1010 0.9862
-2.1316 2.8026 0.1025 0.9860
-2.3568 2.8320 0.1072 0.9854
-2.4366 2.8424 0.1089 0.9851
-2.6045 2.8644 0.1126 0.9846
-2.7843 2.8879 0.1167 0.9841
-2.8792 2.9004 0.1189 0.9838
-3.0800 2.9264 0.1236 0.9831
-3.1899 2.9434 0.1263 0.9828
-3.4330 2.9868 0.1324 0.9820
-3.5635 3.0099 0.1357 0.9815
-3.7007 3.0343 0.1392 0.9810
-3.8452 3.0599 0.1430 0.9805
-4.1591 3.1156 0.1512 0.9794
-1.4230 0.8828 0.0487 0.9933
-1.1003 0.6175 0.0367 0.9950
-0.9780 0.4938 0.0319 0.9956
-0.9769 0.4755 0.0316 0.9957
-0.9719 0.4214 0.0308 0.9958
-0.9657 0.4021 0.0304 0.9958
-0.9539 0.3648 0.0297 0.9959
-0.9338 0.3110 0.0286 0.9961
-0.9247 0.2782 0.0281 0.9961
-0.9213 0.2481 0.0278 0.9962
-0.9140 0.1896 0.0272 0.9963
-0.8954 0.1318 0.0263 0.9964
-0.8868 0.1041 0.0260 0.9964
-0.8832 0.0906 0.0258 0.9965
-0.8733 0.0511 0.0255 0.9965
-0.8670 0.0254 0.0252 0.9965
-0.8157 0.0000 0.0147 0.9967
-0.8296 -0.0607 0.0150 0.9967
-0.8325 -0.0732 0.0151 0.9967
-0.8354 -0.0857 0.0151 0.9966
-0.8414 -0.1113 0.0153 0.9966
-0.8485 -0.1376 0.0155 0.9966
-0.8525 -0.1510 0.0156 0.9965
-0.8606 -0.1786 0.0158 0.9965
-0.8648 -0.1926 0.0160 0.9965
-0.8663 -0.2063 0.0160 0.9964
-0.8675 -0.2201 0.0161 0.9964
-0.8688 -0.2339 0.0162 0.9964
-0.8701 -0.2480 0.0163 0.9964
-0.8714 -0.2622 0.0164 0.9964
-0.8754 -0.2773 0.0165 0.9963
-0.8977 -0.3434 0.0173 0.9962
-0.9037 -0.3609 0.0175 0.9961
-0.9141 -0.3964 0.0179 0.9960
-0.9194 -0.4147 0.0182 0.9960
-0.9299 -0.4526 0.0186 0.9959
-0.9306 -0.4699 0.0188 0.9958
-0.9314 -0.4875 0.0189 0.9958
-0.9321 -0.5054 0.0191 0.9958
-0.9337 -0.5421 0.0194 0.9957
-1.1482 -0.6893 0.0241 0.9947
-14.2108 -8.8159 0.3012 0.9353
-13.8988 -8.9062 0.2973 0.9361
-13.8814 -9.1838 0.2998 0.9356
-42.4458 -29.9010 0.9350 0.8124
-41.6032 -30.2265 0.9261 0.8141
-40.3126 -30.1986 0.9071 0.8175
-37.8828 -30.1459 0.8719 0.8239
-34.1625 -29.7213 0.8155 0.8343
-33.1464 -29.6993 0.8015 0.8369
-32.1644 -29.6780 0.7882 0.8394
-31.3093 -30.6305 0.7888 0.8393
-33.5340 -33.7800 0.8572 0.8266
-9.8716 -10.5430 0.2601 0.9439
-9.2802 -10.8257 0.2568 0.9446
-8.9346 -11.3976 0.2608 0.9437
-33.3168 -43.8046 0.9911 0.8024
-6.4226 -9.8636 0.2120 0.9540
-6.1099 -9.6901 0.2063 0.9552
-5.9265 -9.7109 0.2049 0.9555
-5.5986 -9.8071 0.2034 0.9558
-5.2989 -9.9463 0.2030 0.9559
-4.6483 -9.3753 0.1885 0.9590
-4.4354 -9.2845 0.1853 0.9597
-4.3255 -9.4053 0.1864 0.9594
-3.9346 -10.0664 0.1946 0.9577
-3.5635 -9.9664 0.1906 0.9585
-3.1102 -10.6184 0.1993 0.9567
-13.1825 -47.5721 0.8890 0.8208
-3.0377 -12.3541 0.2291 0.9504
-10.5341 -45.7130 0.8448 0.8289
-9.9641 -46.3227 0.8533 0.8273
-9.8951 -49.5095 0.9093 0.8171
-10.0084 -54.1843 0.9923 0.8022
-1.2610 -8.1545 0.1486 0.9675
-1.1381 -8.1464 0.1481 0.9676
-0.8957 -8.1404 0.1475 0.9678
-0.5356 -8.1331 0.1468 0.9679
-0.4162 -8.1301 0.1466 0.9680
0.0593 -8.1212 0.1463 0.9680
0.1780 -8.1177 0.1462 0.9680
0.6526 -8.1023 0.1464 0.9680
0.8908 -8.0960 0.1467 0.9679
1.2514 -8.0925 0.1475 0.9678
1.3739 -8.0991 0.1479 0.9677
1.4972 -8.1057 0.1484 0.9676
1.6175 -8.0933 0.1486 0.9675
28.1432 -86.6159 1.6402 0.6946
30.7941 -82.3116 1.5827 0.7036
34.9404 -82.2217 1.6089 0.6995
37.7853 -82.1600 1.6286 0.6964
39.2347 -82.1285 1.6392 0.6948
42.1922 -82.0644 1.6618 0.6913
43.7024 -82.0317 1.6739 0.6895
45.2352 -81.9984 1.6865 0.6875
49.9802 -81.8955 1.7278 0.6812
51.6150 -81.8602 1.7428 0.6790
53.2789 -81.8241 1.7585 0.6766
56.6996 -81.7499 1.7917 0.6717
13.0746 -10.7201 0.3045 0.9346
23.7405 -8.2933 0.4529 0.9043
24.9338 -8.3034 0.4733 0.9002
17.0736 -3.0249 0.3123 0.9330
17.3449 -2.8122 0.3165 0.9321
17.5841 -2.3259 0.3194 0.9315
21.7092 -2.2283 0.3930 0.9164
24.9240 -2.1908 0.4506 0.9047
52.2577 -0.7637 0.9412 0.8113
9.2438 0.9488 0.1674 0.9635
34.3181 5.5640 0.6261 0.8702
34.5009 6.1123 0.6310 0.8692
18.4421 4.1082 0.3403 0.9272
18.0593 4.3008 0.3343 0.9284
18.1252 4.8803 0.3380 0.9277
18.1587 5.1750 0.3400 0.9272
18.2896 6.0908 0.3472 0.9258
18.3504 6.4104 0.3501 0.9252
24.3465 9.3117 0.4694 0.9010
23.2041 9.2657 0.4500 0.9049
22.5162 9.7631 0.4420 0.9065
22.2625 10.0421 0.4398 0.9069
21.2444 9.9589 0.4225 0.9104
22.2300 10.8200 0.4453 0.9058
22.1377 11.1780 0.4466 0.9055
9.4839 7.7759 0.2209 0.9521
5.9693 5.1933 0.1425 0.9688
9.1353 8.1852 0.2209 0.9521
4.4958 9.7756 0.1938 0.9579
1.1491 5.7493 0.1056 0.9768
0.6633 3.5911 0.0658 0.9855
0.5959 3.5130 0.0642 0.9858
0.5427 3.5094 0.0640 0.9859
0.3342 3.5079 0.0635 0.9860
0.2827 3.5102 0.0634 0.9860
0.2313 3.5125 0.0634 0.9860
0.1801 3.5182 0.0634 0.9860
0.1289 3.5271 0.0636 0.9860
0.0775 3.5361 0.0637 0.9859
-0.0780 3.5597 0.0641 0.9859
-0.1834 3.5821 0.0646 0.9858
-0.2369 3.5970 0.0649 0.9857
-0.2909 3.6119 0.0653 0.9856
-0.4582 3.6704 0.0666 0.9853
-0.5224 3.7393 0.0680 0.9850
-1.5342 6.6578 0.1230 0.9730
-1.6807 6.4285 0.1197 0.9738
-1.6473 5.6239 0.1055 0.9768
-1.6964 5.2210 0.0989 0.9783
-1.7595 4.7031 0.0904 0.9801
-1.7960 4.4040 0.0857 0.9812
-1.7167 3.8812 0.0764 0.9832
-1.8034 3.7749 0.0753 0.9834
-1.8957 3.5584 0.0726 0.9840
-1.9072 3.4573 0.0711 0.9843
-1.9183 3.3604 0.0697 0.9846
-1.9290 3.2671 0.0683 0.9849
-1.9392 3.1775 0.0670 0.9852
-1.9586 3.0080 0.0646 0.9857
-1.9695 2.9300 0.0636 0.9860
-1.9802 2.8551 0.0626 0.9862
-1.9907 2.7824 0.0616 0.9864
-2.0599 2.7920 0.0625 0.9862
-2.1312 2.8021 0.0634 0.9860
-2.2047 2.8125 0.0644 0.9858
-2.4372 2.8431 0.0674 0.9851
-2.5197 2.8538 0.0686 0.9849
-2.6050 2.8649 0.0697 0.9846
-2.6932 2.8764 0.0710 0.9844
-2.8795 2.9006 0.0736 0.9838
-2.9780 2.9134 0.0750 0.9835
-3.4332 2.9868 0.0820 0.9820
-3.8455 3.0601 0.0885 0.9805
-3.9981 3.0872 0.0910 0.9800
-4.1595 3.1159 0.0936 0.9794
-0.9329 0.5235 0.0193 0.9957
-0.9321 0.5053 0.0191 0.9958
-0.9313 0.4875 0.0189 0.9958
-0.9299 0.4527 0.0186 0.9959
-0.9248 0.4335 0.0184 0.9959
-0.9194 0.4147 0.0182 0.9960
-0.9141 0.3964 0.0179 0.9960
-0.9090 0.3785 0.0177 0.9961
-0.9037 0.3609 0.0175 0.9961
-0.8919 0.3262 0.0171 0.9962
-0.8754 0.2773 0.0165 0.9963
-0.8688 0.2339 0.0162 0.9964
-0.8663 0.2063 0.0160 0.9964
-0.8648 0.1927 0.0160 0.9965
-0.8606 0.1786 0.0158 0.9965
-0.8525 0.1510 0.0156 0.9965
-0.8486 0.1375 0.0155 0.9966
-0.8447 0.1243 0.0154 0.9966
-0.8384 0.0985 0.0152 0.9966
-0.8211 0.0240 0.0148 0.9967
-0.8184 0.0120 0.0147 0.9967
-0.7774 -0.0114 0.0054 0.9969
-0.7799 -0.0228 0.0054 0.9969
-0.7874 -0.0577 0.0055 0.9968
-0.7899 -0.0695 0.0055 0.9968
-0.7925 -0.0814 0.0055 0.9968
-0.8032 -0.1302 0.0056 0.9968
-0.8096 -0.1557 0.0057 0.9967
-0.8168 -0.1820 0.0058 0.9967
-0.8200 -0.1953 0.0058 0.9966
-0.8229 -0.2345 0.0059 0.9966
-0.8242 -0.2480 0.0060 0.9966
-0.8287 -0.2626 0.0060 0.9965
-0.8333 -0.2775 0.0061 0.9965
-0.8429 -0.3084 0.0062 0.9964
-0.8478 -0.3243 0.0063 0.9964
-0.8528 -0.3405 0.0064 0.9963
-0.8580 -0.3573 0.0064 0.9963
-0.8763 -0.4266 0.0068 0.9961
-0.8810 -0.4448 0.0068 0.9961
-0.8884 -0.4816 0.0070 0.9960
-0.8887 -0.4988 0.0071 0.9959
-0.8891 -0.5163 0.0071 0.9959
-0.8895 -0.5340 0.0072 0.9959
-13.8673 -9.4688 0.1163 0.9350
-16.0356 -11.2962 0.1359 0.9245
-15.4447 -11.2212 0.1322 0.9265
-15.0556 -11.2783 0.1303 0.9275
-14.7627 -11.3994 0.1292 0.9281
-37.8827 -30.1459 0.3353 0.8239
-35.2149 -29.7442 0.3193 0.8316
-33.1464 -29.6994 0.3082 0.8369
-32.1644 -29.6780 0.3031 0.8394
-31.3091 -30.6303 0.3034 0.8393
-9.5097 -10.7707 0.0995 0.9441
-9.3310 -10.8848 0.0993 0.9443
-8.8904 -11.3412 0.0998 0.9440
-33.3165 -43.8043 0.3812 0.8024
-33.2880 -45.1201 0.3883 0.7991
-6.4947 -9.9744 0.0824 0.9535
-6.1055 -9.6832 0.0793 0.9552
-5.6764 -9.6143 0.0773 0.9563
-5.1768 -9.7170 0.0763 0.9569
-4.6614 -9.4019 0.0727 0.9589
-4.3340 -9.4238 0.0718 0.9594
-3.7850 -10.1172 0.0748 0.9577
-3.5870 -10.0322 0.0738 0.9583
-3.2555 -10.0194 0.0730 0.9587
-3.1389 -10.1634 0.0737 0.9583
-11.9590 -45.7439 0.3275 0.8277
-3.0476 -12.3946 0.0884 0.9502
-10.5341 -45.7130 0.3249 0.8289
-9.9640 -46.3218 0.3282 0.8273
-1.6299 -8.1551 0.0576 0.9673
-1.0113 -8.1003 0.0565 0.9679
-0.8909 -8.0971 0.0564 0.9679
-0.7711 -8.0939 0.0563 0.9680
-0.5326 -8.0890 0.0561 0.9681
-0.4139 -8.0861 0.0561 0.9681
-0.2954 -8.0831 0.0560 0.9682
0.2949 -8.0679 0.0559 0.9682
0.5307 -8.0600 0.0559 0.9682
0.8860 -8.0520 0.0561 0.9681
1.0049 -8.0490 0.0562 0.9681
1.1245 -8.0483 0.0563 0.9680
1.3673 -8.0601 0.0566 0.9678
1.7381 -8.0804 0.0572 0.9675
28.1437 -86.6173 0.6308 0.6947
30.7941 -82.3116 0.6087 0.7036
1.0498 -2.6859 0.0200 0.9885
1.0742 -2.6341 0.0197 0.9887
39.2347 -82.1286 0.6304 0.6948
42.1921 -82.0644 0.6391 0.6913
46.7915 -81.9647 0.6537 0.6856
48.3727 -81.9304 0.6590 0.6835
53.2789 -81.8241 0.6763 0.6767
13.0748 -10.7202 0.1171 0.9346
5.7276 -2.7878 0.0441 0.9748
23.3866 -9.7372 0.1755 0.9036
23.1436 -9.2415 0.1726 0.9051
23.1392 -8.8501 0.1716 0.9057
23.1203 -8.4577 0.1705 0.9062
23.3937 -8.1721 0.1716 0.9056
24.4831 -8.1533 0.1787 0.9019
25.6689 -8.1335 0.1865 0.8979
28.4562 -8.1097 0.2049 0.8884
29.6672 -7.9880 0.2128 0.8844
34.5971 -8.2393 0.2463 0.8674
36.4192 -8.1127 0.2584 0.8614
28.3255 -2.0732 0.1967 0.8926
35.2863 -2.0648 0.2448 0.8682
9.1572 0.6702 0.0636 0.9639
30.8125 4.0756 0.2153 0.8831
27.0693 3.9837 0.1895 0.8963
26.1559 4.6339 0.1840 0.8992
26.2194 5.0413 0.1849 0.8987
19.1151 3.9659 0.1352 0.9249
18.3366 4.0847 0.1301 0.9276
18.0216 4.2918 0.1283 0.9286
18.1538 5.4617 0.1313 0.9270
23.0800 9.2161 0.1721 0.9054
22.9399 9.5511 0.1721 0.9054
22.2341 9.6408 0.1678 0.9076
22.3037 10.8558 0.1718 0.9055
5.9694 5.1933 0.0548 0.9688
4.4860 9.7543 0.0744 0.9580
2.8056 9.0844 0.0659 0.9627
1.2343 5.7381 0.0407 0.9768
0.4311 3.4530 0.0241 0.9862
0.1776 3.4698 0.0241 0.9862
0.1272 3.4789 0.0241 0.9862
0.0765 3.4882 0.0242 0.9861
0.0255 3.4971 0.0242 0.9861
-0.1286 3.5180 0.0244 0.9860
-0.1806 3.5279 0.0245 0.9860
-0.2332 3.5420 0.0246 0.9859
-0.3401 3.5704 0.0248 0.9858
-0.5064 3.6246 0.0253 0.9855
-0.5666 3.6642 0.0257 0.9853
-1.5228 6.6081 0.0470 0.9732
-1.5729 6.3970 0.0456 0.9740
-1.6639 6.3646 0.0456 0.9740
-1.6184 5.8403 0.0420 0.9760
-1.6709 5.4104 0.0392 0.9776
-1.7230 3.7464 0.0286 0.9836
-1.7667 3.6982 0.0284 0.9837
-1.8268 3.6845 0.0285 0.9837
-1.8881 3.5441 0.0278 0.9841
-1.8998 3.4437 0.0272 0.9844
-1.9217 3.2548 0.0262 0.9850
-1.9321 3.1659 0.0257 0.9853
-1.9556 3.0034 0.0248 0.9858
-1.9776 2.8513 0.0240 0.9862
-2.1300 2.8005 0.0244 0.9860
-2.2034 2.8109 0.0247 0.9858
-2.2791 2.8215 0.0251 0.9856
-2.3572 2.8325 0.0255 0.9854
-2.6057 2.8658 0.0268 0.9846
-2.6941 2.8773 0.0273 0.9844
-2.7855 2.8892 0.0278 0.9841
-2.9790 2.9144 0.0289 0.9835
-3.1915 2.9448 0.0301 0.9828
-3.7024 3.0357 0.0332 0.9810
-3.9976 3.0868 0.0350 0.9800
-4.1562 3.1134 0.0360 0.9794
-0.9725 0.6033 0.0079 0.9954
-0.8895 0.5340 0.0072 0.9959
-0.8887 0.4988 0.0071 0.9959
-0.8859 0.4637 0.0069 0.9960
-0.8478 0.3243 0.0063 0.9964
-0.8334 0.2775 0.0061 0.9965
-0.8287 0.2626 0.0060 0.9965
-0.8243 0.2480 0.0060 0.9966
-0.8200 0.1953 0.0058 0.9966
-0.8096 0.1557 0.0057 0.9967
-0.8061 0.1428 0.0057 0.9967
-0.8032 0.1302 0.0056 0.9968
-0.7952 0.0934 0.0055 0.9968
-0.7925 0.0814 0.0055 0.9968
-0.7900 0.0694 0.0055 0.9968
-0.7848 0.0459 0.0054 0.9969
-0.7774 0.0113 0.0054 0.9969
-0.7381 0.0000 -0.0031 0.9971
-0.7404 -0.0108 -0.0031 0.9970
-0.7426 -0.0218 -0.0031 0.9970
-0.7471 -0.0437 -0.0031 0.9970
-0.7516 -0.0661 -0.0031 0.9970
-0.7539 -0.0774 -0.0031 0.9970
-0.7562 -0.0888 -0.0032 0.9970
-0.7609 -0.1120 -0.0032 0.9969
-0.7632 -0.1237 -0.0032 0.9969
-0.7656 -0.1356 -0.0032 0.9969
-0.7680 -0.1477 -0.0033 0.9969
-0.7706 -0.1599 -0.0033 0.9969
-0.7738 -0.1724 -0.0033 0.9968
-0.7769 -0.1850 -0.0033 0.9968
-0.7791 -0.1977 -0.0033 0.9968
-0.7798 -0.2100 -0.0034 0.9968
-0.7829 -0.2356 -0.0034 0.9967
-0.7868 -0.2493 -0.0034 0.9967
-0.7908 -0.2634 -0.0035 0.9967
-0.8074 -0.3224 -0.0036 0.9965
-0.8163 -0.3540 -0.0037 0.9964
-0.8244 -0.3865 -0.0038 0.9964
-0.8282 -0.4032 -0.0038 0.9963
-0.8321 -0.4202 -0.0039 0.9963
-0.8361 -0.4376 -0.0039 0.9962
-0.8401 -0.4555 -0.0040 0.9962
-0.8443 -0.4738 -0.0040 0.9961
-0.8486 -0.4927 -0.0041 0.9961
-0.8486 -0.5264 -0.0042 0.9960
-13.8657 -9.1735 -0.0691 0.9357
-13.8594 -9.4633 -0.0697 0.9351
-14.7928 -11.4227 -0.0777 0.9280
-14.3103 -11.3877 -0.0760 0.9295
-14.1785 -11.6252 -0.0762 0.9293
-34.1625 -29.7214 -0.1882 0.8343
-33.1464 -29.6993 -0.1849 0.8369
-13.3096 -12.2808 -0.0753 0.9301
-9.8531 -9.3616 -0.0565 0.9471
-9.1630 -9.5039 -0.0549 0.9486
-9.9591 -10.6365 -0.0606 0.9434
-9.4977 -10.7572 -0.0596 0.9442
-9.1762 -11.3599 -0.0607 0.9433
-8.9627 -11.4334 -0.0604 0.9435
-32.2534 -47.9855 -0.2403 0.7935
-6.5219 -10.0162 -0.0497 0.9533
-5.5455 -9.7140 -0.0465 0.9562
-5.2189 -9.4604 -0.0449 0.9577
-4.4527 -8.9809 -0.0417 0.9607
-4.4164 -9.2448 -0.0426 0.9598
-4.3796 -9.5230 -0.0436 0.9589
-3.9419 -9.6660 -0.0434 0.9591
-3.6251 -9.6898 -0.0430 0.9595
-3.1468 -10.1892 -0.0443 0.9582
-2.9644 -10.1205 -0.0438 0.9587
-13.1825 -47.5721 -0.2051 0.8208
-3.0621 -12.4538 -0.0533 0.9500
-1.8737 -8.1307 -0.0347 0.9672
-1.7433 -8.1045 -0.0344 0.9674
-1.4917 -8.0761 -0.0341 0.9677
-1.3683 -8.0659 -0.0340 0.9678
-1.2472 -8.0649 -0.0339 0.9679
-1.1263 -8.0611 -0.0338 0.9680
-1.0060 -8.0580 -0.0337 0.9680
-0.7670 -8.0509 -0.0336 0.9682
-0.6481 -8.0471 -0.0335 0.9682
-0.5296 -8.0435 -0.0335 0.9683
-0.1761 -8.0329 -0.0334 0.9684
0.0586 -8.0260 -0.0334 0.9684
0.1759 -8.0223 -0.0333 0.9684
0.2930 -8.0185 -0.0333 0.9684
0.4103 -8.0147 -0.0333 0.9684
0.5277 -8.0136 -0.0334 0.9684
0.6450 -8.0091 -0.0334 0.9684
0.7627 -8.0055 -0.0334 0.9683
1.1188 -8.0082 -0.0336 0.9682
1.3610 -8.0227 -0.0338 0.9680
1.4845 -8.0369 -0.0340 0.9678
1.6091 -8.0510 -0.0341 0.9677
1.7389 -8.0839 -0.0344 0.9675
3.4404 -13.1592 -0.0565 0.9470
28.1441 -86.6186 -0.3785 0.6947
30.7941 -82.3116 -0.3652 0.7036
1.0515 -2.6901 -0.0120 0.9885
1.0758 -2.6381 -0.0118 0.9887
34.9404 -82.2217 -0.3713 0.6995
36.3542 -82.1910 -0.3735 0.6980
37.7853 -82.1600 -0.3758 0.6965
39.2346 -82.1285 -0.3782 0.6948
40.7033 -82.0967 -0.3808 0.6931
46.7915 -81.9647 -0.3922 0.6856
49.9801 -81.8956 -0.3987 0.6813
51.6150 -81.8602 -0.4021 0.6790
53.2789 -81.8241 -0.4057 0.6767
21.4327 -12.8663 -0.1039 0.9048
5.7277 -2.7878 -0.0265 0.9748
22.3325 -9.2983 -0.1005 0.9078
22.3108 -8.5332 -0.0993 0.9089
22.4174 -8.2005 -0.0992 0.9089
25.3320 -8.0268 -0.1104 0.8992
27.7724 -7.9148 -0.1200 0.8909
17.4422 -2.8280 -0.0734 0.9318
17.4496 -2.3081 -0.0731 0.9320
17.7186 -2.0807 -0.0741 0.9311
25.0763 -2.2041 -0.1046 0.9042
28.3961 -2.0784 -0.1183 0.8924
35.1480 -2.0567 -0.1463 0.8686
51.2762 -0.7493 -0.2131 0.8145
9.1509 0.5355 -0.0381 0.9640
48.7695 3.5695 -0.2032 0.8223
30.1943 3.9939 -0.1266 0.8853
26.2678 3.8658 -0.1103 0.8992
25.9379 4.2053 -0.1092 0.9002
25.9707 4.6011 -0.1096 0.8999
18.2323 4.0615 -0.0776 0.9280
18.0819 5.1531 -0.0781 0.9276
18.1152 5.4501 -0.0786 0.9271
18.1489 5.7508 -0.0791 0.9267
18.1831 6.0553 -0.0796 0.9262
18.2178 6.3641 -0.0802 0.9257
18.2886 6.9948 -0.0814 0.9247
22.1007 9.9691 -0.1008 0.9076
22.1691 10.3924 -0.1017 0.9067
22.4403 11.3308 -0.1045 0.9043
15.1780 10.0416 -0.0756 0.9298
5.9695 5.1934 -0.0329 0.9688
2.8054 9.0837 -0.0395 0.9627
0.6303 3.4123 -0.0144 0.9862
0.5271 3.4080 -0.0143 0.9863
0.4770 3.4137 -0.0143 0.9863
0.4269 3.4193 -0.0143 0.9863
0.3262 3.4241 -0.0143 0.9863
0.2763 3.4298 -0.0143 0.9863
0.1260 3.4481 -0.0143 0.9863
0.0758 3.4567 -0.0144 0.9863
-0.0763 3.4795 -0.0145 0.9862
-0.1275 3.4898 -0.0145 0.9861
-0.1791 3.4991 -0.0146 0.9861
-0.2310 3.5080 -0.0146 0.9860
-0.4984 3.5671 -0.0150 0.9857
-0.5550 3.5893 -0.0151 0.9856
-0.6264 3.6926 -0.0156 0.9851
-1.4899 6.9265 -0.0294 0.9721
-1.6429 6.2842 -0.0270 0.9744
-1.6932 5.2111 -0.0228 0.9783
-1.7366 4.8570 -0.0214 0.9796
-1.7565 4.6950 -0.0208 0.9801
-1.7084 3.8623 -0.0176 0.9832
-1.7223 3.7450 -0.0171 0.9836
-1.7454 3.6537 -0.0168 0.9839
-1.8028 3.6361 -0.0169 0.9839
-1.8625 3.6226 -0.0169 0.9838
-1.9170 3.2469 -0.0157 0.9850
-1.9642 2.9222 -0.0146 0.9860
-1.9750 2.8475 -0.0144 0.9862
-1.9883 2.7792 -0.0142 0.9864
-2.1288 2.7989 -0.0146 0.9860
-2.2778 2.8199 -0.0151 0.9856
-2.3559 2.8309 -0.0153 0.9854
-2.5197 2.8539 -0.0158 0.9849
-2.6059 2.8660 -0.0161 0.9846
-2.6949 2.8782 -0.0164 0.9844
-2.7864 2.8901 -0.0167 0.9841
-2.9800 2.9154 -0.0173 0.9835
-3.1927 2.9459 -0.0181 0.9828
-3.9942 3.0843 -0.0210 0.9800
-4.1526 3.1108 -0.0216 0.9795
-0.8486 0.5264 -0.0042 0.9960
-0.8486 0.5094 -0.0041 0.9960
-0.8361 0.4376 -0.0039 0.9962
-0.8321 0.4201 -0.0039 0.9963
-0.8244 0.3864 -0.0038 0.9964
-0.8031 0.3072 -0.0036 0.9966
-0.7989 0.2923 -0.0035 0.9966
-0.7829 0.2355 -0.0034 0.9967
-0.7805 0.2225 -0.0034 0.9968
-0.7769 0.1850 -0.0033 0.9968
-0.7680 0.1477 -0.0033 0.9969
-0.7609 0.1120 -0.0032 0.9969
-0.7585 0.1003 -0.0032 0.9969
-0.7562 0.0888 -0.0032 0.9970
-0.7539 0.0773 -0.0031 0.9970
-0.7448 0.0327 -0.0031 0.9970
-0.7046 0.0000 -0.0107 0.9972
-0.7066 -0.0104 -0.0108 0.9972
-0.7087 -0.0207 -0.0108 0.9972
-0.7107 -0.0312 -0.0108 0.9972
-0.7127 -0.0417 -0.0109 0.9971
-0.7147 -0.0523 -0.0109 0.9971
-0.7168 -0.0630 -0.0110 0.9971
-0.7188 -0.0738 -0.0110 0.9971
-0.7208 -0.0847 -0.0111 0.9971
-0.7229 -0.0956 -0.0111 0.9971
-0.7270 -0.1179 -0.0112 0.9971
-0.7312 -0.1406 -0.0113 0.9970
-0.7333 -0.1522 -0.0114 0.9970
-0.7405 -0.1878 -0.0116 0.9969
-0.7419 -0.1998 -0.0117 0.9969
-0.7490 -0.2373 -0.0120 0.9969
-0.7524 -0.2505 -0.0121 0.9968
-0.7558 -0.2640 -0.0122 0.9968
-0.7594 -0.2778 -0.0123 0.9968
-0.7666 -0.3061 -0.0126 0.9967
-0.7703 -0.3207 -0.0127 0.9967
-0.7780 -0.3509 -0.0130 0.9966
-0.7819 -0.3666 -0.0132 0.9966
-0.7883 -0.3980 -0.0135 0.9965
-0.7915 -0.4143 -0.0136 0.9964
-0.7948 -0.4309 -0.0138 0.9964
-0.8017 -0.4655 -0.0141 0.9963
-0.8052 -0.4834 -0.0143 0.9962
-0.8107 -0.5195 -0.0147 0.9962
-0.8549 -0.5838 -0.0158 0.9959
-15.5265 -10.9377 -0.2894 0.9268
-4.0732 -2.9594 -0.0767 0.9801
-14.2054 -11.3042 -0.2766 0.9299
-35.2149 -29.7442 -0.7024 0.8316
-12.1449 -10.5661 -0.2453 0.9376
-11.7612 -10.5380 -0.2406 0.9388
-11.5584 -10.6650 -0.2397 0.9390
-9.8703 -9.3779 -0.2075 0.9470
-9.2844 -9.3523 -0.2008 0.9486
-8.2626 -9.3581 -0.1902 0.9513
-9.0835 -10.9150 -0.2164 0.9448
-8.7783 -11.5417 -0.2210 0.9436
-33.0710 -46.2248 -0.8661 0.7966
-33.0404 -47.6379 -0.8834 0.7930
-32.1502 -47.8320 -0.8782 0.7941
-5.8762 -9.3195 -0.1679 0.9569
-6.0169 -9.8591 -0.1760 0.9548
-5.5960 -9.4782 -0.1677 0.9569
-5.4517 -9.5498 -0.1676 0.9570
-4.9279 -9.5848 -0.1642 0.9578
-4.5404 -9.1577 -0.1558 0.9599
-4.1885 -9.4694 -0.1578 0.9594
-3.9241 -9.6223 -0.1584 0.9593
-3.8633 -9.8839 -0.1617 0.9584
-3.6840 -9.8473 -0.1602 0.9588
-3.3782 -9.9025 -0.1594 0.9590
-3.3324 -10.2561 -0.1643 0.9578
-2.9718 -10.1461 -0.1611 0.9586
-2.1249 -8.1280 -0.1280 0.9669
-1.8579 -8.0623 -0.1261 0.9674
-1.7286 -8.0360 -0.1253 0.9677
-1.6037 -8.0238 -0.1247 0.9678
-1.1190 -8.0095 -0.1232 0.9682
-0.8806 -8.0036 -0.1227 0.9683
-0.7621 -7.9999 -0.1225 0.9684
-0.5263 -7.9928 -0.1221 0.9685
-0.4089 -7.9893 -0.1219 0.9685
-0.1750 -7.9823 -0.1217 0.9686
0.0583 -7.9755 -0.1215 0.9686
0.1748 -7.9722 -0.1215 0.9686
0.2912 -7.9689 -0.1215 0.9686
0.4077 -7.9654 -0.1215 0.9686
0.5245 -7.9645 -0.1216 0.9686
0.7590 -7.9673 -0.1220 0.9685
1.2344 -7.9826 -0.1231 0.9682
1.3572 -8.0007 -0.1237 0.9681
1.6062 -8.0364 -0.1249 0.9677
3.2109 -13.0584 -0.2049 0.9476
3.6849 -13.2977 -0.2103 0.9463
3.8227 -13.0510 -0.2072 0.9470
18.8107 -60.9075 -0.9714 0.7749
1.0531 -2.6944 -0.0441 0.9885
1.0775 -2.6422 -0.0435 0.9886
27.3821 -57.3180 -0.9680 0.7756
29.0255 -56.4550 -0.9673 0.7757
31.4404 -55.0743 -0.9664 0.7759
33.7914 -53.5922 -0.9654 0.7761
36.0735 -52.0111 -0.9645 0.7763
36.8179 -51.4621 -0.9642 0.7764
37.5547 -50.9034 -0.9639 0.7764
38.2833 -50.3344 -0.9636 0.7765
39.0029 -49.7548 -0.9634 0.7765
40.4168 -48.5658 -0.9628 0.7767
41.1104 -47.9564 -0.9625 0.7767
41.7945 -47.3367 -0.9622 0.7768
44.4397 -44.7656 -0.9612 0.7770
45.7049 -43.4253 -0.9607 0.7771
46.3224 -42.7417 -0.9604 0.7771
46.9305 -42.0500 -0.9602 0.7772
48.1155 -40.6407 -0.9597 0.7773
13.0752 -10.7206 -0.2577 0.9346
49.8155 -38.4663 -0.9591 0.7774
50.8952 -36.9775 -0.9586 0.7775
51.4190 -36.2222 -0.9584 0.7775
52.9241 -33.9130 -0.9578 0.7777
53.4030 -33.1293 -0.9576 0.7777
54.7729 -30.7400 -0.9571 0.7778
55.2065 -29.9312 -0.9569 0.7778
55.6277 -29.1160 -0.9568 0.7779
5.7277 -2.7879 -0.0971 0.9748
57.1964 -25.8000 -0.9561 0.7780
57.5588 -24.9579 -0.9560 0.7780
22.1013 -8.4530 -0.3606 0.9097
23.0583 -8.0550 -0.3722 0.9069
24.2068 -8.0612 -0.3888 0.9030
25.1972 -7.9841 -0.4028 0.8997
27.2457 -8.1970 -0.4336 0.8924
28.8545 -7.7692 -0.4553 0.8873
30.6837 -7.7827 -0.4824 0.8811
35.3345 -7.8711 -0.5516 0.8652
40.0527 -7.7011 -0.6215 0.8495
17.2382 -3.0540 -0.2668 0.9324
17.6571 -2.5986 -0.2720 0.9311
17.7634 -2.0860 -0.2725 0.9309
25.2131 -2.2162 -0.3857 0.9037
28.8614 -2.1124 -0.4410 0.8907
35.0554 -2.0512 -0.5351 0.8689
52.9040 -0.7731 -0.8062 0.8092
63.5200 2.7862 -0.9689 0.7754
63.4739 3.7142 -0.9689 0.7754
48.6255 3.5589 -0.7429 0.8228
9.1977 0.9441 -0.1409 0.9637
25.9663 3.8214 -0.3999 0.9003
25.9595 4.9913 -0.4028 0.8996
18.8879 3.9187 -0.2939 0.9257
18.1293 4.0385 -0.2830 0.9284
18.0437 5.1423 -0.2859 0.9277
18.0767 5.4385 -0.2876 0.9273
18.1102 5.7385 -0.2895 0.9268
18.0574 6.9064 -0.2946 0.9256
22.8174 9.5001 -0.3766 0.9059
22.2136 11.6267 -0.3821 0.9046
55.2052 29.9304 -0.9569 0.7779
54.7721 30.7395 -0.9571 0.7778
54.3275 31.5426 -0.9573 0.7778
52.9238 33.9128 -0.9578 0.7777
52.4326 34.6891 -0.9580 0.7776
51.9313 35.4591 -0.9582 0.7776
51.4186 36.2218 -0.9584 0.7775
50.8948 36.9772 -0.9586 0.7775
50.3599 37.7250 -0.9588 0.7775
49.8148 38.4656 -0.9590 0.7774
49.2587 39.1985 -0.9593 0.7774
9.4839 7.7759 -0.1869 0.9521
9.1355 8.1854 -0.1869 0.9521
46.3221 42.7412 -0.9604 0.7771
45.0767 44.0992 -0.9609 0.7770
44.4390 44.7649 -0.9612 0.7770
43.7920 45.4216 -0.9614 0.7769
43.1353 46.0691 -0.9617 0.7769
41.1094 47.9553 -0.9625 0.7767
39.7135 49.1644 -0.9631 0.7766
39.0020 49.7536 -0.9633 0.7765
38.2824 50.3333 -0.9636 0.7765
37.5542 50.9026 -0.9639 0.7764
36.8177 51.4617 -0.9642 0.7764
35.3198 52.5475 -0.9648 0.7762
34.5589 53.0743 -0.9651 0.7762
33.0144 54.0961 -0.9657 0.7761
31.4403 55.0738 -0.9663 0.7759
30.6422 55.5453 -0.9667 0.7759
29.8370 56.0053 -0.9670 0.7758
29.0253 56.4545 -0.9673 0.7757
28.2065 56.8911 -0.9676 0.7757
27.3815 57.3166 -0.9679 0.7756
4.4965 9.7770 -0.1640 0.9579
24.0168 58.8921 -0.9692 0.7754
23.1623 59.2588 -0.9695 0.7753
21.4375 59.9568 -0.9703 0.7751
2.8052 9.0830 -0.1449 0.9627
17.0370 61.4819 -0.9722 0.7747
15.2452 62.0020 -0.9729 0.7746
0.7478 3.4763 -0.0542 0.9859
0.5717 3.3700 -0.0521 0.9864
0.5220 3.3752 -0.0520 0.9864
0.3236 3.3964 -0.0520 0.9864
0.2741 3.4031 -0.0520 0.9864
0.2246 3.4097 -0.0521 0.9864
0.1749 3.4159 -0.0521 0.9864
-0.0251 3.4417 -0.0524 0.9863
-0.1265 3.4619 -0.0528 0.9862
-0.2292 3.4800 -0.0531 0.9861
-0.4933 3.5307 -0.0543 0.9858
-0.6133 3.6155 -0.0559 0.9854
-1.4225 7.1172 -0.1106 0.9714
-1.4205 6.6040 -0.1029 0.9733
-1.5075 6.5419 -0.1023 0.9735
-1.6120 6.5558 -0.1029 0.9734
-1.6925 5.2089 -0.0835 0.9783
-1.7351 4.8528 -0.0785 0.9796
-1.7550 4.6911 -0.0763 0.9802
-1.7263 4.2332 -0.0697 0.9819
-1.8043 4.2459 -0.0703 0.9817
-1.8838 4.2589 -0.0710 0.9815
-1.8379 3.5746 -0.0612 0.9840
-1.8741 3.5177 -0.0607 0.9842
-1.8880 3.4224 -0.0596 0.9845
-1.9014 3.3306 -0.0584 0.9848
-1.9143 3.2423 -0.0574 0.9851
-1.9267 3.1570 -0.0564 0.9853
-1.9387 3.0748 -0.0554 0.9856
-1.9503 2.9952 -0.0545 0.9858
-1.9615 2.9183 -0.0536 0.9860
-1.9724 2.8438 -0.0527 0.9863
-2.0564 2.7874 -0.0528 0.9862
-2.1276 2.7974 -0.0536 0.9860
-2.2009 2.8077 -0.0544 0.9858
-2.2765 2.8182 -0.0552 0.9856
-2.3545 2.8291 -0.0561 0.9854
-2.6043 2.8642 -0.0590 0.9846
-3.1939 2.9470 -0.0662 0.9828
-3.4355 2.9888 -0.0694 0.9819
-3.8411 3.0566 -0.0748 0.9806
-3.9909 3.0816 -0.0768 0.9800
-53.1553 38.6195 -1.0012 0.7689
-0.8107 0.5195 -0.0147 0.9962
-0.8088 0.5018 -0.0145 0.9962
-0.8052 0.4834 -0.0143 0.9963
-0.7982 0.4480 -0.0139 0.9963
-0.7915 0.4143 -0.0136 0.9964
-0.7819 0.3666 -0.0132 0.9966
-0.7703 0.3207 -0.0127 0.9967
-0.7666 0.3061 -0.0126 0.9967
-0.7630 0.2918 -0.0124 0.9967
-0.7594 0.2778 -0.0123 0.9968
-0.7490 0.2373 -0.0120 0.9969
-0.7424 0.2115 -0.0118 0.9969
-0.7405 0.1878 -0.0116 0.9969
-0.7377 0.1757 -0.0116 0.9970
-0.7333 0.1521 -0.0114 0.9970
-0.7312 0.1406 -0.0113 0.9970
-0.7291 0.1292 -0.0113 0.9970
-0.7271 0.1179 -0.0112 0.9971
-0.7250 0.1066 -0.0112 0.9971
-0.7208 0.0846 -0.0111 0.9971
-0.7188 0.0738 -0.0110 0.9971
-0.7147 0.0523 -0.0109 0.9971
-0.7067 0.0103 -0.0108 0.9972
-0.6775 -0.0198 -0.0178 0.9973
-0.6812 -0.0399 -0.0180 0.9973
-0.6831 -0.0500 -0.0180 0.9973
-0.6849 -0.0602 -0.0181 0.9973
-0.6867 -0.0705 -0.0182 0.9972
-0.6886 -0.0809 -0.0183 0.9972
-0.6904 -0.0913 -0.0183 0.9972
-0.6923 -0.1019 -0.0184 0.9972
-0.6941 -0.1125 -0.0185 0.9972
-0.6959 -0.1233 -0.0186 0.9972
-0.7032 -0.1675 -0.0190 0.9971
-0.7088 -0.2020 -0.0194 0.9971
-0.7117 -0.2141 -0.0196 0.9970
-0.7146 -0.2264 -0.0197 0.9970
-0.7175 -0.2389 -0.0199 0.9970
-0.7297 -0.2914 -0.0207 0.9969
-0.7329 -0.3052 -0.0209 0.9968
-0.7393 -0.3335 -0.0214 0.9968
-0.7427 -0.3481 -0.0216 0.9967
-0.7460 -0.3631 -0.0218 0.9967
-0.7489 -0.3781 -0.0221 0.9966
-0.7542 -0.4089 -0.0226 0.9966
-0.7625 -0.4577 -0.0234 0.9964
-0.7654 -0.4748 -0.0237 0.9964
-0.7713 -0.5103 -0.0243 0.9963
-0.7743 -0.5288 -0.0247 0.9963
-0.7740 -0.5453 -0.0249 0.9962
-3.8017 -2.8480 -0.1250 0.9812
-3.7635 -2.9061 -0.1252 0.9812
-14.1613 -11.2691 -0.4764 0.9301
-13.9661 -11.4510 -0.4754 0.9303
-11.6778 -10.4634 -0.4128 0.9392
-11.4788 -10.5914 -0.4112 0.9394
-9.8875 -9.3942 -0.3590 0.9469
-9.5890 -9.3810 -0.3531 0.9477
-9.3000 -9.3681 -0.3475 0.9486
-8.5016 -9.3499 -0.3327 0.9507
-8.2728 -9.3697 -0.3290 0.9512
-9.0964 -10.9305 -0.3743 0.9447
-8.7558 -11.5120 -0.3807 0.9438
-21.7285 -29.4518 -0.9635 0.8638
-5.8851 -9.3336 -0.2905 0.9568
-1.5006 -2.4589 -0.0758 0.9885
-1.4575 -2.4686 -0.0755 0.9886
-1.3304 -2.4972 -0.0745 0.9887
-1.2887 -2.5066 -0.0742 0.9888
-1.2063 -2.5253 -0.0737 0.9889
-1.1251 -2.5438 -0.0732 0.9889
-4.1731 -9.8201 -0.2809 0.9582
-4.0030 -9.8161 -0.2791 0.9585
-3.8341 -9.8092 -0.2772 0.9587
-0.9972 -2.7891 -0.0780 0.9882
-0.9110 -2.8039 -0.0776 0.9883
-0.8682 -2.8113 -0.0775 0.9883
-2.2444 -8.0993 -0.2212 0.9669
-2.1085 -8.0652 -0.2194 0.9672
-1.9718 -8.0195 -0.2174 0.9675
-1.7164 -7.9793 -0.2149 0.9679
-1.5948 -7.9795 -0.2142 0.9680
-1.4761 -7.9913 -0.2139 0.9680
-1.2307 -7.9588 -0.2120 0.9683
-1.1116 -7.9566 -0.2115 0.9684
-0.9930 -7.9540 -0.2110 0.9684
-0.8749 -7.9512 -0.2106 0.9685
-0.7572 -7.9486 -0.2102 0.9686
-0.6401 -7.9477 -0.2099 0.9686
-0.5234 -7.9479 -0.2097 0.9686
-0.4068 -7.9480 -0.2095 0.9687
-0.1743 -7.9484 -0.2093 0.9687
-0.0581 -7.9491 -0.2093 0.9687
0.1743 -7.9519 -0.2094 0.9687
0.2907 -7.9533 -0.2095 0.9687
0.4071 -7.9528 -0.2096 0.9686
0.5237 -7.9533 -0.2098 0.9686
0.6406 -7.9543 -0.2101 0.9686
0.8756 -7.9579 -0.2107 0.9685
0.9936 -7.9586 -0.2111 0.9684
1.1113 -7.9543 -0.2114 0.9684
1.2312 -7.9617 -0.2121 0.9683
1.6038 -8.0246 -0.2154 0.9678
1.7389 -8.0839 -0.2177 0.9675
8.3215 -36.1112 -0.9755 0.8622
3.7215 -13.4296 -0.3668 0.9458
3.8027 -12.9828 -0.3561 0.9473
10.9237 -35.3701 -0.9745 0.8623
11.4369 -35.1993 -0.9743 0.8623
12.4554 -34.8356 -0.9739 0.8624
12.9605 -34.6429 -0.9737 0.8624
16.4068 -33.0918 -0.9723 0.8626
17.8308 -32.3222 -0.9717 0.8627
18.2978 -32.0523 -0.9716 0.8627
18.7606 -31.7755 -0.9714 0.8627
19.6737 -31.2020 -0.9710 0.8628
20.1239 -30.9056 -0.9708 0.8628
20.5695 -30.6027 -0.9707 0.8628
21.8790 -29.6558 -0.9701 0.8629
23.9650 -27.9558 -0.9693 0.8630
24.3670 -27.5982 -0.9692 0.8630
24.7635 -27.2347 -0.9690 0.8630
25.1547 -26.8656 -0.9688 0.8631
25.5406 -26.4911 -0.9687 0.8631
25.9210 -26.1111 -0.9685 0.8631
26.2956 -25.7255 -0.9684 0.8631
26.6646 -25.3347 -0.9682 0.8631
27.3856 -24.5376 -0.9680 0.8632
27.7371 -24.1312 -0.9678 0.8632
13.0754 -10.7208 -0.4451 0.9346
30.3300 -20.7096 -0.9668 0.8633
30.6255 -20.2616 -0.9667 0.8633
30.9147 -19.8097 -0.9666 0.8634
21.4826 -12.8962 -0.6596 0.9046
32.2604 -17.4905 -0.9660 0.8634
32.5092 -17.0155 -0.9659 0.8634
5.7278 -2.7879 -0.1677 0.9748
33.2140 -15.5701 -0.9656 0.8635
33.4349 -15.0818 -0.9656 0.8635
22.0790 -8.8164 -0.6258 0.9093
22.0976 -8.4516 -0.6228 0.9097
22.1962 -8.1196 -0.6222 0.9098
22.9515 -8.0177 -0.6400 0.9073
24.1188 -8.0320 -0.6692 0.9033
25.1528 -7.9699 -0.6946 0.8998
27.4807 -7.8317 -0.7522 0.8920
30.6674 -7.7786 -0.8329 0.8811
33.5816 -7.9974 -0.9087 0.8710
36.3241 -8.0915 -0.9796 0.8616
17.2937 -3.0639 -0.4623 0.9321
17.7372 -2.6104 -0.4720 0.9308
18.0310 -2.3850 -0.4788 0.9298
22.0943 -2.2678 -0.5847 0.9150
35.3079 -2.5843 -0.9319 0.8679
36.8578 -1.0775 -0.9707 0.8628
37.1971 -0.5436 -0.9793 0.8617
37.2011 0.0000 -0.9793 0.8617
37.1971 0.5436 -0.9793 0.8617
37.1854 1.0870 -0.9793 0.8617
37.1384 2.1732 -0.9793 0.8617
9.4245 0.8284 -0.2491 0.9629
9.2139 0.9457 -0.2438 0.9636
36.9510 4.3392 -0.9794 0.8617
25.9425 3.8179 -0.6903 0.9004
25.7392 4.5600 -0.6881 0.9007
25.9512 4.9897 -0.6957 0.8997
18.7825 3.8969 -0.5050 0.9261
18.0296 4.0163 -0.4862 0.9288
17.9096 4.2652 -0.4846 0.9290
17.6568 4.4785 -0.4795 0.9297
18.0720 5.4371 -0.4968 0.9273
18.1166 5.7405 -0.5003 0.9268
18.1617 6.0482 -0.5039 0.9263
18.1182 6.6278 -0.5079 0.9257
17.9597 6.8690 -0.5062 0.9259
22.1777 9.6163 -0.6363 0.9078
21.3008 9.9854 -0.6193 0.9102
22.0728 11.1452 -0.6509 0.9058
22.1694 11.6036 -0.6587 0.9047
32.0046 17.9618 -0.9661 0.8634
14.7352 9.1411 -0.4565 0.9330
30.9145 19.8095 -0.9665 0.8634
30.6254 20.2616 -0.9667 0.8633
30.3298 20.7094 -0.9668 0.8633
29.7191 21.5922 -0.9670 0.8633
29.0832 22.4573 -0.9673 0.8633
9.4839 7.7759 -0.3228 0.9521
9.2761 7.8351 -0.3196 0.9526
9.1355 8.1855 -0.3229 0.9521
14.5735 13.4469 -0.5220 0.9237
14.5825 13.8551 -0.5295 0.9227
25.5405 26.4909 -0.9687 0.8631
25.1546 26.8654 -0.9688 0.8631
24.7634 27.2345 -0.9690 0.8630
24.3666 27.5978 -0.9691 0.8630
23.9648 27.9555 -0.9693 0.8630
23.5578 28.3075 -0.9695 0.8630
23.1455 28.6536 -0.9696 0.8630
22.3060 29.3277 -0.9700 0.8629
21.8790 29.6557 -0.9701 0.8629
21.4471 29.9775 -0.9703 0.8629
20.5693 30.6023 -0.9707 0.8628
20.1236 30.9052 -0.9708 0.8628
19.6735 31.2016 -0.9710 0.8628
19.2192 31.4917 -0.9712 0.8628
18.7604 31.7750 -0.9714 0.8627
18.2976 32.0518 -0.9716 0.8627
17.8307 32.3220 -0.9717 0.8627
16.4067 33.0915 -0.9723 0.8626
15.9245 33.3341 -0.9725 0.8626
4.4987 9.7819 -0.2834 0.9578
13.9613 34.2349 -0.9733 0.8625
12.9603 34.6424 -0.9737 0.8624
12.4553 34.8351 -0.9739 0.8624
2.8050 9.0824 -0.2502 0.9627
10.4078 35.5330 -0.9747 0.8623
9.8895 35.6887 -0.9749 0.8623
9.3691 35.8370 -0.9751 0.8622
8.8463 35.9777 -0.9753 0.8622
8.3214 36.1109 -0.9755 0.8622
0.7416 3.4476 -0.0928 0.9860
0.6223 3.3692 -0.0902 0.9864
0.5206 3.3665 -0.0897 0.9865
0.4703 3.3661 -0.0895 0.9865
0.4203 3.3666 -0.0893 0.9865
0.3216 3.3759 -0.0893 0.9865
0.2229 3.3852 -0.0893 0.9865
0.1736 3.3904 -0.0894 0.9865
0.1241 3.3969 -0.0895 0.9865
0.0746 3.4032 -0.0896 0.9865
-0.2793 3.4684 -0.0916 0.9862
-0.4379 3.5080 -0.0931 0.9860
-0.4926 3.5258 -0.0937 0.9859
-0.5482 3.5448 -0.0944 0.9857
-1.3768 6.8888 -0.1849 0.9723
-1.4728 6.3911 -0.1727 0.9741
-1.6205 6.1985 -0.1687 0.9747
-1.6171 5.8357 -0.1594 0.9761
-1.7346 4.8512 -0.1356 0.9796
-1.6455 4.3983 -0.1236 0.9814
-1.7808 3.8721 -0.1122 0.9831
-1.7397 3.6417 -0.1062 0.9840
-1.7660 3.5620 -0.1047 0.9842
-1.9020 3.3318 -0.1010 0.9848
-1.9147 3.2430 -0.0991 0.9850
-1.9387 3.0747 -0.0957 0.9856
-1.9501 2.9948 -0.0941 0.9858
-1.9718 2.8429 -0.0911 0.9863
-1.9873 2.7778 -0.0899 0.9864
-2.1272 2.7968 -0.0925 0.9860
-2.2760 2.8176 -0.0953 0.9856
-2.3538 2.8284 -0.0969 0.9854
-2.4343 2.8396 -0.0985 0.9851
-2.6034 2.8632 -0.1019 0.9846
-2.7849 2.8885 -0.1056 0.9841
-2.8808 2.9019 -0.1076 0.9838
-2.9804 2.9158 -0.1098 0.9835
-3.0841 2.9302 -0.1120 0.9831
-3.1944 2.9475 -0.1144 0.9828
-3.3118 2.9674 -0.1171 0.9824
-3.4348 2.9882 -0.1198 0.9819
-3.5638 3.0102 -0.1228 0.9815
-3.6993 3.0332 -0.1259 0.9810
-0.7744 0.5287 -0.0247 0.9963
-0.7713 0.5103 -0.0243 0.9963
-0.7683 0.4923 -0.0240 0.9964
-0.7625 0.4577 -0.0234 0.9964
-0.7597 0.4411 -0.0231 0.9965
-0.7542 0.4089 -0.0226 0.9966
-0.7426 0.3481 -0.0216 0.9967
-0.7361 0.3192 -0.0211 0.9968
-0.7297 0.2914 -0.0207 0.9969
-0.7266 0.2779 -0.0205 0.9969
-0.7236 0.2647 -0.0203 0.9969
-0.7205 0.2517 -0.0201 0.9970
-0.7175 0.2389 -0.0199 0.9970
-0.7146 0.2265 -0.0197 0.9970
-0.7117 0.2141 -0.0196 0.9970
-0.7088 0.2020 -0.0194 0.9971
-0.7051 0.1788 -0.0191 0.9971
-0.7032 0.1675 -0.0190 0.9971
-0.7014 0.1562 -0.0189 0.9971
-0.6996 0.1452 -0.0188 0.9971
-0.6977 0.1341 -0.0187 0.9972
-0.6959 0.1233 -0.0186 0.9972
-0.6941 0.1125 -0.0185 0.9972
-0.6904 0.0913 -0.0183 0.9972
-0.6867 0.0705 -0.0182 0.9972
-0.6831 0.0500 -0.0180 0.9973
-0.6812 0.0399 -0.0180 0.9973
-0.6757 0.0099 -0.0178 0.9973
-0.6464 0.0000 -0.0242 0.9974
-0.6492 -0.0190 -0.0243 0.9974
-0.6506 -0.0285 -0.0244 0.9974
-0.6522 -0.0382 -0.0244 0.9974
-0.6572 -0.0675 -0.0247 0.9974
-0.6588 -0.0774 -0.0248 0.9973
-0.6604 -0.0874 -0.0249 0.9973
-0.6669 -0.1282 -0.0254 0.9973
-0.6685 -0.1387 -0.0255 0.9973
-0.6701 -0.1493 -0.0257 0.9973
-0.6733 -0.1708 -0.0260 0.9972
-0.6814 -0.2159 -0.0267 0.9971
-0.6842 -0.2279 -0.0270 0.9971
-0.6900 -0.2524 -0.0275 0.9971
-0.7016 -0.3042 -0.0286 0.9969
-0.7071 -0.3314 -0.0292 0.9969
-0.7099 -0.3455 -0.0295 0.9968
-0.7127 -0.3599 -0.0299 0.9968
-0.7175 -0.3890 -0.0305 0.9967
-0.7264 -0.4506 -0.0320 0.9966
-0.7310 -0.4836 -0.0328 0.9965
-0.7333 -0.5007 -0.0332 0.9965
-0.7357 -0.5183 -0.0337 0.9964
-0.7381 -0.5363 -0.0341 0.9964
-0.7540 -0.5648 -0.0353 0.9962
-12.2659 -10.3604 -0.6008 0.9378
-11.5878 -10.3827 -0.5822 0.9396
-11.3991 -10.5179 -0.5803 0.9398
-9.6055 -9.3971 -0.5028 0.9476
-9.3158 -9.3840 -0.4948 0.9484
-8.2950 -9.3948 -0.4689 0.9511
-9.2846 -10.8308 -0.5338 0.9445
-9.3572 -11.9368 -0.5675 0.9411
-7.6147 -10.9790 -0.4999 0.9479
-6.2344 -9.2754 -0.4182 0.9563
-6.1733 -9.4807 -0.4233 0.9557
-6.1106 -9.6913 -0.4287 0.9552
-1.5189 -2.4889 -0.1091 0.9884
-1.4318 -2.5081 -0.1081 0.9885
-1.3888 -2.5176 -0.1076 0.9886
-1.2621 -2.5458 -0.1063 0.9887
-1.2206 -2.5552 -0.1060 0.9887
-1.1793 -2.5644 -0.1056 0.9888
-1.0975 -2.5828 -0.1050 0.9888
-0.9912 -2.7723 -0.1102 0.9883
-2.0939 -8.0095 -0.3098 0.9674
-1.9738 -8.0276 -0.3093 0.9675
-1.8314 -7.9472 -0.3052 0.9679
-1.5968 -7.9895 -0.3049 0.9679
-1.1093 -7.9402 -0.3000 0.9684
-0.8738 -7.9415 -0.2989 0.9685
-0.6397 -7.9431 -0.2982 0.9686
-0.5230 -7.9421 -0.2978 0.9686
-0.4065 -7.9417 -0.2975 0.9687
-0.2902 -7.9419 -0.2974 0.9687
-0.1741 -7.9420 -0.2972 0.9687
-0.0580 -7.9427 -0.2972 0.9687
0.0580 -7.9442 -0.2973 0.9687
0.1742 -7.9456 -0.2974 0.9687
0.2904 -7.9452 -0.2975 0.9687
0.4066 -7.9441 -0.2976 0.9687
0.6399 -7.9451 -0.2982 0.9686
0.7568 -7.9441 -0.2986 0.9686
0.8740 -7.9439 -0.2990 0.9685
1.1088 -7.9362 -0.2998 0.9684
1.3496 -7.9555 -0.3019 0.9682
1.4742 -7.9811 -0.3037 0.9680
1.7375 -8.0776 -0.3092 0.9675
6.2304 -25.3389 -0.9764 0.9008
7.6953 -24.9168 -0.9758 0.9009
8.4176 -24.6741 -0.9755 0.9009
1.0528 -2.6935 -0.1082 0.9885
1.0809 -2.6505 -0.1071 0.9886
10.5366 -23.8217 -0.9746 0.9010
11.2251 -23.4971 -0.9744 0.9010
11.5656 -23.3273 -0.9742 0.9010
12.2390 -22.9731 -0.9740 0.9011
12.5716 -22.7887 -0.9738 0.9011
13.2286 -22.4056 -0.9736 0.9011
13.8740 -22.0037 -0.9733 0.9011
14.1921 -21.7958 -0.9732 0.9011
14.8192 -21.3664 -0.9729 0.9012
16.3292 -20.2152 -0.9723 0.9012
16.6209 -19.9720 -0.9722 0.9012
16.9089 -19.7248 -0.9721 0.9012
17.1933 -19.4733 -0.9720 0.9012
17.4740 -19.2179 -0.9719 0.9013
17.7510 -18.9583 -0.9718 0.9013
18.0241 -18.6948 -0.9717 0.9013
18.2933 -18.4275 -0.9716 0.9013
18.5585 -18.1562 -0.9715 0.9013
19.5793 -17.0340 -0.9711 0.9013
19.8241 -16.7444 -0.9710 0.9013
20.5329 -15.8550 -0.9707 0.9014
20.7604 -15.5518 -0.9706 0.9014
20.9836 -15.2454 -0.9705 0.9014
17.5881 -12.3900 -0.8050 0.9175
21.4163 -14.6232 -0.9703 0.9014
21.7689 -13.9493 -0.9674 0.9017
21.4996 -12.9064 -0.9383 0.9045
22.3540 -12.9789 -0.9672 0.9017
22.5395 -12.6498 -0.9671 0.9017
22.7203 -12.3183 -0.9670 0.9017
23.0671 -11.6474 -0.9669 0.9017
24.4320 -9.7560 -0.9844 0.9000
24.5706 -9.3975 -0.9843 0.9001
25.0725 -7.9445 -0.9841 0.9001
25.1847 -7.5770 -0.9841 0.9001
25.5802 -6.0919 -0.9839 0.9001
25.6656 -5.7173 -0.9839 0.9001
25.8202 -4.9646 -0.9838 0.9001
17.7371 -2.6104 -0.6708 0.9308
25.7103 -3.0192 -0.9686 0.9016
25.2843 -2.5952 -0.9510 0.9033
25.7868 -2.2666 -0.9686 0.9016
25.8168 -1.8896 -0.9686 0.9016
26.2437 -1.5356 -0.9836 0.9001
26.2631 -1.1520 -0.9836 0.9001
26.2770 -0.7682 -0.9836 0.9001
26.2881 0.0000 -0.9836 0.9001
26.2770 0.7681 -0.9836 0.9001
26.2631 1.1520 -0.9836 0.9001
9.4770 0.6936 -0.3556 0.9627
26.1106 3.0662 -0.9837 0.9001
26.0108 3.8280 -0.9837 0.9001
25.8411 4.1896 -0.9795 0.9005
25.8891 4.5866 -0.9838 0.9001
19.5517 4.0564 -0.7471 0.9232
25.1847 7.5770 -0.9841 0.9001
19.6130 6.5314 -0.7735 0.9206
19.5831 6.8409 -0.7762 0.9203
18.1412 6.6363 -0.7228 0.9256
18.0606 7.2118 -0.7277 0.9251
22.6550 9.4325 -0.9182 0.9064
22.3129 10.0648 -0.9159 0.9067
22.2180 10.8141 -0.9246 0.9058
22.3065 11.2632 -0.9350 0.9048
22.9611 12.0179 -0.9697 0.9015
22.2264 13.3427 -0.9700 0.9014
21.6257 14.3075 -0.9702 0.9014
21.2021 14.9358 -0.9704 0.9014
20.5328 15.8548 -0.9707 0.9014
5.9698 5.1937 -0.2961 0.9688
9.1356 8.1855 -0.4590 0.9521
14.4823 13.7599 -0.7475 0.9232
18.5585 18.1561 -0.9715 0.9013
17.7509 18.9582 -0.9718 0.9013
17.4738 19.2176 -0.9719 0.9013
16.6208 19.9719 -0.9722 0.9012
15.7353 20.6885 -0.9726 0.9012
15.4332 20.9188 -0.9727 0.9012
15.1278 21.1447 -0.9728 0.9012
14.8190 21.3662 -0.9729 0.9012
14.5072 21.5833 -0.9731 0.9011
13.8739 22.0037 -0.9733 0.9011
13.5527 22.2069 -0.9734 0.9011
13.2285 22.4055 -0.9736 0.9011
12.9014 22.5994 -0.9737 0.9011
12.2389 22.9729 -0.9740 0.9011
11.9035 23.1524 -0.9741 0.9010
11.5656 23.3272 -0.9742 0.9010
11.2250 23.4968 -0.9744 0.9010
4.4829 9.7476 -0.4015 0.9580
10.5366 23.8215 -0.9746 0.9010
9.4866 24.2707 -0.9751 0.9009
8.7760 24.5447 -0.9753 0.9009
2.9200 8.9868 -0.3536 0.9629
2.7745 8.9837 -0.3518 0.9631
6.9660 25.1382 -0.9761 0.9009
6.2304 25.3386 -0.9763 0.9008
0.8947 3.8828 -0.1491 0.9842
0.6780 3.3922 -0.1294 0.9862
0.5202 3.3635 -0.1273 0.9865
0.4200 3.3640 -0.1269 0.9865
0.3214 3.3736 -0.1268 0.9865
0.1241 3.3946 -0.1271 0.9865
0.0249 3.4075 -0.1275 0.9865
-0.0751 3.4249 -0.1282 0.9864
-0.1255 3.4338 -0.1286 0.9863
-0.1763 3.4437 -0.1290 0.9863
-0.2275 3.4547 -0.1295 0.9862
-0.2791 3.4658 -0.1301 0.9862
-0.4375 3.5046 -0.1322 0.9860
-0.4921 3.5223 -0.1331 0.9859
-0.5479 3.5429 -0.1341 0.9858
-0.6071 3.5791 -0.1358 0.9856
-0.6795 3.6787 -0.1400 0.9851
-1.3779 6.8943 -0.2631 0.9722
-1.5547 6.3230 -0.2436 0.9743
-1.6175 5.8371 -0.2266 0.9760
-1.6680 5.4007 -0.2115 0.9776
-1.6908 5.2036 -0.2047 0.9783
-1.7124 5.0195 -0.1984 0.9790
-1.7016 3.8471 -0.1574 0.9833
-1.7355 3.7737 -0.1554 0.9835
-1.8902 3.4263 -0.1464 0.9845
-1.9033 3.3340 -0.1436 0.9848
-1.9160 3.2451 -0.1410 0.9850
-1.9399 3.0767 -0.1361 0.9855
-1.9603 2.9166 -0.1315 0.9860
-1.9691 2.8390 -0.1293 0.9863
-1.9887 2.7797 -0.1279 0.9864
-2.0577 2.7891 -0.1297 0.9862
-2.2019 2.8088 -0.1335 0.9858
-2.3549 2.8298 -0.1378 0.9854
-2.4352 2.8407 -0.1400 0.9851
-2.5183 2.8522 -0.1424 0.9849
-2.6044 2.8642 -0.1449 0.9846
-2.6935 2.8767 -0.1475 0.9843
-2.7859 2.8896 -0.1502 0.9841
-2.8819 2.9030 -0.1531 0.9838
-2.9816 2.9170 -0.1561 0.9834
-3.4363 2.9896 -0.1704 0.9819
-3.7020 3.0353 -0.1791 0.9810
-3.8459 3.0604 -0.1839 0.9805
-0.7381 0.5363 -0.0341 0.9964
-0.7357 0.5183 -0.0337 0.9964
-0.7310 0.4836 -0.0328 0.9965
-0.7264 0.4506 -0.0320 0.9966
-0.7241 0.4347 -0.0316 0.9966
-0.7197 0.4039 -0.0309 0.9967
-0.7175 0.3890 -0.0305 0.9967
-0.7153 0.3744 -0.0302 0.9968
-0.7128 0.3599 -0.0299 0.9968
-0.7099 0.3455 -0.0295 0.9968
-0.7071 0.3315 -0.0292 0.9969
-0.7043 0.3177 -0.0289 0.9969
-0.7016 0.3042 -0.0286 0.9969
-0.6900 0.2524 -0.0275 0.9971
-0.6871 0.2400 -0.0272 0.9971
-0.6843 0.2278 -0.0270 0.9971
-0.6733 0.1708 -0.0260 0.9972
-0.6717 0.1600 -0.0258 0.9972
-0.6685 0.1387 -0.0255 0.9973
-0.6669 0.1282 -0.0254 0.9973
-0.6653 0.1179 -0.0253 0.9973
-0.6637 0.1076 -0.0252 0.9973
-0.6621 0.0974 -0.0250 0.9973
-0.6604 0.0873 -0.0249 0.9973
-0.6588 0.0773 -0.0248 0.9973
-0.6572 0.0674 -0.0247 0.9974
-0.6556 0.0576 -0.0246 0.9974
-0.6523 0.0381 -0.0244 0.9974
-0.6492 0.0190 -0.0243 0.9974
-0.6478 0.0095 -0.0242 0.9974
-0.6209 -0.0000 -0.0301 0.9975
-0.6246 -0.0274 -0.0303 0.9975
-0.6258 -0.0366 -0.0304 0.9975
-0.6286 -0.0552 -0.0306 0.9975
-0.6301 -0.0647 -0.0307 0.9975
-0.6315 -0.0742 -0.0309 0.9975
-0.6344 -0.0934 -0.0311 0.9974
-0.6358 -0.1030 -0.0313 0.9974
-0.6386 -0.1228 -0.0316 0.9974
-0.6400 -0.1328 -0.0317 0.9974
-0.6414 -0.1429 -0.0319 0.9974
-0.6428 -0.1531 -0.0321 0.9974
-0.6441 -0.1634 -0.0322 0.9973
-0.6468 -0.1843 -0.0326 0.9973
-0.6482 -0.1950 -0.0328 0.9973
-0.6518 -0.2171 -0.0333 0.9973
-0.6540 -0.2284 -0.0336 0.9972
-0.6564 -0.2401 -0.0339 0.9972
-0.6588 -0.2520 -0.0342 0.9972
-0.6613 -0.2641 -0.0346 0.9972
-0.6638 -0.2764 -0.0349 0.9971
-0.6689 -0.3017 -0.0356 0.9971
-0.6793 -0.3555 -0.0372 0.9969
-0.6820 -0.3698 -0.0376 0.9969
-0.6846 -0.3842 -0.0381 0.9969
-0.6879 -0.4130 -0.0389 0.9968
-0.6896 -0.4278 -0.0394 0.9968
-0.6914 -0.4430 -0.0398 0.9967
-0.6930 -0.4585 -0.0403 0.9967
-0.6948 -0.4744 -0.0408 0.9966
-0.7000 -0.5244 -0.0424 0.9965
-0.7346 -0.5846 -0.0456 0.9962
-0.8411 -0.6896 -0.0528 0.9957
-3.6313 -3.1593 -0.2335 0.9809
-15.0741 -13.5066 -0.9820 0.9221
-11.9769 -11.0510 -0.7907 0.9368
-8.7902 -9.3880 -0.6240 0.9498
-9.3908 -10.6361 -0.6884 0.9448
-9.1234 -10.9629 -0.6920 0.9445
-9.0655 -11.2229 -0.7000 0.9439
-1.8517 -2.6698 -0.1576 0.9871
-6.1880 -9.5034 -0.5502 0.9556
-6.0741 -9.6334 -0.5526 0.9554
-1.4057 -2.5482 -0.1412 0.9884
-1.3625 -2.5577 -0.1406 0.9885
-1.3197 -2.5670 -0.1401 0.9885
-1.1934 -2.5950 -0.1386 0.9886
-0.9925 -2.5393 -0.1323 0.9891
-0.9853 -2.7559 -0.1420 0.9883
-0.8642 -2.5334 -0.1299 0.9893
-0.8313 -2.5587 -0.1305 0.9893
-0.7981 -2.5843 -0.1312 0.9892
-0.7645 -2.6103 -0.1320 0.9892
-0.7305 -2.6366 -0.1328 0.9891
-1.9551 -7.9514 -0.3973 0.9677
-1.3472 -7.9418 -0.3908 0.9683
-1.2278 -7.9396 -0.3898 0.9683
-0.9909 -7.9371 -0.3881 0.9685
-0.6394 -7.9386 -0.3864 0.9686
-0.5227 -7.9375 -0.3860 0.9686
-0.0580 -7.9364 -0.3851 0.9687
0.0580 -7.9379 -0.3851 0.9687
0.2901 -7.9365 -0.3853 0.9687
0.5225 -7.9350 -0.3858 0.9687
0.6392 -7.9358 -0.3863 0.9686
0.7560 -7.9354 -0.3868 0.9686
0.8739 -7.9426 -0.3877 0.9685
0.9917 -7.9430 -0.3884 0.9685
1.1095 -7.9409 -0.3890 0.9684
1.6005 -8.0078 -0.3962 0.9678
1.7381 -8.0801 -0.4010 0.9674
4.5219 -19.6226 -0.9770 0.9225
4.8075 -19.5522 -0.9769 0.9225
3.7990 -12.9702 -0.6557 0.9473
5.9387 -19.2291 -0.9765 0.9226
1.0826 -2.6546 -0.1391 0.9886
1.1063 -2.6034 -0.1372 0.9887
8.4005 -18.2661 -0.9755 0.9226
8.9288 -18.0089 -0.9753 0.9227
9.1900 -17.8746 -0.9752 0.9227
9.9613 -17.4493 -0.9749 0.9227
10.4648 -17.1472 -0.9747 0.9227
10.9592 -16.8308 -0.9745 0.9227
11.4440 -16.5001 -0.9743 0.9227
12.6119 -15.6133 -0.9738 0.9228
13.2804 -15.0415 -0.9736 0.9228
13.4975 -14.8445 -0.9735 0.9228
15.9957 -11.9826 -0.9697 0.9231
16.1679 -11.7467 -0.9696 0.9231
16.8220 -10.7793 -0.9694 0.9231
17.1276 -10.2819 -0.9693 0.9231
17.8826 -9.6954 -0.9870 0.9218
18.0213 -9.4325 -0.9869 0.9218
5.7280 -2.7879 -0.3091 0.9748
18.5377 -8.3619 -0.9867 0.9218
18.7723 -7.8159 -0.9866 0.9218
18.8837 -7.5405 -0.9866 0.9218
19.0943 -6.9849 -0.9865 0.9218
19.2887 -6.4235 -0.9864 0.9218
19.3799 -6.1407 -0.9864 0.9218
19.7029 -4.9975 -0.9862 0.9218
19.7732 -4.7090 -0.9862 0.9218
19.8395 -4.4194 -0.9862 0.9218
19.9014 -4.1290 -0.9862 0.9218
19.7057 -3.4912 -0.9710 0.9230
17.7370 -2.6104 -0.8699 0.9307
19.8747 -2.3339 -0.9709 0.9230
20.2679 -1.4834 -0.9860 0.9218
20.3132 -0.5938 -0.9860 0.9218
20.3196 -0.2969 -0.9860 0.9218
20.3218 0.0000 -0.9860 0.9218
20.3196 0.2969 -0.9860 0.9218
20.3132 0.5938 -0.9860 0.9218
20.3024 0.8906 -0.9860 0.9218
20.2873 1.1871 -0.9860 0.9218
9.4854 0.8338 -0.4620 0.9626
20.1842 2.3702 -0.9861 0.9218
20.1069 2.9591 -0.9861 0.9218
20.0619 3.2526 -0.9861 0.9218
19.4661 4.3362 -0.9676 0.9232
19.7732 4.7089 -0.9862 0.9218
17.7879 4.5118 -0.8904 0.9291
17.7511 4.7796 -0.8919 0.9290
19.4669 5.8567 -0.9863 0.9218
19.3798 6.1407 -0.9864 0.9218
19.2888 6.4234 -0.9864 0.9218
19.1936 6.7048 -0.9864 0.9218
18.1572 6.9445 -0.9432 0.9251
18.8836 7.5405 -0.9866 0.9218
18.6570 8.0898 -0.9867 0.9218
18.0808 8.4757 -0.9689 0.9231
17.9560 8.7395 -0.9689 0.9231
17.6949 9.2614 -0.9690 0.9231
17.5586 9.5195 -0.9691 0.9231
17.1276 10.2816 -0.9693 0.9231
16.2137 11.7799 -0.9724 0.9229
15.8648 12.2504 -0.9725 0.9229
15.6852 12.4818 -0.9726 0.9229
5.9699 5.1937 -0.3839 0.9688
9.1357 8.1856 -0.5952 0.9521
14.3367 14.0258 -0.9731 0.9228
14.1314 14.2350 -0.9732 0.9228
13.9231 14.4412 -0.9733 0.9228
13.7118 14.6443 -0.9734 0.9228
13.4974 14.8443 -0.9735 0.9228
12.8375 15.4258 -0.9737 0.9228
12.6119 15.6132 -0.9738 0.9228
12.3836 15.7973 -0.9739 0.9228
12.1525 15.9780 -0.9740 0.9228
10.9591 16.8306 -0.9745 0.9227
10.7131 16.9906 -0.9746 0.9227
10.2141 17.2999 -0.9748 0.9227
9.7063 17.5946 -0.9750 0.9227
8.9288 18.0088 -0.9753 0.9227
8.6656 18.1393 -0.9754 0.9226
4.4643 9.7070 -0.5184 0.9581
8.1337 18.3888 -0.9756 0.9226
7.5945 18.6226 -0.9758 0.9226
7.3224 18.7336 -0.9759 0.9226
7.0487 18.8408 -0.9760 0.9226
6.7734 18.9438 -0.9761 0.9226
2.7731 8.9792 -0.4560 0.9631
5.6578 19.3159 -0.9766 0.9226
0.8446 3.6650 -0.1825 0.9851
0.6761 3.3825 -0.1674 0.9863
0.6218 3.3661 -0.1661 0.9864
0.5197 3.3605 -0.1650 0.9865
0.4695 3.3600 -0.1646 0.9865
0.3704 3.3663 -0.1643 0.9865
0.3212 3.3712 -0.1643 0.9865
0.2719 3.3758 -0.1643 0.9865
0.1733 3.3858 -0.1645 0.9865
0.1240 3.3923 -0.1647 0.9865
0.0249 3.4052 -0.1652 0.9865
-0.0250 3.4137 -0.1656 0.9864
-0.1254 3.4315 -0.1666 0.9863
-0.1761 3.4412 -0.1672 0.9863
-0.3835 3.4852 -0.1701 0.9861
-0.4371 3.5011 -0.1712 0.9860
-0.4918 3.5200 -0.1724 0.9859
-0.6045 3.5636 -0.1754 0.9856
-0.6776 3.6684 -0.1810 0.9852
-1.5426 6.2737 -0.3135 0.9745
-1.6439 6.2882 -0.3154 0.9743
-1.6170 5.8351 -0.2938 0.9760
-1.6430 5.6093 -0.2836 0.9769
-1.6676 5.3995 -0.2742 0.9776
-1.6905 5.2030 -0.2654 0.9783
-1.7121 5.0187 -0.2573 0.9790
-1.6467 4.4017 -0.2280 0.9814
-1.6460 4.2111 -0.2194 0.9821
-1.6667 4.0871 -0.2142 0.9825
-1.7180 3.7355 -0.1995 0.9837
-1.7735 3.7124 -0.1996 0.9837
-1.7579 3.5456 -0.1920 0.9843
-1.7961 3.4935 -0.1906 0.9844
-1.9046 3.3363 -0.1864 0.9847
-1.9172 3.2473 -0.1830 0.9850
-1.9294 3.1614 -0.1797 0.9853
-1.9577 2.9125 -0.1703 0.9860
-1.9664 2.8352 -0.1674 0.9863
-1.9901 2.7817 -0.1660 0.9864
-2.0592 2.7911 -0.1683 0.9862
-2.3567 2.8319 -0.1788 0.9854
-2.5201 2.8543 -0.1847 0.9849
-2.6950 2.8783 -0.1913 0.9843
-3.1971 2.9500 -0.2111 0.9827
-3.4389 2.9918 -0.2212 0.9819
-3.5690 3.0145 -0.2267 0.9815
-0.8412 0.6898 -0.0528 0.9957
-0.7348 0.5847 -0.0456 0.9962
-0.6965 0.4906 -0.0413 0.9966
-0.6931 0.4585 -0.0403 0.9967
-0.6914 0.4430 -0.0398 0.9967
-0.6767 0.3416 -0.0368 0.9970
-0.6689 0.3018 -0.0356 0.9971
-0.6664 0.2890 -0.0352 0.9971
-0.6613 0.2641 -0.0346 0.9972
-0.6588 0.2520 -0.0342 0.9972
-0.6564 0.2401 -0.0339 0.9972
-0.6539 0.2284 -0.0336 0.9972
-0.6500 0.2059 -0.0331 0.9973
-0.6482 0.1950 -0.0328 0.9973
-0.6455 0.1738 -0.0324 0.9973
-0.6414 0.1429 -0.0319 0.9974
-0.6400 0.1328 -0.0317 0.9974
-0.6386 0.1228 -0.0316 0.9974
-0.6358 0.1030 -0.0313 0.9974
-0.6344 0.0934 -0.0311 0.9974
-0.6330 0.0837 -0.0310 0.9974
-0.6301 0.0646 -0.0307 0.9975
-0.6258 0.0366 -0.0304 0.9975
-0.6234 0.0182 -0.0303 0.9975
-0.5984 -0.0088 -0.0357 0.9976
-0.6017 -0.0352 -0.0359 0.9976
-0.6028 -0.0441 -0.0360 0.9976
-0.6038 -0.0531 -0.0361 0.9976
-0.6064 -0.0712 -0.0364 0.9976
-0.6089 -0.0896 -0.0367 0.9975
-0.6114 -0.1083 -0.0370 0.9975
-0.6162 -0.1468 -0.0378 0.9975
