ply
format ascii 1.0
element vertex 1598
property float32 x
property float32 y
property float32 z
property float32 I
end_header
1.7856 -4.7727 -0.9935 0.9794
1.9241 -4.7182 -0.9934 0.9794
1.9928 -4.6895 -0.9934 0.9794
2.1289 -4.6290 -0.9933 0.9794
1.6363 -3.0714 -0.6785 0.9859
1.6960 -2.9709 -0.6669 0.9862
1.8045 -2.8620 -0.6596 0.9863
1.8416 -2.8284 -0.6580 0.9863
1.9056 -2.5054 -0.6137 0.9873
3.2002 -3.9618 -0.9929 0.9795
3.3189 -3.7590 -0.9776 0.9798
3.3733 -3.7100 -0.9776 0.9798
3.4271 -3.6602 -0.9775 0.9798
3.6348 -3.4535 -0.9775 0.9798
3.6848 -3.3999 -0.9774 0.9798
3.7824 -3.2907 -0.9774 0.9798
3.9227 -3.1216 -0.9773 0.9798
3.9678 -3.0639 -0.9773 0.9798
4.0980 -2.8869 -0.9773 0.9798
4.2204 -2.7044 -0.9772 0.9798
4.3709 -2.4531 -0.9772 0.9798
4.4406 -2.3243 -0.9771 0.9798
4.5380 -2.1274 -0.9771 0.9798
4.5981 -1.9938 -0.9771 0.9798
4.8287 -1.6081 -0.9922 0.9795
4.8517 -1.5373 -0.9922 0.9795
4.8736 -1.4662 -0.9922 0.9795
4.9142 -1.3232 -0.9922 0.9795
4.9508 -1.1790 -0.9922 0.9795
4.9674 -1.1065 -0.9922 0.9795
4.9830 -1.0339 -0.9922 0.9795
5.0110 -0.8878 -0.9921 0.9795
5.0234 -0.8145 -0.9921 0.9795
5.0624 -0.5196 -0.9921 0.9795
5.0694 -0.4456 -0.9921 0.9795
5.0802 -0.2973 -0.9921 0.9795
5.0867 -0.1487 -0.9921 0.9795
5.0884 -0.0744 -0.9921 0.9795
5.0883 0.0743 -0.9921 0.9795
5.0867 0.1487 -0.9921 0.9795
5.0840 0.2230 -0.9921 0.9795
5.0753 0.3714 -0.9921 0.9795
5.0694 0.4456 -0.9921 0.9795
5.0624 0.5196 -0.9921 0.9795
5.0542 0.5935 -0.9921 0.9795
5.0111 0.8878 -0.9921 0.9795
4.9330 1.2512 -0.9922 0.9795
4.9143 1.3232 -0.9922 0.9795
4.8736 1.4662 -0.9922 0.9795
4.8048 1.6784 -0.9922 0.9795
4.6987 1.9563 -0.9923 0.9795
4.6697 2.0248 -0.9923 0.9795
4.6397 2.0929 -0.9923 0.9795
4.6086 2.1604 -0.9923 0.9795
4.5767 2.2275 -0.9923 0.9795
4.4748 2.4261 -0.9924 0.9795
4.4021 2.5559 -0.9924 0.9795
4.3257 2.6835 -0.9924 0.9795
4.2861 2.7464 -0.9924 0.9795
4.2456 2.8088 -0.9925 0.9795
4.2042 2.8706 -0.9925 0.9795
4.1618 2.9318 -0.9925 0.9795
3.9837 3.1701 -0.9926 0.9795
3.9371 3.2281 -0.9926 0.9795
3.7421 3.4529 -0.9927 0.9795
3.6913 3.5072 -0.9927 0.9795
3.6398 3.5609 -0.9927 0.9795
3.5343 3.6658 -0.9927 0.9795
3.4805 3.7172 -0.9928 0.9795
3.4258 3.7677 -0.9928 0.9795
3.3705 3.8174 -0.9928 0.9795
3.2002 3.9618 -0.9929 0.9795
3.0832 4.0538 -0.9929 0.9795
3.0237 4.0985 -0.9929 0.9795
2.9636 4.1423 -0.9930 0.9795
2.9028 4.1853 -0.9930 0.9795
2.8414 4.2274 -0.9930 0.9795
2.7794 4.2686 -0.9930 0.9795
2.5899 4.3866 -0.9931 0.9795
2.0424 3.5777 -0.8031 0.9834
1.9777 3.5850 -0.7982 0.9835
1.8723 4.0712 -0.8736 0.9819
2.0611 4.6597 -0.9933 0.9794
1.8550 4.7460 -0.9934 0.9794
1.7855 4.7727 -0.9935 0.9794
1.7157 4.7984 -0.9935 0.9794
1.6454 4.8232 -0.9935 0.9794
1.5748 4.8468 -0.9935 0.9794
1.5039 4.8694 -0.9936 0.9794
1.4326 4.8911 -0.9936 0.9794
1.1446 4.9670 -0.9937 0.9794
1.0719 4.9832 -0.9937 0.9794
0.9990 4.9986 -0.9938 0.9794
0.8526 5.0259 -0.9938 0.9794
0.5840 3.7764 -0.7450 0.9845
0.4736 3.7935 -0.7453 0.9845
0.4093 5.0821 -0.9940 0.9794
0.0372 5.0993 -0.9942 0.9794
-0.1863 5.0964 -0.9943 0.9794
-0.3351 5.0892 -0.9943 0.9794
-0.4837 5.0775 -0.9944 0.9794
-0.5579 5.0701 -0.9944 0.9794
-0.7058 5.0519 -0.9945 0.9794
-0.8532 5.0294 -0.9945 0.9794
-0.9266 5.0166 -0.9946 0.9794
-1.1457 4.9716 -0.9946 0.9794
-1.3626 4.9170 -0.9947 0.9794
-1.2842 3.9525 -0.8102 0.9832
-1.3231 3.7005 -0.7662 0.9841
-1.3605 3.4806 -0.7286 0.9849
-1.4124 3.4634 -0.7292 0.9849
-1.5017 3.3950 -0.7237 0.9850
-1.6114 3.3730 -0.7288 0.9849
-1.7366 3.3775 -0.7404 0.9846
-1.8034 3.3851 -0.7478 0.9845
-1.8717 3.3929 -0.7554 0.9843
-2.5308 4.4332 -0.9952 0.9794
-2.5954 4.3959 -0.9952 0.9794
-0.4197 0.6877 -0.1571 0.9967
-0.3917 0.6212 -0.1432 0.9970
-0.3724 0.5718 -0.1330 0.9972
-0.3718 0.5532 -0.1300 0.9973
-0.3771 0.5111 -0.1238 0.9974
-0.3786 0.4978 -0.1219 0.9975
-0.3801 0.4848 -0.1201 0.9975
-0.3827 0.4599 -0.1166 0.9976
-0.3839 0.4479 -0.1150 0.9976
-0.3851 0.4361 -0.1134 0.9976
-0.3861 0.4246 -0.1119 0.9977
-0.3871 0.4134 -0.1104 0.9977
-0.3880 0.4025 -0.1090 0.9977
-0.3927 0.3731 -0.1056 0.9978
-0.3940 0.3635 -0.1045 0.9978
-0.3949 0.3539 -0.1034 0.9978
-0.3967 0.3350 -0.1012 0.9979
-0.3982 0.3169 -0.0992 0.9979
-0.3989 0.3080 -0.0982 0.9979
-0.4001 0.2907 -0.0964 0.9980
-0.4012 0.2739 -0.0947 0.9980
-0.4017 0.2657 -0.0939 0.9980
-0.4028 0.2418 -0.0916 0.9981
-0.4032 0.2340 -0.0909 0.9981
-0.4034 0.2264 -0.0902 0.9981
-0.4045 0.2117 -0.0890 0.9981
-0.4051 0.2045 -0.0885 0.9982
-0.4060 0.1903 -0.0874 0.9982
-0.4067 0.1834 -0.0870 0.9982
-0.4085 0.1631 -0.0858 0.9982
-0.4090 0.1564 -0.0854 0.9982
-0.4095 0.1498 -0.0850 0.9982
-0.4103 0.1366 -0.0843 0.9982
-0.4109 0.1236 -0.0837 0.9983
-0.4111 0.1171 -0.0833 0.9983
-0.4115 0.1043 -0.0828 0.9983
-0.4116 0.0980 -0.0825 0.9983
-0.4117 0.0917 -0.0822 0.9983
-0.4117 0.0854 -0.0820 0.9983
-0.4117 0.0791 -0.0817 0.9983
-0.4116 0.0729 -0.0815 0.9983
-0.4115 0.0667 -0.0813 0.9983
-0.4114 0.0605 -0.0811 0.9983
-0.4110 0.0482 -0.0807 0.9983
-0.4107 0.0421 -0.0805 0.9983
-0.4088 0.0120 -0.0797 0.9983
-0.4084 0.0060 -0.0796 0.9983
-0.3971 -0.0000 -0.0820 0.9984
-0.3976 -0.0058 -0.0821 0.9984
-0.3981 -0.0117 -0.0822 0.9984
-0.3985 -0.0175 -0.0824 0.9984
-0.3992 -0.0293 -0.0826 0.9984
-0.3998 -0.0411 -0.0830 0.9984
-0.4005 -0.0710 -0.0840 0.9983
-0.4005 -0.0770 -0.0842 0.9983
-0.4005 -0.0831 -0.0845 0.9983
-0.4004 -0.0954 -0.0850 0.9983
-0.4002 -0.1015 -0.0853 0.9983
-0.3998 -0.1140 -0.0858 0.9983
-0.3995 -0.1202 -0.0861 0.9983
-0.3986 -0.1458 -0.0876 0.9983
-0.3983 -0.1523 -0.0880 0.9983
-0.3976 -0.1655 -0.0889 0.9982
-0.3972 -0.1722 -0.0894 0.9982
-0.3962 -0.1857 -0.0904 0.9982
-0.3956 -0.1998 -0.0915 0.9982
-0.3951 -0.2142 -0.0928 0.9982
-0.3922 -0.2678 -0.0981 0.9981
-0.3910 -0.2841 -0.0998 0.9980
-0.3903 -0.2924 -0.1007 0.9980
-0.3896 -0.3008 -0.1016 0.9980
-0.3872 -0.3270 -0.1046 0.9979
-0.3831 -0.3640 -0.1091 0.9978
-0.3814 -0.3731 -0.1102 0.9978
-0.3796 -0.3824 -0.1112 0.9978
-0.3778 -0.3919 -0.1124 0.9978
-0.3759 -0.4015 -0.1136 0.9978
-0.3745 -0.4118 -0.1149 0.9977
-0.3733 -0.4228 -0.1165 0.9977
-0.3721 -0.4340 -0.1180 0.9977
-0.3662 -0.4815 -0.1249 0.9975
-0.3646 -0.4941 -0.1268 0.9975
-0.3628 -0.5071 -0.1287 0.9975
-0.3609 -0.5204 -0.1307 0.9974
-0.3589 -0.5339 -0.1328 0.9974
-0.3546 -0.5623 -0.1373 0.9973
-2.3279 -4.2199 -0.9951 0.9805
-2.2660 -4.2534 -0.9951 0.9805
-2.2036 -4.2859 -0.9951 0.9805
-2.1406 -4.3175 -0.9951 0.9805
-2.0134 -4.3780 -0.9950 0.9805
-1.9492 -4.4068 -0.9950 0.9805
-1.8195 -4.4617 -0.9949 0.9805
-1.6221 -4.5368 -0.9948 0.9805
-1.4216 -4.6031 -0.9948 0.9805
-1.3542 -4.6232 -0.9947 0.9805
-1.2864 -4.6424 -0.9947 0.9805
-1.2184 -4.6606 -0.9947 0.9805
-1.1502 -4.6778 -0.9946 0.9805
-1.0817 -4.6939 -0.9946 0.9805
-1.0129 -4.7091 -0.9946 0.9805
-0.9440 -4.7233 -0.9946 0.9805
-0.8749 -4.7364 -0.9945 0.9805
-0.8055 -4.7486 -0.9945 0.9805
-0.6664 -4.7698 -0.9945 0.9805
-0.5267 -4.7870 -0.9944 0.9805
-0.4567 -4.7940 -0.9944 0.9805
-0.0352 -4.8148 -0.9942 0.9805
0.0351 -4.8146 -0.9942 0.9805
0.1055 -4.8135 -0.9941 0.9805
0.2461 -4.8080 -0.9941 0.9805
0.3865 -4.7986 -0.9940 0.9805
0.5265 -4.7849 -0.9940 0.9805
0.5963 -4.7766 -0.9939 0.9805
0.7356 -4.7568 -0.9939 0.9805
0.8050 -4.7454 -0.9939 0.9805
0.8742 -4.7330 -0.9938 0.9805
0.9433 -4.7196 -0.9938 0.9805
1.0807 -4.6898 -0.9937 0.9805
1.1491 -4.6734 -0.9937 0.9805
1.2851 -4.6375 -0.9937 0.9805
1.3527 -4.6182 -0.9936 0.9805
1.4199 -4.5978 -0.9936 0.9805
1.4869 -4.5764 -0.9936 0.9805
1.6200 -4.5307 -0.9935 0.9805
1.6859 -4.5064 -0.9935 0.9805
1.7516 -4.4812 -0.9935 0.9805
1.8168 -4.4550 -0.9934 0.9805
2.0101 -4.3708 -0.9934 0.9805
2.0737 -4.3409 -0.9933 0.9805
1.5586 -3.1437 -0.7245 0.9858
1.5997 -3.1115 -0.7224 0.9858
1.6406 -3.0795 -0.7205 0.9858
1.7217 -3.0160 -0.7171 0.9859
1.8045 -2.8619 -0.6986 0.9863
1.8416 -2.8283 -0.6969 0.9863
1.8786 -2.7949 -0.6953 0.9863
2.8551 -3.8700 -0.9930 0.9805
2.8667 -3.7691 -0.9778 0.9808
3.0289 -3.6396 -0.9777 0.9808
3.1338 -3.5494 -0.9777 0.9808
3.2361 -3.4561 -0.9776 0.9808
3.3842 -3.3108 -0.9776 0.9808
3.4793 -3.2104 -0.9775 0.9808
3.5258 -3.1591 -0.9775 0.9808
3.6607 -3.0014 -0.9775 0.9809
3.7040 -2.9476 -0.9774 0.9809
3.7467 -2.8930 -0.9774 0.9809
3.7885 -2.8380 -0.9774 0.9809
3.8295 -2.7823 -0.9774 0.9809
3.8696 -2.7260 -0.9774 0.9809
3.9475 -2.6117 -0.9773 0.9809
3.9852 -2.5536 -0.9773 0.9809
4.0580 -2.4360 -0.9773 0.9809
4.1273 -2.3164 -0.9773 0.9809
4.2247 -2.1332 -0.9772 0.9809
4.4095 -1.9120 -0.9924 0.9806
4.4368 -1.8473 -0.9924 0.9806
4.5134 -1.6511 -0.9923 0.9806
4.5596 -1.5185 -0.9923 0.9806
4.5813 -1.4517 -0.9923 0.9806
4.6020 -1.3846 -0.9923 0.9806
4.6217 -1.3171 -0.9923 0.9806
4.6581 -1.1815 -0.9923 0.9806
4.6906 -1.0449 -0.9923 0.9806
4.7191 -0.9074 -0.9923 0.9806
4.7542 -0.6997 -0.9922 0.9806
4.7640 -0.6301 -0.9922 0.9806
4.7803 -0.4907 -0.9922 0.9806
4.7869 -0.4208 -0.9922 0.9806
4.7971 -0.2807 -0.9922 0.9806
4.8007 -0.2106 -0.9922 0.9806
4.8033 -0.1405 -0.9922 0.9806
4.8049 -0.0702 -0.9922 0.9806
4.8053 -0.0000 -0.9922 0.9806
4.8048 0.0702 -0.9922 0.9806
4.7803 0.4906 -0.9922 0.9806
4.7639 0.6301 -0.9922 0.9806
4.7435 0.7691 -0.9923 0.9806
4.7318 0.8383 -0.9923 0.9806
4.7191 0.9074 -0.9923 0.9806
4.7053 0.9762 -0.9923 0.9806
4.6749 1.1133 -0.9923 0.9806
4.6404 1.2494 -0.9923 0.9806
4.6217 1.3171 -0.9923 0.9806
4.5813 1.4516 -0.9923 0.9806
4.5370 1.5849 -0.9923 0.9806
4.4889 1.7169 -0.9924 0.9806
4.4633 1.7823 -0.9924 0.9806
4.3811 1.9762 -0.9924 0.9806
4.3216 2.1034 -0.9924 0.9806
4.2904 2.1664 -0.9924 0.9806
4.2584 2.2289 -0.9924 0.9806
4.1915 2.3524 -0.9925 0.9806
4.1568 2.4135 -0.9925 0.9806
4.1212 2.4739 -0.9925 0.9806
4.0846 2.5339 -0.9925 0.9806
4.0472 2.5934 -0.9925 0.9806
3.9698 2.7106 -0.9926 0.9806
3.8474 2.8821 -0.9926 0.9806
3.8050 2.9381 -0.9926 0.9806
3.6728 3.1021 -0.9927 0.9806
3.6271 3.1555 -0.9927 0.9806
3.5335 3.2604 -0.9927 0.9806
3.4856 3.3117 -0.9928 0.9806
3.4369 3.3623 -0.9928 0.9806
3.3874 3.4122 -0.9928 0.9806
3.3373 3.4614 -0.9928 0.9806
3.1296 3.6508 -0.9929 0.9806
2.9668 3.7847 -0.9930 0.9806
2.7983 3.9113 -0.9930 0.9805
2.7409 3.9519 -0.9931 0.9805
2.6829 3.9916 -0.9931 0.9805
2.6245 4.0305 -0.9931 0.9805
2.5653 4.0685 -0.9931 0.9805
2.4455 4.1420 -0.9932 0.9805
2.3847 4.1773 -0.9932 0.9805
1.9922 3.6113 -0.8516 0.9833
1.8063 3.6434 -0.8397 0.9835
1.8377 3.8469 -0.8803 0.9827
1.8816 4.4279 -0.9934 0.9805
1.7515 4.4812 -0.9935 0.9805
1.5536 4.5540 -0.9935 0.9805
1.4869 4.5764 -0.9936 0.9805
1.4200 4.5977 -0.9936 0.9805
1.3527 4.6181 -0.9936 0.9805
1.0807 4.6898 -0.9937 0.9805
0.9432 4.7196 -0.9938 0.9805
0.8742 4.7330 -0.9938 0.9805
0.8050 4.7454 -0.9938 0.9805
0.5871 3.7966 -0.7932 0.9844
0.4206 3.8226 -0.7941 0.9844
0.1758 4.8112 -0.9941 0.9805
-0.1055 4.8138 -0.9942 0.9805
-0.1759 4.8119 -0.9942 0.9805
-0.2462 4.8089 -0.9943 0.9805
-0.3164 4.8050 -0.9943 0.9805
-0.5267 4.7870 -0.9944 0.9805
-0.7361 4.7596 -0.9945 0.9805
-0.8056 4.7486 -0.9945 0.9805
-1.0129 4.7091 -0.9946 0.9805
-1.0817 4.6939 -0.9946 0.9805
-1.3542 4.6232 -0.9947 0.9805
-1.4216 4.6031 -0.9948 0.9805
-1.3042 3.8229 -0.8340 0.9836
-1.3410 3.5844 -0.7902 0.9845
-1.5554 3.3821 -0.7687 0.9849
-2.2035 4.2858 -0.9951 0.9805
-2.3279 4.2198 -0.9951 0.9805
-0.4156 0.7280 -0.1731 0.9966
-0.3850 0.6521 -0.1564 0.9969
-0.3568 0.5479 -0.1350 0.9973
-0.3589 0.5339 -0.1328 0.9974
-0.3609 0.5203 -0.1307 0.9974
-0.3628 0.5071 -0.1287 0.9975
-0.3646 0.4941 -0.1268 0.9975
-0.3662 0.4815 -0.1249 0.9975
-0.3679 0.4692 -0.1231 0.9976
-0.3707 0.4455 -0.1197 0.9976
-0.3721 0.4340 -0.1180 0.9977
-0.3759 0.4014 -0.1136 0.9978
-0.3832 0.3640 -0.1091 0.9978
-0.3853 0.3452 -0.1068 0.9979
-0.3872 0.3270 -0.1046 0.9979
-0.3888 0.3094 -0.1026 0.9980
-0.3896 0.3009 -0.1016 0.9980
-0.3910 0.2840 -0.0998 0.9980
-0.3916 0.2759 -0.0989 0.9980
-0.3937 0.2442 -0.0957 0.9981
-0.3941 0.2366 -0.0949 0.9981
-0.3948 0.2216 -0.0935 0.9982
-0.3951 0.2141 -0.0928 0.9982
-0.3958 0.1926 -0.0909 0.9982
-0.3962 0.1857 -0.0904 0.9982
-0.3967 0.1789 -0.0899 0.9982
-0.3976 0.1655 -0.0889 0.9982
-0.3979 0.1589 -0.0885 0.9983
-0.3983 0.1523 -0.0880 0.9983
-0.3989 0.1393 -0.0872 0.9983
-0.3993 0.1265 -0.0865 0.9983
-0.3996 0.1202 -0.0861 0.9983
-0.4000 0.1077 -0.0855 0.9983
-0.4002 0.1015 -0.0853 0.9983
-0.4005 0.0770 -0.0842 0.9983
-0.4005 0.0709 -0.0840 0.9983
-0.4004 0.0649 -0.0838 0.9983
-0.3998 0.0411 -0.0830 0.9984
-0.3995 0.0351 -0.0828 0.9984
-0.3985 0.0175 -0.0824 0.9984
-0.3981 0.0117 -0.0822 0.9984
-0.3976 0.0058 -0.0821 0.9984
-0.3900 0.0000 -0.0850 0.9984
-0.3904 -0.0057 -0.0851 0.9984
-0.3913 -0.0229 -0.0855 0.9984
-0.3918 -0.0345 -0.0858 0.9984
-0.3920 -0.0403 -0.0859 0.9984
-0.3925 -0.0637 -0.0867 0.9984
-0.3926 -0.0696 -0.0869 0.9984
-0.3926 -0.0755 -0.0872 0.9984
-0.3926 -0.0875 -0.0877 0.9984
-0.3925 -0.0935 -0.0880 0.9983
-0.3924 -0.0995 -0.0883 0.9983
-0.3923 -0.1057 -0.0886 0.9983
-0.3922 -0.1118 -0.0889 0.9983
-0.3921 -0.1180 -0.0893 0.9983
-0.3918 -0.1242 -0.0896 0.9983
-0.3910 -0.1430 -0.0908 0.9983
-0.3899 -0.1624 -0.0921 0.9983
-0.3895 -0.1689 -0.0926 0.9983
-0.3878 -0.1887 -0.0941 0.9982
-0.3874 -0.1956 -0.0946 0.9982
-0.3865 -0.2169 -0.0966 0.9982
-0.3829 -0.2697 -0.1021 0.9981
-0.3822 -0.2777 -0.1030 0.9981
-0.3790 -0.3107 -0.1069 0.9980
-0.3780 -0.3193 -0.1079 0.9980
-0.3749 -0.3460 -0.1112 0.9979
-0.3704 -0.3731 -0.1146 0.9979
-0.3665 -0.3914 -0.1169 0.9978
-0.3594 -0.4318 -0.1225 0.9977
-0.3579 -0.4430 -0.1242 0.9977
-0.3489 -0.5030 -0.1335 0.9975
-0.3445 -0.5291 -0.1377 0.9974
-0.3397 -0.5566 -0.1422 0.9973
-0.3583 -0.6275 -0.1576 0.9970
-2.0269 -4.0880 -0.9950 0.9815
-1.7844 -4.1990 -0.9949 0.9815
-1.7228 -4.2246 -0.9949 0.9815
-1.6609 -4.2492 -0.9949 0.9815
-1.5986 -4.2729 -0.9948 0.9815
-1.4729 -4.3175 -0.9948 0.9815
-1.2822 -4.3776 -0.9947 0.9815
-1.0242 -4.4446 -0.9946 0.9815
-0.9591 -4.4589 -0.9946 0.9815
-0.8284 -4.4848 -0.9945 0.9815
-0.6310 -4.5164 -0.9944 0.9815
-0.5649 -4.5250 -0.9944 0.9815
-0.4988 -4.5327 -0.9944 0.9815
-0.4325 -4.5394 -0.9944 0.9815
-0.2996 -4.5498 -0.9943 0.9815
-0.2331 -4.5536 -0.9943 0.9815
0.1665 -4.5558 -0.9941 0.9815
0.2995 -4.5487 -0.9941 0.9815
0.3659 -4.5438 -0.9940 0.9815
0.5646 -4.5230 -0.9940 0.9815
0.6965 -4.5043 -0.9939 0.9815
0.7623 -4.4935 -0.9939 0.9815
0.9583 -4.4554 -0.9938 0.9815
1.2169 -4.3914 -0.9937 0.9815
1.3446 -4.3537 -0.9936 0.9815
1.4080 -4.3335 -0.9936 0.9815
1.4712 -4.3123 -0.9936 0.9815
1.5965 -4.2673 -0.9935 0.9815
1.9637 -4.1105 -0.9934 0.9815
1.6039 -3.1197 -0.7649 0.9857
1.6449 -3.0876 -0.7629 0.9858
2.3157 -3.9222 -0.9932 0.9815
1.6864 -2.7632 -0.7059 0.9868
1.8045 -2.8619 -0.7378 0.9862
1.8416 -2.8283 -0.7360 0.9863
1.8786 -2.7949 -0.7343 0.9863
2.6622 -3.6085 -0.9779 0.9818
2.9182 -3.4042 -0.9778 0.9818
2.9676 -3.3611 -0.9777 0.9818
3.0163 -3.3173 -0.9777 0.9818
3.1118 -3.2277 -0.9777 0.9818
3.1586 -3.1818 -0.9777 0.9818
3.2047 -3.1352 -0.9776 0.9818
3.3388 -2.9916 -0.9776 0.9818
3.3821 -2.9425 -0.9776 0.9818
3.4247 -2.8927 -0.9775 0.9818
3.4665 -2.8423 -0.9775 0.9818
3.5076 -2.7913 -0.9775 0.9818
3.5480 -2.7396 -0.9775 0.9818
3.8088 -2.3629 -0.9774 0.9818
3.8761 -2.2505 -0.9774 0.9818
3.9085 -2.1935 -0.9774 0.9818
3.9708 -2.0784 -0.9773 0.9818
4.0007 -2.0201 -0.9773 0.9818
4.2017 -1.7494 -0.9925 0.9815
4.2508 -1.6258 -0.9925 0.9815
4.2965 -1.5009 -0.9924 0.9815
4.3384 -1.3747 -0.9924 0.9815
4.3767 -1.2473 -0.9924 0.9815
4.4419 -0.9895 -0.9924 0.9815
4.4559 -0.9245 -0.9924 0.9815
4.4689 -0.8593 -0.9924 0.9815
4.4810 -0.7939 -0.9924 0.9815
4.4921 -0.7283 -0.9924 0.9815
4.5022 -0.6626 -0.9923 0.9815
4.5196 -0.5308 -0.9923 0.9815
4.5332 -0.3985 -0.9923 0.9815
4.5429 -0.2658 -0.9923 0.9815
4.5463 -0.1995 -0.9923 0.9815
4.5501 0.0664 -0.9923 0.9815
4.5487 0.1329 -0.9923 0.9815
4.5463 0.1994 -0.9923 0.9815
4.5429 0.2658 -0.9923 0.9815
4.5385 0.3321 -0.9923 0.9815
4.5269 0.4646 -0.9923 0.9815
4.5114 0.5967 -0.9923 0.9815
4.5022 0.6626 -0.9923 0.9815
4.4921 0.7283 -0.9924 0.9815
4.4810 0.7939 -0.9924 0.9815
4.4689 0.8593 -0.9924 0.9815
4.4420 0.9895 -0.9924 0.9815
4.4271 1.0543 -0.9924 0.9815
4.3767 1.2473 -0.9924 0.9815
4.3580 1.3111 -0.9924 0.9815
4.3384 1.3746 -0.9924 0.9815
4.3179 1.4379 -0.9924 0.9815
4.2509 1.6258 -0.9925 0.9815
4.2267 1.6878 -0.9925 0.9815
4.2016 1.7494 -0.9925 0.9815
4.1757 1.8106 -0.9925 0.9815
4.1488 1.8714 -0.9925 0.9815
4.1211 1.9319 -0.9925 0.9815
4.0925 1.9919 -0.9925 0.9815
4.0326 2.1107 -0.9925 0.9815
4.0014 2.1694 -0.9926 0.9815
3.9364 2.2855 -0.9926 0.9815
3.9026 2.3428 -0.9926 0.9815
3.8680 2.3996 -0.9926 0.9815
3.8326 2.4559 -0.9926 0.9815
3.7215 2.6216 -0.9927 0.9815
3.6828 2.6757 -0.9927 0.9815
3.6434 2.7293 -0.9927 0.9815
3.5622 2.8346 -0.9927 0.9815
3.5205 2.8865 -0.9927 0.9815
3.4348 2.9882 -0.9928 0.9815
3.3461 3.0875 -0.9928 0.9815
3.3007 3.1361 -0.9928 0.9815
3.2078 3.2312 -0.9929 0.9815
3.1603 3.2779 -0.9929 0.9815
3.0137 3.4134 -0.9930 0.9815
2.9128 3.5002 -0.9930 0.9815
2.8615 3.5425 -0.9930 0.9815
2.7568 3.6246 -0.9931 0.9815
2.7037 3.6646 -0.9931 0.9815
2.4852 3.8167 -0.9932 0.9815
2.4292 3.8527 -0.9932 0.9815
2.3727 3.8878 -0.9932 0.9815
2.3157 3.9221 -0.9932 0.9815
2.2582 3.9557 -0.9933 0.9815
1.9570 3.6734 -0.9076 0.9831
1.8908 3.6776 -0.9017 0.9832
1.8256 3.6820 -0.8962 0.9833
1.8378 3.8470 -0.9297 0.9827
1.9034 4.1388 -0.9934 0.9815
1.8428 4.1663 -0.9934 0.9815
1.7818 4.1929 -0.9935 0.9815
1.7204 4.2186 -0.9935 0.9815
1.6586 4.2434 -0.9935 0.9815
1.5964 4.2673 -0.9935 0.9815
1.5340 4.2902 -0.9936 0.9815
1.4712 4.3123 -0.9936 0.9815
1.4080 4.3335 -0.9936 0.9815
1.3446 4.3537 -0.9936 0.9815
1.1526 4.4088 -0.9937 0.9815
1.0881 4.4253 -0.9937 0.9815
1.0233 4.4408 -0.9938 0.9815
0.9584 4.4554 -0.9938 0.9815
0.8279 4.4818 -0.9938 0.9815
0.7622 4.4935 -0.9939 0.9815
0.5910 3.8218 -0.8433 0.9843
0.5351 3.8304 -0.8434 0.9843
0.4793 3.8391 -0.8437 0.9843
0.4234 3.8480 -0.8442 0.9843
0.4323 4.5377 -0.9940 0.9815
0.3660 4.5437 -0.9940 0.9815
0.2995 4.5487 -0.9941 0.9815
0.2330 4.5527 -0.9941 0.9815
0.1665 4.5557 -0.9941 0.9815
0.0333 4.5589 -0.9942 0.9815
-0.0333 4.5590 -0.9942 0.9815
-0.0999 4.5582 -0.9942 0.9815
-0.1665 4.5564 -0.9942 0.9815
-0.2331 4.5536 -0.9943 0.9815
-0.2996 4.5498 -0.9943 0.9815
-0.4325 4.5393 -0.9944 0.9815
-0.4988 4.5327 -0.9944 0.9815
-0.5649 4.5250 -0.9944 0.9815
-0.6310 4.5164 -0.9944 0.9815
-0.7627 4.4963 -0.9945 0.9815
-0.8284 4.4848 -0.9945 0.9815
-0.8939 4.4723 -0.9945 0.9815
-0.9591 4.4589 -0.9946 0.9815
-1.1537 4.4129 -0.9946 0.9815
-1.2181 4.3957 -0.9947 0.9815
-1.2822 4.3776 -0.9947 0.9815
-1.3461 4.3584 -0.9947 0.9815
-1.2842 3.9523 -0.9062 0.9831
-1.3410 3.5844 -0.8345 0.9845
-1.3825 3.5371 -0.8281 0.9846
-1.9668 4.1171 -0.9950 0.9815
-0.3397 0.5566 -0.1422 0.9973
-0.3446 0.5291 -0.1377 0.9974
-0.3468 0.5159 -0.1355 0.9975
-0.3489 0.5030 -0.1335 0.9975
-0.3509 0.4904 -0.1315 0.9975
-0.3528 0.4781 -0.1296 0.9976
-0.3563 0.4545 -0.1259 0.9976
-0.3608 0.4209 -0.1209 0.9977
-0.3625 0.4105 -0.1194 0.9978
-0.3645 0.4009 -0.1182 0.9978
-0.3684 0.3821 -0.1157 0.9978
-0.3738 0.3551 -0.1124 0.9979
-0.3760 0.3369 -0.1101 0.9979
-0.3771 0.3280 -0.1090 0.9980
-0.3790 0.3107 -0.1069 0.9980
-0.3799 0.3023 -0.1059 0.9980
-0.3807 0.2939 -0.1049 0.9980
-0.3815 0.2857 -0.1039 0.9981
-0.3829 0.2697 -0.1021 0.9981
-0.3835 0.2619 -0.1013 0.9981
-0.3841 0.2541 -0.1004 0.9981
-0.3846 0.2465 -0.0996 0.9981
-0.3856 0.2315 -0.0981 0.9982
-0.3861 0.2242 -0.0973 0.9982
-0.3868 0.2097 -0.0959 0.9982
-0.3874 0.1956 -0.0946 0.9982
-0.3895 0.1689 -0.0926 0.9983
-0.3903 0.1559 -0.0916 0.9983
-0.3913 0.1367 -0.0904 0.9983
-0.3918 0.1241 -0.0896 0.9983
-0.3920 0.1179 -0.0893 0.9983
-0.3922 0.1117 -0.0889 0.9983
-0.3926 0.0935 -0.0880 0.9983
-0.3926 0.0874 -0.0877 0.9984
-0.3926 0.0695 -0.0869 0.9984
-0.3925 0.0636 -0.0867 0.9984
-0.3924 0.0577 -0.0865 0.9984
-0.3920 0.0402 -0.0859 0.9984
-0.3916 0.0286 -0.0856 0.9984
-0.3913 0.0229 -0.0855 0.9984
-0.3910 0.0171 -0.0853 0.9984
-0.3904 0.0057 -0.0851 0.9984
-0.3838 -0.0112 -0.0882 0.9984
-0.3848 -0.0338 -0.0887 0.9984
-0.3851 -0.0396 -0.0889 0.9984
-0.3854 -0.0510 -0.0893 0.9984
-0.3855 -0.0625 -0.0897 0.9984
-0.3855 -0.0683 -0.0899 0.9984
-0.3856 -0.0741 -0.0902 0.9984
-0.3855 -0.0859 -0.0907 0.9984
-0.3854 -0.0918 -0.0910 0.9984
-0.3852 -0.1037 -0.0916 0.9984
-0.3848 -0.1158 -0.0923 0.9984
-0.3846 -0.1219 -0.0927 0.9983
-0.3837 -0.1404 -0.0938 0.9983
-0.3833 -0.1466 -0.0943 0.9983
-0.3821 -0.1657 -0.0957 0.9983
-0.3815 -0.1721 -0.0961 0.9983
-0.3803 -0.1851 -0.0972 0.9983
-0.3780 -0.2195 -0.1004 0.9982
-0.3770 -0.2339 -0.1019 0.9982
-0.3758 -0.2487 -0.1035 0.9982
-0.3745 -0.2638 -0.1052 0.9981
-0.3738 -0.2715 -0.1061 0.9981
-0.3730 -0.2794 -0.1070 0.9981
-0.3721 -0.2873 -0.1080 0.9981
-0.3683 -0.3204 -0.1121 0.9980
-0.3672 -0.3289 -0.1132 0.9980
-0.3635 -0.3556 -0.1168 0.9979
-0.3596 -0.3729 -0.1190 0.9979
-0.3575 -0.3818 -0.1201 0.9979
-0.3555 -0.3909 -0.1214 0.9978
-0.3534 -0.4002 -0.1226 0.9978
-0.3454 -0.4406 -0.1286 0.9977
-0.3417 -0.4631 -0.1322 0.9976
-0.3397 -0.4748 -0.1341 0.9976
-0.3376 -0.4867 -0.1361 0.9976
-0.3354 -0.4989 -0.1381 0.9975
-0.3330 -0.5115 -0.1402 0.9975
-0.3253 -0.5510 -0.1470 0.9974
-0.3225 -0.5649 -0.1494 0.9973
-0.3335 -0.6045 -0.1586 0.9972
-1.9241 -3.8807 -0.9950 0.9824
-1.8671 -3.9084 -0.9949 0.9824
-1.8098 -3.9351 -0.9949 0.9824
-1.7521 -3.9611 -0.9949 0.9824
-1.6940 -3.9862 -0.9949 0.9824
-1.6355 -4.0104 -0.9948 0.9824
-1.4580 -4.0779 -0.9948 0.9824
-1.3382 -4.1186 -0.9947 0.9824
-1.2778 -4.1376 -0.9947 0.9824
-1.0339 -4.2048 -0.9946 0.9824
-0.9723 -4.2193 -0.9946 0.9824
-0.8485 -4.2457 -0.9945 0.9824
-0.7864 -4.2575 -0.9945 0.9824
-0.7241 -4.2685 -0.9945 0.9824
-0.6616 -4.2785 -0.9945 0.9824
-0.5991 -4.2876 -0.9944 0.9824
-0.5363 -4.2958 -0.9944 0.9824
-0.4735 -4.3030 -0.9944 0.9824
-0.4106 -4.3094 -0.9943 0.9824
-0.2213 -4.3229 -0.9943 0.9824
-0.0316 -4.3281 -0.9942 0.9824
0.0948 -4.3270 -0.9941 0.9824
0.2212 -4.3221 -0.9941 0.9824
0.2843 -4.3183 -0.9941 0.9824
0.3474 -4.3136 -0.9940 0.9824
0.4104 -4.3079 -0.9940 0.9824
0.4733 -4.3014 -0.9940 0.9824
0.5361 -4.2939 -0.9940 0.9824
0.9098 -4.2298 -0.9938 0.9824
0.9715 -4.2159 -0.9938 0.9824
1.0330 -4.2012 -0.9938 0.9824
1.0942 -4.1855 -0.9937 0.9824
1.1552 -4.1690 -0.9937 0.9824
1.4563 -4.0730 -0.9936 0.9824
1.5156 -4.0512 -0.9936 0.9824
1.5746 -4.0286 -0.9935 0.9824
1.6333 -4.0050 -0.9935 0.9824
1.7495 -3.9554 -0.9935 0.9824
1.8071 -3.9293 -0.9934 0.9824
1.5670 -3.1605 -0.8103 0.9856
2.1110 -3.6979 -0.9781 0.9827
2.1648 -3.6666 -0.9781 0.9827
1.8416 -2.8283 -0.7752 0.9862
2.7705 -3.2320 -0.9778 0.9827
2.8174 -3.1911 -0.9778 0.9827
2.8637 -3.1495 -0.9778 0.9827
2.9093 -3.1072 -0.9778 0.9827
2.9544 -3.0643 -0.9777 0.9827
3.0857 -2.9318 -0.9777 0.9827
3.1699 -2.8402 -0.9777 0.9827
3.2514 -2.7463 -0.9776 0.9827
3.2911 -2.6985 -0.9776 0.9827
3.3301 -2.6501 -0.9776 0.9827
3.3685 -2.6011 -0.9776 0.9827
3.4061 -2.5515 -0.9776 0.9827
3.4429 -2.5014 -0.9775 0.9827
3.5145 -2.3997 -0.9775 0.9827
3.5491 -2.3481 -0.9775 0.9827
3.6161 -2.2433 -0.9775 0.9827
3.6484 -2.1902 -0.9775 0.9827
3.6800 -2.1366 -0.9774 0.9827
3.7108 -2.0825 -0.9774 0.9827
3.7407 -2.0282 -0.9774 0.9827
3.9390 -1.7768 -0.9926 0.9824
4.0792 -1.4250 -0.9925 0.9824
4.0995 -1.3653 -0.9925 0.9824
4.1190 -1.3052 -0.9925 0.9824
4.1553 -1.1843 -0.9925 0.9824
4.2032 -1.0010 -0.9925 0.9824
4.2173 -0.9394 -0.9925 0.9824
4.2305 -0.8777 -0.9925 0.9824
4.2745 -0.6291 -0.9924 0.9824
4.2833 -0.5666 -0.9924 0.9824
4.2910 -0.5039 -0.9924 0.9824
4.2979 -0.4411 -0.9924 0.9824
4.3039 -0.3783 -0.9924 0.9824
4.3089 -0.3154 -0.9924 0.9824
4.3200 -0.0631 -0.9924 0.9824
4.3200 0.0631 -0.9924 0.9824
4.3186 0.1262 -0.9924 0.9824
4.3090 0.3154 -0.9924 0.9824
4.2980 0.4411 -0.9924 0.9824
4.2649 0.6914 -0.9924 0.9824
4.2429 0.8158 -0.9925 0.9824
4.2305 0.8777 -0.9925 0.9824
4.2173 0.9394 -0.9925 0.9824
4.2031 1.0009 -0.9925 0.9824
4.1553 1.1842 -0.9925 0.9824
4.1376 1.2448 -0.9925 0.9824
4.0580 1.4844 -0.9925 0.9824
4.0359 1.5436 -0.9925 0.9824
4.0129 1.6024 -0.9925 0.9824
3.9891 1.6609 -0.9926 0.9824
3.9645 1.7190 -0.9926 0.9824
3.9126 1.8342 -0.9926 0.9824
3.8574 1.9478 -0.9926 0.9824
3.7685 2.1150 -0.9926 0.9824
3.7373 2.1699 -0.9927 0.9824
3.7052 2.2243 -0.9927 0.9824
3.6724 2.2782 -0.9927 0.9824
3.5692 2.4370 -0.9927 0.9824
3.4591 2.5912 -0.9928 0.9824
3.4209 2.6415 -0.9928 0.9824
3.3820 2.6913 -0.9928 0.9824
3.3424 2.7404 -0.9928 0.9824
3.2609 2.8370 -0.9929 0.9824
3.1768 2.9313 -0.9929 0.9824
3.1337 2.9774 -0.9929 0.9824
2.9082 3.1984 -0.9930 0.9824
2.8612 3.2407 -0.9930 0.9824
2.8137 3.2822 -0.9930 0.9824
2.7654 3.3230 -0.9931 0.9824
2.7167 3.3632 -0.9931 0.9824
2.6673 3.4026 -0.9931 0.9824
2.5158 3.5164 -0.9932 0.9824
2.2526 3.6911 -0.9933 0.9824
1.9774 3.8461 -0.9934 0.9824
1.8071 3.9293 -0.9934 0.9824
1.7495 3.9554 -0.9935 0.9824
1.5156 4.0512 -0.9936 0.9824
1.4563 4.0730 -0.9936 0.9824
1.3367 4.1141 -0.9936 0.9824
1.0942 4.1855 -0.9937 0.9824
1.0330 4.2011 -0.9938 0.9824
0.9098 4.2298 -0.9938 0.9824
0.7859 4.2548 -0.9939 0.9824
0.7236 4.2659 -0.9939 0.9824
0.5992 3.8751 -0.9007 0.9840
0.5426 3.8839 -0.9008 0.9840
0.3474 4.3135 -0.9940 0.9824
0.2843 4.3182 -0.9941 0.9824
0.0949 4.3269 -0.9941 0.9824
-0.0316 4.3281 -0.9942 0.9824
-0.1581 4.3255 -0.9942 0.9824
-0.3475 4.3148 -0.9943 0.9824
-0.4105 4.3093 -0.9943 0.9824
-0.4735 4.3030 -0.9944 0.9824
-0.5363 4.2957 -0.9944 0.9824
-0.5990 4.2875 -0.9944 0.9824
-0.9723 4.2193 -0.9946 0.9824
-1.0339 4.2047 -0.9946 0.9824
-1.0952 4.1893 -0.9946 0.9824
-1.2778 4.1375 -0.9947 0.9824
-1.4008 3.5837 -0.8838 0.9843
-1.4739 3.6142 -0.8966 0.9841
-1.7520 3.9611 -0.9949 0.9824
-1.9241 3.8807 -0.9950 0.9824
-0.3492 0.6556 -0.1706 0.9970
-0.3335 0.6046 -0.1586 0.9972
-0.3225 0.5649 -0.1494 0.9973
-0.3280 0.5375 -0.1446 0.9974
-0.3354 0.4989 -0.1381 0.9975
-0.3376 0.4867 -0.1361 0.9976
-0.3396 0.4748 -0.1341 0.9976
-0.3436 0.4517 -0.1304 0.9977
-0.3471 0.4296 -0.1269 0.9977
-0.3534 0.4002 -0.1226 0.9978
-0.3555 0.3909 -0.1214 0.9978
-0.3635 0.3556 -0.1168 0.9979
-0.3660 0.3377 -0.1144 0.9980
-0.3672 0.3290 -0.1132 0.9980
-0.3693 0.3119 -0.1110 0.9980
-0.3703 0.3036 -0.1100 0.9980
-0.3713 0.2954 -0.1090 0.9981
-0.3752 0.2562 -0.1044 0.9981
-0.3759 0.2486 -0.1035 0.9982
-0.3770 0.2339 -0.1019 0.9982
-0.3775 0.2266 -0.1011 0.9982
-0.3780 0.2195 -0.1004 0.9982
-0.3784 0.2124 -0.0997 0.9982
-0.3795 0.1916 -0.0977 0.9983
-0.3810 0.1786 -0.0967 0.9983
-0.3833 0.1466 -0.0943 0.9983
-0.3840 0.1341 -0.0934 0.9983
-0.3843 0.1280 -0.0930 0.9983
-0.3848 0.1157 -0.0923 0.9984
-0.3850 0.1097 -0.0920 0.9984
-0.3853 0.0977 -0.0913 0.9984
-0.3854 0.0918 -0.0910 0.9984
-0.3855 0.0800 -0.0904 0.9984
-0.3856 0.0741 -0.0902 0.9984
-0.3855 0.0683 -0.0899 0.9984
-0.3854 0.0509 -0.0893 0.9984
-0.3849 0.0338 -0.0887 0.9984
-0.3846 0.0282 -0.0886 0.9984
-0.3844 0.0225 -0.0884 0.9984
-0.3839 0.0112 -0.0882 0.9984
-0.3835 0.0056 -0.0881 0.9984
-0.3765 0.0000 -0.0909 0.9985
-0.3769 -0.0055 -0.0910 0.9985
-0.3775 -0.0166 -0.0912 0.9984
-0.3777 -0.0221 -0.0913 0.9984
-0.3779 -0.0277 -0.0915 0.9984
-0.3783 -0.0389 -0.0918 0.9984
-0.3785 -0.0444 -0.0920 0.9984
-0.3786 -0.0557 -0.0924 0.9984
-0.3787 -0.0614 -0.0926 0.9984
-0.3787 -0.0729 -0.0931 0.9984
-0.3786 -0.0844 -0.0936 0.9984
-0.3785 -0.0902 -0.0939 0.9984
-0.3783 -0.1019 -0.0946 0.9984
-0.3781 -0.1077 -0.0949 0.9984
-0.3773 -0.1256 -0.0960 0.9984
-0.3762 -0.1439 -0.0972 0.9983
-0.3758 -0.1500 -0.0977 0.9983
-0.3749 -0.1625 -0.0986 0.9983
-0.3744 -0.1689 -0.0991 0.9983
-0.3738 -0.1752 -0.0997 0.9983
-0.3731 -0.1816 -0.1002 0.9983
-0.3712 -0.2012 -0.1019 0.9983
-0.3707 -0.2080 -0.1026 0.9983
-0.3703 -0.2150 -0.1033 0.9982
-0.3697 -0.2219 -0.1041 0.9982
-0.3686 -0.2362 -0.1057 0.9982
-0.3657 -0.2657 -0.1091 0.9981
-0.3648 -0.2733 -0.1100 0.9981
-0.3639 -0.2810 -0.1110 0.9981
-0.3630 -0.2889 -0.1120 0.9981
-0.3609 -0.3049 -0.1141 0.9981
-0.3598 -0.3131 -0.1151 0.9980
-0.3548 -0.3471 -0.1198 0.9980
-0.3490 -0.3727 -0.1233 0.9979
-0.3377 -0.4181 -0.1297 0.9978
-0.3352 -0.4277 -0.1312 0.9978
-0.3312 -0.4489 -0.1347 0.9977
-0.3269 -0.4714 -0.1385 0.9976
-0.3247 -0.4830 -0.1405 0.9976
-0.3222 -0.4949 -0.1426 0.9976
-0.3197 -0.5071 -0.1447 0.9975
-0.3171 -0.5195 -0.1469 0.9975
-0.3143 -0.5323 -0.1492 0.9975
-0.3083 -0.5589 -0.1541 0.9974
-0.3105 -0.5829 -0.1594 0.9973
-0.3237 -0.6296 -0.1709 0.9971
-0.3387 -0.6832 -0.1841 0.9969
-0.3561 -0.7453 -0.1994 0.9966
-1.6415 -3.7112 -0.9796 0.9834
-1.5871 -3.7348 -0.9796 0.9834
-1.5323 -3.7575 -0.9796 0.9834
-1.4773 -3.7793 -0.9795 0.9834
-1.4219 -3.8005 -0.9795 0.9834
-1.3305 -3.9000 -0.9947 0.9832
-1.2733 -3.9189 -0.9947 0.9832
-1.1582 -3.9543 -0.9947 0.9832
-1.1003 -3.9707 -0.9946 0.9832
-1.0421 -3.9862 -0.9946 0.9832
-0.8664 -4.0278 -0.9945 0.9832
-0.7483 -4.0512 -0.9945 0.9832
-0.6890 -4.0616 -0.9945 0.9832
-0.6296 -4.0711 -0.9944 0.9832
-0.5700 -4.0798 -0.9944 0.9832
-0.5103 -4.0875 -0.9944 0.9832
-0.3307 -4.1057 -0.9943 0.9832
-0.2706 -4.1100 -0.9943 0.9832
-0.2106 -4.1134 -0.9943 0.9832
-0.1504 -4.1160 -0.9942 0.9832
0.2105 -4.1127 -0.9941 0.9832
0.2705 -4.1091 -0.9941 0.9832
0.5101 -4.0859 -0.9940 0.9832
0.6886 -4.0593 -0.9939 0.9832
0.8069 -4.0373 -0.9939 0.9832
0.8658 -4.0249 -0.9938 0.9832
0.9245 -4.0118 -0.9938 0.9832
0.9829 -3.9977 -0.9938 0.9832
1.0993 -3.9671 -0.9937 0.9832
1.1571 -3.9505 -0.9937 0.9832
1.3290 -3.8958 -0.9936 0.9832
1.4422 -3.8551 -0.9936 0.9832
1.5304 -3.7527 -0.9783 0.9835
1.5850 -3.7299 -0.9783 0.9835
1.6932 -3.6818 -0.9783 0.9835
1.7468 -3.6565 -0.9782 0.9835
1.8528 -3.6038 -0.9782 0.9835
1.9053 -3.5762 -0.9782 0.9835
1.9573 -3.5480 -0.9781 0.9835
2.0089 -3.5189 -0.9781 0.9835
2.0600 -3.4891 -0.9781 0.9835
1.7672 -2.8957 -0.8189 0.9861
1.8045 -2.8618 -0.8167 0.9862
1.8416 -2.8283 -0.8147 0.9862
1.8786 -2.7948 -0.8129 0.9862
2.3090 -3.3291 -0.9780 0.9835
2.3573 -3.2949 -0.9780 0.9835
2.5913 -3.1137 -0.9779 0.9835
2.8114 -2.9161 -0.9778 0.9835
2.8953 -2.8325 -0.9778 0.9835
2.9363 -2.7899 -0.9777 0.9835
3.0165 -2.7028 -0.9777 0.9835
3.0556 -2.6584 -0.9777 0.9835
3.1319 -2.5679 -0.9777 0.9835
3.1690 -2.5218 -0.9777 0.9835
3.2055 -2.4752 -0.9776 0.9835
3.2413 -2.4281 -0.9776 0.9835
3.3444 -2.2836 -0.9776 0.9835
3.3774 -2.2345 -0.9776 0.9835
3.5019 -2.0332 -0.9775 0.9835
3.5312 -1.9818 -0.9775 0.9835
3.5960 -1.9496 -0.9874 0.9833
3.6434 -1.9070 -0.9927 0.9832
3.6708 -1.8536 -0.9927 0.9832
3.6975 -1.7996 -0.9927 0.9832
3.7233 -1.7454 -0.9927 0.9832
3.7727 -1.6359 -0.9926 0.9832
3.8188 -1.5249 -0.9926 0.9832
3.8406 -1.4689 -0.9926 0.9832
3.8819 -1.3561 -0.9926 0.9832
3.9012 -1.2992 -0.9926 0.9832
3.9197 -1.2420 -0.9926 0.9832
3.9374 -1.1846 -0.9926 0.9832
3.9998 -0.9526 -0.9926 0.9832
4.0133 -0.8940 -0.9925 0.9832
4.0586 -0.6581 -0.9925 0.9832
4.0677 -0.5987 -0.9925 0.9832
4.0760 -0.5392 -0.9925 0.9832
4.0835 -0.4796 -0.9925 0.9832
4.1005 -0.3002 -0.9925 0.9832
4.1097 -0.1202 -0.9925 0.9832
4.1111 -0.0601 -0.9925 0.9832
4.1115 0.0000 -0.9925 0.9832
4.1111 0.0600 -0.9925 0.9832
4.1076 0.1802 -0.9925 0.9832
4.1045 0.2402 -0.9925 0.9832
4.1005 0.3001 -0.9925 0.9832
4.0957 0.3600 -0.9925 0.9832
4.0900 0.4198 -0.9925 0.9832
4.0586 0.6580 -0.9925 0.9832
3.9855 1.0109 -0.9926 0.9832
3.9703 1.0691 -0.9926 0.9832
3.9543 1.1269 -0.9926 0.9832
3.9197 1.2420 -0.9926 0.9832
3.9012 1.2992 -0.9926 0.9832
3.8617 1.4126 -0.9926 0.9832
3.8406 1.4689 -0.9926 0.9832
3.7727 1.6358 -0.9926 0.9832
3.7233 1.7454 -0.9927 0.9832
3.6975 1.7996 -0.9927 0.9832
3.6708 1.8535 -0.9927 0.9832
3.6152 1.9600 -0.9927 0.9832
3.5862 2.0127 -0.9927 0.9832
3.5564 2.0649 -0.9927 0.9832
3.4947 2.1680 -0.9928 0.9832
3.4627 2.2189 -0.9928 0.9832
3.4299 2.2693 -0.9928 0.9832
3.3964 2.3191 -0.9928 0.9832
3.3622 2.3685 -0.9928 0.9832
3.3273 2.4175 -0.9928 0.9832
3.2183 2.5611 -0.9929 0.9832
3.1422 2.6541 -0.9929 0.9832
3.1031 2.6997 -0.9929 0.9832
3.0634 2.7449 -0.9929 0.9832
3.0230 2.7894 -0.9929 0.9832
2.8980 2.9193 -0.9930 0.9832
2.8551 2.9614 -0.9930 0.9832
2.8116 3.0029 -0.9930 0.9832
2.7675 3.0437 -0.9931 0.9832
2.7228 3.0839 -0.9931 0.9832
2.5852 3.2004 -0.9931 0.9832
2.5382 3.2379 -0.9931 0.9832
2.4907 3.2746 -0.9932 0.9832
2.3940 3.3462 -0.9932 0.9832
2.3449 3.3809 -0.9932 0.9832
2.2953 3.4148 -0.9932 0.9832
2.2452 3.4481 -0.9933 0.9832
2.1946 3.4806 -0.9933 0.9832
2.0401 3.5736 -0.9933 0.9832
1.9877 3.6032 -0.9934 0.9832
1.9349 3.6319 -0.9934 0.9832
1.7740 3.7135 -0.9935 0.9832
1.6648 3.7639 -0.9935 0.9832
1.6097 3.7879 -0.9935 0.9832
1.5542 3.8111 -0.9935 0.9832
1.4984 3.8335 -0.9936 0.9832
1.4422 3.8550 -0.9936 0.9832
1.3858 3.8758 -0.9936 0.9832
1.3290 3.8957 -0.9936 0.9832
1.1571 3.9505 -0.9937 0.9832
1.0993 3.9671 -0.9937 0.9832
0.9830 3.9977 -0.9938 0.9832
0.8658 4.0249 -0.9938 0.9832
0.8069 4.0372 -0.9938 0.9832
0.7478 4.0486 -0.9939 0.9832
0.6292 4.0689 -0.9939 0.9832
0.5697 4.0779 -0.9939 0.9832
0.5101 4.0858 -0.9940 0.9832
0.3306 4.1046 -0.9940 0.9832
0.2705 4.1090 -0.9941 0.9832
0.2105 4.1127 -0.9941 0.9832
0.1504 4.1154 -0.9941 0.9832
-0.0903 4.1176 -0.9942 0.9832
-0.2106 4.1134 -0.9943 0.9832
-0.6890 4.0615 -0.9945 0.9832
-0.8074 4.0399 -0.9945 0.9832
-0.8664 4.0277 -0.9945 0.9832
-0.9252 4.0147 -0.9946 0.9832
-0.9838 4.0009 -0.9946 0.9832
-1.1003 3.9706 -0.9946 0.9832
-1.1582 3.9542 -0.9946 0.9832
-1.3754 3.6762 -0.9475 0.9840
-1.6118 3.7929 -0.9948 0.9832
-1.7220 3.7443 -0.9949 0.9832
-0.3561 0.7453 -0.1994 0.9966
-0.3388 0.6832 -0.1841 0.9969
-0.3237 0.6296 -0.1709 0.9971
-0.3143 0.5323 -0.1492 0.9975
-0.3171 0.5195 -0.1469 0.9975
-0.3246 0.4830 -0.1405 0.9976
-0.3270 0.4713 -0.1385 0.9976
-0.3291 0.4600 -0.1365 0.9977
-0.3332 0.4380 -0.1329 0.9977
-0.3401 0.4087 -0.1284 0.9978
-0.3424 0.3995 -0.1270 0.9978
-0.3447 0.3904 -0.1257 0.9979
-0.3468 0.3814 -0.1244 0.9979
-0.3490 0.3727 -0.1233 0.9979
-0.3531 0.3557 -0.1210 0.9979
-0.3548 0.3471 -0.1198 0.9980
-0.3562 0.3384 -0.1186 0.9980
-0.3587 0.3214 -0.1163 0.9980
-0.3598 0.3130 -0.1151 0.9980
-0.3639 0.2810 -0.1110 0.9981
-0.3657 0.2657 -0.1091 0.9981
-0.3665 0.2582 -0.1082 0.9982
-0.3672 0.2507 -0.1073 0.9982
-0.3679 0.2434 -0.1065 0.9982
-0.3685 0.2361 -0.1057 0.9982
-0.3697 0.2219 -0.1041 0.9982
-0.3703 0.2150 -0.1033 0.9982
-0.3707 0.2080 -0.1026 0.9983
-0.3712 0.2012 -0.1019 0.9983
-0.3716 0.1945 -0.1012 0.9983
-0.3722 0.1879 -0.1007 0.9983
-0.3738 0.1752 -0.0997 0.9983
-0.3749 0.1625 -0.0986 0.9983
-0.3758 0.1501 -0.0977 0.9983
-0.3766 0.1377 -0.0968 0.9984
-0.3770 0.1317 -0.0964 0.9984
-0.3776 0.1196 -0.0956 0.9984
-0.3785 0.0901 -0.0939 0.9984
-0.3787 0.0728 -0.0931 0.9984
-0.3786 0.0500 -0.0922 0.9984
-0.3785 0.0444 -0.0920 0.9984
-0.3783 0.0389 -0.0918 0.9984
-0.3781 0.0332 -0.0916 0.9984
-0.3777 0.0221 -0.0913 0.9984
-0.3772 0.0110 -0.0911 0.9984
-0.3701 0.0000 -0.0937 0.9985
-0.3715 -0.0272 -0.0943 0.9985
-0.3716 -0.0327 -0.0944 0.9985
-0.3718 -0.0382 -0.0946 0.9985
-0.3721 -0.0603 -0.0954 0.9984
-0.3721 -0.0715 -0.0959 0.9984
-0.3720 -0.0772 -0.0962 0.9984
-0.3719 -0.0829 -0.0965 0.9984
-0.3718 -0.0886 -0.0968 0.9984
-0.3717 -0.0943 -0.0971 0.9984
-0.3715 -0.1000 -0.0974 0.9984
-0.3708 -0.1175 -0.0985 0.9984
-0.3701 -0.1293 -0.0993 0.9984
-0.3698 -0.1353 -0.0997 0.9984
-0.3684 -0.1534 -0.1010 0.9984
-0.3668 -0.1720 -0.1026 0.9983
-0.3660 -0.1781 -0.1031 0.9983
-0.3652 -0.1844 -0.1036 0.9983
-0.3622 -0.2174 -0.1069 0.9983
-0.3602 -0.2383 -0.1093 0.9982
-0.3570 -0.2674 -0.1129 0.9982
-0.3561 -0.2749 -0.1139 0.9981
-0.3551 -0.2825 -0.1149 0.9981
-0.3540 -0.2903 -0.1159 0.9981
-0.3517 -0.3061 -0.1180 0.9981
-0.3505 -0.3141 -0.1191 0.9981
-0.3465 -0.3390 -0.1227 0.9980
-0.3430 -0.3557 -0.1251 0.9980
-0.3387 -0.3725 -0.1274 0.9979
-0.3364 -0.3810 -0.1287 0.9979
-0.3341 -0.3897 -0.1300 0.9979
-0.3317 -0.3986 -0.1313 0.9979
-0.3215 -0.4357 -0.1371 0.9978
-0.3192 -0.4461 -0.1389 0.9977
-0.3169 -0.4569 -0.1408 0.9977
-0.3121 -0.4793 -0.1448 0.9976
-0.3039 -0.5148 -0.1513 0.9975
-0.2912 -0.5662 -0.1612 0.9974
-0.3002 -0.6054 -0.1711 0.9972
-0.3125 -0.6542 -0.1835 0.9970
-0.3267 -0.7103 -0.1979 0.9968
-0.3430 -0.7754 -0.2147 0.9965
-1.4086 -3.6037 -0.9795 0.9842
-1.3557 -3.6238 -0.9795 0.9842
-1.1955 -3.6795 -0.9794 0.9842
-1.0331 -3.7281 -0.9794 0.9842
-0.9784 -3.7427 -0.9793 0.9842
-0.7581 -3.7931 -0.9792 0.9842
-0.6570 -3.8729 -0.9944 0.9839
-0.4866 -3.8977 -0.9944 0.9839
-0.4296 -3.9043 -0.9944 0.9839
-0.3725 -3.9100 -0.9943 0.9839
-0.2008 -3.9223 -0.9943 0.9839
-0.1435 -3.9248 -0.9942 0.9839
-0.0861 -3.9264 -0.9942 0.9839
-0.0287 -3.9271 -0.9942 0.9839
0.0861 -3.9261 -0.9941 0.9839
0.1434 -3.9243 -0.9941 0.9839
0.2580 -3.9182 -0.9941 0.9839
0.3724 -3.9088 -0.9940 0.9839
0.5432 -3.8885 -0.9940 0.9839
0.6000 -3.8800 -0.9939 0.9839
0.6566 -3.8708 -0.9939 0.9839
0.7131 -3.8607 -0.9939 0.9839
0.7576 -3.7907 -0.9786 0.9842
0.8680 -3.7668 -0.9786 0.9842
0.9230 -3.7536 -0.9786 0.9842
1.0865 -3.7093 -0.9785 0.9842
1.1405 -3.6930 -0.9785 0.9842
1.1944 -3.6759 -0.9785 0.9842
1.4593 -3.5785 -0.9783 0.9842
1.5114 -3.5567 -0.9783 0.9842
1.5632 -3.5341 -0.9783 0.9842
1.6146 -3.5109 -0.9783 0.9842
1.8168 -3.4103 -0.9782 0.9842
1.9156 -3.3556 -0.9782 0.9842
1.9644 -3.3271 -0.9781 0.9842
1.7671 -2.8956 -0.8588 0.9861
1.8785 -2.7948 -0.8525 0.9862
2.2018 -3.1746 -0.9780 0.9842
2.2935 -3.1088 -0.9780 0.9842
2.3387 -3.0749 -0.9780 0.9842
2.3833 -3.0403 -0.9780 0.9842
2.4274 -3.0051 -0.9780 0.9842
2.4710 -2.9693 -0.9779 0.9842
2.5986 -2.8580 -0.9779 0.9842
2.8001 -2.6604 -0.9778 0.9842
2.8386 -2.6192 -0.9778 0.9842
2.8766 -2.5774 -0.9778 0.9842
2.9505 -2.4922 -0.9777 0.9842
2.9866 -2.4488 -0.9777 0.9842
3.0909 -2.3154 -0.9777 0.9842
3.1244 -2.2700 -0.9777 0.9842
3.1571 -2.2241 -0.9777 0.9842
3.2515 -2.0835 -0.9776 0.9842
3.2815 -2.0357 -0.9776 0.9842
3.4475 -1.8691 -0.9928 0.9839
3.4744 -1.8186 -0.9928 0.9839
3.5260 -1.7162 -0.9927 0.9839
3.5506 -1.6645 -0.9927 0.9839
3.5746 -1.6124 -0.9927 0.9839
3.6201 -1.5072 -0.9927 0.9840
3.6417 -1.4542 -0.9927 0.9840
3.6625 -1.4008 -0.9927 0.9840
3.6826 -1.3471 -0.9927 0.9840
3.7379 -1.1844 -0.9927 0.9840
3.7548 -1.1297 -0.9927 0.9840
3.8143 -0.9084 -0.9926 0.9840
3.8272 -0.8525 -0.9926 0.9840
3.8504 -0.7404 -0.9926 0.9840
3.8704 -0.6275 -0.9926 0.9840
3.9058 -0.3434 -0.9926 0.9840
3.9104 -0.2862 -0.9926 0.9840
3.9192 -0.1146 -0.9926 0.9840
3.9204 -0.0573 -0.9926 0.9840
3.9170 0.1718 -0.9926 0.9840
3.9141 0.2290 -0.9926 0.9840
3.9104 0.2861 -0.9926 0.9840
3.9058 0.3433 -0.9926 0.9840
3.8791 0.5709 -0.9926 0.9840
3.8608 0.6839 -0.9926 0.9840
3.8504 0.7404 -0.9926 0.9840
3.8392 0.7965 -0.9926 0.9840
3.8007 0.9640 -0.9926 0.9840
3.7862 1.0195 -0.9926 0.9840
3.7380 1.1844 -0.9927 0.9840
3.7018 1.2931 -0.9927 0.9840
3.6417 1.4541 -0.9927 0.9840
3.6201 1.5072 -0.9927 0.9840
3.5977 1.5600 -0.9927 0.9840
3.5506 1.6645 -0.9927 0.9839
3.5005 1.7675 -0.9928 0.9839
3.4744 1.8185 -0.9928 0.9839
3.4475 1.8691 -0.9928 0.9839
3.4198 1.9193 -0.9928 0.9839
3.3915 1.9691 -0.9928 0.9839
3.3624 2.0185 -0.9928 0.9839
3.3326 2.0674 -0.9928 0.9839
3.3021 2.1159 -0.9928 0.9839
3.2708 2.1640 -0.9928 0.9839
3.2389 2.2116 -0.9929 0.9839
3.1730 2.3053 -0.9929 0.9839
3.1390 2.3514 -0.9929 0.9839
3.0690 2.4422 -0.9929 0.9839
3.0330 2.4868 -0.9929 0.9839
2.9964 2.5309 -0.9930 0.9839
2.8828 2.6600 -0.9930 0.9839
2.8437 2.7018 -0.9930 0.9839
2.7636 2.7839 -0.9931 0.9839
2.7227 2.8240 -0.9931 0.9839
2.5964 2.9407 -0.9931 0.9839
2.5532 2.9784 -0.9931 0.9839
2.3751 3.1227 -0.9932 0.9839
2.2829 3.1909 -0.9932 0.9839
2.2361 3.2239 -0.9933 0.9839
2.1888 3.2564 -0.9933 0.9839
2.0441 3.3493 -0.9933 0.9839
1.9950 3.3789 -0.9934 0.9839
1.9454 3.4078 -0.9934 0.9839
1.7943 3.4900 -0.9934 0.9839
1.6917 3.5411 -0.9935 0.9839
1.5875 3.5891 -0.9935 0.9839
1.5349 3.6120 -0.9936 0.9839
1.4288 3.6555 -0.9936 0.9839
1.3214 3.6959 -0.9936 0.9839
1.1583 3.7504 -0.9937 0.9839
0.9929 3.7979 -0.9938 0.9839
0.8815 3.8254 -0.9938 0.9839
0.8256 3.8380 -0.9938 0.9839
0.7131 3.8607 -0.9939 0.9839
0.6000 3.8800 -0.9939 0.9839
0.4864 3.8961 -0.9940 0.9839
0.4295 3.9029 -0.9940 0.9839
0.3152 3.9139 -0.9940 0.9839
0.2580 3.9182 -0.9941 0.9839
0.1434 3.9243 -0.9941 0.9839
-0.0287 3.9271 -0.9942 0.9839
-0.0861 3.9263 -0.9942 0.9839
-0.1434 3.9247 -0.9942 0.9839
-0.5435 3.8902 -0.9944 0.9839
-0.8261 3.8406 -0.9945 0.9839
-0.8822 3.8282 -0.9945 0.9839
-0.9937 3.8010 -0.9946 0.9839
-1.1044 3.7704 -0.9946 0.9839
-1.1594 3.7540 -0.9946 0.9839
-1.2142 3.7368 -0.9947 0.9839
-1.2687 3.7187 -0.9947 0.9839
-1.3229 3.6998 -0.9947 0.9839
-1.4838 3.6386 -0.9948 0.9839
-1.5369 3.6166 -0.9948 0.9839
-0.3267 0.7103 -0.1979 0.9968
-0.3002 0.6054 -0.1711 0.9972
-0.2911 0.5662 -0.1612 0.9974
-0.2978 0.5398 -0.1561 0.9975
-0.3009 0.5271 -0.1537 0.9975
-0.3039 0.5147 -0.1513 0.9975
-0.3068 0.5026 -0.1491 0.9976
-0.3095 0.4908 -0.1469 0.9976
-0.3191 0.4461 -0.1389 0.9977
-0.3215 0.4357 -0.1371 0.9978
-0.3242 0.4262 -0.1356 0.9978
-0.3268 0.4169 -0.1341 0.9978
-0.3293 0.4077 -0.1327 0.9978
-0.3318 0.3986 -0.1313 0.9979
-0.3341 0.3897 -0.1300 0.9979
-0.3364 0.3809 -0.1287 0.9979
-0.3386 0.3724 -0.1274 0.9979
-0.3479 0.3305 -0.1215 0.9980
-0.3493 0.3223 -0.1203 0.9980
-0.3540 0.2902 -0.1159 0.9981
-0.3578 0.2600 -0.1120 0.9982
-0.3587 0.2527 -0.1111 0.9982
-0.3602 0.2383 -0.1093 0.9982
-0.3609 0.2313 -0.1085 0.9982
-0.3616 0.2243 -0.1077 0.9982
-0.3622 0.2174 -0.1069 0.9983
-0.3637 0.1972 -0.1047 0.9983
-0.3652 0.1844 -0.1036 0.9983
-0.3660 0.1782 -0.1031 0.9983
-0.3668 0.1719 -0.1026 0.9983
-0.3674 0.1657 -0.1020 0.9983
-0.3679 0.1595 -0.1015 0.9983
-0.3685 0.1534 -0.1010 0.9984
-0.3698 0.1352 -0.0997 0.9984
-0.3701 0.1293 -0.0993 0.9984
-0.3705 0.1234 -0.0989 0.9984
-0.3713 0.1058 -0.0977 0.9984
-0.3717 0.0943 -0.0971 0.9984
-0.3720 0.0829 -0.0965 0.9984
-0.3720 0.0771 -0.0962 0.9984
-0.3721 0.0603 -0.0954 0.9984
-0.3721 0.0548 -0.0952 0.9984
-0.3718 0.0382 -0.0946 0.9985
-0.3717 0.0326 -0.0944 0.9985
-0.3707 0.0108 -0.0939 0.9985
-0.3638 0.0000 -0.0964 0.9985
-0.3644 -0.0107 -0.0966 0.9985
-0.3655 -0.0429 -0.0975 0.9985
-0.3657 -0.0538 -0.0979 0.9985
-0.3657 -0.0648 -0.0984 0.9985
-0.3656 -0.0703 -0.0987 0.9985
-0.3653 -0.0870 -0.0995 0.9984
-0.3650 -0.0982 -0.1002 0.9984
-0.3645 -0.1096 -0.1009 0.9984
-0.3642 -0.1154 -0.1012 0.9984
-0.3639 -0.1212 -0.1016 0.9984
-0.3622 -0.1446 -0.1034 0.9984
-0.3600 -0.1688 -0.1054 0.9984
-0.3592 -0.1748 -0.1059 0.9983
-0.3561 -0.1999 -0.1082 0.9983
-0.3549 -0.2131 -0.1097 0.9983
-0.3543 -0.2198 -0.1105 0.9983
-0.3536 -0.2265 -0.1113 0.9983
-0.3528 -0.2334 -0.1121 0.9983
-0.3521 -0.2404 -0.1130 0.9982
-0.3512 -0.2474 -0.1138 0.9982
-0.3504 -0.2545 -0.1147 0.9982
-0.3474 -0.2764 -0.1176 0.9982
-0.3414 -0.3150 -0.1231 0.9981
-0.3400 -0.3231 -0.1243 0.9981
-0.3386 -0.3312 -0.1255 0.9980
-0.3351 -0.3477 -0.1280 0.9980
-0.3330 -0.3557 -0.1291 0.9980
-0.3285 -0.3721 -0.1315 0.9979
-0.3188 -0.4066 -0.1369 0.9979
-0.3134 -0.4248 -0.1399 0.9978
-0.3050 -0.4537 -0.1449 0.9977
-0.3025 -0.4645 -0.1469 0.9977
-0.2971 -0.4867 -0.1511 0.9976
-0.2942 -0.4982 -0.1533 0.9976
-0.2847 -0.5343 -0.1604 0.9975
-0.2812 -0.5469 -0.1629 0.9975
-0.2776 -0.5598 -0.1656 0.9974
-0.2783 -0.5825 -0.1711 0.9973
-0.2999 -0.6780 -0.1964 0.9969
-1.3959 -3.4229 -0.9795 0.9848
-1.3457 -3.4428 -0.9795 0.9848
-1.2952 -3.4620 -0.9795 0.9848
-1.2445 -3.4805 -0.9794 0.9848
-1.1934 -3.4982 -0.9794 0.9848
-1.1422 -3.5152 -0.9794 0.9848
-1.0906 -3.5314 -0.9794 0.9848
-1.0389 -3.5469 -0.9794 0.9848
-0.9870 -3.5617 -0.9793 0.9848
-0.8824 -3.5888 -0.9793 0.9848
-0.8299 -3.6012 -0.9793 0.9848
-0.7771 -3.6129 -0.9793 0.9848
-0.7243 -3.6238 -0.9792 0.9848
-0.6712 -3.6339 -0.9792 0.9848
-0.6180 -3.6433 -0.9792 0.9848
-0.5114 -3.6596 -0.9791 0.9848
-0.3504 -3.6782 -0.9791 0.9848
-0.2966 -3.6829 -0.9791 0.9848
-0.1889 -3.6899 -0.9790 0.9848
-0.1349 -3.6921 -0.9790 0.9848
-0.0270 -3.6943 -0.9790 0.9848
0.0270 -3.6943 -0.9789 0.9848
0.1349 -3.6917 -0.9789 0.9848
0.2965 -3.6820 -0.9788 0.9848
0.5645 -3.6501 -0.9787 0.9848
0.6177 -3.6414 -0.9787 0.9848
0.7238 -3.6217 -0.9786 0.9848
0.7767 -3.6106 -0.9786 0.9848
0.8818 -3.5862 -0.9786 0.9848
0.9862 -3.5587 -0.9785 0.9848
1.0380 -3.5439 -0.9785 0.9848
1.0897 -3.5283 -0.9785 0.9848
1.2431 -3.4769 -0.9784 0.9848
1.3442 -3.4389 -0.9784 0.9848
1.4440 -3.3981 -0.9784 0.9848
1.5426 -3.3543 -0.9783 0.9848
1.5914 -3.3313 -0.9783 0.9848
1.8302 -3.2059 -0.9782 0.9848
1.7671 -2.8956 -0.8989 0.9861
1.8045 -2.8618 -0.8965 0.9861
1.8416 -2.8282 -0.8943 0.9861
1.8785 -2.7948 -0.8923 0.9862
2.1036 -3.0330 -0.9781 0.9848
2.1477 -3.0019 -0.9781 0.9848
2.1913 -2.9702 -0.9780 0.9848
2.2344 -2.9378 -0.9780 0.9848
2.4020 -2.8020 -0.9780 0.9848
2.4426 -2.7666 -0.9779 0.9848
2.5224 -2.6939 -0.9779 0.9848
2.5614 -2.6568 -0.9779 0.9848
2.6379 -2.5807 -0.9779 0.9848
2.7121 -2.5025 -0.9778 0.9848
2.7840 -2.4221 -0.9778 0.9848
2.8190 -2.3811 -0.9778 0.9848
2.8535 -2.3396 -0.9778 0.9848
2.9205 -2.2552 -0.9778 0.9848
2.9851 -2.1688 -0.9777 0.9848
3.0772 -2.0358 -0.9777 0.9848
3.1568 -1.9583 -0.9844 0.9847
3.2126 -1.9285 -0.9929 0.9846
3.2403 -1.8814 -0.9929 0.9846
3.3196 -1.7375 -0.9928 0.9846
3.3924 -1.5903 -0.9928 0.9846
3.4153 -1.5406 -0.9928 0.9846
3.4587 -1.4401 -0.9928 0.9846
3.4794 -1.3894 -0.9928 0.9846
3.5714 -1.1317 -0.9927 0.9846
3.5875 -1.0793 -0.9927 0.9846
3.6979 -0.5996 -0.9927 0.9846
3.7062 -0.5455 -0.9927 0.9846
3.7138 -0.4913 -0.9927 0.9846
3.7206 -0.4370 -0.9927 0.9846
3.7266 -0.3825 -0.9927 0.9846
3.7457 -0.0547 -0.9927 0.9846
3.7461 -0.0000 -0.9927 0.9846
3.7457 0.0547 -0.9927 0.9846
3.7445 0.1095 -0.9927 0.9846
3.7206 0.4369 -0.9927 0.9846
3.7062 0.5455 -0.9927 0.9846
3.6788 0.7074 -0.9927 0.9846
3.6681 0.7611 -0.9927 0.9846
3.6444 0.8679 -0.9927 0.9846
3.6175 0.9740 -0.9927 0.9846
3.6029 1.0268 -0.9927 0.9846
3.5875 1.0793 -0.9927 0.9846
3.5714 1.1316 -0.9927 0.9846
3.5545 1.1837 -0.9927 0.9846
3.5369 1.2355 -0.9927 0.9846
3.5185 1.2871 -0.9927 0.9846
3.4993 1.3383 -0.9928 0.9846
3.4794 1.3893 -0.9928 0.9846
3.4588 1.4401 -0.9928 0.9846
3.4373 1.4904 -0.9928 0.9846
3.4152 1.5405 -0.9928 0.9846
3.3924 1.5903 -0.9928 0.9846
3.3688 1.6397 -0.9928 0.9846
3.3446 1.6887 -0.9928 0.9846
3.2403 1.8813 -0.9929 0.9846
3.2125 1.9285 -0.9929 0.9846
3.1840 1.9752 -0.9929 0.9846
3.0945 2.1130 -0.9929 0.9846
3.0634 2.1580 -0.9929 0.9846
2.8979 2.3760 -0.9930 0.9846
2.8273 2.4597 -0.9930 0.9846
2.7169 2.5814 -0.9931 0.9846
2.6013 2.6981 -0.9931 0.9846
2.5616 2.7359 -0.9931 0.9846
2.5214 2.7730 -0.9932 0.9846
2.4807 2.8096 -0.9932 0.9846
2.4394 2.8457 -0.9932 0.9846
2.2692 2.9835 -0.9933 0.9846
2.2254 3.0164 -0.9933 0.9846
2.0455 3.1414 -0.9933 0.9846
1.9529 3.2000 -0.9934 0.9846
1.9060 3.2283 -0.9934 0.9846
1.8109 3.2827 -0.9934 0.9846
1.7628 3.3089 -0.9935 0.9846
1.6654 3.3591 -0.9935 0.9846
1.5167 3.4291 -0.9936 0.9846
1.4665 3.4510 -0.9936 0.9846
1.4159 3.4721 -0.9936 0.9846
1.3139 3.5121 -0.9936 0.9846
1.2625 3.5310 -0.9937 0.9846
1.1588 3.5665 -0.9937 0.9846
0.7351 3.6780 -0.9939 0.9846
0.6813 3.6884 -0.9939 0.9846
0.5732 3.7069 -0.9939 0.9846
0.3558 3.7344 -0.9940 0.9846
0.3012 3.7393 -0.9941 0.9846
0.1370 3.7491 -0.9941 0.9846
0.0274 3.7517 -0.9942 0.9846
-0.2465 3.7441 -0.9943 0.9846
-0.3559 3.7355 -0.9943 0.9846
-0.4104 3.7300 -0.9943 0.9846
-0.4649 3.7236 -0.9944 0.9846
-0.6277 3.7000 -0.9944 0.9846
-0.8962 3.6447 -0.9945 0.9846
-0.9493 3.6312 -0.9946 0.9846
-1.0551 3.6021 -0.9946 0.9846
-1.2638 3.5346 -0.9947 0.9846
-1.3154 3.5159 -0.9947 0.9846
-0.3129 0.7364 -0.2120 0.9967
-0.2999 0.6780 -0.1964 0.9969
-0.2884 0.6271 -0.1829 0.9971
-0.2783 0.5826 -0.1711 0.9973
-0.2812 0.5469 -0.1629 0.9975
-0.2846 0.5343 -0.1604 0.9975
-0.2879 0.5220 -0.1580 0.9975
-0.2942 0.4982 -0.1533 0.9976
-0.2998 0.4755 -0.1489 0.9977
-0.3025 0.4645 -0.1469 0.9977
-0.3050 0.4537 -0.1449 0.9977
-0.3076 0.4435 -0.1430 0.9978
-0.3161 0.4156 -0.1384 0.9978
-0.3213 0.3977 -0.1355 0.9979
-0.3261 0.3804 -0.1328 0.9979
-0.3285 0.3720 -0.1315 0.9979
-0.3330 0.3557 -0.1291 0.9980
-0.3371 0.3395 -0.1268 0.9980
-0.3414 0.3150 -0.1231 0.9981
-0.3452 0.2916 -0.1197 0.9981
-0.3463 0.2839 -0.1187 0.9981
-0.3484 0.2690 -0.1166 0.9982
-0.3494 0.2618 -0.1157 0.9982
-0.3504 0.2545 -0.1147 0.9982
-0.3521 0.2404 -0.1130 0.9982
-0.3536 0.2265 -0.1113 0.9983
-0.3561 0.1998 -0.1082 0.9983
-0.3566 0.1933 -0.1075 0.9983
-0.3575 0.1871 -0.1069 0.9983
-0.3592 0.1748 -0.1059 0.9983
-0.3622 0.1446 -0.1034 0.9984
-0.3627 0.1387 -0.1029 0.9984
-0.3635 0.1270 -0.1020 0.9984
-0.3642 0.1154 -0.1012 0.9984
-0.3648 0.1039 -0.1005 0.9984
-0.3652 0.0926 -0.0998 0.9984
-0.3655 0.0814 -0.0992 0.9985
-0.3656 0.0759 -0.0989 0.9985
-0.3657 0.0703 -0.0987 0.9985
-0.3657 0.0593 -0.0982 0.9985
-0.3655 0.0429 -0.0975 0.9985
-0.3655 0.0375 -0.0973 0.9985
