ply
format ascii 1.0
element vertex 1594
property float32 x
property float32 y
property float32 z
property float32 I
end_header
-0.4452 0.2498 -0.0820 0.9979
-0.4460 0.2334 -0.0809 0.9980
-0.4466 0.2173 -0.0798 0.9980
-0.4470 0.2016 -0.0788 0.9980
-0.4476 0.1787 -0.0774 0.9980
-0.4479 0.1713 -0.0770 0.9981
-0.4480 0.1639 -0.0766 0.9981
-0.4487 0.1421 -0.0756 0.9981
-0.4488 0.1350 -0.0753 0.9981
-0.4489 0.1280 -0.0750 0.9981
-0.4490 0.1070 -0.0742 0.9981
-0.4490 0.1000 -0.0739 0.9981
-0.4488 0.0931 -0.0736 0.9981
-0.4486 0.0795 -0.0732 0.9982
-0.4483 0.0727 -0.0730 0.9982
-0.4481 0.0659 -0.0728 0.9982
-0.4478 0.0592 -0.0726 0.9982
-0.4475 0.0525 -0.0724 0.9982
-0.4467 0.0393 -0.0720 0.9982
-0.4462 0.0327 -0.0719 0.9982
-0.4452 0.0195 -0.0716 0.9982
-0.4447 0.0130 -0.0715 0.9982
-0.4441 0.0065 -0.0714 0.9982
-0.4309 0.0000 -0.0741 0.9983
-0.4315 -0.0063 -0.0743 0.9982
-0.4343 -0.0446 -0.0751 0.9982
-0.4349 -0.0576 -0.0755 0.9982
-0.4358 -0.0904 -0.0766 0.9982
-0.4358 -0.1038 -0.0771 0.9982
-0.4358 -0.1105 -0.0774 0.9982
-0.4357 -0.1173 -0.0776 0.9982
-0.4354 -0.1311 -0.0782 0.9982
-0.4350 -0.1449 -0.0789 0.9981
-0.4347 -0.1519 -0.0792 0.9981
-0.4340 -0.1661 -0.0799 0.9981
-0.4337 -0.1732 -0.0803 0.9981
-0.4329 -0.1878 -0.0812 0.9981
-0.4327 -0.1952 -0.0817 0.9981
-0.4324 -0.2027 -0.0822 0.9981
-0.4317 -0.2180 -0.0832 0.9980
-0.4313 -0.2258 -0.0838 0.9980
-0.4303 -0.2415 -0.0849 0.9980
-0.4297 -0.2495 -0.0855 0.9980
-0.4291 -0.2577 -0.0861 0.9980
-0.4269 -0.2825 -0.0881 0.9979
-0.4241 -0.3082 -0.0902 0.9979
-0.4230 -0.3169 -0.0909 0.9979
-0.4219 -0.3259 -0.0917 0.9978
-0.4207 -0.3348 -0.0925 0.9978
-0.4181 -0.3532 -0.0942 0.9978
-0.4156 -0.3724 -0.0960 0.9977
-0.4143 -0.3937 -0.0983 0.9977
-0.4134 -0.4164 -0.1010 0.9976
-0.4128 -0.4282 -0.1023 0.9976
-0.4122 -0.4403 -0.1038 0.9976
-0.4115 -0.4526 -0.1052 0.9975
-0.4107 -0.4653 -0.1068 0.9975
-0.4059 -0.5337 -0.1154 0.9973
-0.4047 -0.5486 -0.1173 0.9972
-0.4035 -0.5639 -0.1193 0.9972
-0.4671 -0.6950 -0.1441 0.9966
-1.2764 -2.0915 -0.4216 0.9901
-1.2135 -2.1257 -0.4211 0.9901
-1.1497 -2.1582 -0.4207 0.9901
-1.1176 -2.1737 -0.4205 0.9901
-1.0852 -2.1888 -0.4203 0.9901
-1.0787 -2.2580 -0.4305 0.9899
-1.0662 -2.3183 -0.4390 0.9897
-1.0513 -2.3769 -0.4471 0.9895
-1.0105 -2.3779 -0.4445 0.9896
-0.9701 -2.3789 -0.4420 0.9896
-0.9013 -2.4092 -0.4425 0.9896
-0.8390 -2.3466 -0.4288 0.9899
-0.6939 -2.2468 -0.4046 0.9905
-0.6534 -2.3581 -0.4210 0.9901
-0.5676 -2.4632 -0.4349 0.9898
-0.5271 -2.4507 -0.4313 0.9899
-0.5084 -2.5440 -0.4463 0.9895
-0.4352 -2.5656 -0.4477 0.9895
-0.3912 -2.5299 -0.4404 0.9897
-0.3154 -2.5268 -0.4381 0.9897
-0.2908 -2.6428 -0.4574 0.9893
-0.1902 -2.8884 -0.4980 0.9883
-0.1082 -2.9620 -0.5099 0.9880
-0.0230 -3.1480 -0.5416 0.9873
0.0680 -3.1034 -0.5340 0.9875
0.2110 -5.7743 -0.9941 0.9768
0.2954 -5.7704 -0.9941 0.9768
0.3796 -5.7652 -0.9940 0.9768
0.4638 -5.7588 -0.9940 0.9768
0.6319 -5.7424 -0.9939 0.9768
0.7993 -5.7212 -0.9939 0.9768
0.9661 -5.6949 -0.9938 0.9768
1.2146 -5.6466 -0.9937 0.9768
1.3790 -5.6083 -0.9936 0.9768
1.5421 -5.5652 -0.9935 0.9768
1.6233 -5.5419 -0.9935 0.9768
1.8644 -5.4650 -0.9934 0.9768
1.9440 -5.4369 -0.9934 0.9768
2.1019 -5.3774 -0.9933 0.9768
2.2579 -5.3134 -0.9933 0.9768
2.4121 -5.2448 -0.9932 0.9768
2.4884 -5.2089 -0.9932 0.9768
2.6394 -5.1336 -0.9931 0.9768
2.7140 -5.0943 -0.9931 0.9768
2.7881 -5.0539 -0.9930 0.9768
2.9344 -4.9700 -0.9930 0.9768
2.0681 -3.2800 -0.6671 0.9844
3.2888 -4.7419 -0.9928 0.9768
2.3066 -2.9424 -0.6432 0.9849
2.4687 -2.7961 -0.6417 0.9850
2.5091 -2.7596 -0.6417 0.9850
4.0042 -4.1532 -0.9925 0.9769
4.0643 -4.0941 -0.9925 0.9769
4.1820 -3.9734 -0.9925 0.9769
4.2396 -3.9118 -0.9924 0.9769
4.2304 -3.7904 -0.9772 0.9772
4.3391 -3.6650 -0.9772 0.9772
4.3920 -3.6011 -0.9771 0.9772
4.4952 -3.4711 -0.9771 0.9772
4.7813 -3.0638 -0.9770 0.9772
4.8686 -2.9227 -0.9769 0.9772
4.9517 -2.7791 -0.9769 0.9772
4.9917 -2.7064 -0.9769 0.9772
5.0307 -2.6331 -0.9769 0.9772
5.0685 -2.5593 -0.9769 0.9772
5.1053 -2.4849 -0.9769 0.9772
5.1410 -2.4100 -0.9768 0.9772
5.2414 -2.1823 -0.9768 0.9772
5.2727 -2.1055 -0.9768 0.9772
5.3028 -2.0281 -0.9768 0.9772
5.3899 -1.9717 -0.9874 0.9770
5.4431 -1.9014 -0.9920 0.9769
5.4962 -1.7416 -0.9919 0.9769
5.5210 -1.6610 -0.9919 0.9769
5.5446 -1.5802 -0.9919 0.9769
5.6084 -1.3357 -0.9919 0.9769
5.6450 -1.1712 -0.9919 0.9769
5.6767 -1.0057 -0.9919 0.9769
5.6907 -0.9227 -0.9919 0.9769
5.7036 -0.8394 -0.9918 0.9769
5.7153 -0.7560 -0.9918 0.9769
5.7348 -0.5887 -0.9918 0.9769
5.7495 -0.4208 -0.9918 0.9769
5.7643 -0.0842 -0.9918 0.9769
5.7649 0.0000 -0.9918 0.9769
5.7348 0.5886 -0.9918 0.9769
5.7256 0.6724 -0.9918 0.9769
5.7152 0.7559 -0.9918 0.9769
5.7036 0.8394 -0.9918 0.9769
5.6908 0.9226 -0.9918 0.9769
5.6767 1.0057 -0.9919 0.9769
5.6614 1.0886 -0.9919 0.9769
5.6273 1.2535 -0.9919 0.9769
5.6084 1.3356 -0.9919 0.9769
5.5883 1.4174 -0.9919 0.9769
5.5446 1.5802 -0.9919 0.9769
5.4962 1.7415 -0.9919 0.9769
5.4431 1.9014 -0.9920 0.9769
5.4148 1.9808 -0.9920 0.9769
5.3853 2.0596 -0.9920 0.9769
5.3230 2.2162 -0.9920 0.9769
5.2561 2.3709 -0.9920 0.9769
5.2210 2.4475 -0.9920 0.9769
5.1474 2.5991 -0.9921 0.9769
5.1089 2.6740 -0.9921 0.9769
5.0694 2.7484 -0.9921 0.9769
4.9871 2.8955 -0.9921 0.9769
4.9005 3.0401 -0.9922 0.9769
4.8557 3.1114 -0.9922 0.9769
4.8098 3.1821 -0.9922 0.9769
4.7629 3.2521 -0.9922 0.9769
4.7149 3.3214 -0.9922 0.9769
4.6161 3.4579 -0.9923 0.9769
4.5651 3.5251 -0.9923 0.9769
4.4604 3.6571 -0.9924 0.9769
4.4066 3.7220 -0.9924 0.9769
4.2395 3.9118 -0.9924 0.9769
3.8020 3.6124 -0.9023 0.9789
3.6876 3.6076 -0.8876 0.9793
3.5632 3.6958 -0.8832 0.9794
3.6908 4.4349 -0.9927 0.9769
3.6257 4.4885 -0.9927 0.9769
2.6684 3.5084 -0.7583 0.9823
2.4451 3.5254 -0.7381 0.9827
2.3785 3.5387 -0.7336 0.9828
2.1885 3.5859 -0.7228 0.9831
2.1317 3.6104 -0.7213 0.9831
2.0046 3.7627 -0.7335 0.9828
1.9932 3.8768 -0.7500 0.9825
2.0253 4.0848 -0.7844 0.9817
2.4121 5.2448 -0.9932 0.9768
2.1018 5.3774 -0.9933 0.9768
2.0231 5.4077 -0.9933 0.9768
1.9439 5.4368 -0.9934 0.9768
1.7844 5.4917 -0.9934 0.9768
1.7040 5.5173 -0.9935 0.9768
1.6233 5.5418 -0.9935 0.9768
1.5421 5.5652 -0.9935 0.9768
1.4607 5.5873 -0.9936 0.9768
1.3790 5.6082 -0.9936 0.9768
1.2969 5.6280 -0.9936 0.9768
1.2146 5.6465 -0.9937 0.9768
1.0492 5.6800 -0.9937 0.9768
0.7993 5.7211 -0.9938 0.9768
0.7157 5.7323 -0.9939 0.9768
0.3796 5.7652 -0.9940 0.9768
0.2111 5.7741 -0.9941 0.9768
0.0422 5.7783 -0.9942 0.9768
-0.0422 5.7785 -0.9942 0.9768
-0.1266 5.7774 -0.9942 0.9768
-0.3797 5.7670 -0.9943 0.9768
-0.4640 5.7610 -0.9944 0.9768
-0.5481 5.7537 -0.9944 0.9768
-0.7998 5.7248 -0.9945 0.9768
-0.9668 5.6994 -0.9946 0.9768
-1.0500 5.6848 -0.9946 0.9768
-1.3805 5.6146 -0.9947 0.9768
-1.7063 5.5251 -0.9949 0.9768
-1.7870 5.4998 -0.9949 0.9768
-2.0265 5.4167 -0.9950 0.9768
-2.1055 5.3867 -0.9950 0.9768
-2.2621 5.3232 -0.9951 0.9768
-2.4934 5.2195 -0.9952 0.9768
-2.6451 5.1447 -0.9953 0.9768
-2.7200 5.1057 -0.9953 0.9768
-3.0140 4.9386 -0.9954 0.9768
-2.3683 3.7561 -0.7639 0.9821
-0.4060 0.5337 -0.1154 0.9973
-0.4081 0.5052 -0.1117 0.9974
-0.4091 0.4915 -0.1100 0.9974
-0.4099 0.4782 -0.1084 0.9974
-0.4108 0.4652 -0.1068 0.9975
-0.4115 0.4526 -0.1052 0.9975
-0.4122 0.4402 -0.1038 0.9976
-0.4128 0.4282 -0.1023 0.9976
-0.4139 0.4049 -0.0996 0.9977
-0.4144 0.3937 -0.0983 0.9977
-0.4167 0.3625 -0.0950 0.9978
-0.4207 0.3348 -0.0925 0.9978
-0.4230 0.3169 -0.0909 0.9979
-0.4251 0.2994 -0.0895 0.9979
-0.4269 0.2824 -0.0881 0.9979
-0.4277 0.2740 -0.0874 0.9979
-0.4284 0.2657 -0.0867 0.9980
-0.4291 0.2576 -0.0861 0.9980
-0.4317 0.2180 -0.0832 0.9980
-0.4327 0.1952 -0.0817 0.9981
-0.4330 0.1877 -0.0812 0.9981
-0.4334 0.1804 -0.0808 0.9981
-0.4337 0.1731 -0.0803 0.9981
-0.4340 0.1660 -0.0799 0.9981
-0.4344 0.1589 -0.0796 0.9981
-0.4354 0.1310 -0.0782 0.9982
-0.4356 0.1241 -0.0779 0.9982
-0.4357 0.1173 -0.0776 0.9982
-0.4358 0.1038 -0.0771 0.9982
-0.4358 0.0970 -0.0768 0.9982
-0.4358 0.0904 -0.0766 0.9982
-0.4352 0.0640 -0.0757 0.9982
-0.4346 0.0510 -0.0753 0.9982
-0.4343 0.0446 -0.0751 0.9982
-0.4339 0.0381 -0.0749 0.9982
-0.4336 0.0317 -0.0748 0.9982
-0.4331 0.0253 -0.0746 0.9982
-0.4326 0.0190 -0.0745 0.9982
-0.4201 -0.0123 -0.0771 0.9983
-0.4211 -0.0246 -0.0774 0.9983
-0.4219 -0.0371 -0.0777 0.9983
-0.4227 -0.0559 -0.0782 0.9983
-0.4230 -0.0623 -0.0784 0.9983
-0.4233 -0.0750 -0.0789 0.9983
-0.4233 -0.0814 -0.0791 0.9982
-0.4234 -0.0943 -0.0796 0.9982
-0.4234 -0.1009 -0.0799 0.9982
-0.4233 -0.1074 -0.0801 0.9982
-0.4232 -0.1140 -0.0804 0.9982
-0.4228 -0.1273 -0.0810 0.9982
-0.4226 -0.1339 -0.0813 0.9982
-0.4220 -0.1474 -0.0820 0.9982
-0.4212 -0.1611 -0.0827 0.9982
-0.4207 -0.1680 -0.0831 0.9982
-0.4202 -0.1749 -0.0835 0.9982
-0.4197 -0.1820 -0.0839 0.9981
-0.4192 -0.1891 -0.0844 0.9981
-0.4180 -0.2111 -0.0859 0.9981
-0.4157 -0.2414 -0.0882 0.9980
-0.4150 -0.2491 -0.0888 0.9980
-0.4142 -0.2570 -0.0894 0.9980
-0.4116 -0.2810 -0.0914 0.9980
-0.4097 -0.2977 -0.0929 0.9979
-0.4091 -0.3065 -0.0938 0.9979
-0.4086 -0.3155 -0.0947 0.9979
-0.4080 -0.3247 -0.0957 0.9979
-0.4066 -0.3434 -0.0977 0.9978
-0.4027 -0.3826 -0.1019 0.9977
-0.4014 -0.3927 -0.1030 0.9977
-0.4008 -0.4038 -0.1044 0.9977
-0.4001 -0.4150 -0.1058 0.9977
-0.3992 -0.4264 -0.1072 0.9976
-0.3965 -0.4626 -0.1118 0.9975
-0.3944 -0.4882 -0.1151 0.9975
-0.3918 -0.5152 -0.1188 0.9974
-0.3904 -0.5292 -0.1207 0.9973
-0.3890 -0.5437 -0.1227 0.9973
-0.4218 -0.6479 -0.1418 0.9969
-0.4679 -0.7421 -0.1610 0.9964
-1.1126 -2.0169 -0.4226 0.9907
-1.0218 -2.0610 -0.4221 0.9907
-1.0846 -2.2705 -0.4617 0.9898
-1.0156 -2.3900 -0.4765 0.9895
-0.9349 -2.3920 -0.4712 0.9896
-0.8315 -2.3257 -0.4532 0.9900
-0.8119 -2.3799 -0.4614 0.9898
-0.7693 -2.3678 -0.4568 0.9899
-0.7228 -2.3405 -0.4494 0.9901
-0.6866 -2.3443 -0.4482 0.9901
-0.6593 -2.3795 -0.4530 0.9900
-0.6150 -2.3526 -0.4461 0.9902
-0.5456 -2.5366 -0.4760 0.9895
-0.3818 -2.2510 -0.4189 0.9908
-0.3480 -2.4914 -0.4615 0.9898
-0.2858 -2.5973 -0.4794 0.9894
-0.2583 -2.7113 -0.4997 0.9890
-0.2158 -2.6798 -0.4933 0.9891
-0.1790 -2.7187 -0.4999 0.9890
-0.1472 -2.8757 -0.5283 0.9884
-0.0693 -3.1622 -0.5803 0.9872
0.0228 -3.1172 -0.5720 0.9874
0.0679 -3.0952 -0.5680 0.9875
0.1979 -5.4145 -0.9941 0.9782
0.2770 -5.4109 -0.9941 0.9782
0.4349 -5.4001 -0.9940 0.9782
0.5138 -5.3930 -0.9940 0.9782
0.5925 -5.3847 -0.9939 0.9782
0.8278 -5.3531 -0.9938 0.9782
0.9838 -5.3263 -0.9938 0.9782
1.0615 -5.3111 -0.9937 0.9782
1.1390 -5.2949 -0.9937 0.9782
1.2162 -5.2775 -0.9937 0.9782
1.5222 -5.1968 -0.9936 0.9782
1.5979 -5.1738 -0.9935 0.9782
1.6733 -5.1498 -0.9935 0.9782
1.9710 -5.0427 -0.9934 0.9782
2.2619 -4.9183 -0.9933 0.9782
2.4046 -4.8498 -0.9932 0.9782
2.4751 -4.8141 -0.9932 0.9782
2.5451 -4.7772 -0.9931 0.9782
2.6146 -4.7394 -0.9931 0.9782
2.6834 -4.7005 -0.9931 0.9782
2.0284 -3.3238 -0.7144 0.9843
2.9531 -4.5353 -0.9930 0.9782
3.0190 -4.4916 -0.9929 0.9782
3.0842 -4.4468 -0.9929 0.9782
3.1488 -4.4012 -0.9929 0.9782
3.2126 -4.3546 -0.9929 0.9782
3.2758 -4.3070 -0.9928 0.9782
3.7531 -3.7806 -0.9774 0.9786
3.9671 -3.5546 -0.9773 0.9786
4.0186 -3.4962 -0.9773 0.9786
4.0692 -3.4370 -0.9773 0.9786
4.1677 -3.3165 -0.9772 0.9786
4.2626 -3.1932 -0.9772 0.9786
4.3539 -3.0671 -0.9772 0.9786
4.3982 -3.0031 -0.9771 0.9786
4.4840 -2.8732 -0.9771 0.9786
4.5658 -2.7409 -0.9771 0.9786
4.6053 -2.6739 -0.9771 0.9786
4.6438 -2.6062 -0.9770 0.9786
4.7878 -2.3304 -0.9770 0.9786
4.8213 -2.2601 -0.9770 0.9786
4.9699 -1.9845 -0.9819 0.9785
5.0505 -1.9316 -0.9921 0.9782
5.0781 -1.8577 -0.9921 0.9783
5.1047 -1.7832 -0.9921 0.9783
5.2409 -1.3294 -0.9920 0.9783
5.2597 -1.2526 -0.9920 0.9783
5.2774 -1.1756 -0.9920 0.9783
5.2940 -1.0984 -0.9920 0.9783
5.3095 -1.0209 -0.9920 0.9783
5.3490 -0.7872 -0.9920 0.9783
5.3599 -0.7090 -0.9920 0.9783
5.3783 -0.5520 -0.9920 0.9783
5.4013 -0.2370 -0.9920 0.9783
5.4059 0.0790 -0.9920 0.9783
5.3921 0.3946 -0.9920 0.9783
5.3783 0.5520 -0.9920 0.9783
5.3697 0.6306 -0.9920 0.9783
5.3599 0.7089 -0.9920 0.9783
5.3370 0.8652 -0.9920 0.9783
5.2940 1.0984 -0.9920 0.9783
5.2774 1.1755 -0.9920 0.9783
5.2210 1.4058 -0.9920 0.9783
5.1999 1.4819 -0.9920 0.9783
5.1778 1.5577 -0.9921 0.9783
5.1545 1.6332 -0.9921 0.9783
5.0218 2.0052 -0.9921 0.9782
4.9612 2.1511 -0.9921 0.9782
4.9293 2.2234 -0.9922 0.9782
4.7912 2.5077 -0.9922 0.9782
4.7542 2.5775 -0.9922 0.9782
4.7161 2.6468 -0.9922 0.9782
4.6770 2.7154 -0.9923 0.9782
4.4217 3.1149 -0.9924 0.9782
4.3758 3.1791 -0.9924 0.9782
4.2812 3.3058 -0.9924 0.9782
4.2325 3.3680 -0.9924 0.9782
4.1829 3.4296 -0.9925 0.9782
4.0289 3.6099 -0.9925 0.9782
3.8671 3.7832 -0.9926 0.9782
3.8115 3.8394 -0.9926 0.9782
3.5800 3.7132 -0.9464 0.9792
3.5835 3.8271 -0.9620 0.9789
3.6398 4.0030 -0.9927 0.9782
3.5215 4.1079 -0.9927 0.9782
3.3383 4.2586 -0.9928 0.9782
3.2758 4.3070 -0.9928 0.9782
3.1487 4.4011 -0.9929 0.9782
2.9531 4.5352 -0.9930 0.9782
2.8866 4.5780 -0.9930 0.9782
2.0811 3.6454 -0.7702 0.9831
2.0169 3.7858 -0.7870 0.9827
1.9932 3.8768 -0.7998 0.9824
2.2619 4.9183 -0.9932 0.9782
2.1899 4.9509 -0.9933 0.9782
2.1174 4.9826 -0.9933 0.9782
2.0444 5.0131 -0.9933 0.9782
1.8229 5.0984 -0.9934 0.9782
1.5979 5.1738 -0.9935 0.9782
1.4461 5.2186 -0.9936 0.9782
1.0615 5.3111 -0.9937 0.9782
0.9838 5.3262 -0.9938 0.9782
0.9059 5.3402 -0.9938 0.9782
0.4349 5.4000 -0.9940 0.9782
0.2770 5.4108 -0.9941 0.9782
0.1979 5.4145 -0.9941 0.9782
0.1187 5.4169 -0.9941 0.9782
-0.0396 5.4184 -0.9942 0.9782
-0.1187 5.4175 -0.9942 0.9782
-0.1979 5.4153 -0.9943 0.9782
-0.3561 5.4076 -0.9943 0.9782
-0.5140 5.3952 -0.9944 0.9782
-0.6714 5.3782 -0.9944 0.9782
-0.9066 5.3441 -0.9945 0.9782
-0.9846 5.3305 -0.9946 0.9782
-1.0624 5.3157 -0.9946 0.9782
-1.1400 5.2998 -0.9946 0.9782
-1.2944 5.2645 -0.9947 0.9782
-1.3713 5.2452 -0.9947 0.9782
-1.5241 5.2033 -0.9948 0.9782
-1.8256 5.1061 -0.9949 0.9782
-1.9742 5.0508 -0.9950 0.9782
-2.0478 5.0216 -0.9950 0.9782
-2.1938 4.9598 -0.9951 0.9782
-2.2661 4.9274 -0.9951 0.9782
-2.3379 4.8939 -0.9951 0.9782
-2.6201 4.7496 -0.9952 0.9782
-2.6893 4.7109 -0.9953 0.9782
-2.8260 4.6306 -0.9953 0.9782
-0.3971 0.5907 -0.1306 0.9971
-0.3874 0.5585 -0.1247 0.9972
-0.3890 0.5437 -0.1227 0.9973
-0.3918 0.5152 -0.1188 0.9974
-0.3931 0.5015 -0.1169 0.9974
-0.3944 0.4882 -0.1151 0.9975
-0.3975 0.4502 -0.1102 0.9976
-0.3984 0.4382 -0.1087 0.9976
-0.3993 0.4264 -0.1072 0.9976
-0.4008 0.4037 -0.1044 0.9977
-0.4027 0.3826 -0.1019 0.9977
-0.4042 0.3729 -0.1009 0.9978
-0.4058 0.3530 -0.0987 0.9978
-0.4066 0.3434 -0.0977 0.9978
-0.4073 0.3339 -0.0966 0.9979
-0.4097 0.2977 -0.0929 0.9979
-0.4106 0.2892 -0.0921 0.9980
-0.4116 0.2810 -0.0914 0.9980
-0.4125 0.2729 -0.0908 0.9980
-0.4134 0.2649 -0.0901 0.9980
-0.4142 0.2570 -0.0894 0.9980
-0.4163 0.2337 -0.0876 0.9981
-0.4170 0.2261 -0.0870 0.9981
-0.4175 0.2185 -0.0865 0.9981
-0.4192 0.1891 -0.0844 0.9981
-0.4202 0.1749 -0.0835 0.9982
-0.4223 0.1406 -0.0817 0.9982
-0.4231 0.1205 -0.0807 0.9982
-0.4234 0.0943 -0.0796 0.9982
-0.4233 0.0814 -0.0791 0.9982
-0.4232 0.0750 -0.0789 0.9983
-0.4227 0.0559 -0.0782 0.9983
-0.4225 0.0496 -0.0781 0.9983
-0.4222 0.0433 -0.0779 0.9983
-0.4211 0.0246 -0.0774 0.9983
-0.4206 0.0184 -0.0773 0.9983
-0.4201 0.0123 -0.0771 0.9983
-0.4196 0.0061 -0.0770 0.9983
-0.4097 -0.0240 -0.0800 0.9983
-0.4101 -0.0300 -0.0802 0.9983
-0.4107 -0.0422 -0.0805 0.9983
-0.4110 -0.0483 -0.0807 0.9983
-0.4112 -0.0544 -0.0809 0.9983
-0.4114 -0.0605 -0.0811 0.9983
-0.4117 -0.0855 -0.0820 0.9983
-0.4116 -0.0917 -0.0822 0.9983
-0.4114 -0.1044 -0.0828 0.9983
-0.4111 -0.1172 -0.0833 0.9983
-0.4109 -0.1236 -0.0837 0.9983
-0.4106 -0.1302 -0.0840 0.9982
-0.4102 -0.1366 -0.0843 0.9982
-0.4073 -0.1766 -0.0866 0.9982
-0.4055 -0.1974 -0.0879 0.9982
-0.4045 -0.2117 -0.0890 0.9981
-0.4039 -0.2190 -0.0896 0.9981
-0.4025 -0.2497 -0.0923 0.9981
-0.4012 -0.2739 -0.0947 0.9980
-0.4007 -0.2823 -0.0955 0.9980
-0.4001 -0.2907 -0.0964 0.9980
-0.3995 -0.2993 -0.0973 0.9980
-0.3974 -0.3259 -0.1002 0.9979
-0.3958 -0.3444 -0.1023 0.9979
-0.3949 -0.3539 -0.1034 0.9978
-0.3940 -0.3635 -0.1045 0.9978
-0.3893 -0.3922 -0.1077 0.9978
-0.3880 -0.4024 -0.1090 0.9977
-0.3871 -0.4134 -0.1104 0.9977
-0.3851 -0.4361 -0.1134 0.9976
-0.3839 -0.4479 -0.1150 0.9976
-0.3827 -0.4599 -0.1166 0.9976
-0.3801 -0.4849 -0.1201 0.9975
-0.3754 -0.5248 -0.1258 0.9974
-0.3737 -0.5388 -0.1278 0.9973
-0.3723 -0.5718 -0.1330 0.9972
-0.4197 -0.6877 -0.1571 0.9967
-2.5954 -4.3960 -0.9952 0.9794
-1.4322 -2.5089 -0.5632 0.9883
-1.2219 -2.2936 -0.5066 0.9895
-1.0783 -2.3446 -0.5031 0.9895
-0.9801 -2.4033 -0.5060 0.9895
-0.9397 -2.4043 -0.5032 0.9895
-0.8835 -2.3615 -0.4916 0.9898
-0.7762 -2.3888 -0.4897 0.9898
-0.6654 -2.4012 -0.4858 0.9899
-0.6205 -2.3737 -0.4783 0.9901
-0.5150 -2.2352 -0.4472 0.9907
-0.4855 -2.2570 -0.4501 0.9906
-0.4555 -2.2793 -0.4531 0.9906
-0.4252 -2.3021 -0.4564 0.9905
-0.3945 -2.3257 -0.4599 0.9904
-0.3318 -2.3748 -0.4675 0.9903
-0.2832 -2.5738 -0.5048 0.9895
-0.2126 -2.6394 -0.5162 0.9893
-0.1760 -2.6732 -0.5223 0.9891
-0.1421 -2.7763 -0.5420 0.9887
-0.0691 -3.1537 -0.6150 0.9872
0.0227 -3.1090 -0.6061 0.9874
0.1120 -3.0654 -0.5980 0.9876
0.3350 -5.0878 -0.9940 0.9794
0.4835 -5.0755 -0.9940 0.9794
0.6316 -5.0589 -0.9939 0.9794
0.8526 -5.0259 -0.9938 0.9794
0.9990 -4.9986 -0.9938 0.9794
1.2170 -4.9496 -0.9937 0.9794
1.2891 -4.9311 -0.9937 0.9794
1.3611 -4.9116 -0.9936 0.9794
1.5748 -4.8468 -0.9935 0.9794
1.7157 -4.7984 -0.9935 0.9794
1.9242 -4.7182 -0.9934 0.9794
1.9928 -4.6895 -0.9934 0.9794
2.1288 -4.6290 -0.9933 0.9795
2.1962 -4.5973 -0.9933 0.9795
2.3295 -4.5309 -0.9932 0.9795
2.3954 -4.4962 -0.9932 0.9795
2.4608 -4.4607 -0.9932 0.9795
2.5256 -4.4241 -0.9931 0.9795
2.5899 -4.3866 -0.9931 0.9795
2.7168 -4.3088 -0.9931 0.9795
2.7795 -4.2685 -0.9930 0.9795
2.8414 -4.2274 -0.9930 0.9795
2.9028 -4.1853 -0.9930 0.9795
2.3066 -2.9424 -0.7289 0.9849
2.3472 -2.9058 -0.7282 0.9849
2.3877 -2.8692 -0.7277 0.9849
2.4282 -2.8326 -0.7274 0.9849
2.4687 -2.7960 -0.7272 0.9849
2.5091 -2.7595 -0.7271 0.9849
2.5496 -2.7230 -0.7272 0.9849
3.4801 -3.6097 -0.9775 0.9798
3.5324 -3.5584 -0.9775 0.9798
3.7339 -3.3456 -0.9774 0.9798
3.8300 -3.2349 -0.9774 0.9798
3.9227 -3.1215 -0.9773 0.9798
3.9678 -3.0639 -0.9773 0.9798
4.0121 -3.0055 -0.9773 0.9798
4.0555 -2.9465 -0.9773 0.9798
4.0980 -2.8869 -0.9773 0.9798
4.1805 -2.7658 -0.9772 0.9798
4.2975 -2.5798 -0.9772 0.9798
4.3709 -2.4531 -0.9772 0.9798
4.4062 -2.3889 -0.9771 0.9798
4.4406 -2.3242 -0.9771 0.9798
4.5064 -2.1934 -0.9771 0.9798
4.5380 -2.1273 -0.9771 0.9798
4.5685 -2.0607 -0.9771 0.9798
4.6987 -1.9563 -0.9923 0.9795
4.7267 -1.8875 -0.9922 0.9795
4.8047 -1.6784 -0.9922 0.9795
4.8735 -1.4662 -0.9922 0.9795
4.8944 -1.3948 -0.9922 0.9795
4.9142 -1.3232 -0.9922 0.9795
4.9330 -1.2512 -0.9922 0.9795
4.9673 -1.1066 -0.9921 0.9795
5.0110 -0.8877 -0.9921 0.9795
5.0234 -0.8145 -0.9921 0.9795
5.0450 -0.6673 -0.9921 0.9795
5.0542 -0.5936 -0.9921 0.9795
5.0623 -0.5196 -0.9921 0.9795
5.0693 -0.4456 -0.9921 0.9795
5.0867 -0.1487 -0.9921 0.9795
5.0883 -0.0744 -0.9921 0.9795
5.0883 0.0743 -0.9921 0.9795
5.0867 0.1487 -0.9921 0.9795
5.0840 0.2230 -0.9921 0.9795
5.0802 0.2973 -0.9921 0.9795
5.0753 0.3714 -0.9921 0.9795
5.0623 0.5196 -0.9921 0.9795
5.0347 0.7409 -0.9921 0.9795
5.0110 0.8877 -0.9921 0.9795
4.9829 1.0338 -0.9921 0.9795
4.9674 1.1065 -0.9921 0.9795
4.9507 1.1790 -0.9922 0.9795
4.9330 1.2512 -0.9922 0.9795
4.8944 1.3948 -0.9922 0.9795
4.8516 1.5373 -0.9922 0.9795
4.8287 1.6080 -0.9922 0.9795
4.7537 1.8182 -0.9922 0.9795
4.7267 1.8874 -0.9922 0.9795
4.6086 2.1604 -0.9923 0.9795
4.5766 2.2276 -0.9923 0.9795
4.5436 2.2942 -0.9923 0.9795
4.5097 2.3604 -0.9923 0.9795
4.3644 2.6199 -0.9924 0.9795
4.2861 2.7464 -0.9924 0.9795
4.2455 2.8088 -0.9924 0.9795
4.1618 2.9318 -0.9925 0.9795
4.1186 2.9923 -0.9925 0.9795
4.0296 3.1116 -0.9925 0.9795
3.9837 3.1701 -0.9925 0.9795
3.8896 3.2853 -0.9926 0.9795
3.8412 3.3419 -0.9926 0.9795
3.7421 3.4528 -0.9926 0.9795
3.6913 3.5071 -0.9927 0.9795
3.6397 3.5608 -0.9927 0.9795
3.5874 3.6137 -0.9927 0.9795
3.4258 3.7677 -0.9928 0.9795
3.3705 3.8174 -0.9928 0.9795
3.3144 3.8663 -0.9928 0.9795
3.2577 3.9145 -0.9928 0.9795
3.1420 4.0081 -0.9929 0.9795
3.0237 4.0985 -0.9929 0.9795
2.9028 4.1853 -0.9930 0.9795
2.8414 4.2273 -0.9930 0.9795
2.7795 4.2685 -0.9930 0.9795
2.7168 4.3088 -0.9931 0.9795
2.6536 4.3481 -0.9931 0.9795
2.1043 3.8145 -0.8493 0.9824
2.0360 3.8215 -0.8442 0.9825
1.9932 3.8768 -0.8499 0.9824
2.0253 4.0850 -0.8889 0.9816
2.1962 4.5972 -0.9933 0.9795
2.0610 4.6597 -0.9933 0.9794
1.9928 4.6894 -0.9934 0.9794
1.2170 4.9495 -0.9937 0.9794
0.9990 4.9985 -0.9938 0.9794
0.8526 5.0259 -0.9938 0.9794
0.7791 5.0380 -0.9939 0.9794
0.7054 5.0489 -0.9939 0.9794
0.6316 5.0589 -0.9939 0.9794
0.4093 5.0821 -0.9940 0.9794
0.3350 5.0877 -0.9940 0.9794
0.2607 5.0923 -0.9941 0.9794
0.1118 5.0980 -0.9941 0.9794
-0.0372 5.0994 -0.9942 0.9794
-0.1118 5.0984 -0.9942 0.9794
-0.1862 5.0965 -0.9942 0.9794
-0.2607 5.0934 -0.9943 0.9794
-0.3351 5.0891 -0.9943 0.9794
-0.4837 5.0775 -0.9944 0.9794
-0.7058 5.0519 -0.9945 0.9794
-0.7796 5.0412 -0.9945 0.9794
-0.8532 5.0294 -0.9945 0.9794
-0.9998 5.0027 -0.9946 0.9794
-1.0729 4.9876 -0.9946 0.9794
-1.1457 4.9716 -0.9946 0.9794
-1.4343 4.8967 -0.9948 0.9794
-1.6476 4.8296 -0.9948 0.9794
-1.7181 4.8052 -0.9949 0.9794
-1.9271 4.7256 -0.9950 0.9794
-2.2002 4.6055 -0.9951 0.9794
-2.2673 4.5730 -0.9951 0.9794
-2.4657 4.4696 -0.9952 0.9794
-2.5308 4.4332 -0.9952 0.9794
-2.5954 4.3959 -0.9952 0.9794
-0.4197 0.6877 -0.1571 0.9967
-0.3771 0.5111 -0.1238 0.9974
-0.3786 0.4978 -0.1219 0.9975
-0.3814 0.4722 -0.1183 0.9975
-0.3828 0.4598 -0.1166 0.9976
-0.3871 0.4134 -0.1104 0.9977
-0.3910 0.3825 -0.1066 0.9978
-0.3939 0.3635 -0.1045 0.9978
-0.3949 0.3538 -0.1034 0.9978
-0.3974 0.3259 -0.1002 0.9979
-0.3989 0.3080 -0.0982 0.9979
-0.3995 0.2993 -0.0973 0.9980
-0.4001 0.2907 -0.0964 0.9980
-0.4012 0.2739 -0.0947 0.9980
-0.4017 0.2657 -0.0939 0.9980
-0.4031 0.2340 -0.0909 0.9981
-0.4050 0.2045 -0.0885 0.9982
-0.4060 0.1903 -0.0874 0.9982
-0.4067 0.1834 -0.0870 0.9982
-0.4085 0.1631 -0.0858 0.9982
-0.4095 0.1498 -0.0850 0.9982
-0.4099 0.1432 -0.0846 0.9982
-0.4109 0.1236 -0.0837 0.9983
-0.4111 0.1171 -0.0833 0.9983
-0.4113 0.1107 -0.0830 0.9983
-0.4116 0.0980 -0.0825 0.9983
-0.4115 0.0667 -0.0813 0.9983
-0.4113 0.0605 -0.0811 0.9983
-0.4112 0.0543 -0.0809 0.9983
-0.4107 0.0421 -0.0805 0.9983
-0.4104 0.0361 -0.0803 0.9983
-0.4093 0.0180 -0.0799 0.9983
-0.4083 0.0059 -0.0796 0.9983
-0.3971 0.0000 -0.0820 0.9984
-0.3980 -0.0116 -0.0822 0.9984
-0.3988 -0.0234 -0.0825 0.9984
-0.3995 -0.0352 -0.0828 0.9984
-0.4005 -0.0709 -0.0840 0.9983
-0.4005 -0.0770 -0.0842 0.9983
-0.4005 -0.0831 -0.0845 0.9983
-0.4004 -0.0892 -0.0847 0.9983
-0.4002 -0.1015 -0.0853 0.9983
-0.4000 -0.1077 -0.0855 0.9983
-0.3995 -0.1202 -0.0861 0.9983
-0.3993 -0.1265 -0.0865 0.9983
-0.3990 -0.1329 -0.0869 0.9983
-0.3986 -0.1458 -0.0876 0.9983
-0.3982 -0.1523 -0.0880 0.9983
-0.3975 -0.1655 -0.0889 0.9982
-0.3967 -0.1790 -0.0899 0.9982
-0.3957 -0.1926 -0.0909 0.9982
-0.3955 -0.1998 -0.0915 0.9982
-0.3951 -0.2142 -0.0928 0.9982
-0.3948 -0.2216 -0.0935 0.9982
-0.3944 -0.2290 -0.0942 0.9981
-0.3941 -0.2366 -0.0949 0.9981
-0.3937 -0.2442 -0.0957 0.9981
-0.3932 -0.2520 -0.0964 0.9981
-0.3927 -0.2598 -0.0972 0.9981
-0.3922 -0.2678 -0.0981 0.9981
-0.3916 -0.2759 -0.0989 0.9980
-0.3910 -0.2841 -0.0998 0.9980
-0.3903 -0.2924 -0.1007 0.9980
-0.3888 -0.3094 -0.1026 0.9980
-0.3852 -0.3452 -0.1068 0.9979
-0.3842 -0.3545 -0.1079 0.9979
-0.3814 -0.3731 -0.1102 0.9978
-0.3796 -0.3823 -0.1112 0.9978
-0.3721 -0.4340 -0.1180 0.9977
-0.3707 -0.4455 -0.1197 0.9976
-0.3678 -0.4692 -0.1231 0.9976
-0.3609 -0.5204 -0.1307 0.9974
-0.3568 -0.5479 -0.1350 0.9973
-0.3850 -0.6521 -0.1564 0.9969
-1.2944 -2.3464 -0.5533 0.9891
-1.2033 -2.4271 -0.5594 0.9890
-1.1779 -2.4657 -0.5642 0.9889
-1.1504 -2.5016 -0.5685 0.9888
-1.1205 -2.5332 -0.5719 0.9888
-1.0711 -2.5206 -0.5655 0.9889
-0.8215 -2.4080 -0.5254 0.9897
-0.7854 -2.4173 -0.5248 0.9897
-0.7408 -2.3987 -0.5184 0.9898
-0.5923 -2.2658 -0.4836 0.9905
-0.5625 -2.2877 -0.4864 0.9904
-0.5018 -2.3330 -0.4928 0.9903
-0.4397 -2.3810 -0.4999 0.9902
-0.3434 -2.4580 -0.5125 0.9899
-0.3103 -2.4853 -0.5172 0.9898
-0.2765 -2.5134 -0.5221 0.9897
-0.2392 -2.5108 -0.5208 0.9898
-0.1990 -2.4707 -0.5118 0.9899
-0.1448 -2.8285 -0.5848 0.9885
-0.1158 -3.1678 -0.6545 0.9871
-0.0352 -4.8148 -0.9942 0.9805
0.3163 -4.8038 -0.9940 0.9805
0.3865 -4.7985 -0.9940 0.9805
0.4565 -4.7922 -0.9940 0.9805
0.5265 -4.7849 -0.9940 0.9805
0.5963 -4.7766 -0.9939 0.9805
0.8050 -4.7455 -0.9938 0.9805
0.8742 -4.7330 -0.9938 0.9805
0.9433 -4.7196 -0.9938 0.9805
1.0121 -4.7052 -0.9938 0.9805
1.0807 -4.6898 -0.9937 0.9805
1.3527 -4.6181 -0.9936 0.9805
1.4870 -4.5764 -0.9936 0.9805
1.6200 -4.5307 -0.9935 0.9805
1.6860 -4.5064 -0.9935 0.9805
2.0101 -4.3708 -0.9934 0.9805
2.0737 -4.3409 -0.9933 0.9805
2.2618 -4.2455 -0.9933 0.9805
2.3235 -4.2119 -0.9932 0.9805
2.3847 -4.1773 -0.9932 0.9805
2.6245 -4.0305 -0.9931 0.9805
2.6830 -3.9916 -0.9931 0.9805
2.7409 -3.9519 -0.9931 0.9805
2.7983 -3.9114 -0.9930 0.9805
2.8666 -3.7691 -0.9778 0.9808
2.4687 -2.7960 -0.7702 0.9849
2.5496 -2.7229 -0.7702 0.9849
3.3842 -3.3108 -0.9776 0.9808
3.4321 -3.2609 -0.9775 0.9808
3.5258 -3.1591 -0.9775 0.9809
3.6164 -3.0546 -0.9775 0.9809
3.6606 -3.0014 -0.9774 0.9809
3.7040 -2.9475 -0.9774 0.9809
3.7466 -2.8930 -0.9774 0.9809
3.7884 -2.8380 -0.9774 0.9809
3.8696 -2.7259 -0.9774 0.9809
3.9090 -2.6691 -0.9773 0.9809
3.9475 -2.6116 -0.9773 0.9809
3.9852 -2.5536 -0.9773 0.9809
4.0220 -2.4951 -0.9773 0.9809
4.1606 -2.2557 -0.9772 0.9809
4.1931 -2.1947 -0.9772 0.9809
4.2553 -2.0712 -0.9772 0.9809
4.4094 -1.9120 -0.9924 0.9806
4.4888 -1.7169 -0.9923 0.9806
4.5813 -1.4516 -0.9923 0.9806
4.6019 -1.3846 -0.9923 0.9806
4.6404 -1.2495 -0.9923 0.9806
4.6748 -1.1133 -0.9923 0.9806
4.7053 -0.9762 -0.9923 0.9806
4.7190 -0.9073 -0.9922 0.9806
4.7435 -0.7691 -0.9922 0.9806
4.7869 -0.4208 -0.9922 0.9806
4.8033 -0.1405 -0.9922 0.9806
4.8048 -0.0702 -0.9922 0.9806
4.8053 0.0000 -0.9922 0.9806
4.8048 0.0702 -0.9922 0.9806
4.8033 0.1404 -0.9922 0.9806
4.7925 0.3508 -0.9922 0.9806
4.7869 0.4207 -0.9922 0.9806
4.7803 0.4906 -0.9922 0.9806
4.7639 0.6301 -0.9922 0.9806
4.7053 0.9762 -0.9923 0.9806
4.6905 1.0448 -0.9923 0.9806
4.6581 1.1815 -0.9923 0.9806
4.6217 1.3171 -0.9923 0.9806
4.5596 1.5184 -0.9923 0.9806
4.5370 1.5848 -0.9923 0.9806
4.5134 1.6510 -0.9923 0.9806
4.4633 1.7822 -0.9924 0.9806
4.4094 1.9119 -0.9924 0.9806
4.2254 2.2909 -0.9924 0.9806
4.1915 2.3524 -0.9925 0.9806
4.1568 2.4134 -0.9925 0.9806
4.0089 2.6523 -0.9925 0.9806
3.8891 2.8255 -0.9926 0.9806
3.8474 2.8821 -0.9926 0.9806
3.7176 3.0481 -0.9927 0.9806
3.6728 3.1021 -0.9927 0.9806
3.6271 3.1555 -0.9927 0.9806
3.5807 3.2082 -0.9927 0.9806
3.5335 3.2603 -0.9927 0.9806
3.4368 3.3623 -0.9928 0.9806
3.3874 3.4122 -0.9928 0.9806
3.2864 3.5099 -0.9928 0.9806
3.1825 3.6046 -0.9929 0.9806
2.9668 3.7847 -0.9930 0.9806
2.9112 3.8277 -0.9930 0.9805
2.8551 3.8699 -0.9930 0.9805
2.6829 3.9916 -0.9931 0.9805
2.6244 4.0305 -0.9931 0.9805
2.5653 4.0684 -0.9931 0.9805
2.2203 3.8892 -0.9247 0.9819
2.0723 3.8897 -0.9100 0.9822
2.0003 3.8906 -0.9033 0.9823
2.0254 4.0851 -0.9415 0.9815
1.9461 4.3997 -0.9934 0.9805
1.8816 4.4279 -0.9934 0.9805
1.8168 4.4549 -0.9934 0.9805
1.7516 4.4812 -0.9935 0.9805
1.6859 4.5064 -0.9935 0.9805
1.5537 4.5540 -0.9935 0.9805
1.4870 4.5763 -0.9936 0.9805
1.4200 4.5977 -0.9936 0.9805
1.2172 4.6559 -0.9937 0.9805
1.1491 4.6733 -0.9937 0.9805
0.9433 4.7195 -0.9938 0.9805
0.8050 4.7454 -0.9938 0.9805
0.7356 4.7568 -0.9939 0.9805
0.6661 4.7671 -0.9939 0.9805
0.2461 4.8080 -0.9941 0.9805
0.1055 4.8134 -0.9941 0.9805
-0.0352 4.8147 -0.9942 0.9805
-0.1758 4.8119 -0.9942 0.9805
-0.3164 4.8050 -0.9943 0.9805
-0.3866 4.8000 -0.9943 0.9805
-0.5267 4.7869 -0.9944 0.9805
-0.5966 4.7789 -0.9944 0.9805
-0.6664 4.7697 -0.9944 0.9805
-0.7360 4.7596 -0.9945 0.9805
-0.8748 4.7364 -0.9945 0.9805
-0.9440 4.7232 -0.9946 0.9805
-1.0129 4.7091 -0.9946 0.9805
-1.0816 4.6939 -0.9946 0.9805
-1.2184 4.6605 -0.9947 0.9805
-1.3542 4.6232 -0.9947 0.9805
-1.4216 4.6030 -0.9948 0.9805
-1.5556 4.5598 -0.9948 0.9805
-1.6883 4.5127 -0.9949 0.9805
-1.7541 4.4876 -0.9949 0.9805
-1.8845 4.4347 -0.9949 0.9805
-2.0134 4.3780 -0.9950 0.9805
-2.0772 4.3482 -0.9950 0.9805
-2.2035 4.2859 -0.9951 0.9805
-2.3279 4.2198 -0.9951 0.9805
-0.4156 0.7281 -0.1731 0.9966
-0.3545 0.5623 -0.1373 0.9973
-0.3568 0.5479 -0.1350 0.9973
-0.3628 0.5070 -0.1287 0.9975
-0.3645 0.4941 -0.1268 0.9975
-0.3662 0.4815 -0.1249 0.9975
-0.3678 0.4692 -0.1231 0.9976
-0.3707 0.4455 -0.1197 0.9976
-0.3733 0.4228 -0.1165 0.9977
-0.3759 0.4015 -0.1136 0.9978
-0.3778 0.3918 -0.1124 0.9978
-0.3814 0.3731 -0.1102 0.9978
-0.3831 0.3640 -0.1091 0.9978
-0.3853 0.3452 -0.1068 0.9979
-0.3862 0.3360 -0.1057 0.9979
-0.3880 0.3181 -0.1036 0.9980
-0.3903 0.2923 -0.1007 0.9980
-0.3922 0.2678 -0.0981 0.9981
-0.3932 0.2519 -0.0964 0.9981
-0.3936 0.2442 -0.0957 0.9981
-0.3940 0.2365 -0.0949 0.9981
-0.3947 0.2215 -0.0935 0.9982
-0.3951 0.2141 -0.0928 0.9982
-0.3953 0.2069 -0.0921 0.9982
-0.3955 0.1997 -0.0915 0.9982
-0.3957 0.1926 -0.0909 0.9982
-0.3962 0.1857 -0.0904 0.9982
-0.3967 0.1789 -0.0899 0.9982
-0.3971 0.1722 -0.0894 0.9982
-0.3975 0.1655 -0.0889 0.9982
-0.3979 0.1589 -0.0885 0.9983
-0.3982 0.1523 -0.0880 0.9983
-0.3985 0.1458 -0.0876 0.9983
-0.3995 0.1202 -0.0861 0.9983
-0.3998 0.1139 -0.0858 0.9983
-0.4002 0.1015 -0.0853 0.9983
-0.4003 0.0954 -0.0850 0.9983
-0.4004 0.0892 -0.0847 0.9983
-0.4005 0.0831 -0.0845 0.9983
-0.4003 0.0589 -0.0836 0.9983
-0.3998 0.0410 -0.0830 0.9984
-0.3988 0.0233 -0.0825 0.9984
-0.3976 0.0058 -0.0821 0.9984
-0.3900 -0.0000 -0.0850 0.9984
-0.3903 -0.0057 -0.0851 0.9984
-0.3910 -0.0172 -0.0853 0.9984
-0.3918 -0.0345 -0.0858 0.9984
-0.3923 -0.0519 -0.0863 0.9984
-0.3924 -0.0578 -0.0865 0.9984
-0.3925 -0.0636 -0.0867 0.9984
-0.3926 -0.0755 -0.0872 0.9984
-0.3923 -0.1057 -0.0886 0.9983
-0.3920 -0.1180 -0.0893 0.9983
-0.3916 -0.1304 -0.0900 0.9983
-0.3903 -0.1559 -0.0916 0.9983
-0.3894 -0.1689 -0.0926 0.9983
-0.3890 -0.1755 -0.0931 0.9983
-0.3878 -0.1887 -0.0941 0.9982
-0.3864 -0.2169 -0.0966 0.9982
-0.3860 -0.2241 -0.0973 0.9982
-0.3856 -0.2315 -0.0981 0.9982
-0.3846 -0.2465 -0.0996 0.9981
-0.3841 -0.2541 -0.1004 0.9981
-0.3835 -0.2619 -0.1013 0.9981
-0.3829 -0.2697 -0.1021 0.9981
-0.3822 -0.2777 -0.1030 0.9981
-0.3807 -0.2939 -0.1049 0.9980
-0.3790 -0.3107 -0.1069 0.9980
-0.3771 -0.3280 -0.1090 0.9980
-0.3737 -0.3551 -0.1124 0.9979
-0.3722 -0.3642 -0.1136 0.9979
-0.3665 -0.3914 -0.1169 0.9978
-0.3645 -0.4009 -0.1182 0.9978
-0.3608 -0.4209 -0.1209 0.9977
-0.3508 -0.4904 -0.1315 0.9975
-0.3445 -0.5291 -0.1377 0.9974
-0.3422 -0.5427 -0.1399 0.9974
-0.3397 -0.5566 -0.1422 0.9973
-0.3420 -0.5792 -0.1467 0.9973
-0.3769 -0.6833 -0.1702 0.9968
-1.3407 -2.6077 -0.6394 0.9881
-1.1354 -2.4688 -0.5926 0.9889
-1.0915 -2.4677 -0.5884 0.9890
-1.0165 -2.3920 -0.5667 0.9894
-0.9791 -2.4009 -0.5654 0.9894
-0.9049 -2.4189 -0.5632 0.9895
-0.8315 -2.4373 -0.5616 0.9895
-0.6121 -2.3415 -0.5278 0.9901
-0.5391 -2.3393 -0.5235 0.9902
-0.5098 -2.3700 -0.5286 0.9901
-0.4413 -2.3893 -0.5298 0.9901
-0.3725 -2.4089 -0.5315 0.9901
-0.2700 -2.4537 -0.5383 0.9899
-0.2301 -2.4158 -0.5292 0.9901
-0.0930 -2.5443 -0.5552 0.9896
-0.0333 -4.5590 -0.9942 0.9815
0.0333 -4.5589 -0.9942 0.9815
0.0999 -4.5578 -0.9941 0.9815
0.2330 -4.5528 -0.9941 0.9815
0.2996 -4.5487 -0.9941 0.9815
0.4323 -4.5377 -0.9940 0.9815
0.4985 -4.5309 -0.9940 0.9815
0.6307 -4.5141 -0.9939 0.9815
0.8278 -4.4818 -0.9938 0.9815
0.8932 -4.4690 -0.9938 0.9815
0.9584 -4.4554 -0.9938 0.9815
1.0233 -4.4408 -0.9938 0.9815
1.0881 -4.4253 -0.9937 0.9815
1.1526 -4.4088 -0.9937 0.9815
1.5964 -4.2673 -0.9935 0.9815
1.6586 -4.2434 -0.9935 0.9815
2.0235 -4.0812 -0.9934 0.9815
2.0829 -4.0511 -0.9933 0.9815
2.2582 -3.9557 -0.9933 0.9815
2.3727 -3.8878 -0.9932 0.9815
2.4471 -3.7582 -0.9779 0.9818
2.7146 -3.5691 -0.9778 0.9818
2.3065 -2.9423 -0.8153 0.9848
2.3877 -2.8691 -0.8140 0.9848
2.4282 -2.8325 -0.8136 0.9848
2.5496 -2.7230 -0.8134 0.9848
3.1586 -3.1817 -0.9776 0.9818
3.2047 -3.1352 -0.9776 0.9818
3.2501 -3.0880 -0.9776 0.9818
3.3388 -2.9916 -0.9776 0.9818
3.3821 -2.9424 -0.9776 0.9818
3.4247 -2.8927 -0.9775 0.9818
3.4665 -2.8422 -0.9775 0.9818
3.5076 -2.7912 -0.9775 0.9818
3.5479 -2.7396 -0.9775 0.9818
3.6264 -2.6347 -0.9775 0.9818
3.7017 -2.5276 -0.9774 0.9818
3.7738 -2.4183 -0.9774 0.9818
3.8087 -2.3628 -0.9774 0.9818
4.0007 -2.0201 -0.9773 0.9818
4.0714 -1.9816 -0.9874 0.9816
4.1210 -1.9319 -0.9925 0.9815
4.1757 -1.8106 -0.9925 0.9815
4.2267 -1.6877 -0.9924 0.9815
4.3179 -1.4379 -0.9924 0.9815
4.4112 -1.1189 -0.9924 0.9815
4.4270 -1.0543 -0.9924 0.9815
4.4689 -0.8593 -0.9923 0.9815
4.4809 -0.7938 -0.9923 0.9815
4.4920 -0.7283 -0.9923 0.9815
4.5022 -0.6626 -0.9923 0.9815
4.5268 -0.4647 -0.9923 0.9815
4.5429 -0.2659 -0.9923 0.9815
4.5462 -0.1995 -0.9923 0.9815
4.5487 -0.1330 -0.9923 0.9815
4.5501 -0.0665 -0.9923 0.9815
4.5501 0.0664 -0.9923 0.9815
4.5428 0.2658 -0.9923 0.9815
4.5113 0.5967 -0.9923 0.9815
4.5022 0.6625 -0.9923 0.9815
4.4920 0.7283 -0.9923 0.9815
4.4809 0.7938 -0.9923 0.9815
4.4558 0.9245 -0.9924 0.9815
4.4419 0.9894 -0.9924 0.9815
4.4270 1.0543 -0.9924 0.9815
4.2965 1.5009 -0.9924 0.9815
4.2267 1.6877 -0.9924 0.9815
4.2016 1.7494 -0.9925 0.9815
4.1488 1.8714 -0.9925 0.9815
3.9693 2.2276 -0.9926 0.9815
3.9364 2.2854 -0.9926 0.9815
3.7593 2.5668 -0.9926 0.9815
3.7214 2.6216 -0.9927 0.9815
3.5204 2.8864 -0.9927 0.9815
3.4779 2.9376 -0.9928 0.9815
3.3461 3.0874 -0.9928 0.9815
3.3007 3.1360 -0.9928 0.9815
3.1121 3.3237 -0.9929 0.9815
2.9636 3.4571 -0.9930 0.9815
2.8094 3.5839 -0.9930 0.9815
2.7036 3.6646 -0.9931 0.9815
2.6498 3.7038 -0.9931 0.9815
2.5406 3.7798 -0.9931 0.9815
2.4852 3.8166 -0.9932 0.9815
2.4292 3.8526 -0.9932 0.9815
2.3727 3.8878 -0.9932 0.9815
2.2002 3.9883 -0.9933 0.9815
2.1418 4.0201 -0.9933 0.9815
2.0829 4.0511 -0.9933 0.9815
2.0235 4.0812 -0.9933 0.9815
1.9637 4.1105 -0.9934 0.9815
1.9035 4.1388 -0.9934 0.9815
1.7818 4.1929 -0.9934 0.9815
1.6586 4.2434 -0.9935 0.9815
1.5340 4.2902 -0.9935 0.9815
1.3446 4.3537 -0.9936 0.9815
1.2809 4.3729 -0.9936 0.9815
1.0233 4.4408 -0.9938 0.9815
0.9584 4.4554 -0.9938 0.9815
0.8278 4.4817 -0.9938 0.9815
0.7623 4.4934 -0.9939 0.9815
0.6965 4.5042 -0.9939 0.9815
0.6307 4.5141 -0.9939 0.9815
0.4986 4.5308 -0.9940 0.9815
0.2330 4.5527 -0.9941 0.9815
0.1665 4.5558 -0.9941 0.9815
0.0999 4.5578 -0.9941 0.9815
-0.0333 4.5590 -0.9942 0.9815
-0.0999 4.5582 -0.9942 0.9815
-0.1665 4.5563 -0.9942 0.9815
-0.2996 4.5498 -0.9943 0.9815
-0.3661 4.5450 -0.9943 0.9815
-0.4324 4.5393 -0.9943 0.9815
-0.6310 4.5164 -0.9944 0.9815
-0.6970 4.5068 -0.9945 0.9815
-0.8284 4.4848 -0.9945 0.9815
-0.9591 4.4589 -0.9946 0.9815
-1.0890 4.4292 -0.9946 0.9815
-1.2180 4.3957 -0.9947 0.9815
-1.2822 4.3775 -0.9947 0.9815
-1.4097 4.3384 -0.9947 0.9815
-1.4729 4.3175 -0.9948 0.9815
-1.5985 4.2729 -0.9948 0.9815
-1.7228 4.2245 -0.9949 0.9815
-1.7844 4.1990 -0.9949 0.9815
-1.9668 4.1171 -0.9950 0.9815
-2.0268 4.0880 -0.9950 0.9815
-2.0864 4.0580 -0.9950 0.9815
-0.3582 0.6276 -0.1576 0.9970
-0.3420 0.5793 -0.1467 0.9972
-0.3422 0.5427 -0.1399 0.9974
-0.3445 0.5291 -0.1377 0.9974
-0.3488 0.5030 -0.1335 0.9975
-0.3508 0.4904 -0.1315 0.9975
-0.3545 0.4662 -0.1277 0.9976
-0.3579 0.4430 -0.1242 0.9977
-0.3594 0.4318 -0.1225 0.9977
-0.3608 0.4209 -0.1209 0.9977
-0.3703 0.3730 -0.1146 0.9979
-0.3722 0.3641 -0.1136 0.9979
-0.3738 0.3551 -0.1124 0.9979
-0.3749 0.3459 -0.1112 0.9979
-0.3790 0.3107 -0.1069 0.9980
-0.3798 0.3023 -0.1059 0.9980
-0.3807 0.2939 -0.1049 0.9980
-0.3822 0.2777 -0.1030 0.9981
-0.3829 0.2697 -0.1021 0.9981
-0.3841 0.2541 -0.1004 0.9981
-0.3846 0.2464 -0.0996 0.9981
-0.3852 0.2389 -0.0988 0.9981
-0.3856 0.2315 -0.0981 0.9982
-0.3861 0.2241 -0.0973 0.9982
-0.3868 0.2097 -0.0959 0.9982
-0.3878 0.1887 -0.0941 0.9982
-0.3885 0.1821 -0.0936 0.9982
-0.3890 0.1755 -0.0931 0.9983
-0.3903 0.1558 -0.0916 0.9983
-0.3906 0.1494 -0.0912 0.9983
-0.3910 0.1430 -0.0908 0.9983
-0.3913 0.1367 -0.0904 0.9983
-0.3916 0.1304 -0.0900 0.9983
-0.3918 0.1241 -0.0896 0.9983
-0.3920 0.1179 -0.0893 0.9983
-0.3922 0.1118 -0.0889 0.9983
-0.3924 0.0995 -0.0883 0.9983
-0.3925 0.0935 -0.0880 0.9983
-0.3926 0.0874 -0.0877 0.9984
-0.3926 0.0815 -0.0874 0.9984
-0.3926 0.0695 -0.0869 0.9984
-0.3925 0.0636 -0.0867 0.9984
-0.3923 0.0519 -0.0863 0.9984
-0.3921 0.0460 -0.0861 0.9984
-0.3918 0.0344 -0.0858 0.9984
-0.3915 0.0287 -0.0856 0.9984
-0.3913 0.0229 -0.0855 0.9984
-0.3835 -0.0056 -0.0881 0.9984
-0.3838 -0.0113 -0.0882 0.9984
-0.3841 -0.0169 -0.0883 0.9984
-0.3846 -0.0282 -0.0886 0.9984
-0.3854 -0.0568 -0.0895 0.9984
-0.3855 -0.0625 -0.0897 0.9984
-0.3855 -0.0683 -0.0899 0.9984
-0.3855 -0.0741 -0.0902 0.9984
-0.3855 -0.0859 -0.0907 0.9984
-0.3853 -0.0977 -0.0913 0.9984
-0.3851 -0.1037 -0.0916 0.9984
-0.3850 -0.1098 -0.0920 0.9984
-0.3848 -0.1158 -0.0923 0.9984
-0.3846 -0.1219 -0.0927 0.9983
-0.3843 -0.1280 -0.0930 0.9983
-0.3829 -0.1529 -0.0947 0.9983
-0.3825 -0.1593 -0.0952 0.9983
-0.3820 -0.1657 -0.0957 0.9983
-0.3816 -0.1721 -0.0961 0.9983
-0.3810 -0.1786 -0.0967 0.9983
-0.3803 -0.1852 -0.0972 0.9983
-0.3795 -0.1916 -0.0977 0.9983
-0.3792 -0.1985 -0.0983 0.9982
-0.3784 -0.2124 -0.0997 0.9982
-0.3758 -0.2487 -0.1035 0.9982
-0.3752 -0.2562 -0.1044 0.9981
-0.3729 -0.2795 -0.1070 0.9981
-0.3703 -0.3036 -0.1100 0.9980
-0.3683 -0.3204 -0.1121 0.9980
-0.3660 -0.3377 -0.1144 0.9980
-0.3647 -0.3466 -0.1156 0.9979
-0.3634 -0.3556 -0.1168 0.9979
-0.3616 -0.3642 -0.1179 0.9979
-0.3596 -0.3730 -0.1190 0.9979
-0.3534 -0.4002 -0.1226 0.9978
-0.3471 -0.4296 -0.1269 0.9977
-0.3454 -0.4406 -0.1286 0.9977
-0.3435 -0.4517 -0.1304 0.9977
-0.3376 -0.4867 -0.1361 0.9976
-0.3354 -0.4990 -0.1381 0.9975
-0.3225 -0.5650 -0.1494 0.9973
-0.3492 -0.6555 -0.1706 0.9970
-0.3673 -0.7145 -0.1845 0.9967
-1.1446 -2.3961 -0.6100 0.9892
-1.0673 -2.4130 -0.6061 0.9892
-1.0291 -2.4218 -0.6044 0.9893
-0.9162 -2.4489 -0.6006 0.9893
-0.8362 -2.4512 -0.5949 0.9894
-0.7283 -2.3581 -0.5669 0.9899
-0.6973 -2.3807 -0.5698 0.9899
-0.6661 -2.4039 -0.5730 0.9898
-0.6147 -2.3516 -0.5583 0.9901
-0.5322 -2.1647 -0.5120 0.9909
-0.5463 -2.3707 -0.5588 0.9901
-0.4776 -2.3899 -0.5598 0.9900
-0.4432 -2.3996 -0.5605 0.9900
-0.2599 -2.3624 -0.5459 0.9903
-0.2217 -2.3273 -0.5370 0.9905
-0.1641 -2.4926 -0.5738 0.9898
-0.1269 -2.4787 -0.5701 0.9899
-0.0537 -2.4504 -0.5630 0.9900
0.0317 -4.3280 -0.9942 0.9824
0.1581 -4.3250 -0.9941 0.9824
0.2844 -4.3183 -0.9941 0.9824
0.3474 -4.3136 -0.9940 0.9824
0.4104 -4.3079 -0.9940 0.9824
0.4733 -4.3013 -0.9940 0.9824
0.5361 -4.2938 -0.9940 0.9824
0.8480 -4.2427 -0.9938 0.9824
0.9099 -4.2298 -0.9938 0.9824
1.4563 -4.0730 -0.9936 0.9824
1.5156 -4.0512 -0.9936 0.9824
1.6916 -3.9806 -0.9935 0.9824
1.7495 -3.9554 -0.9935 0.9824
1.8071 -3.9293 -0.9934 0.9824
1.8643 -3.9024 -0.9934 0.9824
2.0569 -3.7284 -0.9781 0.9827
2.1648 -3.6666 -0.9781 0.9827
2.2181 -3.6345 -0.9780 0.9827
2.2709 -3.6016 -0.9780 0.9827
2.3232 -3.5680 -0.9780 0.9827
2.3751 -3.5336 -0.9780 0.9827
2.4264 -3.4984 -0.9779 0.9827
2.3065 -2.9423 -0.8588 0.9848
2.3472 -2.9057 -0.8580 0.9848
2.4687 -2.7960 -0.8567 0.9848
2.5091 -2.7595 -0.8567 0.9848
2.9988 -3.0208 -0.9777 0.9827
3.0425 -2.9766 -0.9777 0.9827
3.0856 -2.9317 -0.9777 0.9827
3.1281 -2.8863 -0.9777 0.9827
3.2514 -2.7463 -0.9776 0.9827
3.3684 -2.6011 -0.9776 0.9827
3.4429 -2.5015 -0.9775 0.9827
3.5144 -2.3997 -0.9775 0.9827
3.5829 -2.2959 -0.9775 0.9827
3.6161 -2.2433 -0.9775 0.9827
3.7108 -2.0826 -0.9774 0.9827
3.7407 -2.0281 -0.9774 0.9827
3.7985 -1.9882 -0.9848 0.9826
3.9126 -1.8341 -0.9926 0.9824
3.9390 -1.7768 -0.9926 0.9824
3.9645 -1.7190 -0.9926 0.9824
4.0129 -1.6024 -0.9925 0.9824
4.0358 -1.5436 -0.9925 0.9824
4.0579 -1.4845 -0.9925 0.9824
4.0791 -1.4250 -0.9925 0.9824
4.0995 -1.3652 -0.9925 0.9824
4.1721 -1.1234 -0.9925 0.9824
4.1881 -1.0623 -0.9925 0.9824
4.2172 -0.9395 -0.9925 0.9824
4.2543 -0.7537 -0.9924 0.9824
4.2745 -0.6291 -0.9924 0.9824
4.2910 -0.5039 -0.9924 0.9824
4.3039 -0.3783 -0.9924 0.9824
4.3163 -0.1893 -0.9924 0.9824
4.3186 -0.1263 -0.9924 0.9824
4.3200 -0.0632 -0.9924 0.9824
4.3163 0.1893 -0.9924 0.9824
4.3039 0.3783 -0.9924 0.9824
4.2979 0.4412 -0.9924 0.9824
4.2910 0.5039 -0.9924 0.9824
4.2745 0.6291 -0.9924 0.9824
4.2429 0.8158 -0.9924 0.9824
4.1880 1.0623 -0.9925 0.9824
4.1721 1.1233 -0.9925 0.9824
4.1553 1.1842 -0.9925 0.9824
4.1376 1.2448 -0.9925 0.9824
4.1190 1.3052 -0.9925 0.9824
4.0995 1.3652 -0.9925 0.9824
4.0579 1.4844 -0.9925 0.9824
4.0358 1.5436 -0.9925 0.9824
3.9891 1.6608 -0.9925 0.9824
3.9126 1.8341 -0.9926 0.9824
3.8574 1.9477 -0.9926 0.9824
3.7989 2.0596 -0.9926 0.9824
3.7685 2.1149 -0.9926 0.9824
3.6723 2.2782 -0.9927 0.9824
3.6387 2.3316 -0.9927 0.9824
3.6043 2.3846 -0.9927 0.9824
3.5691 2.4370 -0.9927 0.9824
3.4965 2.5403 -0.9927 0.9824
3.4209 2.6415 -0.9928 0.9824
3.3020 2.7890 -0.9928 0.9824
3.2192 2.8844 -0.9929 0.9824
3.1337 2.9773 -0.9929 0.9824
3.0899 3.0229 -0.9929 0.9824
3.0454 3.0677 -0.9929 0.9824
2.9546 3.1555 -0.9930 0.9824
2.8137 3.2822 -0.9930 0.9824
2.6173 3.4412 -0.9931 0.9824
2.5668 3.4791 -0.9931 0.9824
2.4641 3.5528 -0.9932 0.9824
2.4120 3.5885 -0.9932 0.9824
2.3594 3.6234 -0.9932 0.9824
2.3062 3.6577 -0.9932 0.9824
2.1439 3.7554 -0.9933 0.9824
2.0888 3.7864 -0.9933 0.9824
1.9774 3.8460 -0.9934 0.9824
1.9211 3.8746 -0.9934 0.9824
1.8643 3.9023 -0.9934 0.9824
1.8071 3.9293 -0.9934 0.9824
1.7495 3.9554 -0.9935 0.9824
1.6916 3.9805 -0.9935 0.9824
1.6333 4.0050 -0.9935 0.9824
1.5746 4.0285 -0.9935 0.9824
1.5156 4.0512 -0.9936 0.9824
1.3967 4.0940 -0.9936 0.9824
1.3367 4.1140 -0.9936 0.9824
1.2765 4.1332 -0.9937 0.9824
1.2160 4.1515 -0.9937 0.9824
1.0942 4.1855 -0.9937 0.9824
1.0330 4.2012 -0.9938 0.9824
0.9715 4.2159 -0.9938 0.9824
0.9098 4.2297 -0.9938 0.9824
0.8479 4.2427 -0.9938 0.9824
0.7237 4.2659 -0.9939 0.9824
0.6613 4.2761 -0.9939 0.9824
0.5361 4.2938 -0.9940 0.9824
0.4733 4.3013 -0.9940 0.9824
0.3474 4.3135 -0.9940 0.9824
0.2213 4.3220 -0.9941 0.9824
0.0949 4.3269 -0.9941 0.9824
-0.2844 4.3193 -0.9943 0.9824
-0.4105 4.3093 -0.9943 0.9824
-0.6616 4.2784 -0.9944 0.9824
-0.7241 4.2684 -0.9945 0.9824
-0.9105 4.2329 -0.9945 0.9824
-1.0339 4.2047 -0.9946 0.9824
-1.2172 4.1556 -0.9947 0.9824
-1.2778 4.1375 -0.9947 0.9824
-1.3382 4.1185 -0.9947 0.9824
-1.4580 4.0779 -0.9948 0.9824
-1.5175 4.0562 -0.9948 0.9824
-1.5766 4.0337 -0.9948 0.9824
-1.6939 3.9861 -0.9949 0.9824
-1.8098 3.9351 -0.9949 0.9824
-0.3335 0.6046 -0.1586 0.9972
-0.3225 0.5649 -0.1494 0.9973
-0.3330 0.5115 -0.1402 0.9975
-0.3436 0.4517 -0.1304 0.9977
-0.3471 0.4296 -0.1269 0.9977
-0.3489 0.4192 -0.1253 0.9978
-0.3575 0.3818 -0.1201 0.9979
-0.3595 0.3729 -0.1190 0.9979
-0.3635 0.3556 -0.1168 0.9979
-0.3648 0.3466 -0.1156 0.9979
-0.3660 0.3377 -0.1144 0.9980
-0.3682 0.3204 -0.1121 0.9980
-0.3693 0.3120 -0.1110 0.9980
-0.3703 0.3036 -0.1100 0.9980
-0.3721 0.2873 -0.1080 0.9981
-0.3738 0.2716 -0.1061 0.9981
-0.3745 0.2638 -0.1052 0.9981
-0.3758 0.2487 -0.1035 0.9982
-0.3764 0.2412 -0.1027 0.9982
-0.3784 0.2124 -0.0997 0.9982
-0.3788 0.2054 -0.0990 0.9982
-0.3810 0.1786 -0.0967 0.9983
-0.3837 0.1403 -0.0938 0.9983
-0.3840 0.1341 -0.0934 0.9983
-0.3846 0.1218 -0.0927 0.9983
-0.3850 0.1097 -0.0920 0.9984
-0.3855 0.0859 -0.0907 0.9984
-0.3855 0.0683 -0.0899 0.9984
-0.3855 0.0625 -0.0897 0.9984
-0.3854 0.0567 -0.0895 0.9984
-0.3850 0.0395 -0.0889 0.9984
-0.3848 0.0338 -0.0887 0.9984
-0.3846 0.0281 -0.0886 0.9984
-0.3844 0.0225 -0.0884 0.9984
-0.3841 0.0168 -0.0883 0.9984
-0.3838 0.0112 -0.0882 0.9984
-0.3769 -0.0055 -0.0910 0.9985
-0.3771 -0.0111 -0.0911 0.9984
-0.3775 -0.0166 -0.0912 0.9984
-0.3777 -0.0221 -0.0913 0.9984
-0.3781 -0.0333 -0.0916 0.9984
-0.3784 -0.0445 -0.0920 0.9984
-0.3785 -0.0501 -0.0922 0.9984
-0.3787 -0.0614 -0.0926 0.9984
-0.3787 -0.0671 -0.0928 0.9984
-0.3787 -0.0728 -0.0931 0.9984
-0.3787 -0.0786 -0.0934 0.9984
-0.3786 -0.0844 -0.0936 0.9984
-0.3784 -0.0960 -0.0942 0.9984
-0.3782 -0.1019 -0.0946 0.9984
-0.3780 -0.1078 -0.0949 0.9984
-0.3775 -0.1197 -0.0956 0.9984
-0.3770 -0.1317 -0.0964 0.9984
-0.3766 -0.1378 -0.0968 0.9984
-0.3762 -0.1439 -0.0972 0.9983
-0.3744 -0.1689 -0.0991 0.9983
-0.3738 -0.1752 -0.0997 0.9983
-0.3730 -0.1816 -0.1002 0.9983
-0.3722 -0.1880 -0.1007 0.9983
-0.3716 -0.1945 -0.1012 0.9983
-0.3712 -0.2013 -0.1019 0.9983
-0.3707 -0.2080 -0.1026 0.9983
-0.3702 -0.2150 -0.1033 0.9982
-0.3697 -0.2220 -0.1041 0.9982
-0.3691 -0.2290 -0.1049 0.9982
-0.3679 -0.2434 -0.1065 0.9982
-0.3672 -0.2507 -0.1073 0.9982
-0.3648 -0.2733 -0.1100 0.9981
-0.3639 -0.2810 -0.1110 0.9981
-0.3630 -0.2889 -0.1120 0.9981
-0.3609 -0.3049 -0.1141 0.9981
-0.3587 -0.3214 -0.1163 0.9980
-0.3575 -0.3298 -0.1174 0.9980
-0.3562 -0.3384 -0.1186 0.9980
-0.3548 -0.3471 -0.1198 0.9980
-0.3531 -0.3557 -0.1210 0.9979
-0.3490 -0.3727 -0.1233 0.9979
-0.3468 -0.3814 -0.1244 0.9979
-0.3401 -0.4087 -0.1284 0.9978
-0.3377 -0.4181 -0.1297 0.9978
-0.3352 -0.4277 -0.1312 0.9978
-0.3332 -0.4380 -0.1329 0.9977
-0.3291 -0.4601 -0.1365 0.9977
-0.3222 -0.4949 -0.1426 0.9976
-0.3197 -0.5071 -0.1447 0.9975
-0.3237 -0.6296 -0.1709 0.9971
-0.3387 -0.6832 -0.1841 0.9969
-0.3560 -0.7454 -0.1994 0.9966
-1.0674 -2.4132 -0.6370 0.9892
-0.8679 -2.4276 -0.6223 0.9894
-0.8102 -2.4936 -0.6329 0.9893
-0.7451 -2.4126 -0.6095 0.9897
-0.5430 -2.2084 -0.5490 0.9907
-0.5142 -2.3906 -0.5903 0.9900
-0.4452 -2.4101 -0.5916 0.9900
-0.4095 -2.4142 -0.5911 0.9900
-0.3275 -2.3441 -0.5714 0.9903
-0.2325 -2.4411 -0.5920 0.9900
-0.1591 -2.4156 -0.5844 0.9901
-0.1229 -2.4025 -0.5807 0.9901
0.0172 -2.3489 -0.5670 0.9904
0.0512 -2.3351 -0.5638 0.9904
0.1504 -4.1154 -0.9941 0.9832
0.2105 -4.1127 -0.9941 0.9832
0.3306 -4.1046 -0.9940 0.9832
0.5101 -4.0859 -0.9940 0.9832
0.6293 -4.0690 -0.9939 0.9832
0.6886 -4.0593 -0.9939 0.9832
0.7479 -4.0487 -0.9939 0.9832
0.9830 -3.9977 -0.9938 0.9832
1.0412 -3.9829 -0.9938 0.9832
1.0993 -3.9671 -0.9937 0.9832
1.1571 -3.9505 -0.9937 0.9832
1.2147 -3.9330 -0.9937 0.9832
1.2720 -3.9148 -0.9937 0.9832
1.3291 -3.8957 -0.9936 0.9832
1.4201 -3.7959 -0.9784 0.9835
1.5304 -3.7527 -0.9783 0.9835
1.6932 -3.6817 -0.9782 0.9835
1.8000 -3.6305 -0.9782 0.9835
1.8528 -3.6037 -0.9782 0.9835
2.2108 -3.3953 -0.9780 0.9835
2.3573 -3.2948 -0.9780 0.9835
2.4052 -3.2600 -0.9780 0.9835
2.3065 -2.9423 -0.9025 0.9847
2.3876 -2.8691 -0.9010 0.9848
2.4686 -2.7960 -0.9004 0.9848
2.8114 -2.9161 -0.9778 0.9835
2.8537 -2.8746 -0.9778 0.9835
2.9363 -2.7898 -0.9777 0.9835
3.0556 -2.6584 -0.9777 0.9835
3.1319 -2.5679 -0.9777 0.9835
3.2055 -2.4752 -0.9776 0.9835
3.2413 -2.4280 -0.9776 0.9835
3.2763 -2.3804 -0.9776 0.9835
3.3444 -2.2836 -0.9776 0.9835
3.3774 -2.2344 -0.9776 0.9835
3.4096 -2.1848 -0.9775 0.9835
3.4411 -2.1348 -0.9775 0.9835
3.5019 -2.0332 -0.9775 0.9835
3.5513 -1.9931 -0.9831 0.9834
3.6434 -1.9070 -0.9927 0.9832
3.7233 -1.7454 -0.9927 0.9832
3.8406 -1.4689 -0.9926 0.9832
3.8818 -1.3560 -0.9926 0.9832
3.9012 -1.2992 -0.9926 0.9832
3.9374 -1.1846 -0.9926 0.9832
3.9543 -1.1270 -0.9926 0.9832
3.9703 -1.0690 -0.9926 0.9832
3.9998 -0.9525 -0.9925 0.9832
4.0133 -0.8940 -0.9925 0.9832
4.0259 -0.8353 -0.9925 0.9832
4.0485 -0.7173 -0.9925 0.9832
4.0760 -0.5391 -0.9925 0.9832
4.0835 -0.4795 -0.9925 0.9832
4.0900 -0.4198 -0.9925 0.9832
4.0957 -0.3600 -0.9925 0.9832
4.1045 -0.2402 -0.9925 0.9832
4.1097 0.1201 -0.9925 0.9832
4.0900 0.4198 -0.9925 0.9832
4.0835 0.4795 -0.9925 0.9832
4.0760 0.5391 -0.9925 0.9832
4.0677 0.5986 -0.9925 0.9832
4.0586 0.6580 -0.9925 0.9832
4.0376 0.7763 -0.9925 0.9832
4.0259 0.8352 -0.9925 0.9832
3.9855 1.0109 -0.9925 0.9832
3.9703 1.0690 -0.9926 0.9832
3.9543 1.1269 -0.9926 0.9832
3.9374 1.1846 -0.9926 0.9832
3.9197 1.2420 -0.9926 0.9832
3.8818 1.3560 -0.9926 0.9832
3.8616 1.4126 -0.9926 0.9832
3.7961 1.5805 -0.9926 0.9832
3.7484 1.6908 -0.9926 0.9832
3.7233 1.7454 -0.9927 0.9832
3.6974 1.7996 -0.9927 0.9832
3.6434 1.9070 -0.9927 0.9832
3.6152 1.9600 -0.9927 0.9832
3.5862 2.0126 -0.9927 0.9832
3.5564 2.0648 -0.9927 0.9832
3.4946 2.1679 -0.9927 0.9832
3.4626 2.2188 -0.9928 0.9832
3.4299 2.2692 -0.9928 0.9832
3.2553 2.5137 -0.9928 0.9832
3.2183 2.5610 -0.9929 0.9832
3.1806 2.6078 -0.9929 0.9832
3.1422 2.6541 -0.9929 0.9832
3.0634 2.7448 -0.9929 0.9832
3.0230 2.7893 -0.9929 0.9832
2.9403 2.8765 -0.9930 0.9832
2.8551 2.9614 -0.9930 0.9832
2.8116 3.0028 -0.9930 0.9832
2.7675 3.0436 -0.9930 0.9832
2.6775 3.1233 -0.9931 0.9832
