ply
format ascii 1.0
element vertex 1595
property float32 x
property float32 y
property float32 z
property float32 I
end_header
1.9574 -2.2834 -0.9781 0.9874
2.0233 -2.2252 -0.9781 0.9874
2.0555 -2.1953 -0.9781 0.9874
2.0874 -2.1650 -0.9781 0.9874
2.1496 -2.1031 -0.9781 0.9874
2.2717 -1.9763 -0.9793 0.9874
2.3616 -1.9363 -0.9932 0.9872
2.3896 -1.9016 -0.9932 0.9872
2.4171 -1.8665 -0.9932 0.9872
2.5219 -1.7220 -0.9932 0.9872
2.5949 -1.6098 -0.9931 0.9872
2.6407 -1.5332 -0.9931 0.9872
2.6629 -1.4945 -0.9931 0.9872
2.7053 -1.4160 -0.9931 0.9872
2.7833 -1.2555 -0.9930 0.9872
2.8014 -1.2147 -0.9930 0.9872
2.8356 -1.1323 -0.9930 0.9872
2.8518 -1.0907 -0.9930 0.9872
2.8674 -1.0489 -0.9930 0.9872
2.9106 -0.9223 -0.9930 0.9872
2.9238 -0.8796 -0.9930 0.9872
2.9363 -0.8368 -0.9930 0.9872
2.9482 -0.7938 -0.9930 0.9872
2.9982 -0.5765 -0.9930 0.9872
3.0322 -0.3561 -0.9929 0.9872
3.0371 -0.3117 -0.9929 0.9872
3.0413 -0.2673 -0.9929 0.9872
3.0479 -0.1784 -0.9929 0.9872
3.0501 -0.1338 -0.9929 0.9872
3.0518 -0.0892 -0.9929 0.9872
3.0531 0.0000 -0.9929 0.9872
3.0502 0.1338 -0.9929 0.9872
3.0449 0.2229 -0.9929 0.9872
3.0413 0.2673 -0.9929 0.9872
3.0137 0.4886 -0.9930 0.9872
3.0063 0.5326 -0.9930 0.9872
2.9895 0.6203 -0.9930 0.9872
2.9801 0.6639 -0.9930 0.9872
2.9595 0.7507 -0.9930 0.9872
2.9238 0.8796 -0.9930 0.9872
2.9106 0.9223 -0.9930 0.9872
2.8825 1.0070 -0.9930 0.9872
2.8356 1.1323 -0.9930 0.9872
2.8188 1.1736 -0.9930 0.9872
2.7455 1.3363 -0.9931 0.9872
2.7257 1.3763 -0.9931 0.9872
2.6844 1.4554 -0.9931 0.9872
2.6628 1.4945 -0.9931 0.9872
2.6408 1.5332 -0.9931 0.9872
2.6181 1.5717 -0.9931 0.9872
2.5219 1.7220 -0.9932 0.9872
2.4706 1.7950 -0.9932 0.9872
2.4441 1.8309 -0.9932 0.9872
2.3896 1.9016 -0.9932 0.9872
2.3616 1.9364 -0.9932 0.9872
2.3331 1.9706 -0.9932 0.9872
2.3041 2.0045 -0.9932 0.9872
2.2141 2.1037 -0.9933 0.9872
2.1831 2.1358 -0.9933 0.9872
2.1518 2.1675 -0.9933 0.9872
2.1198 2.1987 -0.9933 0.9872
2.0547 2.2598 -0.9933 0.9872
1.9879 2.3189 -0.9934 0.9872
1.9539 2.3478 -0.9934 0.9872
1.9193 2.3761 -0.9934 0.9872
1.8845 2.4040 -0.9934 0.9872
1.8491 2.4313 -0.9934 0.9872
1.7409 2.5100 -0.9935 0.9872
1.6669 2.5599 -0.9935 0.9872
1.6293 2.5841 -0.9935 0.9872
1.5531 2.6306 -0.9935 0.9872
1.5146 2.6531 -0.9936 0.9872
1.3170 2.7568 -0.9936 0.9872
1.2766 2.7758 -0.9937 0.9872
1.2359 2.7943 -0.9937 0.9872
1.1950 2.8120 -0.9937 0.9872
1.0707 2.8618 -0.9937 0.9872
1.0288 2.8772 -0.9938 0.9872
0.9443 2.9061 -0.9938 0.9872
0.8590 2.9326 -0.9938 0.9872
0.7729 2.9566 -0.9939 0.9872
0.7297 2.9676 -0.9939 0.9872
0.6427 2.9877 -0.9939 0.9872
0.5990 2.9968 -0.9939 0.9872
0.5551 3.0054 -0.9940 0.9872
0.5111 3.0132 -0.9940 0.9872
0.4671 3.0204 -0.9940 0.9872
0.3343 3.0381 -0.9940 0.9872
0.2899 3.0428 -0.9941 0.9872
0.2454 3.0468 -0.9941 0.9872
0.2008 3.0500 -0.9941 0.9872
0.1562 3.0527 -0.9941 0.9872
-0.0223 3.0568 -0.9942 0.9872
-0.2454 3.0473 -0.9943 0.9872
-0.4673 3.0216 -0.9944 0.9872
-0.5993 2.9984 -0.9944 0.9872
-0.6430 2.9893 -0.9944 0.9872
-0.7301 2.9694 -0.9945 0.9872
-0.8166 2.9469 -0.9945 0.9872
-0.2055 0.6655 -0.2265 0.9971
-0.2019 0.6213 -0.2125 0.9973
-0.1985 0.5820 -0.2000 0.9974
-0.2010 0.5623 -0.1942 0.9975
-0.2060 0.5506 -0.1912 0.9975
-0.2198 0.5172 -0.1828 0.9976
-0.2240 0.5065 -0.1801 0.9977
-0.2281 0.4961 -0.1776 0.9977
-0.2366 0.4772 -0.1732 0.9978
-0.2446 0.4591 -0.1692 0.9978
-0.2592 0.4246 -0.1618 0.9979
-0.2625 0.4164 -0.1601 0.9979
-0.2689 0.4000 -0.1568 0.9980
-0.2749 0.3842 -0.1536 0.9980
-0.2806 0.3690 -0.1508 0.9981
-0.2834 0.3615 -0.1494 0.9981
-0.2860 0.3541 -0.1480 0.9981
-0.2886 0.3468 -0.1467 0.9981
-0.2911 0.3396 -0.1455 0.9981
-0.2935 0.3325 -0.1442 0.9981
-0.2959 0.3254 -0.1430 0.9982
-0.3014 0.3036 -0.1391 0.9982
-0.3062 0.2826 -0.1355 0.9982
-0.3077 0.2757 -0.1344 0.9983
-0.3105 0.2623 -0.1322 0.9983
-0.3118 0.2557 -0.1311 0.9983
-0.3154 0.2362 -0.1281 0.9983
-0.3175 0.2236 -0.1263 0.9984
-0.3203 0.2052 -0.1237 0.9984
-0.3212 0.1993 -0.1229 0.9984
-0.3231 0.1876 -0.1215 0.9984
-0.3242 0.1820 -0.1209 0.9984
-0.3253 0.1764 -0.1203 0.9984
-0.3262 0.1707 -0.1198 0.9985
-0.3272 0.1652 -0.1192 0.9985
-0.3281 0.1597 -0.1187 0.9985
-0.3290 0.1542 -0.1182 0.9985
-0.3304 0.1433 -0.1171 0.9985
-0.3310 0.1379 -0.1166 0.9985
-0.3321 0.1271 -0.1157 0.9985
-0.3327 0.1217 -0.1152 0.9985
-0.3340 0.1059 -0.1139 0.9985
-0.3347 0.0954 -0.1132 0.9985
-0.3353 0.0850 -0.1125 0.9985
-0.3355 0.0799 -0.1122 0.9986
-0.3357 0.0748 -0.1119 0.9986
-0.3361 0.0596 -0.1110 0.9986
-0.3362 0.0445 -0.1103 0.9986
-0.3362 0.0395 -0.1101 0.9986
-0.3361 0.0296 -0.1097 0.9986
-0.3358 0.0197 -0.1094 0.9986
-0.3299 -0.0048 -0.1114 0.9986
-0.3303 -0.0145 -0.1116 0.9986
-0.3305 -0.0193 -0.1117 0.9986
-0.3307 -0.0291 -0.1120 0.9986
-0.3308 -0.0339 -0.1122 0.9986
-0.3308 -0.0388 -0.1124 0.9986
-0.3308 -0.0437 -0.1126 0.9986
-0.3308 -0.0487 -0.1129 0.9986
-0.3307 -0.0586 -0.1133 0.9986
-0.3305 -0.0635 -0.1136 0.9986
-0.3304 -0.0685 -0.1139 0.9986
-0.3302 -0.0736 -0.1142 0.9986
-0.3297 -0.0836 -0.1148 0.9986
-0.3295 -0.0887 -0.1152 0.9986
-0.3292 -0.0938 -0.1155 0.9986
-0.3284 -0.1040 -0.1163 0.9985
-0.3265 -0.1249 -0.1180 0.9985
-0.3233 -0.1515 -0.1205 0.9985
-0.3224 -0.1569 -0.1210 0.9985
-0.3195 -0.1732 -0.1227 0.9985
-0.3185 -0.1787 -0.1233 0.9985
-0.3174 -0.1843 -0.1239 0.9985
-0.3151 -0.1955 -0.1252 0.9984
-0.3114 -0.2194 -0.1286 0.9984
-0.3092 -0.2316 -0.1304 0.9984
-0.3068 -0.2442 -0.1324 0.9983
-0.3055 -0.2505 -0.1334 0.9983
-0.3042 -0.2570 -0.1344 0.9983
-0.3028 -0.2634 -0.1355 0.9983
-0.2999 -0.2767 -0.1377 0.9983
-0.2967 -0.2903 -0.1401 0.9982
-0.2895 -0.3184 -0.1453 0.9982
-0.2849 -0.3323 -0.1477 0.9982
-0.2656 -0.3830 -0.1573 0.9980
-0.2595 -0.3985 -0.1605 0.9980
-0.2495 -0.4225 -0.1656 0.9979
-0.2422 -0.4391 -0.1693 0.9979
-0.2385 -0.4476 -0.1712 0.9979
-0.2263 -0.4738 -0.1772 0.9978
-0.2220 -0.4828 -0.1794 0.9978
-0.2176 -0.4919 -0.1816 0.9977
-0.2040 -0.5218 -0.1891 0.9976
-0.1943 -0.5435 -0.1948 0.9976
-0.1892 -0.5547 -0.1978 0.9975
-0.1830 -0.5927 -0.2094 0.9974
-0.1852 -0.6322 -0.2223 0.9972
-0.5686 -2.8448 -0.9792 0.9878
-0.4852 -2.8600 -0.9791 0.9878
-0.3594 -2.8784 -0.9791 0.9878
-0.3173 -2.8833 -0.9791 0.9878
-0.2751 -2.8876 -0.9791 0.9878
-0.1483 -2.8967 -0.9790 0.9878
-0.1059 -2.8986 -0.9790 0.9878
-0.0636 -2.8997 -0.9790 0.9878
0.1059 -2.8983 -0.9789 0.9878
0.1906 -2.8938 -0.9789 0.9878
0.3172 -2.8826 -0.9788 0.9878
0.3593 -2.8776 -0.9788 0.9878
0.4013 -2.8720 -0.9788 0.9878
0.4850 -2.8589 -0.9787 0.9878
0.5267 -2.8514 -0.9787 0.9878
0.5683 -2.8434 -0.9787 0.9878
0.7743 -2.7941 -0.9786 0.9878
0.8555 -2.7702 -0.9786 0.9878
0.8959 -2.7573 -0.9786 0.9878
0.9361 -2.7439 -0.9786 0.9878
0.9761 -2.7299 -0.9785 0.9878
1.0554 -2.7002 -0.9785 0.9878
1.0947 -2.6843 -0.9785 0.9878
1.2496 -2.6157 -0.9784 0.9878
1.2876 -2.5971 -0.9784 0.9878
1.3254 -2.5780 -0.9784 0.9878
1.3629 -2.5583 -0.9784 0.9878
1.4737 -2.4960 -0.9783 0.9878
1.5099 -2.4742 -0.9783 0.9878
1.5816 -2.4289 -0.9783 0.9878
1.6518 -2.3816 -0.9783 0.9878
1.7207 -2.3322 -0.9782 0.9878
1.7545 -2.3068 -0.9782 0.9878
1.7880 -2.2809 -0.9782 0.9878
1.8211 -2.2545 -0.9782 0.9878
1.8539 -2.2276 -0.9782 0.9878
1.8862 -2.2003 -0.9782 0.9878
1.9181 -2.1724 -0.9782 0.9878
1.9496 -2.1442 -0.9781 0.9878
1.9807 -2.1154 -0.9781 0.9878
2.0114 -2.0862 -0.9781 0.9878
2.0714 -2.0265 -0.9781 0.9878
2.2202 -1.9316 -0.9933 0.9877
2.2481 -1.8989 -0.9933 0.9877
2.2757 -1.8658 -0.9933 0.9877
2.3026 -1.8323 -0.9932 0.9877
2.3551 -1.7642 -0.9932 0.9877
2.4541 -1.6236 -0.9932 0.9877
2.5004 -1.5511 -0.9932 0.9877
2.5659 -1.4401 -0.9931 0.9877
2.5867 -1.4024 -0.9931 0.9877
2.6265 -1.3262 -0.9931 0.9877
2.6456 -1.2877 -0.9931 0.9877
2.6641 -1.2489 -0.9931 0.9877
2.6820 -1.2098 -0.9931 0.9877
2.7480 -1.0510 -0.9931 0.9877
2.7631 -1.0107 -0.9931 0.9877
2.7775 -0.9703 -0.9930 0.9877
2.8047 -0.8887 -0.9930 0.9877
2.8174 -0.8476 -0.9930 0.9877
2.8294 -0.8064 -0.9930 0.9877
2.8409 -0.7649 -0.9930 0.9877
2.8807 -0.5977 -0.9930 0.9877
2.8891 -0.5555 -0.9930 0.9877
2.9041 -0.4709 -0.9930 0.9877
2.9307 -0.2576 -0.9930 0.9877
2.9341 -0.2148 -0.9930 0.9877
2.9369 -0.1718 -0.9930 0.9877
2.9391 -0.1289 -0.9930 0.9877
2.9369 0.1719 -0.9930 0.9877
2.9341 0.2148 -0.9930 0.9877
2.9306 0.2576 -0.9930 0.9877
2.8969 0.5132 -0.9930 0.9877
2.8891 0.5555 -0.9930 0.9877
2.8806 0.5977 -0.9930 0.9877
2.8717 0.6396 -0.9930 0.9877
2.8620 0.6816 -0.9930 0.9877
2.8517 0.7233 -0.9930 0.9877
2.8409 0.7649 -0.9930 0.9877
2.8294 0.8064 -0.9930 0.9877
2.8047 0.8887 -0.9930 0.9877
2.7775 0.9703 -0.9930 0.9877
2.7631 1.0108 -0.9931 0.9877
2.7480 1.0511 -0.9931 0.9877
2.7324 1.0911 -0.9931 0.9877
2.7162 1.1309 -0.9931 0.9877
2.6994 1.1705 -0.9931 0.9877
2.6820 1.2098 -0.9931 0.9877
2.5659 1.4401 -0.9931 0.9877
2.5446 1.4774 -0.9931 0.9877
2.5228 1.5145 -0.9932 0.9877
2.5004 1.5511 -0.9932 0.9877
2.3291 1.7985 -0.9932 0.9877
2.3026 1.8324 -0.9932 0.9877
2.2481 1.8989 -0.9933 0.9877
2.1917 1.9638 -0.9933 0.9877
2.0734 2.0886 -0.9933 0.9877
2.0116 2.1484 -0.9934 0.9877
1.9799 2.1775 -0.9934 0.9877
1.9479 2.2063 -0.9934 0.9877
1.9155 2.2345 -0.9934 0.9877
1.8827 2.2623 -0.9934 0.9877
1.7818 2.3427 -0.9935 0.9877
1.7474 2.3686 -0.9935 0.9877
1.6062 2.4667 -0.9935 0.9877
1.4966 2.5349 -0.9936 0.9876
1.4595 2.5565 -0.9936 0.9876
1.4219 2.5776 -0.9936 0.9876
1.3841 2.5981 -0.9936 0.9876
1.3460 2.6181 -0.9936 0.9876
1.2690 2.6564 -0.9937 0.9876
1.2301 2.6747 -0.9937 0.9876
1.1909 2.6925 -0.9937 0.9876
1.1515 2.7096 -0.9937 0.9876
1.0718 2.7422 -0.9937 0.9876
0.9913 2.7724 -0.9938 0.9876
0.8277 2.8258 -0.9938 0.9876
0.7031 2.8595 -0.9939 0.9876
0.6612 2.8695 -0.9939 0.9876
0.6193 2.8789 -0.9939 0.9876
0.5349 2.8959 -0.9940 0.9876
0.4925 2.9034 -0.9940 0.9876
0.4501 2.9104 -0.9940 0.9876
0.4075 2.9167 -0.9940 0.9876
0.1935 2.9389 -0.9941 0.9876
0.1505 2.9414 -0.9941 0.9876
0.0215 2.9454 -0.9942 0.9876
-0.0215 2.9455 -0.9942 0.9876
-0.1506 2.9418 -0.9942 0.9876
-0.2794 2.9325 -0.9943 0.9876
-0.3222 2.9282 -0.9943 0.9876
-0.3650 2.9232 -0.9943 0.9876
-0.4076 2.9177 -0.9943 0.9876
-0.4502 2.9114 -0.9944 0.9876
-0.5351 2.8971 -0.9944 0.9876
-0.7035 2.8611 -0.9945 0.9876
-0.7453 2.8506 -0.9945 0.9876
-0.7868 2.8395 -0.9945 0.9876
-0.1830 0.5927 -0.2094 0.9974
-0.1839 0.5661 -0.2009 0.9975
-0.1943 0.5435 -0.1948 0.9976
-0.1992 0.5326 -0.1919 0.9976
-0.2130 0.5012 -0.1838 0.9977
-0.2346 0.4562 -0.1731 0.9978
-0.2385 0.4476 -0.1712 0.9979
-0.2422 0.4391 -0.1693 0.9979
-0.2495 0.4225 -0.1656 0.9979
-0.2529 0.4144 -0.1639 0.9980
-0.2562 0.4064 -0.1622 0.9980
-0.2626 0.3907 -0.1589 0.9980
-0.2656 0.3830 -0.1573 0.9980
-0.2687 0.3755 -0.1558 0.9981
-0.2716 0.3681 -0.1544 0.9981
-0.2798 0.3464 -0.1503 0.9981
-0.2824 0.3393 -0.1490 0.9981
-0.2914 0.3113 -0.1439 0.9982
-0.2933 0.3042 -0.1426 0.9982
-0.2967 0.2903 -0.1401 0.9982
-0.2983 0.2835 -0.1389 0.9983
-0.3014 0.2701 -0.1366 0.9983
-0.3028 0.2635 -0.1355 0.9983
-0.3042 0.2570 -0.1344 0.9983
-0.3056 0.2505 -0.1334 0.9983
-0.3080 0.2379 -0.1314 0.9984
-0.3092 0.2316 -0.1304 0.9984
-0.3114 0.2193 -0.1286 0.9984
-0.3124 0.2133 -0.1277 0.9984
-0.3134 0.2073 -0.1268 0.9984
-0.3163 0.1898 -0.1245 0.9984
-0.3174 0.1843 -0.1239 0.9985
-0.3185 0.1787 -0.1233 0.9985
-0.3205 0.1678 -0.1221 0.9985
-0.3233 0.1516 -0.1205 0.9985
-0.3247 0.1408 -0.1195 0.9985
-0.3254 0.1354 -0.1190 0.9985
-0.3265 0.1249 -0.1180 0.9985
-0.3271 0.1196 -0.1175 0.9985
-0.3288 0.0989 -0.1159 0.9986
-0.3291 0.0938 -0.1155 0.9986
-0.3295 0.0887 -0.1152 0.9986
-0.3302 0.0736 -0.1142 0.9986
-0.3306 0.0636 -0.1136 0.9986
-0.3308 0.0536 -0.1131 0.9986
-0.3308 0.0487 -0.1129 0.9986
-0.3308 0.0438 -0.1126 0.9986
-0.3308 0.0389 -0.1124 0.9986
-0.3307 0.0291 -0.1120 0.9986
-0.3299 0.0048 -0.1114 0.9986
-0.3249 -0.0095 -0.1137 0.9986
-0.3252 -0.0190 -0.1140 0.9986
-0.3254 -0.0238 -0.1141 0.9986
-0.3255 -0.0334 -0.1145 0.9986
-0.3255 -0.0382 -0.1147 0.9986
-0.3255 -0.0430 -0.1149 0.9986
-0.3255 -0.0479 -0.1151 0.9986
-0.3254 -0.0528 -0.1154 0.9986
-0.3253 -0.0576 -0.1156 0.9986
-0.3249 -0.0724 -0.1165 0.9986
-0.3244 -0.0823 -0.1171 0.9986
-0.3237 -0.0922 -0.1178 0.9986
-0.3230 -0.1023 -0.1186 0.9986
-0.3226 -0.1074 -0.1190 0.9986
-0.3216 -0.1176 -0.1198 0.9985
-0.3211 -0.1228 -0.1203 0.9985
-0.3199 -0.1332 -0.1212 0.9985
-0.3192 -0.1384 -0.1217 0.9985
-0.3186 -0.1436 -0.1223 0.9985
-0.3178 -0.1489 -0.1228 0.9985
-0.3169 -0.1542 -0.1233 0.9985
-0.3160 -0.1595 -0.1238 0.9985
-0.3118 -0.1810 -0.1262 0.9985
-0.3084 -0.1976 -0.1282 0.9984
-0.3075 -0.2034 -0.1290 0.9984
-0.3055 -0.2152 -0.1307 0.9984
-0.3044 -0.2211 -0.1317 0.9984
-0.3032 -0.2271 -0.1326 0.9984
-0.3021 -0.2332 -0.1335 0.9984
-0.3008 -0.2394 -0.1345 0.9984
-0.2995 -0.2456 -0.1355 0.9984
-0.2968 -0.2582 -0.1377 0.9983
-0.2922 -0.2777 -0.1410 0.9983
-0.2906 -0.2843 -0.1422 0.9983
-0.2889 -0.2910 -0.1435 0.9983
-0.2789 -0.3253 -0.1499 0.9982
-0.2711 -0.3459 -0.1538 0.9981
-0.2684 -0.3529 -0.1551 0.9981
-0.2656 -0.3600 -0.1565 0.9981
-0.2597 -0.3744 -0.1594 0.9981
-0.2566 -0.3817 -0.1609 0.9981
-0.2469 -0.4045 -0.1658 0.9980
-0.2435 -0.4123 -0.1676 0.9980
-0.2363 -0.4284 -0.1712 0.9979
-0.2326 -0.4365 -0.1731 0.9979
-0.2287 -0.4448 -0.1750 0.9979
-0.2247 -0.4531 -0.1770 0.9979
-0.2205 -0.4617 -0.1790 0.9978
-0.2163 -0.4703 -0.1811 0.9978
-0.2074 -0.4879 -0.1855 0.9978
-0.1929 -0.5155 -0.1926 0.9977
-0.1880 -0.5258 -0.1954 0.9976
-0.1830 -0.5364 -0.1983 0.9976
-0.1778 -0.5471 -0.2013 0.9976
-0.1724 -0.5582 -0.2044 0.9975
-0.1668 -0.5693 -0.2076 0.9975
-0.1667 -0.6014 -0.2184 0.9974
-0.6682 -2.7175 -0.9792 0.9882
-0.6284 -2.7269 -0.9792 0.9882
-0.5885 -2.7357 -0.9792 0.9882
-0.5484 -2.7440 -0.9792 0.9882
-0.5083 -2.7517 -0.9791 0.9882
-0.4680 -2.7588 -0.9791 0.9882
-0.4276 -2.7653 -0.9791 0.9882
-0.3872 -2.7712 -0.9791 0.9882
-0.3466 -2.7765 -0.9791 0.9882
-0.3060 -2.7812 -0.9791 0.9882
-0.2653 -2.7854 -0.9790 0.9882
-0.1838 -2.7918 -0.9790 0.9882
-0.1430 -2.7942 -0.9790 0.9882
-0.0204 -2.7976 -0.9789 0.9882
0.0205 -2.7976 -0.9789 0.9882
0.0613 -2.7969 -0.9789 0.9882
0.1022 -2.7957 -0.9789 0.9882
0.1430 -2.7938 -0.9789 0.9882
0.2653 -2.7847 -0.9788 0.9882
0.3060 -2.7805 -0.9788 0.9882
0.3870 -2.7703 -0.9788 0.9882
0.4275 -2.7643 -0.9788 0.9882
0.4678 -2.7577 -0.9787 0.9882
0.5080 -2.7505 -0.9787 0.9882
0.7469 -2.6952 -0.9786 0.9882
0.7862 -2.6840 -0.9786 0.9882
0.8642 -2.6598 -0.9786 0.9882
0.9030 -2.6468 -0.9786 0.9882
0.9415 -2.6333 -0.9786 0.9882
0.9799 -2.6192 -0.9785 0.9882
1.0937 -2.5736 -0.9785 0.9882
1.1684 -2.5405 -0.9785 0.9882
1.2421 -2.5052 -0.9784 0.9882
1.2785 -2.4868 -0.9784 0.9882
1.3506 -2.4482 -0.9784 0.9882
1.4215 -2.4077 -0.9784 0.9882
1.4565 -2.3866 -0.9783 0.9882
1.4912 -2.3650 -0.9783 0.9882
1.5934 -2.2973 -0.9783 0.9882
1.6267 -2.2738 -0.9783 0.9882
1.6924 -2.2252 -0.9783 0.9882
1.7247 -2.2002 -0.9782 0.9882
1.7882 -2.1488 -0.9782 0.9882
1.8502 -2.0956 -0.9782 0.9882
1.9106 -2.0406 -0.9782 0.9882
2.0568 -1.9543 -0.9928 0.9880
2.0863 -1.9250 -0.9933 0.9880
2.2718 -1.7018 -0.9933 0.9880
2.3205 -1.6346 -0.9932 0.9880
2.3441 -1.6006 -0.9932 0.9880
2.3672 -1.5662 -0.9932 0.9880
2.4120 -1.4963 -0.9932 0.9880
2.4546 -1.4252 -0.9932 0.9880
2.4952 -1.3528 -0.9932 0.9880
2.5147 -1.3162 -0.9932 0.9880
2.5336 -1.2793 -0.9931 0.9880
2.5520 -1.2421 -0.9931 0.9880
2.5872 -1.1670 -0.9931 0.9880
2.6039 -1.1291 -0.9931 0.9880
2.6358 -1.0525 -0.9931 0.9880
2.6508 -1.0138 -0.9931 0.9880
2.6654 -0.9750 -0.9931 0.9880
2.6927 -0.8967 -0.9931 0.9880
2.7055 -0.8573 -0.9931 0.9880
2.7177 -0.8176 -0.9931 0.9880
2.7293 -0.7779 -0.9931 0.9880
2.7404 -0.7379 -0.9931 0.9880
2.7509 -0.6977 -0.9931 0.9880
2.7608 -0.6575 -0.9931 0.9880
2.7701 -0.6170 -0.9931 0.9880
2.7869 -0.5358 -0.9930 0.9880
2.8014 -0.4542 -0.9930 0.9880
2.8077 -0.4132 -0.9930 0.9880
2.8231 -0.2898 -0.9930 0.9880
2.8270 -0.2485 -0.9930 0.9880
2.8331 -0.1657 -0.9930 0.9880
2.8376 -0.0414 -0.9930 0.9880
2.8376 0.0414 -0.9930 0.9880
2.8352 0.1244 -0.9930 0.9880
2.8331 0.1658 -0.9930 0.9880
2.8303 0.2071 -0.9930 0.9880
2.8270 0.2485 -0.9930 0.9880
2.8186 0.3310 -0.9930 0.9880
2.8077 0.4132 -0.9930 0.9880
2.7608 0.6575 -0.9931 0.9880
2.7404 0.7379 -0.9931 0.9880
2.7294 0.7779 -0.9931 0.9880
2.7055 0.8573 -0.9931 0.9880
2.6927 0.8967 -0.9931 0.9880
2.6793 0.9360 -0.9931 0.9880
2.6654 0.9750 -0.9931 0.9880
2.6039 1.1291 -0.9931 0.9880
2.5520 1.2421 -0.9931 0.9880
2.5336 1.2793 -0.9931 0.9880
2.4752 1.3891 -0.9932 0.9880
2.4336 1.4609 -0.9932 0.9880
2.3899 1.5314 -0.9932 0.9880
2.3441 1.6006 -0.9932 0.9880
2.2964 1.6684 -0.9932 0.9880
2.2467 1.7348 -0.9933 0.9880
2.0000 2.0147 -0.9934 0.9880
1.6521 2.3092 -0.9935 0.9880
1.5144 2.4019 -0.9936 0.9880
1.4436 2.4451 -0.9936 0.9880
1.4078 2.4661 -0.9936 0.9880
1.2984 2.5254 -0.9936 0.9880
1.2614 2.5442 -0.9937 0.9880
1.2241 2.5624 -0.9937 0.9880
1.0339 2.6451 -0.9938 0.9880
0.9951 2.6600 -0.9938 0.9880
0.9171 2.6880 -0.9938 0.9880
0.8777 2.7012 -0.9938 0.9880
0.7585 2.7372 -0.9939 0.9880
0.7184 2.7480 -0.9939 0.9880
0.6782 2.7582 -0.9939 0.9880
0.5974 2.7770 -0.9939 0.9880
0.5160 2.7933 -0.9940 0.9880
0.2694 2.8281 -0.9941 0.9880
0.2281 2.8318 -0.9941 0.9880
0.1452 2.8373 -0.9941 0.9880
0.1038 2.8392 -0.9941 0.9880
-0.1038 2.8394 -0.9942 0.9880
-0.2281 2.8323 -0.9943 0.9880
-0.2695 2.8287 -0.9943 0.9880
-0.3932 2.8143 -0.9943 0.9880
-0.4343 2.8083 -0.9944 0.9880
-0.4753 2.8018 -0.9944 0.9880
-0.6382 2.7694 -0.9944 0.9880
-0.6786 2.7598 -0.9945 0.9880
-0.7189 2.7496 -0.9945 0.9880
-0.1724 0.5582 -0.2044 0.9975
-0.1778 0.5471 -0.2013 0.9976
-0.1830 0.5364 -0.1983 0.9976
-0.1880 0.5258 -0.1954 0.9976
-0.1928 0.5155 -0.1926 0.9977
-0.1979 0.5061 -0.1902 0.9977
-0.2073 0.4879 -0.1855 0.9978
-0.2119 0.4790 -0.1833 0.9978
-0.2163 0.4703 -0.1811 0.9978
-0.2205 0.4617 -0.1790 0.9978
-0.2325 0.4365 -0.1731 0.9979
-0.2435 0.4124 -0.1676 0.9980
-0.2502 0.3968 -0.1642 0.9980
-0.2566 0.3818 -0.1609 0.9981
-0.2597 0.3744 -0.1594 0.9981
-0.2627 0.3671 -0.1580 0.9981
-0.2656 0.3600 -0.1565 0.9981
-0.2684 0.3529 -0.1551 0.9981
-0.2738 0.3389 -0.1525 0.9982
-0.2764 0.3321 -0.1512 0.9982
-0.2789 0.3254 -0.1499 0.9982
-0.2852 0.3046 -0.1460 0.9982
-0.2871 0.2978 -0.1447 0.9982
-0.2906 0.2843 -0.1422 0.9983
-0.2922 0.2777 -0.1410 0.9983
-0.2938 0.2711 -0.1399 0.9983
-0.2953 0.2646 -0.1388 0.9983
-0.2982 0.2519 -0.1366 0.9983
-0.2995 0.2456 -0.1355 0.9984
-0.3008 0.2394 -0.1345 0.9984
-0.3044 0.2211 -0.1317 0.9984
-0.3065 0.2093 -0.1299 0.9984
-0.3095 0.1920 -0.1274 0.9985
-0.3118 0.1811 -0.1262 0.9985
-0.3140 0.1702 -0.1250 0.9985
-0.3150 0.1648 -0.1244 0.9985
-0.3192 0.1384 -0.1217 0.9985
-0.3199 0.1332 -0.1212 0.9985
-0.3216 0.1176 -0.1198 0.9985
-0.3226 0.1075 -0.1190 0.9986
-0.3241 0.0873 -0.1174 0.9986
-0.3246 0.0773 -0.1168 0.9986
-0.3248 0.0724 -0.1165 0.9986
-0.3252 0.0625 -0.1159 0.9986
-0.3253 0.0577 -0.1156 0.9986
-0.3254 0.0528 -0.1154 0.9986
-0.3254 0.0286 -0.1143 0.9986
-0.3254 0.0239 -0.1141 0.9986
-0.3251 0.0143 -0.1139 0.9986
-0.3247 0.0048 -0.1136 0.9986
-0.3201 -0.0187 -0.1162 0.9986
-0.3204 -0.0329 -0.1167 0.9986
-0.3203 -0.0471 -0.1173 0.9986
-0.3202 -0.0519 -0.1176 0.9986
-0.3200 -0.0615 -0.1181 0.9986
-0.3198 -0.0663 -0.1184 0.9986
-0.3188 -0.0858 -0.1197 0.9986
-0.3177 -0.1007 -0.1208 0.9986
-0.3173 -0.1056 -0.1212 0.9986
-0.3163 -0.1157 -0.1220 0.9986
-0.3157 -0.1207 -0.1225 0.9986
-0.3152 -0.1258 -0.1230 0.9986
-0.3139 -0.1361 -0.1240 0.9985
-0.3131 -0.1412 -0.1245 0.9985
-0.3124 -0.1464 -0.1250 0.9985
-0.3115 -0.1516 -0.1255 0.9985
-0.3085 -0.1673 -0.1272 0.9985
-0.3075 -0.1725 -0.1278 0.9985
-0.3064 -0.1779 -0.1284 0.9985
-0.3052 -0.1832 -0.1290 0.9985
-0.2997 -0.2111 -0.1329 0.9984
-0.2986 -0.2170 -0.1338 0.9984
-0.2963 -0.2288 -0.1357 0.9984
-0.2950 -0.2348 -0.1366 0.9984
-0.2924 -0.2470 -0.1387 0.9984
-0.2909 -0.2531 -0.1397 0.9984
-0.2879 -0.2657 -0.1420 0.9983
-0.2829 -0.2850 -0.1455 0.9983
-0.2754 -0.3118 -0.1508 0.9982
-0.2730 -0.3185 -0.1520 0.9982
-0.2569 -0.3590 -0.1600 0.9981
-0.2509 -0.3732 -0.1630 0.9981
-0.2477 -0.3804 -0.1645 0.9981
-0.2445 -0.3877 -0.1661 0.9981
-0.2411 -0.3951 -0.1678 0.9980
-0.2378 -0.4027 -0.1695 0.9980
-0.2342 -0.4103 -0.1712 0.9980
-0.2306 -0.4180 -0.1730 0.9980
-0.2231 -0.4338 -0.1768 0.9979
-0.2108 -0.4583 -0.1828 0.9979
-0.2064 -0.4667 -0.1849 0.9978
-0.2020 -0.4752 -0.1871 0.9978
-0.1826 -0.5106 -0.1965 0.9977
-0.1774 -0.5198 -0.1991 0.9977
-0.1720 -0.5293 -0.2017 0.9976
-0.1667 -0.5397 -0.2047 0.9976
-0.1612 -0.5502 -0.2078 0.9976
-0.1554 -0.5610 -0.2110 0.9975
-0.1498 -0.5730 -0.2146 0.9975
-0.6067 -2.6329 -0.9792 0.9886
-0.5682 -2.6414 -0.9792 0.9886
-0.4908 -2.6569 -0.9791 0.9886
-0.4129 -2.6699 -0.9791 0.9886
-0.3738 -2.6757 -0.9791 0.9886
-0.3347 -2.6808 -0.9791 0.9886
-0.2955 -2.6854 -0.9791 0.9886
-0.2169 -2.6927 -0.9790 0.9886
-0.1775 -2.6956 -0.9790 0.9886
0.0197 -2.7011 -0.9789 0.9886
0.0987 -2.6993 -0.9789 0.9886
0.1381 -2.6975 -0.9789 0.9886
0.1775 -2.6952 -0.9789 0.9886
0.2562 -2.6888 -0.9788 0.9886
0.2954 -2.6847 -0.9788 0.9886
0.4905 -2.6557 -0.9787 0.9886
0.5679 -2.6402 -0.9787 0.9886
0.6448 -2.6224 -0.9787 0.9886
0.6831 -2.6127 -0.9787 0.9886
0.7212 -2.6023 -0.9786 0.9886
0.7591 -2.5915 -0.9786 0.9886
0.7969 -2.5801 -0.9786 0.9886
0.8719 -2.5556 -0.9786 0.9886
0.9830 -2.5148 -0.9785 0.9886
1.0922 -2.4693 -0.9785 0.9886
1.1282 -2.4530 -0.9785 0.9886
1.1638 -2.4362 -0.9785 0.9886
1.2345 -2.4011 -0.9784 0.9886
1.2694 -2.3828 -0.9784 0.9886
1.3385 -2.3446 -0.9784 0.9886
1.3726 -2.3248 -0.9784 0.9886
1.4064 -2.3044 -0.9784 0.9886
1.6342 -2.1486 -0.9783 0.9886
1.6962 -2.0999 -0.9782 0.9886
1.7568 -2.0493 -0.9782 0.9886
1.9594 -1.9169 -0.9934 0.9884
1.9871 -1.8880 -0.9934 0.9884
2.0145 -1.8588 -0.9934 0.9884
2.0940 -1.7686 -0.9933 0.9884
2.1447 -1.7067 -0.9933 0.9884
2.1694 -1.6751 -0.9933 0.9884
2.1936 -1.6432 -0.9933 0.9884
2.2174 -1.6111 -0.9933 0.9884
2.2406 -1.5784 -0.9933 0.9884
2.2634 -1.5455 -0.9933 0.9884
2.2858 -1.5122 -0.9932 0.9884
2.3076 -1.4787 -0.9932 0.9884
2.3289 -1.4448 -0.9932 0.9884
2.3899 -1.3413 -0.9932 0.9884
2.4464 -1.2353 -0.9932 0.9884
2.4814 -1.1632 -0.9932 0.9884
2.4981 -1.1268 -0.9932 0.9884
2.5143 -1.0902 -0.9932 0.9884
2.5299 -1.0534 -0.9931 0.9884
2.5596 -0.9789 -0.9931 0.9884
2.6000 -0.8658 -0.9931 0.9884
2.6124 -0.8277 -0.9931 0.9884
2.6242 -0.7895 -0.9931 0.9884
2.6354 -0.7511 -0.9931 0.9884
2.6461 -0.7125 -0.9931 0.9884
2.6910 -0.5174 -0.9931 0.9884
2.6983 -0.4780 -0.9931 0.9884
2.7049 -0.4385 -0.9931 0.9884
2.7216 -0.3196 -0.9931 0.9884
2.7259 -0.2798 -0.9931 0.9884
2.7376 -0.1200 -0.9931 0.9884
2.7391 -0.0800 -0.9931 0.9884
2.7399 0.0400 -0.9931 0.9884
2.7390 0.0801 -0.9931 0.9884
2.7355 0.1600 -0.9931 0.9884
2.7259 0.2798 -0.9931 0.9884
2.7215 0.3196 -0.9931 0.9884
2.7166 0.3593 -0.9931 0.9884
2.7049 0.4386 -0.9931 0.9884
2.6982 0.4780 -0.9931 0.9884
2.6748 0.5958 -0.9931 0.9884
2.6562 0.6737 -0.9931 0.9884
2.6461 0.7125 -0.9931 0.9884
2.6242 0.7895 -0.9931 0.9884
2.6124 0.8277 -0.9931 0.9884
2.6000 0.8658 -0.9931 0.9884
2.5871 0.9038 -0.9931 0.9884
2.5596 0.9790 -0.9931 0.9884
2.5451 1.0163 -0.9931 0.9884
2.5143 1.0902 -0.9932 0.9884
2.4981 1.1268 -0.9932 0.9884
2.4464 1.2353 -0.9932 0.9884
2.4093 1.3062 -0.9932 0.9884
2.3899 1.3413 -0.9932 0.9884
2.3701 1.3761 -0.9932 0.9884
2.3289 1.4448 -0.9932 0.9884
2.3076 1.4787 -0.9932 0.9884
2.2634 1.5455 -0.9933 0.9884
2.2406 1.5784 -0.9933 0.9884
2.2174 1.6110 -0.9933 0.9884
2.1936 1.6432 -0.9933 0.9884
2.1447 1.7067 -0.9933 0.9884
2.1195 1.7379 -0.9933 0.9884
2.0679 1.7991 -0.9933 0.9884
2.0145 1.8588 -0.9934 0.9884
1.9871 1.8881 -0.9934 0.9884
1.9594 1.9169 -0.9934 0.9884
1.9026 1.9734 -0.9934 0.9884
1.7841 2.0812 -0.9935 0.9884
1.7536 2.1071 -0.9935 0.9884
1.7226 2.1326 -0.9935 0.9884
1.6913 2.1575 -0.9935 0.9884
1.5624 2.2528 -0.9935 0.9884
1.3939 2.3609 -0.9936 0.9884
1.3593 2.3811 -0.9936 0.9884
1.1820 2.4742 -0.9937 0.9884
1.0724 2.5237 -0.9937 0.9884
0.9983 2.5540 -0.9938 0.9884
0.9608 2.5684 -0.9938 0.9884
0.9232 2.5822 -0.9938 0.9884
0.8854 2.5954 -0.9938 0.9884
0.8474 2.6081 -0.9938 0.9884
0.6548 2.6632 -0.9939 0.9884
0.5375 2.6895 -0.9940 0.9884
0.4587 2.7041 -0.9940 0.9884
0.3398 2.7218 -0.9940 0.9884
0.2601 2.7307 -0.9941 0.9884
0.2202 2.7342 -0.9941 0.9884
0.0601 2.7426 -0.9942 0.9884
0.0200 2.7432 -0.9942 0.9884
-0.0200 2.7432 -0.9942 0.9884
-0.0601 2.7427 -0.9942 0.9884
-0.1002 2.7416 -0.9942 0.9884
-0.1402 2.7399 -0.9942 0.9884
-0.1803 2.7376 -0.9943 0.9884
-0.2202 2.7347 -0.9943 0.9884
-0.3001 2.7272 -0.9943 0.9884
-0.3796 2.7173 -0.9943 0.9884
-0.4984 2.6982 -0.9944 0.9884
-0.5378 2.6907 -0.9944 0.9884
-0.1555 0.5610 -0.2110 0.9975
-0.1773 0.5198 -0.1991 0.9977
-0.1926 0.4927 -0.1917 0.9978
-0.2020 0.4752 -0.1871 0.9978
-0.2064 0.4667 -0.1849 0.9978
-0.2191 0.4419 -0.1787 0.9979
-0.2231 0.4338 -0.1768 0.9979
-0.2269 0.4259 -0.1749 0.9979
-0.2306 0.4180 -0.1730 0.9980
-0.2343 0.4103 -0.1712 0.9980
-0.2378 0.4027 -0.1695 0.9980
-0.2412 0.3951 -0.1678 0.9980
-0.2445 0.3877 -0.1661 0.9981
-0.2653 0.3385 -0.1559 0.9982
-0.2680 0.3318 -0.1546 0.9982
-0.2706 0.3251 -0.1533 0.9982
-0.2730 0.3185 -0.1520 0.9982
-0.2812 0.2916 -0.1468 0.9983
-0.2829 0.2850 -0.1455 0.9983
-0.2847 0.2785 -0.1443 0.9983
-0.2895 0.2593 -0.1408 0.9983
-0.2923 0.2469 -0.1387 0.9984
-0.2950 0.2348 -0.1366 0.9984
-0.2963 0.2288 -0.1357 0.9984
-0.2987 0.2170 -0.1338 0.9984
-0.2997 0.2112 -0.1329 0.9984
-0.3028 0.1940 -0.1303 0.9985
-0.3064 0.1779 -0.1284 0.9985
-0.3085 0.1673 -0.1272 0.9985
-0.3115 0.1516 -0.1255 0.9985
-0.3123 0.1464 -0.1250 0.9985
-0.3132 0.1412 -0.1245 0.9985
-0.3145 0.1309 -0.1235 0.9986
-0.3157 0.1208 -0.1225 0.9986
-0.3163 0.1157 -0.1220 0.9986
-0.3168 0.1107 -0.1216 0.9986
-0.3177 0.1007 -0.1208 0.9986
-0.3181 0.0957 -0.1204 0.9986
-0.3188 0.0859 -0.1197 0.9986
-0.3194 0.0761 -0.1190 0.9986
-0.3196 0.0712 -0.1187 0.9986
-0.3198 0.0664 -0.1184 0.9986
-0.3200 0.0616 -0.1181 0.9986
-0.3201 0.0567 -0.1178 0.9986
-0.3203 0.0519 -0.1176 0.9986
-0.3204 0.0424 -0.1171 0.9986
-0.3203 0.0282 -0.1165 0.9986
-0.3201 0.0187 -0.1162 0.9986
-0.3144 0.0000 -0.1179 0.9987
-0.3146 -0.0046 -0.1180 0.9987
-0.3148 -0.0092 -0.1181 0.9987
-0.3150 -0.0138 -0.1182 0.9987
-0.3153 -0.0323 -0.1189 0.9986
-0.3153 -0.0370 -0.1191 0.9986
-0.3153 -0.0417 -0.1193 0.9986
-0.3152 -0.0511 -0.1197 0.9986
-0.3149 -0.0605 -0.1203 0.9986
-0.3147 -0.0653 -0.1205 0.9986
-0.3145 -0.0700 -0.1208 0.9986
-0.3143 -0.0748 -0.1211 0.9986
-0.3134 -0.0893 -0.1222 0.9986
-0.3126 -0.0990 -0.1229 0.9986
-0.3116 -0.1089 -0.1238 0.9986
-0.3111 -0.1138 -0.1242 0.9986
-0.3105 -0.1187 -0.1247 0.9986
-0.3079 -0.1389 -0.1267 0.9986
-0.3033 -0.1644 -0.1294 0.9985
-0.3011 -0.1748 -0.1306 0.9985
-0.2987 -0.1854 -0.1318 0.9985
-0.2975 -0.1906 -0.1325 0.9985
-0.2942 -0.2072 -0.1349 0.9985
-0.2919 -0.2186 -0.1368 0.9984
-0.2907 -0.2244 -0.1377 0.9984
-0.2867 -0.2421 -0.1407 0.9984
-0.2853 -0.2482 -0.1418 0.9984
-0.2837 -0.2542 -0.1429 0.9984
-0.2806 -0.2666 -0.1451 0.9983
-0.2772 -0.2792 -0.1475 0.9983
-0.2735 -0.2921 -0.1501 0.9983
-0.2695 -0.3053 -0.1527 0.9983
-0.2650 -0.3184 -0.1553 0.9982
-0.2597 -0.3313 -0.1579 0.9982
-0.2570 -0.3379 -0.1592 0.9982
-0.2542 -0.3446 -0.1606 0.9982
-0.2513 -0.3513 -0.1620 0.9982
-0.2484 -0.3581 -0.1634 0.9981
-0.2453 -0.3649 -0.1649 0.9981
-0.2422 -0.3719 -0.1664 0.9981
-0.2356 -0.3860 -0.1696 0.9981
-0.2252 -0.4081 -0.1748 0.9980
-0.2215 -0.4157 -0.1766 0.9980
-0.2176 -0.4233 -0.1785 0.9980
-0.2137 -0.4311 -0.1804 0.9979
-0.2097 -0.4389 -0.1824 0.9979
-0.2055 -0.4469 -0.1844 0.9979
-0.1827 -0.4883 -0.1955 0.9978
-0.1777 -0.4969 -0.1979 0.9977
-0.1725 -0.5057 -0.2004 0.9977
-0.1672 -0.5146 -0.2029 0.9977
-0.1617 -0.5237 -0.2055 0.9977
-0.1561 -0.5329 -0.2082 0.9976
-0.1385 -0.5632 -0.2175 0.9975
-0.5491 -2.5527 -0.9792 0.9889
-0.3990 -2.5804 -0.9791 0.9889
-0.3612 -2.5859 -0.9791 0.9889
-0.3234 -2.5908 -0.9791 0.9889
-0.2476 -2.5991 -0.9790 0.9889
-0.2096 -2.6024 -0.9790 0.9889
-0.1335 -2.6073 -0.9790 0.9889
-0.0954 -2.6089 -0.9790 0.9889
0.0191 -2.6105 -0.9789 0.9889
0.1335 -2.6070 -0.9789 0.9889
0.1715 -2.6048 -0.9789 0.9889
0.2095 -2.6019 -0.9789 0.9889
0.2475 -2.5985 -0.9788 0.9889
0.2855 -2.5946 -0.9788 0.9889
0.3233 -2.5901 -0.9788 0.9889
0.3612 -2.5850 -0.9788 0.9889
0.4365 -2.5733 -0.9788 0.9889
0.5115 -2.5593 -0.9787 0.9889
0.6970 -2.5150 -0.9787 0.9889
0.8426 -2.4699 -0.9786 0.9889
0.8786 -2.4573 -0.9786 0.9889
0.9144 -2.4441 -0.9786 0.9889
0.9500 -2.4305 -0.9786 0.9889
0.9854 -2.4163 -0.9785 0.9889
1.0555 -2.3864 -0.9785 0.9889
1.1248 -2.3545 -0.9785 0.9889
1.1931 -2.3205 -0.9785 0.9889
1.2604 -2.2846 -0.9784 0.9889
1.2936 -2.2659 -0.9784 0.9889
1.3265 -2.2468 -0.9784 0.9889
1.4237 -2.1864 -0.9784 0.9889
1.4554 -2.1653 -0.9783 0.9889
1.4869 -2.1438 -0.9783 0.9889
1.5180 -2.1218 -0.9783 0.9889
1.5793 -2.0765 -0.9783 0.9889
1.6987 -1.9816 -0.9787 0.9889
1.7392 -1.9698 -0.9853 0.9888
1.7799 -1.9575 -0.9921 0.9888
1.8107 -1.9339 -0.9934 0.9887
1.8664 -1.8801 -0.9934 0.9887
1.8937 -1.8526 -0.9934 0.9887
1.9205 -1.8247 -0.9934 0.9887
1.9469 -1.7964 -0.9934 0.9887
1.9729 -1.7678 -0.9934 0.9887
1.9986 -1.7387 -0.9934 0.9887
2.1200 -1.5881 -0.9933 0.9887
2.2302 -1.4291 -0.9933 0.9887
2.3098 -1.2963 -0.9932 0.9887
2.3285 -1.2624 -0.9932 0.9887
2.3467 -1.2282 -0.9932 0.9887
2.3644 -1.1938 -0.9932 0.9887
2.3815 -1.1591 -0.9932 0.9887
2.4300 -1.0536 -0.9932 0.9887
2.4451 -1.0180 -0.9932 0.9887
2.4597 -0.9821 -0.9932 0.9887
2.4738 -0.9461 -0.9932 0.9887
2.5128 -0.8368 -0.9932 0.9887
2.5248 -0.8000 -0.9932 0.9887
2.5362 -0.7630 -0.9931 0.9887
2.5671 -0.6511 -0.9931 0.9887
2.5850 -0.5759 -0.9931 0.9887
2.5931 -0.5380 -0.9931 0.9887
2.6007 -0.5001 -0.9931 0.9887
2.6078 -0.4620 -0.9931 0.9887
2.6142 -0.4239 -0.9931 0.9887
2.6201 -0.3856 -0.9931 0.9887
2.6255 -0.3473 -0.9931 0.9888
2.6303 -0.3089 -0.9931 0.9888
2.6345 -0.2704 -0.9931 0.9888
2.6382 -0.2319 -0.9931 0.9888
2.6413 -0.1933 -0.9931 0.9888
2.6438 -0.1547 -0.9931 0.9888
2.6458 -0.1161 -0.9931 0.9888
2.6472 -0.0774 -0.9931 0.9888
2.6480 -0.0387 -0.9931 0.9888
2.6483 0.0000 -0.9931 0.9888
2.6458 0.1161 -0.9931 0.9888
2.6413 0.1933 -0.9931 0.9888
2.6303 0.3089 -0.9931 0.9887
2.6142 0.4238 -0.9931 0.9888
2.5764 0.6136 -0.9931 0.9887
2.5573 0.6886 -0.9931 0.9887
2.5361 0.7630 -0.9931 0.9887
2.5247 0.8000 -0.9932 0.9887
2.5128 0.8368 -0.9932 0.9887
2.5003 0.8734 -0.9932 0.9887
2.4873 0.9099 -0.9932 0.9887
2.4738 0.9462 -0.9932 0.9887
2.4143 1.0891 -0.9932 0.9887
2.3982 1.1242 -0.9932 0.9887
2.3466 1.2282 -0.9932 0.9887
2.3285 1.2624 -0.9932 0.9887
2.3098 1.2963 -0.9932 0.9887
2.2906 1.3299 -0.9932 0.9887
2.2710 1.3633 -0.9933 0.9887
2.2302 1.4291 -0.9933 0.9887
2.2091 1.4616 -0.9933 0.9887
2.1875 1.4937 -0.9933 0.9887
2.0728 1.6495 -0.9933 0.9887
2.0484 1.6795 -0.9933 0.9887
2.0237 1.7093 -0.9934 0.9887
1.9470 1.7964 -0.9934 0.9887
1.9205 1.8247 -0.9934 0.9887
1.8937 1.8526 -0.9934 0.9887
1.8107 1.9339 -0.9934 0.9887
1.7535 1.9860 -0.9935 0.9887
1.7243 2.0114 -0.9935 0.9887
1.6947 2.0364 -0.9935 0.9887
1.6346 2.0851 -0.9935 0.9887
1.5100 2.1772 -0.9936 0.9887
1.4781 2.1991 -0.9936 0.9887
1.4132 2.2413 -0.9936 0.9887
1.3803 2.2618 -0.9936 0.9887
1.3471 2.2817 -0.9936 0.9887
1.3137 2.3012 -0.9936 0.9887
1.1771 2.3742 -0.9937 0.9887
1.1072 2.4076 -0.9937 0.9887
1.0365 2.4390 -0.9938 0.9887
1.0007 2.4539 -0.9938 0.9887
0.9648 2.4684 -0.9938 0.9887
0.9286 2.4822 -0.9938 0.9887
0.8922 2.4955 -0.9938 0.9887
0.8190 2.5206 -0.9938 0.9887
0.7078 2.5542 -0.9939 0.9887
0.5952 2.5829 -0.9939 0.9887
0.5574 2.5914 -0.9939 0.9887
0.4814 2.6066 -0.9940 0.9887
0.4051 2.6196 -0.9940 0.9887
0.3284 2.6304 -0.9940 0.9887
0.2899 2.6350 -0.9941 0.9887
0.2514 2.6390 -0.9941 0.9887
0.1742 2.6453 -0.9941 0.9887
0.0581 2.6505 -0.9942 0.9887
0.0194 2.6511 -0.9942 0.9887
-0.0194 2.6511 -0.9942 0.9887
-0.0581 2.6507 -0.9942 0.9887
-0.0969 2.6496 -0.9942 0.9887
-0.1742 2.6457 -0.9942 0.9887
-0.2129 2.6429 -0.9943 0.9887
-0.3669 2.6261 -0.9943 0.9887
-0.4435 2.6143 -0.9944 0.9887
-0.4817 2.6076 -0.9944 0.9887
-0.5576 2.5925 -0.9944 0.9887
-0.1332 0.5781 -0.2225 0.9975
-0.1445 0.5527 -0.2142 0.9976
-0.1561 0.5329 -0.2082 0.9976
-0.1672 0.5146 -0.2029 0.9977
-0.1777 0.4970 -0.1979 0.9977
-0.1827 0.4883 -0.1955 0.9978
-0.1876 0.4798 -0.1932 0.9978
-0.1922 0.4714 -0.1909 0.9978
-0.2012 0.4549 -0.1865 0.9979
-0.2097 0.4389 -0.1824 0.9979
-0.2137 0.4311 -0.1804 0.9979
-0.2215 0.4157 -0.1766 0.9980
-0.2252 0.4082 -0.1748 0.9980
-0.2389 0.3789 -0.1680 0.9981
-0.2422 0.3719 -0.1664 0.9981
-0.2543 0.3446 -0.1606 0.9982
-0.2570 0.3379 -0.1592 0.9982
-0.2597 0.3313 -0.1579 0.9982
-0.2624 0.3248 -0.1566 0.9982
-0.2772 0.2792 -0.1475 0.9983
-0.2822 0.2604 -0.1440 0.9984
-0.2867 0.2421 -0.1407 0.9984
-0.2906 0.2245 -0.1377 0.9984
-0.2952 0.2016 -0.1341 0.9985
-0.2975 0.1906 -0.1325 0.9985
-0.2987 0.1853 -0.1318 0.9985
-0.2999 0.1800 -0.1312 0.9985
-0.3053 0.1541 -0.1282 0.9985
-0.3071 0.1440 -0.1272 0.9986
-0.3093 0.1288 -0.1256 0.9986
-0.3099 0.1237 -0.1251 0.9986
-0.3105 0.1187 -0.1247 0.9986
-0.3121 0.1040 -0.1234 0.9986
-0.3130 0.0942 -0.1226 0.9986
-0.3134 0.0893 -0.1222 0.9986
-0.3140 0.0796 -0.1215 0.9986
-0.3143 0.0748 -0.1211 0.9986
-0.3147 0.0653 -0.1205 0.9986
-0.3152 0.0511 -0.1197 0.9986
-0.3153 0.0464 -0.1195 0.9986
-0.3153 0.0417 -0.1193 0.9986
-0.3153 0.0324 -0.1189 0.9986
-0.3153 0.0277 -0.1187 0.9986
-0.3152 0.0230 -0.1185 0.9987
-0.3150 0.0138 -0.1182 0.9987
-0.3148 0.0092 -0.1181 0.9987
-0.3095 0.0000 -0.1200 0.9987
-0.3098 -0.0045 -0.1201 0.9987
-0.3099 -0.0090 -0.1202 0.9987
-0.3101 -0.0136 -0.1203 0.9987
-0.3102 -0.0182 -0.1205 0.9987
-0.3103 -0.0227 -0.1206 0.9987
-0.3104 -0.0273 -0.1208 0.9987
-0.3104 -0.0364 -0.1212 0.9987
-0.3104 -0.0411 -0.1214 0.9987
-0.3104 -0.0457 -0.1216 0.9987
-0.3103 -0.0503 -0.1218 0.9987
-0.3101 -0.0550 -0.1221 0.9986
-0.3098 -0.0643 -0.1227 0.9986
-0.3096 -0.0689 -0.1229 0.9986
-0.3093 -0.0736 -0.1233 0.9986
-0.3087 -0.0831 -0.1239 0.9986
-0.3079 -0.0927 -0.1247 0.9986
-0.3075 -0.0974 -0.1251 0.9986
-0.3049 -0.1217 -0.1273 0.9986
-0.3011 -0.1466 -0.1298 0.9986
-0.3001 -0.1515 -0.1303 0.9986
-0.2991 -0.1566 -0.1309 0.9986
-0.2948 -0.1770 -0.1333 0.9985
-0.2923 -0.1873 -0.1346 0.9985
-0.2910 -0.1925 -0.1353 0.9985
-0.2898 -0.1979 -0.1361 0.9985
-0.2887 -0.2034 -0.1369 0.9985
-0.2812 -0.2375 -0.1427 0.9984
-0.2767 -0.2553 -0.1459 0.9984
-0.2734 -0.2674 -0.1483 0.9984
-0.2679 -0.2861 -0.1520 0.9983
-0.2639 -0.2989 -0.1546 0.9983
-0.2595 -0.3118 -0.1573 0.9983
-0.2488 -0.3373 -0.1625 0.9982
-0.2460 -0.3438 -0.1639 0.9982
-0.2430 -0.3504 -0.1653 0.9982
-0.2369 -0.3637 -0.1683 0.9981
-0.2303 -0.3774 -0.1714 0.9981
-0.2269 -0.3843 -0.1730 0.9981
-0.2162 -0.4059 -0.1783 0.9980
-0.2005 -0.4359 -0.1860 0.9979
-0.1962 -0.4436 -0.1881 0.9979
-0.1919 -0.4514 -0.1902 0.9979
-0.1873 -0.4594 -0.1923 0.9979
-0.1827 -0.4675 -0.1946 0.9978
-0.1779 -0.4756 -0.1969 0.9978
-0.1730 -0.4838 -0.1992 0.9978
-0.1518 -0.5182 -0.2093 0.9977
-0.1278 -0.5545 -0.2206 0.9976
-0.1215 -0.5647 -0.2239 0.9975
-0.4588 -2.4836 -0.9791 0.9892
-0.3495 -2.5012 -0.9791 0.9892
-0.2762 -2.5102 -0.9791 0.9892
-0.2027 -2.5172 -0.9790 0.9892
-0.1659 -2.5198 -0.9790 0.9892
-0.0922 -2.5236 -0.9790 0.9892
-0.0184 -2.5250 -0.9789 0.9892
0.0185 -2.5250 -0.9789 0.9892
0.0554 -2.5244 -0.9789 0.9892
0.1659 -2.5194 -0.9789 0.9892
0.2027 -2.5168 -0.9789 0.9892
0.2395 -2.5135 -0.9788 0.9892
0.3128 -2.5054 -0.9788 0.9892
0.3493 -2.5004 -0.9788 0.9892
0.3858 -2.4950 -0.9788 0.9892
0.4586 -2.4826 -0.9788 0.9892
0.4948 -2.4756 -0.9787 0.9892
0.5309 -2.4681 -0.9787 0.9892
0.5669 -2.4600 -0.9787 0.9892
0.6741 -2.4327 -0.9787 0.9892
0.7449 -2.4119 -0.9786 0.9892
0.7800 -2.4007 -0.9786 0.9892
0.8150 -2.3891 -0.9786 0.9892
0.9189 -2.3509 -0.9786 0.9892
1.0880 -2.2774 -0.9785 0.9892
1.1211 -2.2613 -0.9785 0.9892
1.1867 -2.2275 -0.9785 0.9892
1.2191 -2.2098 -0.9784 0.9892
1.2512 -2.1918 -0.9784 0.9892
1.3147 -2.1542 -0.9784 0.9892
1.3460 -2.1348 -0.9784 0.9892
1.4078 -2.0945 -0.9784 0.9892
1.4382 -2.0736 -0.9784 0.9892
1.4982 -2.0306 -0.9783 0.9892
1.5276 -2.0086 -0.9783 0.9892
1.5573 -1.9866 -0.9786 0.9892
1.5943 -1.9737 -0.9837 0.9892
1.6679 -1.9456 -0.9935 0.9891
1.7786 -1.8448 -0.9935 0.9891
1.8053 -1.8186 -0.9934 0.9891
1.8317 -1.7920 -0.9934 0.9891
1.8832 -1.7377 -0.9934 0.9891
1.9084 -1.7099 -0.9934 0.9891
1.9332 -1.6818 -0.9934 0.9891
1.9575 -1.6534 -0.9934 0.9891
2.0281 -1.5660 -0.9934 0.9891
2.0507 -1.5362 -0.9933 0.9891
2.0947 -1.4756 -0.9933 0.9891
2.1967 -1.3187 -0.9933 0.9891
2.2342 -1.2539 -0.9933 0.9891
2.2523 -1.2211 -0.9933 0.9891
2.2699 -1.1881 -0.9933 0.9891
2.3036 -1.1212 -0.9932 0.9891
2.3353 -1.0534 -0.9932 0.9891
2.3505 -1.0192 -0.9932 0.9891
2.3651 -0.9847 -0.9932 0.9891
2.3792 -0.9500 -0.9932 0.9891
2.3929 -0.9152 -0.9932 0.9891
2.4060 -0.8801 -0.9932 0.9891
2.4185 -0.8448 -0.9932 0.9891
2.4306 -0.8095 -0.9932 0.9891
2.4737 -0.6661 -0.9932 0.9891
2.5083 -0.5204 -0.9932 0.9891
2.5157 -0.4837 -0.9932 0.9891
2.5287 -0.4100 -0.9931 0.9891
2.5344 -0.3730 -0.9931 0.9891
2.5483 -0.2616 -0.9931 0.9891
2.5573 -0.1496 -0.9931 0.9891
2.5606 -0.0749 -0.9931 0.9891
2.5615 0.0375 -0.9931 0.9891
2.5606 0.0748 -0.9931 0.9891
2.5593 0.1123 -0.9931 0.9891
2.5573 0.1496 -0.9931 0.9891
2.5519 0.2243 -0.9931 0.9891
2.5484 0.2616 -0.9931 0.9891
2.5443 0.2987 -0.9931 0.9891
2.5396 0.3359 -0.9931 0.9891
2.5344 0.3730 -0.9931 0.9891
2.5157 0.4837 -0.9932 0.9891
2.5084 0.5204 -0.9932 0.9891
2.5005 0.5570 -0.9932 0.9891
2.4921 0.5935 -0.9932 0.9891
2.4737 0.6661 -0.9932 0.9891
2.4637 0.7021 -0.9932 0.9891
2.4185 0.8449 -0.9932 0.9891
2.3929 0.9152 -0.9932 0.9891
2.3197 1.0874 -0.9932 0.9891
2.2870 1.1548 -0.9932 0.9891
2.2699 1.1880 -0.9933 0.9891
2.2523 1.2211 -0.9933 0.9891
2.2342 1.2539 -0.9933 0.9891
2.1772 1.3507 -0.9933 0.9891
2.1368 1.4137 -0.9933 0.9891
2.0947 1.4756 -0.9933 0.9891
2.0280 1.5660 -0.9934 0.9891
2.0050 1.5955 -0.9934 0.9891
1.9332 1.6819 -0.9934 0.9891
1.9084 1.7099 -0.9934 0.9891
1.8317 1.7920 -0.9934 0.9891
1.8053 1.8186 -0.9934 0.9891
1.7239 1.8961 -0.9935 0.9891
1.6961 1.9210 -0.9935 0.9891
1.6679 1.9456 -0.9935 0.9891
1.4912 2.0843 -0.9936 0.9891
1.4606 2.1060 -0.9936 0.9891
1.3670 2.1680 -0.9936 0.9891
1.3030 2.2071 -0.9936 0.9891
1.1049 2.3129 -0.9937 0.9891
1.0369 2.3442 -0.9938 0.9891
0.9680 2.3736 -0.9938 0.9891
0.9332 2.3875 -0.9938 0.9891
0.8631 2.4139 -0.9938 0.9891
0.6485 2.4804 -0.9939 0.9891
0.5757 2.4983 -0.9939 0.9891
0.5025 2.5142 -0.9940 0.9891
0.4657 2.5213 -0.9940 0.9891
0.4288 2.5279 -0.9940 0.9891
0.3918 2.5339 -0.9940 0.9891
0.2432 2.5526 -0.9941 0.9891
0.2059 2.5559 -0.9941 0.9891
0.1685 2.5587 -0.9941 0.9891
0.0937 2.5626 -0.9941 0.9891
-0.0187 2.5644 -0.9942 0.9891
-0.0937 2.5628 -0.9942 0.9891
-0.2432 2.5531 -0.9943 0.9891
-0.4659 2.5223 -0.9944 0.9891
-0.1161 0.5811 -0.2298 0.9975
-0.1461 0.5270 -0.2120 0.9977
-0.1518 0.5182 -0.2093 0.9977
-0.1573 0.5094 -0.2067 0.9977
-0.1627 0.5007 -0.2041 0.9977
-0.1730 0.4839 -0.1992 0.9978
-0.1779 0.4756 -0.1969 0.9978
-0.1827 0.4674 -0.1946 0.9978
-0.1919 0.4514 -0.1902 0.9979
-0.2005 0.4359 -0.1860 0.9979
-0.2046 0.4283 -0.1840 0.9980
-0.2086 0.4207 -0.1820 0.9980
-0.2163 0.4059 -0.1783 0.9980
-0.2269 0.3843 -0.1730 0.9981
-0.2369 0.3637 -0.1683 0.9981
-0.2400 0.3571 -0.1668 0.9982
-0.2488 0.3373 -0.1625 0.9982
-0.2516 0.3308 -0.1611 0.9982
-0.2595 0.3118 -0.1573 0.9983
-0.2640 0.2989 -0.1546 0.9983
-0.2679 0.2862 -0.1520 0.9983
-0.2698 0.2798 -0.1507 0.9983
-0.2750 0.2613 -0.1471 0.9984
-0.2767 0.2553 -0.1459 0.9984
-0.2798 0.2433 -0.1437 0.9984
-0.2826 0.2317 -0.1417 0.9984
-0.2852 0.2202 -0.1397 0.9985
-0.2910 0.1925 -0.1353 0.9985
-0.2923 0.1873 -0.1346 0.9985
-0.2948 0.1770 -0.1333 0.9985
-0.2959 0.1718 -0.1327 0.9985
-0.2970 0.1667 -0.1321 0.9985
-0.2981 0.1616 -0.1315 0.9985
-0.2992 0.1566 -0.1309 0.9986
-0.3020 0.1416 -0.1293 0.9986
-0.3028 0.1366 -0.1288 0.9986
-0.3035 0.1316 -0.1283 0.9986
-0.3042 0.1267 -0.1278 0.9986
-0.3055 0.1168 -0.1268 0.9986
-0.3071 0.1022 -0.1255 0.9986
-0.3075 0.0975 -0.1251 0.9986
-0.3087 0.0831 -0.1239 0.9986
-0.3093 0.0737 -0.1233 0.9986
-0.3101 0.0550 -0.1221 0.9986
-0.3103 0.0503 -0.1218 0.9987
-0.3104 0.0319 -0.1210 0.9987
-0.3104 0.0273 -0.1208 0.9987
-0.3103 0.0227 -0.1206 0.9987
-0.3103 0.0182 -0.1205 0.9987
-0.3099 0.0091 -0.1202 0.9987
-0.3048 0.0000 -0.1221 0.9987
-0.3050 -0.0044 -0.1222 0.9987
-0.3054 -0.0179 -0.1225 0.9987
-0.3055 -0.0223 -0.1227 0.9987
-0.3056 -0.0314 -0.1230 0.9987
-0.3056 -0.0359 -0.1232 0.9987
-0.3054 -0.0495 -0.1239 0.9987
-0.3053 -0.0541 -0.1242 0.9987
-0.3049 -0.0632 -0.1247 0.9987
-0.3047 -0.0679 -0.1250 0.9987
-0.3044 -0.0725 -0.1253 0.9987
-0.3038 -0.0818 -0.1260 0.9986
-0.3030 -0.0912 -0.1267 0.9986
-0.3026 -0.0959 -0.1271 0.9986
-0.3021 -0.1006 -0.1275 0.9986
-0.3016 -0.1054 -0.1280 0.9986
-0.3011 -0.1101 -0.1284 0.9986
-0.3005 -0.1150 -0.1289 0.9986
-0.2999 -0.1198 -0.1293 0.9986
-0.2993 -0.1246 -0.1298 0.9986
-0.2970 -0.1393 -0.1314 0.9986
-0.2951 -0.1490 -0.1324 0.9986
-0.2942 -0.1539 -0.1330 0.9986
-0.2909 -0.1689 -0.1347 0.9986
-0.2897 -0.1739 -0.1353 0.9985
-0.2860 -0.1892 -0.1373 0.9985
-0.2847 -0.1944 -0.1380 0.9985
-0.2835 -0.1997 -0.1389 0.9985
-0.2799 -0.2161 -0.1416 0.9985
-0.2786 -0.2217 -0.1426 0.9985
-0.2773 -0.2273 -0.1436 0.9985
-0.2759 -0.2330 -0.1446 0.9984
-0.2729 -0.2445 -0.1467 0.9984
-0.2680 -0.2621 -0.1501 0.9984
-0.2662 -0.2682 -0.1513 0.9984
-0.2625 -0.2804 -0.1538 0.9983
-0.2586 -0.2928 -0.1564 0.9983
-0.2565 -0.2991 -0.1578 0.9983
-0.2491 -0.3177 -0.1617 0.9983
-0.2464 -0.3239 -0.1630 0.9982
-0.2437 -0.3302 -0.1643 0.9982
-0.2348 -0.3493 -0.1686 0.9982
-0.2285 -0.3624 -0.1716 0.9982
-0.2253 -0.3691 -0.1732 0.9981
-0.2184 -0.3825 -0.1764 0.9981
-0.2149 -0.3895 -0.1781 0.9981
-0.2112 -0.3964 -0.1799 0.9981
-0.2075 -0.4036 -0.1817 0.9980
-0.2036 -0.4107 -0.1836 0.9980
-0.1997 -0.4180 -0.1855 0.9980
-0.1914 -0.4328 -0.1895 0.9980
-0.1871 -0.4403 -0.1916 0.9979
-0.1826 -0.4479 -0.1937 0.9979
-0.1734 -0.4634 -0.1982 0.9979
-0.1685 -0.4714 -0.2005 0.9978
-0.1635 -0.4793 -0.2028 0.9978
-0.1584 -0.4875 -0.2053 0.9978
-0.1477 -0.5041 -0.2104 0.9977
-0.1421 -0.5125 -0.2130 0.9977
-0.1362 -0.5211 -0.2157 0.9977
-0.1303 -0.5298 -0.2185 0.9977
-0.1046 -0.5660 -0.2305 0.9975
-0.4089 -2.4104 -0.9791 0.9895
-0.2318 -2.4336 -0.9790 0.9895
-0.1962 -2.4367 -0.9790 0.9895
-0.1606 -2.4393 -0.9790 0.9895
-0.0179 -2.4443 -0.9789 0.9895
0.0178 -2.4443 -0.9789 0.9895
0.0536 -2.4437 -0.9789 0.9895
0.0893 -2.4427 -0.9789 0.9895
0.1606 -2.4390 -0.9789 0.9895
0.1962 -2.4363 -0.9789 0.9895
0.2673 -2.4294 -0.9788 0.9895
0.4087 -2.4095 -0.9788 0.9895
0.4790 -2.3965 -0.9787 0.9895
0.5835 -2.3731 -0.9787 0.9895
0.6181 -2.3643 -0.9787 0.9895
0.6869 -2.3451 -0.9787 0.9895
0.7211 -2.3348 -0.9786 0.9895
0.7890 -2.3127 -0.9786 0.9895
0.8227 -2.3009 -0.9786 0.9895
0.9227 -2.2625 -0.9786 0.9895
1.0209 -2.2198 -0.9785 0.9895
1.1171 -2.1729 -0.9785 0.9895
1.2113 -2.1217 -0.9784 0.9895
1.2421 -2.1038 -0.9784 0.9895
1.2727 -2.0854 -0.9784 0.9895
1.3030 -2.0665 -0.9784 0.9895
1.3331 -2.0472 -0.9784 0.9895
1.3628 -2.0276 -0.9784 0.9895
1.3922 -2.0074 -0.9784 0.9895
1.4575 -1.9755 -0.9832 0.9895
1.4948 -1.9654 -0.9889 0.9894
1.5305 -1.9525 -0.9936 0.9894
1.5589 -1.9299 -0.9935 0.9894
1.5869 -1.9069 -0.9935 0.9894
1.6419 -1.8596 -0.9935 0.9894
1.7218 -1.7858 -0.9935 0.9894
1.7983 -1.7086 -0.9934 0.9894
1.9181 -1.5727 -0.9934 0.9894
1.9409 -1.5445 -0.9934 0.9894
1.9632 -1.5160 -0.9934 0.9894
2.0067 -1.4579 -0.9934 0.9894
2.0484 -1.3986 -0.9933 0.9894
2.0686 -1.3686 -0.9933 0.9894
2.1265 -1.2766 -0.9933 0.9894
2.1804 -1.1821 -0.9933 0.9894
2.1974 -1.1501 -0.9933 0.9894
2.2301 -1.0854 -0.9933 0.9894
2.2456 -1.0527 -0.9933 0.9894
2.2608 -1.0198 -0.9933 0.9894
2.2896 -0.9532 -0.9932 0.9894
2.3642 -0.7491 -0.9932 0.9894
2.4039 -0.6097 -0.9932 0.9894
2.4206 -0.5392 -0.9932 0.9894
2.4282 -0.5038 -0.9932 0.9894
2.4353 -0.4682 -0.9932 0.9894
2.4419 -0.4326 -0.9932 0.9894
2.4480 -0.3969 -0.9932 0.9894
2.4630 -0.2893 -0.9932 0.9894
2.4670 -0.2532 -0.9932 0.9894
2.4789 -0.0725 -0.9932 0.9894
2.4799 0.0000 -0.9932 0.9894
2.4796 0.0362 -0.9932 0.9894
2.4775 0.1087 -0.9932 0.9894
2.4757 0.1449 -0.9932 0.9894
2.4733 0.1810 -0.9932 0.9894
2.4670 0.2532 -0.9932 0.9894
2.4585 0.3252 -0.9932 0.9894
2.4535 0.3611 -0.9932 0.9894
2.4419 0.4326 -0.9932 0.9894
2.4353 0.4683 -0.9932 0.9894
2.4206 0.5392 -0.9932 0.9894
2.4125 0.5746 -0.9932 0.9894
2.3947 0.6448 -0.9932 0.9894
2.3851 0.6797 -0.9932 0.9894
2.3530 0.7836 -0.9932 0.9894
2.3413 0.8179 -0.9932 0.9894
2.3291 0.8520 -0.9932 0.9894
2.3032 0.9197 -0.9932 0.9894
2.2896 0.9532 -0.9932 0.9894
2.2300 1.0854 -0.9933 0.9894
2.2139 1.1179 -0.9933 0.9894
2.1804 1.1821 -0.9933 0.9894
2.1628 1.2139 -0.9933 0.9894
2.1265 1.2766 -0.9933 0.9894
2.0883 1.3382 -0.9933 0.9894
1.9852 1.4871 -0.9934 0.9894
1.9633 1.5160 -0.9934 0.9894
1.9409 1.5445 -0.9934 0.9894
1.9181 1.5727 -0.9934 0.9894
1.8950 1.6006 -0.9934 0.9894
1.8714 1.6282 -0.9934 0.9894
1.6419 1.8597 -0.9935 0.9894
1.5869 1.9069 -0.9935 0.9894
1.5589 1.9299 -0.9935 0.9894
1.5306 1.9525 -0.9936 0.9894
1.5019 1.9746 -0.9936 0.9894
1.4436 2.0177 -0.9936 0.9894
1.4139 2.0386 -0.9936 0.9894
1.3840 2.0591 -0.9936 0.9894
1.3233 2.0987 -0.9936 0.9894
1.2925 2.1179 -0.9937 0.9894
1.2614 2.1366 -0.9937 0.9894
1.1985 2.1725 -0.9937 0.9894
1.1345 2.2067 -0.9937 0.9894
1.1022 2.2231 -0.9937 0.9894
1.0696 2.2389 -0.9937 0.9894
0.9371 2.2978 -0.9938 0.9894
0.8695 2.3242 -0.9938 0.9894
0.8012 2.3487 -0.9939 0.9894
0.6277 2.4011 -0.9939 0.9894
0.4864 2.4338 -0.9940 0.9894
0.4508 2.4407 -0.9940 0.9894
0.4151 2.4471 -0.9940 0.9894
0.3793 2.4529 -0.9940 0.9894
0.2715 2.4673 -0.9941 0.9894
0.2354 2.4710 -0.9941 0.9894
0.1631 2.4769 -0.9941 0.9894
0.0906 2.4807 -0.9941 0.9894
0.0544 2.4818 -0.9942 0.9894
-0.0544 2.4819 -0.9942 0.9894
-0.0907 2.4809 -0.9942 0.9894
-0.1269 2.4793 -0.9942 0.9894
-0.1631 2.4772 -0.9942 0.9894
-0.3795 2.4536 -0.9943 0.9894
-0.4153 2.4479 -0.9943 0.9894
-0.1113 0.5568 -0.2274 0.9976
-0.1303 0.5298 -0.2185 0.9977
-0.1362 0.5212 -0.2157 0.9977
-0.1420 0.5126 -0.2130 0.9977
-0.1477 0.5041 -0.2104 0.9977
-0.1584 0.4875 -0.2053 0.9978
-0.1734 0.4634 -0.1982 0.9979
-0.1781 0.4557 -0.1959 0.9979
-0.1914 0.4328 -0.1895 0.9980
-0.1956 0.4254 -0.1875 0.9980
-0.2075 0.4036 -0.1817 0.9980
-0.2112 0.3965 -0.1799 0.9981
-0.2148 0.3895 -0.1781 0.9981
-0.2184 0.3825 -0.1764 0.9981
-0.2219 0.3758 -0.1748 0.9981
-0.2379 0.3430 -0.1671 0.9982
-0.2491 0.3178 -0.1617 0.9983
-0.2543 0.3055 -0.1592 0.9983
-0.2565 0.2992 -0.1578 0.9983
-0.2585 0.2929 -0.1564 0.9983
-0.2606 0.2866 -0.1551 0.9983
-0.2625 0.2804 -0.1538 0.9983
-0.2644 0.2743 -0.1526 0.9984
-0.2662 0.2682 -0.1513 0.9984
-0.2697 0.2562 -0.1490 0.9984
-0.2729 0.2445 -0.1467 0.9984
-0.2773 0.2273 -0.1436 0.9985
-0.2823 0.2051 -0.1398 0.9985
-0.2835 0.1997 -0.1389 0.9985
-0.2847 0.1943 -0.1380 0.9985
-0.2873 0.1841 -0.1367 0.9985
-0.2885 0.1790 -0.1360 0.9985
-0.2898 0.1739 -0.1353 0.9985
-0.2909 0.1689 -0.1347 0.9986
-0.2920 0.1639 -0.1341 0.9986
-0.2931 0.1589 -0.1335 0.9986
-0.2951 0.1490 -0.1324 0.9986
-0.2961 0.1441 -0.1319 0.9986
-0.2970 0.1393 -0.1314 0.9986
-0.2986 0.1295 -0.1303 0.9986
-0.2992 0.1246 -0.1298 0.9986
-0.2999 0.1198 -0.1293 0.9986
-0.3011 0.1102 -0.1284 0.9986
-0.3021 0.1006 -0.1275 0.9986
-0.3026 0.0959 -0.1271 0.9986
-0.3030 0.0912 -0.1267 0.9986
-0.3034 0.0865 -0.1264 0.9986
-0.3038 0.0818 -0.1260 0.9986
-0.3041 0.0771 -0.1257 0.9986
-0.3049 0.0633 -0.1247 0.9987
-0.3051 0.0587 -0.1244 0.9987
-0.3053 0.0541 -0.1242 0.9987
-0.3056 0.0404 -0.1234 0.9987
-0.3056 0.0314 -0.1230 0.9987
-0.3055 0.0224 -0.1227 0.9987
-0.3050 0.0045 -0.1222 0.9987
-0.3001 0.0000 -0.1241 0.9987
-0.3005 -0.0088 -0.1243 0.9987
-0.3006 -0.0132 -0.1244 0.9987
-0.3008 -0.0220 -0.1247 0.9987
-0.3009 -0.0264 -0.1249 0.9987
-0.3009 -0.0309 -0.1251 0.9987
-0.3005 -0.0532 -0.1262 0.9987
-0.3004 -0.0578 -0.1264 0.9987
-0.3001 -0.0623 -0.1267 0.9987
-0.2999 -0.0668 -0.1270 0.9987
-0.2996 -0.0714 -0.1273 0.9987
-0.2993 -0.0759 -0.1277 0.9987
-0.2987 -0.0851 -0.1284 0.9987
-0.2973 -0.0990 -0.1296 0.9986
-0.2963 -0.1084 -0.1304 0.9986
-0.2957 -0.1131 -0.1309 0.9986
-0.2951 -0.1179 -0.1313 0.9986
-0.2903 -0.1466 -0.1344 0.9986
-0.2882 -0.1562 -0.1355 0.9986
-0.2871 -0.1611 -0.1361 0.9986
-0.2837 -0.1759 -0.1380 0.9986
-0.2797 -0.1910 -0.1400 0.9985
-0.2784 -0.1961 -0.1408 0.9985
-0.2772 -0.2014 -0.1417 0.9985
-0.2760 -0.2068 -0.1426 0.9985
-0.2692 -0.2342 -0.1475 0.9985
-0.2677 -0.2398 -0.1486 0.9984
-0.2645 -0.2512 -0.1508 0.9984
-0.2610 -0.2629 -0.1531 0.9984
-0.2592 -0.2688 -0.1544 0.9984
