ply
format ascii 1.0
element vertex 1595
property float32 x
property float32 y
property float32 z
property float32 I
end_header
1.2536 2.4382 -0.9936 0.9884
1.2179 2.4563 -0.9936 0.9884
1.1456 2.4909 -0.9936 0.9884
1.1091 2.5075 -0.9936 0.9884
1.0723 2.5234 -0.9936 0.9884
0.9608 2.5681 -0.9937 0.9884
0.8853 2.5951 -0.9937 0.9884
0.7322 2.6426 -0.9938 0.9884
0.6936 2.6530 -0.9938 0.9884
0.5767 2.6810 -0.9938 0.9884
0.4587 2.7038 -0.9939 0.9884
0.4191 2.7103 -0.9939 0.9884
0.3795 2.7162 -0.9939 0.9884
0.3397 2.7214 -0.9939 0.9884
0.3000 2.7262 -0.9939 0.9884
0.2601 2.7303 -0.9940 0.9884
0.1402 2.7393 -0.9940 0.9884
0.0601 2.7423 -0.9940 0.9884
-0.0200 2.7429 -0.9941 0.9884
-0.0601 2.7424 -0.9941 0.9884
-0.2202 2.7343 -0.9941 0.9884
-0.2601 2.7309 -0.9942 0.9884
-0.3398 2.7222 -0.9942 0.9884
-0.3796 2.7170 -0.9942 0.9884
-0.4588 2.7048 -0.9942 0.9884
-0.6161 2.6736 -0.9943 0.9884
-0.1495 0.6083 -0.2270 0.9973
-0.1612 0.5502 -0.2078 0.9976
-0.1667 0.5397 -0.2047 0.9976
-0.1720 0.5293 -0.2017 0.9976
-0.1773 0.5198 -0.1990 0.9977
-0.1826 0.5107 -0.1965 0.9977
-0.1876 0.5016 -0.1941 0.9977
-0.1926 0.4927 -0.1917 0.9978
-0.1973 0.4839 -0.1894 0.9978
-0.2020 0.4752 -0.1871 0.9978
-0.2064 0.4667 -0.1849 0.9978
-0.2150 0.4500 -0.1807 0.9979
-0.2190 0.4419 -0.1787 0.9979
-0.2230 0.4338 -0.1768 0.9979
-0.2377 0.4027 -0.1695 0.9980
-0.2444 0.3877 -0.1661 0.9981
-0.2508 0.3732 -0.1630 0.9981
-0.2569 0.3591 -0.1600 0.9981
-0.2598 0.3522 -0.1586 0.9981
-0.2653 0.3385 -0.1559 0.9982
-0.2680 0.3318 -0.1546 0.9982
-0.2730 0.3185 -0.1520 0.9982
-0.2753 0.3119 -0.1508 0.9982
-0.2773 0.3050 -0.1494 0.9982
-0.2792 0.2983 -0.1481 0.9983
-0.2863 0.2720 -0.1431 0.9983
-0.2879 0.2656 -0.1420 0.9983
-0.2909 0.2531 -0.1397 0.9984
-0.2923 0.2470 -0.1387 0.9984
-0.2937 0.2409 -0.1376 0.9984
-0.2950 0.2348 -0.1366 0.9984
-0.2962 0.2288 -0.1357 0.9984
-0.2975 0.2229 -0.1347 0.9984
-0.2986 0.2170 -0.1338 0.9984
-0.2997 0.2112 -0.1329 0.9984
-0.3008 0.2054 -0.1320 0.9985
-0.3040 0.1886 -0.1297 0.9985
-0.3052 0.1832 -0.1290 0.9985
-0.3064 0.1779 -0.1284 0.9985
-0.3075 0.1726 -0.1278 0.9985
-0.3085 0.1673 -0.1272 0.9985
-0.3145 0.1310 -0.1235 0.9986
-0.3151 0.1259 -0.1230 0.9986
-0.3163 0.1157 -0.1220 0.9986
-0.3168 0.1107 -0.1216 0.9986
-0.3177 0.1007 -0.1208 0.9986
-0.3198 0.0663 -0.1184 0.9986
-0.3200 0.0616 -0.1181 0.9986
-0.3201 0.0567 -0.1178 0.9986
-0.3203 0.0424 -0.1171 0.9986
-0.3204 0.0376 -0.1169 0.9986
-0.3203 0.0282 -0.1165 0.9986
-0.3202 0.0234 -0.1164 0.9986
-0.3198 0.0094 -0.1159 0.9986
-0.3148 -0.0092 -0.1181 0.9987
-0.3149 -0.0138 -0.1182 0.9987
-0.3151 -0.0184 -0.1184 0.9987
-0.3152 -0.0231 -0.1185 0.9987
-0.3153 -0.0417 -0.1193 0.9986
-0.3153 -0.0464 -0.1195 0.9986
-0.3151 -0.0558 -0.1200 0.9986
-0.3147 -0.0653 -0.1205 0.9986
-0.3129 -0.0941 -0.1226 0.9986
-0.3125 -0.0991 -0.1229 0.9986
-0.3121 -0.1039 -0.1234 0.9986
-0.3111 -0.1138 -0.1242 0.9986
-0.3105 -0.1187 -0.1247 0.9986
-0.3099 -0.1237 -0.1251 0.9986
-0.3093 -0.1287 -0.1256 0.9986
-0.3086 -0.1338 -0.1261 0.9986
-0.3079 -0.1389 -0.1267 0.9986
-0.3062 -0.1490 -0.1277 0.9985
-0.3043 -0.1592 -0.1288 0.9985
-0.3032 -0.1644 -0.1294 0.9985
-0.3022 -0.1696 -0.1299 0.9985
-0.2999 -0.1801 -0.1312 0.9985
-0.2962 -0.1960 -0.1332 0.9985
-0.2952 -0.2016 -0.1340 0.9985
-0.2941 -0.2072 -0.1349 0.9985
-0.2880 -0.2362 -0.1397 0.9984
-0.2852 -0.2481 -0.1418 0.9984
-0.2837 -0.2542 -0.1429 0.9984
-0.2822 -0.2604 -0.1440 0.9984
-0.2806 -0.2666 -0.1451 0.9983
-0.2735 -0.2920 -0.1501 0.9983
-0.2696 -0.3053 -0.1527 0.9983
-0.2624 -0.3248 -0.1566 0.9982
-0.2542 -0.3446 -0.1606 0.9982
-0.2483 -0.3581 -0.1634 0.9981
-0.2421 -0.3719 -0.1664 0.9981
-0.2389 -0.3789 -0.1680 0.9981
-0.2356 -0.3860 -0.1696 0.9981
-0.2251 -0.4081 -0.1748 0.9980
-0.2176 -0.4233 -0.1785 0.9980
-0.2055 -0.4468 -0.1844 0.9979
-0.2012 -0.4549 -0.1865 0.9979
-0.1922 -0.4713 -0.1909 0.9978
-0.1875 -0.4798 -0.1932 0.9978
-0.1777 -0.4969 -0.1979 0.9977
-0.1725 -0.5057 -0.2004 0.9977
-0.1672 -0.5146 -0.2029 0.9977
-0.1617 -0.5237 -0.2055 0.9977
-0.1385 -0.5632 -0.2175 0.9975
-0.1332 -0.5781 -0.2225 0.9975
-0.3612 -2.5855 -0.9790 0.9889
-0.2476 -2.5987 -0.9789 0.9889
-0.1334 -2.6070 -0.9789 0.9889
-0.0953 -2.6086 -0.9789 0.9889
-0.0190 -2.6102 -0.9788 0.9889
0.0191 -2.6102 -0.9788 0.9889
0.0572 -2.6096 -0.9788 0.9889
0.1335 -2.6066 -0.9788 0.9889
0.2096 -2.6016 -0.9787 0.9889
0.2476 -2.5982 -0.9787 0.9889
0.3233 -2.5898 -0.9787 0.9889
0.3988 -2.5791 -0.9787 0.9889
0.4365 -2.5730 -0.9786 0.9889
0.5115 -2.5591 -0.9786 0.9889
0.5488 -2.5513 -0.9786 0.9889
0.6231 -2.5341 -0.9786 0.9889
0.6601 -2.5247 -0.9786 0.9889
0.7335 -2.5043 -0.9785 0.9889
0.8785 -2.4570 -0.9785 0.9889
0.9143 -2.4438 -0.9784 0.9889
1.0204 -2.4013 -0.9784 0.9889
1.0902 -2.3704 -0.9784 0.9889
1.1929 -2.3202 -0.9783 0.9889
1.2267 -2.3025 -0.9783 0.9889
1.4235 -2.1861 -0.9782 0.9889
1.4867 -2.1435 -0.9782 0.9889
1.5179 -2.1216 -0.9782 0.9889
1.5487 -2.0991 -0.9782 0.9889
1.6093 -2.0529 -0.9782 0.9889
1.8133 -1.8807 -0.9797 0.9889
1.8542 -1.8678 -0.9869 0.9888
1.8934 -1.8524 -0.9933 0.9887
1.9203 -1.8245 -0.9933 0.9887
1.9467 -1.7962 -0.9933 0.9887
1.9983 -1.7386 -0.9933 0.9887
2.0235 -1.7091 -0.9932 0.9887
2.0725 -1.6493 -0.9932 0.9887
2.0964 -1.6187 -0.9932 0.9887
2.1198 -1.5880 -0.9932 0.9887
2.1428 -1.5568 -0.9932 0.9887
2.1653 -1.5253 -0.9932 0.9887
2.1873 -1.4934 -0.9932 0.9887
2.2088 -1.4614 -0.9932 0.9887
2.2300 -1.4289 -0.9932 0.9887
2.2506 -1.3962 -0.9932 0.9887
2.2904 -1.3298 -0.9931 0.9887
2.3464 -1.2281 -0.9931 0.9887
2.3813 -1.1590 -0.9931 0.9888
2.3979 -1.1241 -0.9931 0.9888
2.4141 -1.0889 -0.9931 0.9888
2.4448 -1.0179 -0.9931 0.9888
2.4594 -0.9821 -0.9931 0.9888
2.4871 -0.9098 -0.9931 0.9888
2.5001 -0.8733 -0.9931 0.9888
2.5245 -0.7999 -0.9930 0.9888
2.5359 -0.7629 -0.9930 0.9888
2.5468 -0.7258 -0.9930 0.9888
2.5571 -0.6885 -0.9930 0.9888
2.5669 -0.6510 -0.9930 0.9888
2.5761 -0.6135 -0.9930 0.9888
2.5929 -0.5380 -0.9930 0.9888
2.6199 -0.3855 -0.9930 0.9888
2.6253 -0.3472 -0.9930 0.9888
2.6379 -0.2319 -0.9930 0.9888
2.6410 -0.1933 -0.9930 0.9888
2.6435 -0.1547 -0.9930 0.9888
2.6481 0.0000 -0.9930 0.9888
2.6455 0.1161 -0.9930 0.9888
2.6436 0.1547 -0.9930 0.9888
2.6411 0.1933 -0.9930 0.9888
2.6379 0.2319 -0.9930 0.9888
2.6252 0.3473 -0.9930 0.9888
2.6075 0.4620 -0.9930 0.9888
2.6005 0.5000 -0.9930 0.9888
2.5848 0.5758 -0.9930 0.9888
2.5761 0.6135 -0.9930 0.9888
2.4871 0.9098 -0.9931 0.9888
2.4735 0.9460 -0.9931 0.9888
2.4595 0.9821 -0.9931 0.9888
2.3813 1.1591 -0.9931 0.9887
2.3641 1.1938 -0.9931 0.9887
2.2904 1.3298 -0.9931 0.9887
2.2506 1.3962 -0.9932 0.9887
2.1653 1.5254 -0.9932 0.9887
2.1428 1.5568 -0.9932 0.9887
2.1198 1.5880 -0.9932 0.9887
2.0964 1.6188 -0.9932 0.9887
2.0726 1.6493 -0.9932 0.9887
2.0483 1.6794 -0.9932 0.9887
1.9983 1.7386 -0.9933 0.9887
1.9727 1.7676 -0.9933 0.9887
1.9203 1.8245 -0.9933 0.9887
1.8934 1.8524 -0.9933 0.9887
1.8662 1.8799 -0.9933 0.9887
1.8105 1.9337 -0.9933 0.9887
1.7821 1.9599 -0.9933 0.9887
1.7241 2.0112 -0.9934 0.9887
1.6037 2.1086 -0.9934 0.9887
1.5728 2.1319 -0.9934 0.9887
1.5415 2.1546 -0.9934 0.9887
1.5098 2.1770 -0.9935 0.9887
1.4457 2.2202 -0.9935 0.9887
1.3802 2.2615 -0.9935 0.9887
1.3135 2.3009 -0.9935 0.9887
1.2798 2.3199 -0.9935 0.9887
1.1770 2.3739 -0.9936 0.9887
1.1422 2.3909 -0.9936 0.9887
1.1071 2.4073 -0.9936 0.9887
1.0719 2.4233 -0.9936 0.9887
1.0363 2.4388 -0.9936 0.9887
0.9285 2.4819 -0.9937 0.9887
0.8922 2.4952 -0.9937 0.9887
0.8189 2.5204 -0.9937 0.9887
0.7820 2.5320 -0.9937 0.9887
0.7449 2.5432 -0.9938 0.9887
0.7077 2.5539 -0.9938 0.9887
0.6703 2.5640 -0.9938 0.9887
0.5951 2.5826 -0.9938 0.9887
0.5574 2.5910 -0.9938 0.9887
0.4814 2.6063 -0.9939 0.9887
0.3668 2.6250 -0.9939 0.9887
0.3284 2.6302 -0.9939 0.9887
0.2899 2.6347 -0.9939 0.9887
0.2514 2.6387 -0.9940 0.9887
0.2128 2.6421 -0.9940 0.9887
0.1742 2.6450 -0.9940 0.9887
0.1355 2.6473 -0.9940 0.9887
0.0581 2.6502 -0.9940 0.9887
0.0194 2.6508 -0.9940 0.9887
-0.0193 2.6509 -0.9941 0.9887
-0.0581 2.6503 -0.9941 0.9887
-0.0968 2.6492 -0.9941 0.9887
-0.1355 2.6476 -0.9941 0.9887
-0.2128 2.6426 -0.9941 0.9887
-0.2900 2.6353 -0.9942 0.9887
-0.4052 2.6202 -0.9942 0.9887
-0.4434 2.6141 -0.9942 0.9887
-0.5196 2.6000 -0.9943 0.9887
-0.1385 0.5632 -0.2175 0.9975
-0.1503 0.5423 -0.2110 0.9976
-0.1561 0.5329 -0.2082 0.9976
-0.1617 0.5237 -0.2055 0.9977
-0.1672 0.5146 -0.2029 0.9977
-0.1725 0.5057 -0.2004 0.9977
-0.1875 0.4798 -0.1932 0.9978
-0.1922 0.4714 -0.1909 0.9978
-0.1968 0.4631 -0.1887 0.9979
-0.2097 0.4389 -0.1824 0.9979
-0.2251 0.4081 -0.1748 0.9980
-0.2287 0.4007 -0.1730 0.9980
-0.2356 0.3861 -0.1696 0.9981
-0.2422 0.3719 -0.1664 0.9981
-0.2453 0.3650 -0.1649 0.9981
-0.2483 0.3581 -0.1634 0.9981
-0.2513 0.3513 -0.1620 0.9982
-0.2597 0.3314 -0.1579 0.9982
-0.2624 0.3248 -0.1566 0.9982
-0.2789 0.2729 -0.1463 0.9983
-0.2866 0.2422 -0.1407 0.9984
-0.2880 0.2362 -0.1397 0.9984
-0.2894 0.2303 -0.1387 0.9984
-0.2919 0.2186 -0.1368 0.9984
-0.2930 0.2129 -0.1358 0.9985
-0.2941 0.2073 -0.1349 0.9985
-0.2962 0.1960 -0.1332 0.9985
-0.3032 0.1645 -0.1294 0.9985
-0.3043 0.1593 -0.1288 0.9985
-0.3053 0.1541 -0.1282 0.9985
-0.3093 0.1287 -0.1256 0.9986
-0.3099 0.1238 -0.1251 0.9986
-0.3111 0.1138 -0.1242 0.9986
-0.3116 0.1089 -0.1238 0.9986
-0.3121 0.1040 -0.1234 0.9986
-0.3125 0.0991 -0.1229 0.9986
-0.3140 0.0796 -0.1215 0.9986
-0.3150 0.0559 -0.1200 0.9986
-0.3152 0.0511 -0.1197 0.9986
-0.3153 0.0464 -0.1195 0.9986
-0.3153 0.0417 -0.1193 0.9986
-0.3153 0.0370 -0.1191 0.9986
-0.3153 0.0324 -0.1189 0.9986
-0.3152 0.0231 -0.1185 0.9987
-0.3146 0.0046 -0.1180 0.9987
-0.3100 -0.0136 -0.1203 0.9987
-0.3102 -0.0182 -0.1205 0.9987
-0.3104 -0.0273 -0.1208 0.9987
-0.3104 -0.0364 -0.1212 0.9987
-0.3104 -0.0411 -0.1214 0.9987
-0.3103 -0.0457 -0.1216 0.9987
-0.3101 -0.0549 -0.1221 0.9986
-0.3097 -0.0643 -0.1226 0.9986
-0.3095 -0.0689 -0.1229 0.9986
-0.3090 -0.0784 -0.1236 0.9986
-0.3087 -0.0831 -0.1239 0.9986
-0.3079 -0.0927 -0.1247 0.9986
-0.3070 -0.1022 -0.1255 0.9986
-0.3060 -0.1119 -0.1263 0.9986
-0.3011 -0.1465 -0.1298 0.9986
-0.2991 -0.1566 -0.1309 0.9986
-0.2948 -0.1770 -0.1333 0.9985
-0.2936 -0.1821 -0.1339 0.9985
-0.2923 -0.1873 -0.1346 0.9985
-0.2876 -0.2089 -0.1378 0.9985
-0.2852 -0.2202 -0.1397 0.9985
-0.2839 -0.2259 -0.1407 0.9984
-0.2812 -0.2375 -0.1427 0.9984
-0.2797 -0.2434 -0.1437 0.9984
-0.2767 -0.2552 -0.1459 0.9984
-0.2750 -0.2613 -0.1471 0.9984
-0.2698 -0.2798 -0.1507 0.9983
-0.2660 -0.2925 -0.1533 0.9983
-0.2639 -0.2989 -0.1546 0.9983
-0.2618 -0.3055 -0.1560 0.9983
-0.2570 -0.3181 -0.1585 0.9982
-0.2543 -0.3244 -0.1598 0.9982
-0.2516 -0.3308 -0.1611 0.9982
-0.2488 -0.3373 -0.1625 0.9982
-0.2459 -0.3438 -0.1639 0.9982
-0.2430 -0.3504 -0.1653 0.9982
-0.2400 -0.3570 -0.1668 0.9982
-0.2303 -0.3774 -0.1714 0.9981
-0.2269 -0.3843 -0.1730 0.9981
-0.2234 -0.3914 -0.1747 0.9981
-0.2199 -0.3986 -0.1765 0.9980
-0.2124 -0.4132 -0.1801 0.9980
-0.2086 -0.4207 -0.1820 0.9980
-0.2046 -0.4283 -0.1840 0.9980
-0.2004 -0.4359 -0.1860 0.9979
-0.1873 -0.4594 -0.1923 0.9979
-0.1827 -0.4674 -0.1946 0.9978
-0.1730 -0.4838 -0.1992 0.9978
-0.1679 -0.4922 -0.2016 0.9978
-0.1627 -0.5007 -0.2041 0.9977
-0.1573 -0.5093 -0.2067 0.9977
-0.1518 -0.5181 -0.2093 0.9977
-0.1460 -0.5270 -0.2120 0.9977
-0.1401 -0.5360 -0.2148 0.9976
-0.1340 -0.5452 -0.2177 0.9976
-0.1278 -0.5545 -0.2206 0.9976
-0.1215 -0.5647 -0.2239 0.9975
-0.3859 -2.4955 -0.9790 0.9892
-0.3128 -2.5056 -0.9789 0.9892
-0.2762 -2.5099 -0.9789 0.9892
-0.1290 -2.5216 -0.9789 0.9892
-0.0922 -2.5232 -0.9789 0.9892
-0.0184 -2.5247 -0.9788 0.9892
0.0185 -2.5247 -0.9788 0.9892
0.0554 -2.5241 -0.9788 0.9892
0.1291 -2.5214 -0.9788 0.9892
0.1659 -2.5191 -0.9787 0.9892
0.2027 -2.5164 -0.9787 0.9892
0.3493 -2.5001 -0.9787 0.9892
0.3858 -2.4947 -0.9787 0.9892
0.4222 -2.4887 -0.9786 0.9892
0.4585 -2.4823 -0.9786 0.9892
0.4947 -2.4753 -0.9786 0.9892
0.6027 -2.4512 -0.9786 0.9892
0.6741 -2.4324 -0.9785 0.9892
0.7448 -2.4116 -0.9785 0.9892
0.8149 -2.3887 -0.9785 0.9892
0.8497 -2.3765 -0.9785 0.9892
0.8844 -2.3638 -0.9785 0.9892
0.9188 -2.3506 -0.9784 0.9892
0.9531 -2.3370 -0.9784 0.9892
0.9871 -2.3227 -0.9784 0.9892
1.0209 -2.3080 -0.9784 0.9892
1.0545 -2.2928 -0.9784 0.9892
1.0879 -2.2771 -0.9784 0.9892
1.1210 -2.2609 -0.9784 0.9892
1.1865 -2.2272 -0.9783 0.9892
1.2829 -2.1730 -0.9783 0.9892
1.3459 -2.1345 -0.9783 0.9892
1.3769 -2.1146 -0.9783 0.9892
1.4381 -2.0734 -0.9782 0.9892
1.4980 -2.0305 -0.9782 0.9892
1.5275 -2.0083 -0.9782 0.9892
1.5855 -1.9628 -0.9782 0.9892
1.6140 -1.9394 -0.9782 0.9892
1.6422 -1.9155 -0.9782 0.9892
1.7057 -1.8759 -0.9829 0.9892
1.8315 -1.7918 -0.9933 0.9891
1.8575 -1.7648 -0.9933 0.9891
1.8830 -1.7375 -0.9933 0.9891
1.9329 -1.6817 -0.9933 0.9891
1.9573 -1.6532 -0.9933 0.9891
2.0278 -1.5658 -0.9932 0.9891
2.0504 -1.5360 -0.9932 0.9891
2.0727 -1.5059 -0.9932 0.9891
2.0944 -1.4754 -0.9932 0.9891
2.1769 -1.3505 -0.9932 0.9891
2.1964 -1.3185 -0.9932 0.9891
2.2340 -1.2537 -0.9932 0.9891
2.2696 -1.1880 -0.9931 0.9891
2.2868 -1.1546 -0.9931 0.9891
2.3195 -1.0873 -0.9931 0.9891
2.3351 -1.0533 -0.9931 0.9891
2.3503 -1.0191 -0.9931 0.9891
2.3926 -0.9151 -0.9931 0.9891
2.4304 -0.8093 -0.9931 0.9891
2.4530 -0.7380 -0.9931 0.9891
2.4635 -0.7020 -0.9931 0.9891
2.5081 -0.5203 -0.9931 0.9891
2.5154 -0.4837 -0.9930 0.9891
2.5222 -0.4468 -0.9930 0.9891
2.5285 -0.4099 -0.9930 0.9891
2.5394 -0.3359 -0.9930 0.9891
2.5440 -0.2987 -0.9930 0.9891
2.5481 -0.2615 -0.9930 0.9891
2.5571 -0.1496 -0.9930 0.9891
2.5590 -0.1123 -0.9930 0.9891
2.5612 -0.0374 -0.9930 0.9891
2.5612 0.0375 -0.9930 0.9891
2.5604 0.0748 -0.9930 0.9891
2.5571 0.1496 -0.9930 0.9891
2.5546 0.1870 -0.9930 0.9891
2.5440 0.2987 -0.9930 0.9891
2.5342 0.3730 -0.9930 0.9891
2.5285 0.4100 -0.9930 0.9891
2.5222 0.4468 -0.9930 0.9891
2.5081 0.5204 -0.9931 0.9891
2.5003 0.5570 -0.9931 0.9891
2.4829 0.6298 -0.9931 0.9891
2.4735 0.6660 -0.9931 0.9891
2.4419 0.7738 -0.9931 0.9891
2.4304 0.8094 -0.9931 0.9891
2.4183 0.8448 -0.9931 0.9891
2.4057 0.8800 -0.9931 0.9891
2.3926 0.9151 -0.9931 0.9891
2.3790 0.9500 -0.9931 0.9891
2.3503 1.0191 -0.9931 0.9891
2.2868 1.1547 -0.9931 0.9891
2.2696 1.1880 -0.9931 0.9891
2.2521 1.2210 -0.9932 0.9891
2.2340 1.2538 -0.9932 0.9891
2.2155 1.2863 -0.9932 0.9891
2.1571 1.3822 -0.9932 0.9891
2.1366 1.4136 -0.9932 0.9891
2.1157 1.4447 -0.9932 0.9891
2.0505 1.5361 -0.9932 0.9891
2.0047 1.5953 -0.9933 0.9891
1.9812 1.6245 -0.9933 0.9891
1.9082 1.7098 -0.9933 0.9891
1.8830 1.7375 -0.9933 0.9891
1.8315 1.7918 -0.9933 0.9891
1.8052 1.8184 -0.9933 0.9891
1.6959 1.9208 -0.9934 0.9891
1.6677 1.9454 -0.9934 0.9891
1.6391 1.9696 -0.9934 0.9891
1.5213 2.0621 -0.9934 0.9891
1.4605 2.1057 -0.9935 0.9891
1.4296 2.1269 -0.9935 0.9891
1.3984 2.1475 -0.9935 0.9891
1.3668 2.1678 -0.9935 0.9891
1.3350 2.1875 -0.9935 0.9891
1.3029 2.2068 -0.9935 0.9891
1.1385 2.2962 -0.9936 0.9891
1.1048 2.3126 -0.9936 0.9891
1.0709 2.3286 -0.9936 0.9891
1.0368 2.3440 -0.9936 0.9891
1.0024 2.3589 -0.9937 0.9891
0.9679 2.3733 -0.9937 0.9891
0.9331 2.3872 -0.9937 0.9891
0.8981 2.4007 -0.9937 0.9891
0.8630 2.4136 -0.9937 0.9891
0.7921 2.4379 -0.9937 0.9891
0.6484 2.4801 -0.9938 0.9891
0.5391 2.5062 -0.9938 0.9891
0.2804 2.5484 -0.9939 0.9891
0.2431 2.5523 -0.9940 0.9891
0.2058 2.5556 -0.9940 0.9891
0.1311 2.5607 -0.9940 0.9891
0.0936 2.5623 -0.9940 0.9891
0.0562 2.5634 -0.9940 0.9891
0.0187 2.5640 -0.9940 0.9891
-0.0187 2.5641 -0.9941 0.9891
-0.0562 2.5635 -0.9941 0.9891
-0.1311 2.5609 -0.9941 0.9891
-0.1685 2.5587 -0.9941 0.9891
-0.2059 2.5560 -0.9941 0.9891
-0.2804 2.5490 -0.9942 0.9891
-0.3177 2.5447 -0.9942 0.9891
-0.3919 2.5344 -0.9942 0.9891
-0.1161 0.5811 -0.2297 0.9975
-0.1401 0.5361 -0.2148 0.9976
-0.1573 0.5094 -0.2067 0.9977
-0.1730 0.4839 -0.1992 0.9978
-0.1779 0.4756 -0.1969 0.9978
-0.1918 0.4514 -0.1902 0.9979
-0.2004 0.4359 -0.1860 0.9979
-0.2046 0.4283 -0.1840 0.9980
-0.2086 0.4207 -0.1820 0.9980
-0.2269 0.3844 -0.1730 0.9981
-0.2303 0.3774 -0.1714 0.9981
-0.2336 0.3705 -0.1698 0.9981
-0.2400 0.3570 -0.1668 0.9982
-0.2460 0.3438 -0.1639 0.9982
-0.2488 0.3373 -0.1625 0.9982
-0.2569 0.3181 -0.1585 0.9982
-0.2595 0.3118 -0.1573 0.9983
-0.2619 0.3055 -0.1560 0.9983
-0.2639 0.2990 -0.1546 0.9983
-0.2679 0.2862 -0.1520 0.9983
-0.2716 0.2736 -0.1495 0.9983
-0.2733 0.2675 -0.1483 0.9984
-0.2750 0.2614 -0.1471 0.9984
-0.2782 0.2493 -0.1448 0.9984
-0.2797 0.2434 -0.1437 0.9984
-0.2826 0.2317 -0.1417 0.9984
-0.2839 0.2259 -0.1407 0.9984
-0.2852 0.2202 -0.1397 0.9985
-0.2864 0.2146 -0.1387 0.9985
-0.2898 0.1979 -0.1361 0.9985
-0.2936 0.1821 -0.1339 0.9985
-0.2948 0.1770 -0.1333 0.9985
-0.2959 0.1718 -0.1327 0.9985
-0.3001 0.1516 -0.1303 0.9986
-0.3020 0.1416 -0.1293 0.9986
-0.3028 0.1366 -0.1288 0.9986
-0.3042 0.1267 -0.1278 0.9986
-0.3048 0.1217 -0.1273 0.9986
-0.3054 0.1169 -0.1268 0.9986
-0.3075 0.0974 -0.1251 0.9986
-0.3079 0.0927 -0.1247 0.9986
-0.3083 0.0879 -0.1243 0.9986
-0.3093 0.0736 -0.1233 0.9986
-0.3095 0.0690 -0.1229 0.9986
-0.3097 0.0643 -0.1226 0.9986
-0.3102 0.0503 -0.1218 0.9987
-0.3104 0.0411 -0.1214 0.9987
-0.3104 0.0319 -0.1210 0.9987
-0.3103 0.0273 -0.1208 0.9987
-0.3103 0.0227 -0.1206 0.9987
-0.3100 0.0136 -0.1203 0.9987
-0.3099 0.0091 -0.1202 0.9987
-0.3097 0.0045 -0.1201 0.9987
-0.3053 -0.0134 -0.1224 0.9987
-0.3054 -0.0179 -0.1225 0.9987
-0.3056 -0.0269 -0.1229 0.9987
-0.3056 -0.0313 -0.1230 0.9987
-0.3056 -0.0404 -0.1234 0.9987
-0.3053 -0.0541 -0.1242 0.9987
-0.3051 -0.0587 -0.1244 0.9987
-0.3049 -0.0633 -0.1247 0.9987
-0.3044 -0.0725 -0.1253 0.9987
-0.3038 -0.0818 -0.1260 0.9986
-0.3034 -0.0865 -0.1264 0.9986
-0.3016 -0.1054 -0.1280 0.9986
-0.3011 -0.1102 -0.1284 0.9986
-0.3005 -0.1149 -0.1289 0.9986
-0.2931 -0.1589 -0.1335 0.9986
-0.2909 -0.1689 -0.1347 0.9986
-0.2873 -0.1841 -0.1367 0.9985
-0.2860 -0.1892 -0.1373 0.9985
-0.2835 -0.1997 -0.1389 0.9985
-0.2786 -0.2217 -0.1426 0.9985
-0.2758 -0.2330 -0.1446 0.9984
-0.2744 -0.2387 -0.1457 0.9984
-0.2729 -0.2445 -0.1467 0.9984
-0.2713 -0.2503 -0.1478 0.9984
-0.2679 -0.2621 -0.1501 0.9984
-0.2625 -0.2804 -0.1538 0.9983
-0.2585 -0.2928 -0.1564 0.9983
-0.2517 -0.3116 -0.1604 0.9983
-0.2491 -0.3178 -0.1617 0.9983
-0.2464 -0.3239 -0.1630 0.9982
-0.2436 -0.3302 -0.1643 0.9982
-0.2285 -0.3624 -0.1716 0.9982
-0.2148 -0.3895 -0.1781 0.9981
-0.2112 -0.3964 -0.1799 0.9981
-0.2075 -0.4035 -0.1817 0.9980
-0.2037 -0.4107 -0.1836 0.9980
-0.1871 -0.4403 -0.1916 0.9979
-0.1781 -0.4556 -0.1959 0.9979
-0.1734 -0.4634 -0.1982 0.9979
-0.1685 -0.4713 -0.2005 0.9978
-0.1584 -0.4875 -0.2053 0.9978
-0.1531 -0.4957 -0.2078 0.9978
-0.1420 -0.5125 -0.2130 0.9977
-0.1362 -0.5211 -0.2157 0.9977
-0.1303 -0.5298 -0.2185 0.9977
-0.1178 -0.5477 -0.2243 0.9976
-0.1113 -0.5567 -0.2274 0.9976
-0.2673 -2.4296 -0.9789 0.9895
-0.2318 -2.4332 -0.9789 0.9895
-0.1962 -2.4364 -0.9789 0.9895
-0.1606 -2.4389 -0.9789 0.9895
-0.0892 -2.4425 -0.9789 0.9895
-0.0536 -2.4435 -0.9788 0.9895
0.1250 -2.4407 -0.9788 0.9895
0.1606 -2.4386 -0.9788 0.9895
0.1962 -2.4360 -0.9787 0.9895
0.2318 -2.4328 -0.9787 0.9895
0.2673 -2.4291 -0.9787 0.9895
0.3027 -2.4249 -0.9787 0.9895
0.3381 -2.4202 -0.9787 0.9895
0.4087 -2.4093 -0.9787 0.9895
0.4438 -2.4030 -0.9786 0.9895
0.4789 -2.3962 -0.9786 0.9895
0.5139 -2.3889 -0.9786 0.9895
0.5834 -2.3728 -0.9786 0.9895
0.6525 -2.3547 -0.9786 0.9895
0.6868 -2.3448 -0.9785 0.9895
0.7551 -2.3237 -0.9785 0.9895
0.8226 -2.3006 -0.9785 0.9895
0.9226 -2.2623 -0.9784 0.9895
0.9555 -2.2485 -0.9784 0.9895
0.9883 -2.2343 -0.9784 0.9895
1.0208 -2.2196 -0.9784 0.9895
1.0531 -2.2044 -0.9784 0.9895
1.1170 -2.1726 -0.9784 0.9895
1.1800 -2.1390 -0.9783 0.9895
1.2112 -2.1215 -0.9783 0.9895
1.2420 -2.1036 -0.9783 0.9895
1.3029 -2.0663 -0.9783 0.9895
1.4213 -1.9866 -0.9782 0.9895
1.4502 -1.9655 -0.9782 0.9895
1.5070 -1.9223 -0.9782 0.9895
1.6033 -1.8703 -0.9866 0.9894
1.6411 -1.8587 -0.9930 0.9894
1.7730 -1.7345 -0.9933 0.9894
1.7981 -1.7084 -0.9933 0.9894
1.8229 -1.6820 -0.9933 0.9894
1.8713 -1.6279 -0.9933 0.9894
1.8948 -1.6004 -0.9933 0.9894
1.9630 -1.5158 -0.9933 0.9894
1.9850 -1.4870 -0.9933 0.9894
2.0065 -1.4578 -0.9933 0.9894
2.0276 -1.4283 -0.9932 0.9894
2.0482 -1.3985 -0.9932 0.9894
2.1075 -1.3073 -0.9932 0.9894
2.1263 -1.2764 -0.9932 0.9894
2.1801 -1.1820 -0.9932 0.9894
2.1972 -1.1500 -0.9932 0.9894
2.2137 -1.1177 -0.9932 0.9894
2.2298 -1.0853 -0.9932 0.9894
2.2454 -1.0526 -0.9932 0.9894
2.2605 -1.0197 -0.9932 0.9894
2.2752 -0.9865 -0.9931 0.9894
2.3162 -0.8859 -0.9931 0.9894
2.3289 -0.8519 -0.9931 0.9894
2.3411 -0.8178 -0.9931 0.9894
2.3528 -0.7835 -0.9931 0.9894
2.3640 -0.7490 -0.9931 0.9894
2.3945 -0.6447 -0.9931 0.9894
2.4037 -0.6096 -0.9931 0.9894
2.4204 -0.5391 -0.9931 0.9894
2.4351 -0.4682 -0.9931 0.9894
2.4477 -0.3969 -0.9931 0.9894
2.4628 -0.2892 -0.9931 0.9894
2.4730 -0.1810 -0.9931 0.9894
2.4754 -0.1448 -0.9931 0.9894
2.4794 -0.0362 -0.9931 0.9894
2.4797 0.0000 -0.9931 0.9894
2.4786 0.0725 -0.9931 0.9894
2.4731 0.1810 -0.9931 0.9894
2.4628 0.2892 -0.9931 0.9894
2.4583 0.3252 -0.9931 0.9894
2.4533 0.3611 -0.9931 0.9894
2.4417 0.4326 -0.9931 0.9894
2.4351 0.4682 -0.9931 0.9894
2.4280 0.5037 -0.9931 0.9894
2.4036 0.6096 -0.9931 0.9894
2.3945 0.6448 -0.9931 0.9894
2.3746 0.7144 -0.9931 0.9894
2.3528 0.7835 -0.9931 0.9894
2.3411 0.8178 -0.9931 0.9894
2.3289 0.8520 -0.9931 0.9894
2.3162 0.8859 -0.9931 0.9894
2.3030 0.9196 -0.9931 0.9894
2.2752 0.9866 -0.9931 0.9894
2.2454 1.0526 -0.9932 0.9894
2.2137 1.1178 -0.9932 0.9894
2.1802 1.1820 -0.9932 0.9894
2.1626 1.2138 -0.9932 0.9894
2.1074 1.3074 -0.9932 0.9894
2.0881 1.3380 -0.9932 0.9894
2.0684 1.3684 -0.9932 0.9894
2.0065 1.4578 -0.9933 0.9894
1.9630 1.5159 -0.9933 0.9894
1.9407 1.5444 -0.9933 0.9894
1.8948 1.6004 -0.9933 0.9894
1.8473 1.6552 -0.9933 0.9894
1.7981 1.7084 -0.9933 0.9894
1.7730 1.7346 -0.9933 0.9894
1.7475 1.7603 -0.9934 0.9894
1.7216 1.7857 -0.9934 0.9894
1.6954 1.8107 -0.9934 0.9894
1.6418 1.8595 -0.9934 0.9894
1.6144 1.8832 -0.9934 0.9894
1.5587 1.9297 -0.9934 0.9894
1.5304 1.9523 -0.9934 0.9894
1.5017 1.9744 -0.9935 0.9894
1.4434 2.0175 -0.9935 0.9894
1.4138 2.0384 -0.9935 0.9894
1.3537 2.0789 -0.9935 0.9894
1.3231 2.0985 -0.9935 0.9894
1.2613 2.1363 -0.9936 0.9894
1.2300 2.1545 -0.9936 0.9894
1.1344 2.2065 -0.9936 0.9894
1.1021 2.2229 -0.9936 0.9894
0.9704 2.2835 -0.9937 0.9894
0.9369 2.2975 -0.9937 0.9894
0.8354 2.3365 -0.9937 0.9894
0.8012 2.3485 -0.9937 0.9894
0.7668 2.3599 -0.9937 0.9894
0.7322 2.3709 -0.9938 0.9894
0.6975 2.3814 -0.9938 0.9894
0.6627 2.3914 -0.9938 0.9894
0.6277 2.4008 -0.9938 0.9894
0.5219 2.4261 -0.9938 0.9894
0.3793 2.4526 -0.9939 0.9894
0.3075 2.4627 -0.9939 0.9894
0.2354 2.4707 -0.9940 0.9894
0.1631 2.4766 -0.9940 0.9894
0.1269 2.4787 -0.9940 0.9894
0.0907 2.4804 -0.9940 0.9894
0.0544 2.4815 -0.9940 0.9894
-0.0181 2.4821 -0.9941 0.9894
-0.1269 2.4790 -0.9941 0.9894
-0.1631 2.4770 -0.9941 0.9894
-0.1993 2.4743 -0.9941 0.9894
-0.2354 2.4712 -0.9941 0.9894
-0.3075 2.4634 -0.9942 0.9894
-0.1045 0.5660 -0.2305 0.9975
-0.1112 0.5568 -0.2274 0.9976
-0.1178 0.5477 -0.2243 0.9976
-0.1531 0.4957 -0.2078 0.9978
-0.1827 0.4479 -0.1937 0.9979
-0.1914 0.4327 -0.1895 0.9980
-0.1956 0.4254 -0.1875 0.9980
-0.1997 0.4180 -0.1855 0.9980
-0.2036 0.4108 -0.1836 0.9980
-0.2075 0.4036 -0.1817 0.9980
-0.2112 0.3965 -0.1799 0.9981
-0.2317 0.3559 -0.1701 0.9982
-0.2378 0.3430 -0.1671 0.9982
-0.2408 0.3366 -0.1657 0.9982
-0.2436 0.3303 -0.1643 0.9982
-0.2464 0.3240 -0.1630 0.9982
-0.2517 0.3116 -0.1604 0.9983
-0.2564 0.2991 -0.1578 0.9983
-0.2585 0.2928 -0.1564 0.9983
-0.2625 0.2804 -0.1538 0.9983
-0.2644 0.2742 -0.1526 0.9984
-0.2729 0.2445 -0.1467 0.9984
-0.2758 0.2330 -0.1446 0.9984
-0.2772 0.2273 -0.1436 0.9985
-0.2799 0.2161 -0.1416 0.9985
-0.2846 0.1944 -0.1380 0.9985
-0.2860 0.1892 -0.1373 0.9985
-0.2873 0.1841 -0.1367 0.9985
-0.2886 0.1790 -0.1360 0.9985
-0.2920 0.1639 -0.1341 0.9986
-0.2941 0.1540 -0.1330 0.9986
-0.2951 0.1490 -0.1324 0.9986
-0.3011 0.1101 -0.1284 0.9986
-0.3016 0.1054 -0.1280 0.9986
-0.3021 0.1006 -0.1275 0.9986
-0.3026 0.0959 -0.1271 0.9986
-0.3030 0.0911 -0.1267 0.9986
-0.3034 0.0865 -0.1264 0.9986
-0.3038 0.0818 -0.1260 0.9986
-0.3041 0.0771 -0.1257 0.9986
-0.3044 0.0725 -0.1253 0.9987
-0.3049 0.0633 -0.1247 0.9987
-0.3053 0.0541 -0.1242 0.9987
-0.3055 0.0450 -0.1237 0.9987
-0.3055 0.0404 -0.1234 0.9987
-0.3056 0.0314 -0.1230 0.9987
-0.3055 0.0223 -0.1227 0.9987
-0.3049 0.0045 -0.1221 0.9987
-0.3001 0.0000 -0.1241 0.9987
-0.3003 -0.0044 -0.1242 0.9987
-0.3006 -0.0132 -0.1244 0.9987
-0.3007 -0.0176 -0.1245 0.9987
-0.3009 -0.0309 -0.1251 0.9987
-0.3009 -0.0354 -0.1252 0.9987
-0.3009 -0.0398 -0.1255 0.9987
-0.3008 -0.0443 -0.1257 0.9987
-0.3007 -0.0487 -0.1259 0.9987
-0.3004 -0.0578 -0.1264 0.9987
-0.3002 -0.0623 -0.1267 0.9987
-0.2999 -0.0668 -0.1270 0.9987
-0.2997 -0.0714 -0.1273 0.9987
-0.2986 -0.0851 -0.1284 0.9987
-0.2973 -0.0990 -0.1296 0.9986
-0.2956 -0.1130 -0.1309 0.9986
-0.2937 -0.1273 -0.1323 0.9986
-0.2921 -0.1370 -0.1334 0.9986
-0.2912 -0.1418 -0.1339 0.9986
-0.2892 -0.1514 -0.1350 0.9986
-0.2848 -0.1710 -0.1373 0.9986
-0.2837 -0.1759 -0.1380 0.9986
-0.2811 -0.1859 -0.1393 0.9985
-0.2797 -0.1910 -0.1400 0.9985
-0.2760 -0.2068 -0.1426 0.9985
-0.2734 -0.2176 -0.1445 0.9985
-0.2721 -0.2231 -0.1455 0.9985
-0.2692 -0.2342 -0.1475 0.9985
-0.2644 -0.2512 -0.1508 0.9984
-0.2610 -0.2629 -0.1531 0.9984
-0.2592 -0.2687 -0.1544 0.9984
-0.2553 -0.2808 -0.1569 0.9984
-0.2533 -0.2868 -0.1582 0.9983
-0.2512 -0.2930 -0.1596 0.9983
-0.2466 -0.3053 -0.1623 0.9983
-0.2328 -0.3357 -0.1689 0.9982
-0.2267 -0.3482 -0.1718 0.9982
-0.2203 -0.3610 -0.1749 0.9982
-0.2170 -0.3675 -0.1764 0.9982
-0.2027 -0.3942 -0.1833 0.9981
-0.1989 -0.4011 -0.1851 0.9981
-0.1950 -0.4081 -0.1870 0.9980
-0.1868 -0.4223 -0.1909 0.9980
-0.1690 -0.4517 -0.1994 0.9979
-0.1642 -0.4593 -0.2017 0.9979
-0.1593 -0.4670 -0.2040 0.9979
-0.1543 -0.4748 -0.2064 0.9978
-0.0947 -0.5584 -0.2341 0.9976
-0.3619 -2.3402 -0.9790 0.9898
-0.2246 -2.3573 -0.9789 0.9898
-0.1901 -2.3602 -0.9789 0.9898
-0.1556 -2.3627 -0.9789 0.9898
-0.1210 -2.3648 -0.9789 0.9898
0.0865 -2.3660 -0.9788 0.9898
0.1901 -2.3598 -0.9787 0.9898
0.2589 -2.3532 -0.9787 0.9898
0.2933 -2.3492 -0.9787 0.9898
0.3276 -2.3446 -0.9787 0.9898
0.4300 -2.3279 -0.9786 0.9898
0.5653 -2.2987 -0.9786 0.9898
0.5987 -2.2901 -0.9786 0.9898
0.6321 -2.2811 -0.9786 0.9898
0.6654 -2.2716 -0.9785 0.9898
0.7315 -2.2512 -0.9785 0.9898
0.7642 -2.2402 -0.9785 0.9898
0.7969 -2.2287 -0.9785 0.9898
1.0202 -2.1355 -0.9784 0.9898
1.2032 -2.0379 -0.9783 0.9898
1.2328 -2.0200 -0.9783 0.9898
1.2622 -2.0018 -0.9783 0.9898
1.2913 -1.9831 -0.9783 0.9898
1.3487 -1.9445 -0.9783 0.9898
1.3769 -1.9245 -0.9783 0.9898
1.5057 -1.8640 -0.9906 0.9897
1.5640 -1.8245 -0.9934 0.9897
1.5905 -1.8014 -0.9934 0.9897
1.6424 -1.7541 -0.9934 0.9897
1.6929 -1.7053 -0.9934 0.9897
1.7176 -1.6804 -0.9934 0.9897
1.7420 -1.6551 -0.9934 0.9897
1.8801 -1.4961 -0.9933 0.9897
1.9018 -1.4685 -0.9933 0.9897
1.9438 -1.4123 -0.9933 0.9897
1.9842 -1.3548 -0.9933 0.9897
2.0416 -1.2665 -0.9932 0.9897
2.0599 -1.2366 -0.9932 0.9897
2.0778 -1.2063 -0.9932 0.9897
2.1900 -0.9878 -0.9932 0.9897
2.2041 -0.9558 -0.9932 0.9897
2.2179 -0.9234 -0.9932 0.9897
2.2793 -0.7590 -0.9931 0.9897
2.3103 -0.6584 -0.9931 0.9897
2.3197 -0.6246 -0.9931 0.9897
2.3286 -0.5906 -0.9931 0.9897
2.3370 -0.5565 -0.9931 0.9897
2.3449 -0.5223 -0.9931 0.9897
2.3591 -0.4536 -0.9931 0.9897
2.3654 -0.4191 -0.9931 0.9897
2.3713 -0.3845 -0.9931 0.9897
2.3767 -0.3498 -0.9931 0.9897
2.3859 -0.2802 -0.9931 0.9897
2.3981 -0.1403 -0.9931 0.9897
2.4022 0.0000 -0.9931 0.9897
2.4020 0.0351 -0.9931 0.9897
2.4012 0.0702 -0.9931 0.9897
2.3999 0.1053 -0.9931 0.9897
2.3981 0.1403 -0.9931 0.9897
2.3958 0.1754 -0.9931 0.9897
2.3930 0.2103 -0.9931 0.9897
2.3897 0.2453 -0.9931 0.9897
2.3859 0.2802 -0.9931 0.9897
2.3767 0.3498 -0.9931 0.9897
2.3654 0.4191 -0.9931 0.9897
2.3449 0.5223 -0.9931 0.9897
2.3370 0.5566 -0.9931 0.9897
2.3104 0.6584 -0.9931 0.9897
2.3005 0.6921 -0.9931 0.9897
2.2562 0.8254 -0.9932 0.9897
2.2311 0.8909 -0.9932 0.9897
2.2179 0.9234 -0.9932 0.9897
2.1900 0.9879 -0.9932 0.9897
2.1753 1.0198 -0.9932 0.9897
2.1602 1.0515 -0.9932 0.9897
2.1446 1.0829 -0.9932 0.9897
2.1121 1.1451 -0.9932 0.9897
2.0599 1.2366 -0.9932 0.9897
2.0416 1.2666 -0.9932 0.9897
2.0229 1.2963 -0.9932 0.9897
1.9842 1.3549 -0.9933 0.9897
1.9438 1.4123 -0.9933 0.9897
1.8801 1.4961 -0.9933 0.9897
1.8356 1.5505 -0.9933 0.9897
1.7896 1.6035 -0.9933 0.9897
1.7660 1.6295 -0.9933 0.9897
1.7420 1.6551 -0.9934 0.9897
1.6929 1.7054 -0.9934 0.9897
1.6424 1.7541 -0.9934 0.9897
1.6166 1.7779 -0.9934 0.9897
1.5905 1.8014 -0.9934 0.9897
1.5372 1.8471 -0.9934 0.9897
1.5101 1.8694 -0.9935 0.9897
1.4548 1.9128 -0.9935 0.9897
1.4267 1.9338 -0.9935 0.9897
1.3114 2.0140 -0.9935 0.9897
1.2520 2.0516 -0.9936 0.9897
1.2219 2.0696 -0.9936 0.9897
1.1915 2.0873 -0.9936 0.9897
1.1610 2.1045 -0.9936 0.9897
1.0676 2.1534 -0.9936 0.9897
1.0361 2.1688 -0.9936 0.9897
1.0043 2.1837 -0.9937 0.9897
0.9077 2.2257 -0.9937 0.9896
0.8751 2.2388 -0.9937 0.9896
0.8093 2.2634 -0.9937 0.9896
0.6420 2.3167 -0.9938 0.9896
0.6080 2.3258 -0.9938 0.9896
0.5740 2.3345 -0.9938 0.9896
0.5399 2.3427 -0.9938 0.9896
0.4367 2.3641 -0.9939 0.9896
0.4021 2.3703 -0.9939 0.9896
0.3674 2.3759 -0.9939 0.9896
0.2630 2.3899 -0.9939 0.9896
-0.0175 2.4045 -0.9941 0.9896
-0.0527 2.4041 -0.9941 0.9896
-0.0878 2.4030 -0.9941 0.9896
-0.1229 2.4016 -0.9941 0.9896
-0.1580 2.3995 -0.9941 0.9896
-0.2281 2.3939 -0.9941 0.9896
-0.2979 2.3864 -0.9942 0.9896
-0.3328 2.3817 -0.9942 0.9896
-0.0947 0.5584 -0.2341 0.9976
-0.1015 0.5495 -0.2310 0.9976
-0.1081 0.5408 -0.2280 0.9976
-0.1144 0.5321 -0.2250 0.9976
-0.1206 0.5236 -0.2221 0.9977
-0.1543 0.4748 -0.2064 0.9978
-0.1642 0.4593 -0.2017 0.9979
-0.1690 0.4518 -0.1994 0.9979
-0.1736 0.4443 -0.1972 0.9979
-0.1781 0.4369 -0.1951 0.9980
-0.1825 0.4296 -0.1930 0.9980
-0.1868 0.4223 -0.1909 0.9980
-0.1950 0.4081 -0.1870 0.9980
-0.2100 0.3807 -0.1797 0.9981
-0.2135 0.3741 -0.1781 0.9981
-0.2203 0.3611 -0.1749 0.9982
-0.2267 0.3483 -0.1718 0.9982
-0.2328 0.3357 -0.1689 0.9982
-0.2386 0.3234 -0.1661 0.9983
-0.2413 0.3173 -0.1648 0.9983
-0.2490 0.2992 -0.1609 0.9983
-0.2553 0.2808 -0.1569 0.9984
-0.2573 0.2748 -0.1556 0.9984
-0.2592 0.2688 -0.1544 0.9984
-0.2610 0.2629 -0.1531 0.9984
-0.2627 0.2571 -0.1520 0.9984
-0.2644 0.2513 -0.1508 0.9984
-0.2661 0.2455 -0.1497 0.9984
-0.2677 0.2398 -0.1486 0.9984
-0.2692 0.2342 -0.1475 0.9985
-0.2706 0.2287 -0.1465 0.9985
-0.2721 0.2231 -0.1455 0.9985
-0.2734 0.2176 -0.1445 0.9985
-0.2747 0.2121 -0.1435 0.9985
-0.2760 0.2068 -0.1426 0.9985
-0.2797 0.1910 -0.1400 0.9985
-0.2811 0.1860 -0.1393 0.9985
-0.2824 0.1810 -0.1387 0.9985
-0.2848 0.1710 -0.1373 0.9986
-0.2871 0.1612 -0.1361 0.9986
-0.2882 0.1563 -0.1355 0.9986
-0.2892 0.1514 -0.1350 0.9986
-0.2902 0.1466 -0.1344 0.9986
-0.2937 0.1273 -0.1323 0.9986
-0.2944 0.1226 -0.1318 0.9986
-0.2957 0.1131 -0.1309 0.9986
-0.2973 0.0991 -0.1296 0.9986
-0.2982 0.0897 -0.1288 0.9987
-0.2993 0.0760 -0.1277 0.9987
-0.2996 0.0714 -0.1273 0.9987
-0.3006 0.0487 -0.1259 0.9987
-0.3008 0.0443 -0.1257 0.9987
-0.3008 0.0398 -0.1255 0.9987
-0.3009 0.0309 -0.1251 0.9987
-0.3007 0.0176 -0.1245 0.9987
-0.3006 0.0132 -0.1244 0.9987
-0.2957 -0.0043 -0.1261 0.9987
-0.2959 -0.0086 -0.1263 0.9987
-0.2961 -0.0130 -0.1264 0.9987
-0.2963 -0.0260 -0.1268 0.9987
-0.2963 -0.0348 -0.1272 0.9987
-0.2962 -0.0436 -0.1277 0.9987
-0.2957 -0.0569 -0.1284 0.9987
-0.2955 -0.0613 -0.1287 0.9987
-0.2953 -0.0657 -0.1290 0.9987
-0.2947 -0.0747 -0.1296 0.9987
-0.2944 -0.0793 -0.1300 0.9987
-0.2940 -0.0837 -0.1303 0.9987
-0.2909 -0.1113 -0.1328 0.9986
-0.2896 -0.1206 -0.1338 0.9986
-0.2882 -0.1300 -0.1348 0.9986
-0.2873 -0.1347 -0.1353 0.9986
-0.2864 -0.1395 -0.1358 0.9986
-0.2834 -0.1537 -0.1375 0.9986
-0.2750 -0.1878 -0.1420 0.9986
-0.2722 -0.1978 -0.1435 0.9985
-0.2697 -0.2083 -0.1453 0.9985
-0.2656 -0.2243 -0.1483 0.9985
-0.2626 -0.2353 -0.1504 0.9985
-0.2610 -0.2409 -0.1515 0.9985
-0.2594 -0.2464 -0.1526 0.9984
-0.2559 -0.2578 -0.1549 0.9984
-0.2541 -0.2635 -0.1561 0.9984
-0.2503 -0.2752 -0.1586 0.9984
-0.2461 -0.2871 -0.1613 0.9984
-0.2417 -0.2992 -0.1640 0.9983
-0.2391 -0.3050 -0.1653 0.9983
-0.2364 -0.3109 -0.1666 0.9983
-0.2309 -0.3227 -0.1692 0.9983
-0.2280 -0.3287 -0.1706 0.9983
-0.2188 -0.3471 -0.1750 0.9982
-0.2123 -0.3595 -0.1781 0.9982
-0.2088 -0.3659 -0.1797 0.9982
-0.2053 -0.3723 -0.1813 0.9982
-0.1943 -0.3919 -0.1865 0.9981
-0.1904 -0.3986 -0.1884 0.9981
-0.1865 -0.4055 -0.1903 0.9981
-0.1824 -0.4123 -0.1923 0.9980
-0.1782 -0.4193 -0.1943 0.9980
-0.1694 -0.4334 -0.1984 0.9980
-0.1648 -0.4405 -0.2006 0.9980
-0.1503 -0.4627 -0.2074 0.9979
-0.1452 -0.4702 -0.2098 0.9979
-0.1346 -0.4855 -0.2148 0.9978
-0.1113 -0.5173 -0.2256 0.9977
-0.1050 -0.5255 -0.2285 0.9977
-0.0920 -0.5423 -0.2345 0.9976
-0.3508 -2.2687 -0.9790 0.9901
-0.3176 -2.2735 -0.9789 0.9901
-0.2511 -2.2818 -0.9789 0.9901
-0.1843 -2.2881 -0.9789 0.9901
-0.1508 -2.2905 -0.9789 0.9901
-0.1173 -2.2924 -0.9789 0.9901
-0.0838 -2.2939 -0.9788 0.9901
-0.0503 -2.2948 -0.9788 0.9901
0.0839 -2.2937 -0.9788 0.9901
0.1843 -2.2877 -0.9787 0.9901
0.3176 -2.2729 -0.9787 0.9901
0.4168 -2.2568 -0.9786 0.9901
0.5154 -2.2362 -0.9786 0.9901
0.6128 -2.2114 -0.9786 0.9901
0.6772 -2.1925 -0.9785 0.9901
0.7409 -2.1717 -0.9785 0.9901
0.8665 -2.1246 -0.9785 0.9901
0.9587 -2.0846 -0.9784 0.9901
1.0192 -2.0555 -0.9784 0.9901
1.0788 -2.0249 -0.9784 0.9901
1.1082 -2.0089 -0.9784 0.9901
1.2237 -1.9406 -0.9783 0.9901
1.2519 -1.9225 -0.9783 0.9901
1.2798 -1.9040 -0.9783 0.9901
1.3427 -1.8767 -0.9840 0.9900
1.3774 -1.8670 -0.9894 0.9900
1.4373 -1.8335 -0.9935 0.9899
1.4639 -1.8123 -0.9935 0.9899
1.4903 -1.7907 -0.9935 0.9899
1.5162 -1.7687 -0.9934 0.9899
1.5419 -1.7463 -0.9934 0.9899
1.6652 -1.6291 -0.9934 0.9899
1.7121 -1.5797 -0.9934 0.9899
1.7349 -1.5545 -0.9934 0.9899
1.7574 -1.5289 -0.9934 0.9899
1.7796 -1.5031 -0.9933 0.9899
1.8013 -1.4770 -0.9933 0.9899
1.8227 -1.4504 -0.9933 0.9899
1.8845 -1.3691 -0.9933 0.9899
1.9236 -1.3134 -0.9933 0.9899
1.9612 -1.2567 -0.9933 0.9899
2.0143 -1.1695 -0.9933 0.9899
2.0312 -1.1399 -0.9932 0.9899
2.0476 -1.1101 -0.9932 0.9899
2.0636 -1.0801 -0.9932 0.9899
2.0791 -1.0498 -0.9932 0.9899
2.0942 -1.0193 -0.9932 0.9899
2.1089 -0.9886 -0.9932 0.9899
2.1368 -0.9266 -0.9932 0.9899
2.1502 -0.8952 -0.9932 0.9899
2.1630 -0.8637 -0.9932 0.9899
2.1753 -0.8320 -0.9932 0.9899
2.1873 -0.8001 -0.9932 0.9899
2.1987 -0.7680 -0.9932 0.9899
2.2202 -0.7035 -0.9932 0.9899
2.2302 -0.6709 -0.9932 0.9899
2.2575 -0.5726 -0.9932 0.9899
2.2656 -0.5395 -0.9931 0.9899
2.2732 -0.5064 -0.9931 0.9899
2.3041 -0.3391 -0.9931 0.9899
2.3088 -0.3053 -0.9931 0.9899
2.3130 -0.2716 -0.9931 0.9899
2.3167 -0.2378 -0.9931 0.9899
2.3227 -0.1700 -0.9931 0.9899
2.3249 -0.1361 -0.9931 0.9899
2.3266 -0.1020 -0.9931 0.9899
2.3287 -0.0340 -0.9931 0.9899
2.3288 0.0000 -0.9931 0.9899
2.3287 0.0341 -0.9931 0.9899
2.3167 0.2378 -0.9931 0.9899
2.2870 0.4397 -0.9931 0.9899
2.2804 0.4731 -0.9931 0.9899
2.2656 0.5396 -0.9931 0.9899
2.2575 0.5726 -0.9932 0.9899
2.2302 0.6710 -0.9932 0.9899
2.2202 0.7035 -0.9932 0.9899
2.2097 0.7359 -0.9932 0.9899
2.1873 0.8001 -0.9932 0.9899
2.1754 0.8320 -0.9932 0.9899
2.1502 0.8952 -0.9932 0.9899
2.1368 0.9266 -0.9932 0.9899
2.1231 0.9577 -0.9932 0.9899
2.1089 0.9886 -0.9932 0.9899
2.0791 1.0498 -0.9932 0.9899
2.0636 1.0801 -0.9932 0.9899
2.0476 1.1101 -0.9932 0.9899
2.0143 1.1695 -0.9932 0.9899
1.9970 1.1988 -0.9933 0.9899
1.9793 1.2279 -0.9933 0.9899
1.9426 1.2852 -0.9933 0.9899
1.9042 1.3414 -0.9933 0.9899
1.8845 1.3691 -0.9933 0.9899
1.8643 1.3966 -0.9933 0.9899
1.8437 1.4236 -0.9933 0.9899
1.8227 1.4504 -0.9933 0.9899
1.8013 1.4770 -0.9933 0.9899
1.7796 1.5031 -0.9933 0.9899
1.7349 1.5545 -0.9934 0.9899
1.7121 1.5797 -0.9934 0.9899
1.6169 1.6770 -0.9934 0.9899
1.5922 1.7005 -0.9934 0.9899
1.5672 1.7237 -0.9934 0.9899
1.4373 1.8335 -0.9935 0.9899
1.3832 1.8748 -0.9935 0.9899
1.3556 1.8948 -0.9935 0.9899
1.3278 1.9144 -0.9935 0.9899
1.2713 1.9525 -0.9935 0.9899
1.2427 1.9709 -0.9936 0.9899
1.2138 1.9888 -0.9936 0.9899
1.1846 2.0064 -0.9936 0.9899
1.1552 2.0235 -0.9936 0.9899
1.0956 2.0564 -0.9936 0.9899
1.0654 2.0723 -0.9936 0.9899
0.9737 2.1171 -0.9937 0.9899
0.8800 2.1577 -0.9937 0.9899
0.8483 2.1704 -0.9937 0.9899
0.8165 2.1826 -0.9937 0.9899
0.6551 2.2365 -0.9938 0.9899
0.6224 2.2459 -0.9938 0.9899
0.5895 2.2547 -0.9938 0.9899
0.4901 2.2785 -0.9939 0.9899
0.3898 2.2979 -0.9939 0.9899
0.3562 2.3034 -0.9939 0.9899
0.2549 2.3168 -0.9940 0.9899
0.1871 2.3234 -0.9940 0.9899
0.1532 2.3259 -0.9940 0.9899
0.1192 2.3279 -0.9940 0.9899
0.0852 2.3295 -0.9940 0.9899
0.0511 2.3305 -0.9940 0.9899
-0.0170 2.3311 -0.9941 0.9899
-0.1192 2.3281 -0.9941 0.9899
-0.1532 2.3262 -0.9941 0.9899
-0.2888 2.3134 -0.9942 0.9899
-0.3563 2.3041 -0.9942 0.9899
-0.0986 0.5338 -0.2315 0.9976
-0.1173 0.5092 -0.2228 0.9977
-0.1452 0.4702 -0.2098 0.9979
-0.1694 0.4334 -0.1984 0.9980
-0.1824 0.4123 -0.1923 0.9980
-0.1904 0.3987 -0.1884 0.9981
-0.1943 0.3920 -0.1865 0.9981
-0.2018 0.3787 -0.1830 0.9981
-0.2053 0.3723 -0.1813 0.9982
-0.2088 0.3659 -0.1797 0.9982
-0.2156 0.3533 -0.1765 0.9982
-0.2188 0.3471 -0.1750 0.9982
-0.2220 0.3409 -0.1735 0.9982
-0.2280 0.3287 -0.1706 0.9983
-0.2309 0.3228 -0.1692 0.9983
-0.2337 0.3168 -0.1679 0.9983
-0.2364 0.3109 -0.1666 0.9983
-0.2417 0.2992 -0.1640 0.9983
-0.2502 0.2752 -0.1586 0.9984
-0.2541 0.2636 -0.1561 0.9984
-0.2559 0.2578 -0.1549 0.9984
-0.2594 0.2465 -0.1526 0.9984
-0.2610 0.2409 -0.1515 0.9985
-0.2642 0.2298 -0.1493 0.9985
-0.2656 0.2244 -0.1483 0.9985
-0.2671 0.2190 -0.1473 0.9985
-0.2697 0.2083 -0.1453 0.9985
-0.2710 0.2030 -0.1444 0.9985
-0.2722 0.1978 -0.1435 0.9985
-0.2749 0.1878 -0.1420 0.9986
-0.2789 0.1730 -0.1399 0.9986
-0.2801 0.1682 -0.1393 0.9986
-0.2812 0.1633 -0.1387 0.9986
-0.2823 0.1585 -0.1381 0.9986
-0.2834 0.1537 -0.1375 0.9986
-0.2855 0.1441 -0.1364 0.9986
-0.2864 0.1394 -0.1358 0.9986
-0.2873 0.1347 -0.1353 0.9986
-0.2882 0.1300 -0.1348 0.9986
-0.2890 0.1253 -0.1343 0.9986
-0.2897 0.1206 -0.1338 0.9986
-0.2903 0.1159 -0.1333 0.9986
-0.2915 0.1067 -0.1324 0.9987
-0.2921 0.1021 -0.1319 0.9987
-0.2926 0.0975 -0.1315 0.9987
-0.2950 0.0703 -0.1293 0.9987
-0.2955 0.0613 -0.1287 0.9987
-0.2957 0.0569 -0.1284 0.9987
-0.2959 0.0524 -0.1282 0.9987
-0.2962 0.0436 -0.1277 0.9987
-0.2962 0.0392 -0.1274 0.9987
-0.2963 0.0348 -0.1272 0.9987
-0.2962 0.0173 -0.1265 0.9987
-0.2959 0.0086 -0.1263 0.9987
-0.2911 0.0000 -0.1280 0.9987
-0.2916 -0.0128 -0.1283 0.9987
-0.2917 -0.0171 -0.1285 0.9987
-0.2918 -0.0300 -0.1290 0.9987
-0.2917 -0.0386 -0.1294 0.9987
-0.2915 -0.0473 -0.1298 0.9987
-0.2913 -0.0516 -0.1301 0.9987
-0.2912 -0.0560 -0.1304 0.9987
-0.2910 -0.0604 -0.1306 0.9987
-0.2901 -0.0736 -0.1316 0.9987
-0.2885 -0.0914 -0.1330 0.9987
-0.2863 -0.1095 -0.1348 0.9987
-0.2857 -0.1141 -0.1352 0.9987
-0.2851 -0.1187 -0.1357 0.9987
-0.2843 -0.1233 -0.1362 0.9986
-0.2818 -0.1371 -0.1378 0.9986
-0.2777 -0.1558 -0.1400 0.9986
-0.2689 -0.1895 -0.1446 0.9986
-0.2675 -0.1943 -0.1453 0.9986
-0.2661 -0.1994 -0.1462 0.9985
-0.2607 -0.2202 -0.1500 0.9985
-0.2592 -0.2255 -0.1511 0.9985
-0.2577 -0.2309 -0.1521 0.9985
-0.2545 -0.2418 -0.1543 0.9985
-0.2510 -0.2528 -0.1566 0.9984
-0.2473 -0.2641 -0.1590 0.9984
-0.2433 -0.2755 -0.1616 0.9984
-0.2412 -0.2813 -0.1629 0.9984
-0.2368 -0.2931 -0.1657 0.9984
-0.2343 -0.2990 -0.1670 0.9983
-0.2289 -0.3104 -0.1696 0.9983
-0.2262 -0.3162 -0.1709 0.9983
-0.2233 -0.3220 -0.1723 0.9983
-0.2204 -0.3279 -0.1737 0.9983
-0.2173 -0.3338 -0.1751 0.9983
-0.2142 -0.3397 -0.1766 0.9982
-0.2044 -0.3580 -0.1812 0.9982
-0.1899 -0.3830 -0.1879 0.9981
-0.1861 -0.3895 -0.1898 0.9981
-0.1653 -0.4229 -0.1996 0.9980
-0.1608 -0.4298 -0.2018 0.9980
-0.1562 -0.4368 -0.2039 0.9980
-0.1514 -0.4438 -0.2062 0.9980
-0.1465 -0.4509 -0.2085 0.9979
-0.1415 -0.4582 -0.2108 0.9979
-0.1363 -0.4655 -0.2132 0.9979
-0.1310 -0.4728 -0.2157 0.9979
-0.1199 -0.4878 -0.2208 0.9978
-0.1142 -0.4954 -0.2235 0.9978
-0.1082 -0.5031 -0.2262 0.9978
-0.1021 -0.5110 -0.2291 0.9977
-0.0851 -0.5503 -0.2448 0.9976
-0.3081 -2.2055 -0.9789 0.9903
-0.2435 -2.2134 -0.9789 0.9903
-0.1787 -2.2196 -0.9789 0.9903
-0.1463 -2.2219 -0.9789 0.9903
-0.0813 -2.2252 -0.9788 0.9903
-0.0488 -2.2261 -0.9788 0.9903
0.0163 -2.2265 -0.9788 0.9903
0.0488 -2.2260 -0.9788 0.9903
0.1463 -2.2216 -0.9788 0.9903
0.2112 -2.2164 -0.9787 0.9903
0.2435 -2.2130 -0.9787 0.9903
0.3081 -2.2049 -0.9787 0.9903
0.3724 -2.1949 -0.9787 0.9903
0.4363 -2.1830 -0.9786 0.9903
0.5315 -2.1618 -0.9786 0.9903
0.5631 -2.1537 -0.9786 0.9903
0.5945 -2.1452 -0.9786 0.9903
0.6257 -2.1363 -0.9786 0.9903
0.6569 -2.1269 -0.9786 0.9903
0.6879 -2.1170 -0.9785 0.9903
0.7188 -2.1067 -0.9785 0.9903
0.7494 -2.0960 -0.9785 0.9903
0.7800 -2.0848 -0.9785 0.9903
0.8103 -2.0731 -0.9785 0.9903
0.8405 -2.0611 -0.9785 0.9903
0.9004 -2.0355 -0.9785 0.9903
0.9595 -2.0083 -0.9784 0.9903
0.9887 -1.9941 -0.9784 0.9903
1.0465 -1.9643 -0.9784 0.9903
1.1594 -1.8997 -0.9784 0.9903
1.1888 -1.8853 -0.9798 0.9903
1.2221 -1.8768 -0.9845 0.9903
1.2556 -1.8680 -0.9894 0.9902
1.2881 -1.8571 -0.9935 0.9902
1.3943 -1.7786 -0.9935 0.9902
1.4708 -1.7158 -0.9935 0.9902
1.4957 -1.6941 -0.9935 0.9902
1.5203 -1.6720 -0.9934 0.9902
1.5921 -1.6037 -0.9934 0.9902
1.6154 -1.5803 -0.9934 0.9902
1.6383 -1.5566 -0.9934 0.9902
1.7049 -1.4832 -0.9934 0.9902
1.7263 -1.4581 -0.9934 0.9902
1.7681 -1.4070 -0.9933 0.9902
1.8085 -1.3548 -0.9933 0.9902
1.8661 -1.2742 -0.9933 0.9902
1.8845 -1.2467 -0.9933 0.9902
2.0019 -1.0478 -0.9933 0.9902
2.0169 -1.0184 -0.9932 0.9902
2.0458 -0.9590 -0.9932 0.9902
2.0729 -0.8988 -0.9932 0.9902
2.0858 -0.8684 -0.9932 0.9902
2.0983 -0.8379 -0.9932 0.9902
2.1219 -0.7762 -0.9932 0.9902
2.1329 -0.7451 -0.9932 0.9902
2.1436 -0.7139 -0.9932 0.9902
2.1538 -0.6825 -0.9932 0.9902
2.1728 -0.6192 -0.9932 0.9902
2.1900 -0.5555 -0.9932 0.9902
2.1979 -0.5234 -0.9932 0.9902
2.2122 -0.4590 -0.9932 0.9902
2.2186 -0.4266 -0.9932 0.9902
2.2352 -0.3289 -0.9932 0.9902
2.2474 -0.2307 -0.9932 0.9902
2.2532 -0.1649 -0.9932 0.9902
2.2583 -0.0660 -0.9932 0.9902
2.2590 -0.0330 -0.9932 0.9902
2.2590 0.0330 -0.9932 0.9902
2.2571 0.0990 -0.9932 0.9902
2.2554 0.1320 -0.9932 0.9902
2.2532 0.1650 -0.9932 0.9902
2.2474 0.2307 -0.9932 0.9902
2.2397 0.2962 -0.9932 0.9902
2.2352 0.3289 -0.9932 0.9902
2.2301 0.3616 -0.9932 0.9902
2.2246 0.3941 -0.9932 0.9902
2.1978 0.5234 -0.9932 0.9902
2.1900 0.5555 -0.9932 0.9902
2.1728 0.6192 -0.9932 0.9902
2.1635 0.6509 -0.9932 0.9902
2.1330 0.7452 -0.9932 0.9902
2.1103 0.8071 -0.9932 0.9902
2.0596 0.9291 -0.9932 0.9902
2.0316 0.9888 -0.9932 0.9902
1.9373 1.1630 -0.9933 0.9902
1.9025 1.2191 -0.9933 0.9902
1.8845 1.2468 -0.9933 0.9902
1.8661 1.2742 -0.9933 0.9902
1.8281 1.3282 -0.9933 0.9902
1.7264 1.4581 -0.9934 0.9902
1.6608 1.5324 -0.9934 0.9902
1.5921 1.6038 -0.9934 0.9902
1.5686 1.6269 -0.9934 0.9902
1.5446 1.6496 -0.9934 0.9902
1.5204 1.6721 -0.9934 0.9902
1.4958 1.6941 -0.9935 0.9902
1.4457 1.7371 -0.9935 0.9902
1.4201 1.7581 -0.9935 0.9902
1.3943 1.7787 -0.9935 0.9902
1.3682 1.7988 -0.9935 0.9902
1.3418 1.8187 -0.9935 0.9902
1.2881 1.8572 -0.9935 0.9902
1.2608 1.8758 -0.9936 0.9902
1.2333 1.8941 -0.9936 0.9902
1.1775 1.9293 -0.9936 0.9902
1.1206 1.9629 -0.9936 0.9902
1.0335 2.0102 -0.9936 0.9902
0.9744 2.0396 -0.9937 0.9902
0.8841 2.0804 -0.9937 0.9902
0.8536 2.0932 -0.9937 0.9902
0.8230 2.1054 -0.9937 0.9902
0.7611 2.1286 -0.9938 0.9902
0.6671 2.1600 -0.9938 0.9902
0.6355 2.1696 -0.9938 0.9902
0.5718 2.1873 -0.9938 0.9902
0.5077 2.2031 -0.9939 0.9902
0.3781 2.2291 -0.9939 0.9902
0.3455 2.2344 -0.9939 0.9902
0.3129 2.2393 -0.9939 0.9902
0.2801 2.2436 -0.9939 0.9902
0.2473 2.2475 -0.9940 0.9902
0.2145 2.2509 -0.9940 0.9902
-0.0165 2.2613 -0.9941 0.9902
-0.0496 2.2608 -0.9941 0.9902
-0.0826 2.2598 -0.9941 0.9902
-0.1156 2.2585 -0.9941 0.9902
-0.1486 2.2565 -0.9941 0.9902
-0.2802 2.2441 -0.9942 0.9902
-0.3129 2.2398 -0.9942 0.9902
-0.0851 0.5503 -0.2448 0.9976
-0.0894 0.5269 -0.2349 0.9977
-0.1021 0.5110 -0.2291 0.9977
-0.1142 0.4955 -0.2235 0.9978
-0.1199 0.4879 -0.2208 0.9978
-0.1255 0.4803 -0.2182 0.9978
-0.1310 0.4729 -0.2157 0.9979
-0.1363 0.4655 -0.2132 0.9979
-0.1415 0.4582 -0.2108 0.9979
-0.1514 0.4439 -0.2062 0.9980
-0.1608 0.4298 -0.2018 0.9980
-0.1653 0.4230 -0.1996 0.9980
-0.1821 0.3961 -0.1916 0.9981
-0.1899 0.3830 -0.1879 0.9981
-0.1936 0.3767 -0.1862 0.9982
-0.2009 0.3642 -0.1828 0.9982
-0.2044 0.3580 -0.1812 0.9982
-0.2077 0.3519 -0.1796 0.9982
-0.2110 0.3458 -0.1781 0.9982
-0.2173 0.3338 -0.1751 0.9983
-0.2203 0.3279 -0.1737 0.9983
-0.2262 0.3162 -0.1709 0.9983
-0.2317 0.3047 -0.1683 0.9983
-0.2368 0.2932 -0.1657 0.9984
-0.2412 0.2814 -0.1629 0.9984
-0.2453 0.2698 -0.1603 0.9984
-0.2492 0.2584 -0.1578 0.9984
-0.2510 0.2528 -0.1566 0.9984
-0.2577 0.2309 -0.1521 0.9985
-0.2607 0.2202 -0.1500 0.9985
-0.2621 0.2150 -0.1490 0.9985
-0.2635 0.2097 -0.1481 0.9985
-0.2661 0.1994 -0.1462 0.9985
-0.2675 0.1944 -0.1453 0.9986
-0.2689 0.1895 -0.1446 0.9986
-0.2766 0.1606 -0.1406 0.9986
-0.2827 0.1325 -0.1373 0.9986
-0.2863 0.1095 -0.1348 0.9987
-0.2869 0.1050 -0.1343 0.9987
-0.2885 0.0914 -0.1330 0.9987
-0.2897 0.0780 -0.1319 0.9987
-0.2901 0.0736 -0.1316 0.9987
-0.2914 0.0516 -0.1301 0.9987
-0.2915 0.0473 -0.1298 0.9987
-0.2916 0.0429 -0.1296 0.9987
-0.2917 0.0386 -0.1294 0.9987
-0.2918 0.0214 -0.1286 0.9987
-0.2914 0.0086 -0.1282 0.9987
-0.2869 -0.0042 -0.1300 0.9987
-0.2871 -0.0084 -0.1301 0.9987
-0.2873 -0.0168 -0.1303 0.9987
-0.2874 -0.0295 -0.1308 0.9987
-0.2871 -0.0465 -0.1317 0.9987
-0.2870 -0.0509 -0.1320 0.9987
-0.2867 -0.0551 -0.1322 0.9987
-0.2865 -0.0595 -0.1325 0.9987
-0.2860 -0.0681 -0.1331 0.9987
-0.2840 -0.0900 -0.1349 0.9987
-0.2835 -0.0944 -0.1353 0.9987
-0.2824 -0.1033 -0.1362 0.9987
-0.2812 -0.1123 -0.1371 0.9987
-0.2798 -0.1213 -0.1381 0.9987
-0.2790 -0.1259 -0.1386 0.9987
-0.2772 -0.1349 -0.1396 0.9986
-0.2763 -0.1395 -0.1402 0.9986
-0.2742 -0.1486 -0.1413 0.9986
-0.2720 -0.1579 -0.1425 0.9986
-0.2708 -0.1626 -0.1431 0.9986
-0.2644 -0.1862 -0.1465 0.9986
-0.2629 -0.1910 -0.1472 0.9986
-0.2601 -0.2009 -0.1488 0.9986
-0.2588 -0.2059 -0.1498 0.9985
-0.2560 -0.2162 -0.1517 0.9985
-0.2545 -0.2214 -0.1528 0.9985
-0.2529 -0.2266 -0.1538 0.9985
-0.2513 -0.2319 -0.1549 0.9985
-0.2462 -0.2480 -0.1583 0.9985
-0.2444 -0.2534 -0.1595 0.9985
-0.2425 -0.2590 -0.1607 0.9984
-0.2405 -0.2645 -0.1619 0.9984
-0.2385 -0.2701 -0.1632 0.9984
-0.2364 -0.2758 -0.1645 0.9984
-0.2320 -0.2872 -0.1672 0.9984
-0.2297 -0.2930 -0.1686 0.9984
-0.2244 -0.3042 -0.1712 0.9983
-0.2216 -0.3098 -0.1725 0.9983
-0.2129 -0.3269 -0.1767 0.9983
-0.2097 -0.3327 -0.1781 0.9983
-0.2066 -0.3385 -0.1796 0.9983
-0.1930 -0.3623 -0.1859 0.9982
-0.1894 -0.3684 -0.1876 0.9982
-0.1857 -0.3745 -0.1893 0.9982
-0.1699 -0.3998 -0.1968 0.9981
-0.1657 -0.4063 -0.1987 0.9981
-0.1524 -0.4262 -0.2050 0.9980
-0.1429 -0.4398 -0.2094 0.9980
-0.1379 -0.4467 -0.2117 0.9979
-0.1223 -0.4678 -0.2190 0.9979
-0.0993 -0.4971 -0.2296 0.9978
-0.2678 -2.1448 -0.9789 0.9906
-0.2364 -2.1485 -0.9789 0.9906
-0.1735 -2.1545 -0.9789 0.9906
-0.1104 -2.1585 -0.9789 0.9906
0.1420 -2.1565 -0.9788 0.9906
0.1735 -2.1542 -0.9787 0.9906
0.2050 -2.1513 -0.9787 0.9906
0.2677 -2.1444 -0.9787 0.9906
0.2990 -2.1402 -0.9787 0.9906
0.3303 -2.1356 -0.9787 0.9906
0.3614 -2.1305 -0.9787 0.9906
0.4235 -2.1190 -0.9786 0.9906
0.5465 -2.0905 -0.9786 0.9906
0.5770 -2.0823 -0.9786 0.9906
0.6074 -2.0736 -0.9786 0.9906
0.6376 -2.0645 -0.9786 0.9906
0.6677 -2.0549 -0.9785 0.9906
0.6977 -2.0449 -0.9785 0.9906
0.7866 -2.0123 -0.9785 0.9906
0.9313 -1.9494 -0.9784 0.9906
1.0438 -1.8922 -0.9787 0.9906
1.1070 -1.8749 -0.9861 0.9905
1.1393 -1.8669 -0.9905 0.9904
1.1702 -1.8558 -0.9936 0.9904
1.1971 -1.8385 -0.9936 0.9904
1.2238 -1.8208 -0.9936 0.9904
1.3024 -1.7653 -0.9935 0.9904
1.3280 -1.7461 -0.9935 0.9904
1.3534 -1.7265 -0.9935 0.9904
1.4033 -1.6862 -0.9935 0.9904
1.4277 -1.6655 -0.9935 0.9904
1.4519 -1.6444 -0.9935 0.9904
1.4758 -1.6230 -0.9935 0.9904
1.5225 -1.5792 -0.9934 0.9904
1.5454 -1.5567 -0.9934 0.9904
1.6121 -1.4875 -0.9934 0.9904
1.6337 -1.4638 -0.9934 0.9904
1.7361 -1.3405 -0.9934 0.9904
1.7555 -1.3150 -0.9934 0.9904
1.7745 -1.2892 -0.9933 0.9904
1.8114 -1.2368 -0.9933 0.9904
1.8292 -1.2102 -0.9933 0.9904
1.8467 -1.1833 -0.9933 0.9904
1.8638 -1.1562 -0.9933 0.9904
1.8805 -1.1289 -0.9933 0.9904
1.8968 -1.1012 -0.9933 0.9904
1.9281 -1.0453 -0.9933 0.9904
1.9432 -1.0170 -0.9933 0.9904
1.9578 -0.9886 -0.9933 0.9904
