ply
format ascii 1.0
element vertex 1596
property float32 x
property float32 y
property float32 z
property float32 I
end_header
2.8229 -1.8676 -0.9777 0.9860
2.9211 -1.8121 -0.9929 0.9858
2.9472 -1.7691 -0.9929 0.9858
2.9727 -1.7259 -0.9929 0.9858
3.0217 -1.6383 -0.9929 0.9858
3.0684 -1.5493 -0.9928 0.9858
3.0906 -1.5042 -0.9928 0.9858
3.1332 -1.4133 -0.9928 0.9858
3.2279 -1.1807 -0.9928 0.9858
3.2448 -1.1334 -0.9928 0.9858
3.2764 -1.0381 -0.9928 0.9858
3.2912 -0.9902 -0.9928 0.9858
3.3187 -0.8935 -0.9927 0.9858
3.3434 -0.7962 -0.9927 0.9858
3.3652 -0.6981 -0.9927 0.9858
3.3841 -0.5996 -0.9927 0.9858
3.4002 -0.5004 -0.9927 0.9858
3.4189 -0.3509 -0.9927 0.9858
3.4236 -0.3009 -0.9927 0.9858
3.4276 -0.2509 -0.9927 0.9858
3.4335 -0.1505 -0.9927 0.9858
3.4364 0.0502 -0.9927 0.9858
3.4335 0.1506 -0.9927 0.9858
3.4309 0.2008 -0.9927 0.9858
3.4276 0.2509 -0.9927 0.9858
3.3925 0.5501 -0.9927 0.9858
3.3841 0.5996 -0.9927 0.9858
3.3434 0.7962 -0.9927 0.9858
3.3054 0.9420 -0.9927 0.9858
3.2764 1.0382 -0.9928 0.9858
3.2447 1.1336 -0.9928 0.9858
3.1921 1.2747 -0.9928 0.9858
3.1731 1.3212 -0.9928 0.9858
3.1332 1.4134 -0.9928 0.9858
3.0906 1.5043 -0.9928 0.9858
3.0454 1.5940 -0.9928 0.9858
3.0218 1.6384 -0.9929 0.9858
2.9727 1.7260 -0.9929 0.9858
2.9472 1.7692 -0.9929 0.9858
2.8943 1.8546 -0.9929 0.9858
2.8103 1.9798 -0.9929 0.9858
2.7812 2.0207 -0.9930 0.9858
2.7514 2.0611 -0.9930 0.9858
2.7210 2.1011 -0.9930 0.9858
2.6900 2.1407 -0.9930 0.9858
2.6264 2.2184 -0.9930 0.9858
2.5937 2.2566 -0.9930 0.9858
2.5268 2.3314 -0.9931 0.9858
2.4925 2.3682 -0.9931 0.9858
2.4576 2.4043 -0.9931 0.9858
2.4222 2.4400 -0.9931 0.9858
2.3864 2.4752 -0.9931 0.9858
2.2757 2.5775 -0.9932 0.9858
2.1995 2.6430 -0.9932 0.9858
2.1214 2.7062 -0.9932 0.9858
2.0817 2.7370 -0.9932 0.9858
1.9184 2.8541 -0.9933 0.9858
1.8764 2.8818 -0.9933 0.9858
1.7915 2.9355 -0.9933 0.9858
1.7050 2.9868 -0.9934 0.9858
1.6612 3.0114 -0.9934 0.9858
1.6171 3.0354 -0.9934 0.9858
1.5278 3.0815 -0.9935 0.9858
1.4371 3.1249 -0.9935 0.9858
1.3914 3.1456 -0.9935 0.9858
1.3453 3.1657 -0.9935 0.9858
1.2522 3.2037 -0.9936 0.9858
0.8702 3.3285 -0.9937 0.9858
0.8215 3.3409 -0.9937 0.9858
0.7235 3.3636 -0.9938 0.9858
0.6743 3.3738 -0.9938 0.9858
0.5755 3.3923 -0.9938 0.9858
0.4761 3.4078 -0.9939 0.9858
0.3763 3.4204 -0.9939 0.9858
0.2763 3.4300 -0.9939 0.9858
0.2261 3.4337 -0.9940 0.9858
0.1759 3.4368 -0.9940 0.9858
0.0754 3.4406 -0.9940 0.9858
0.0251 3.4414 -0.9940 0.9858
-0.0252 3.4414 -0.9941 0.9858
-0.0754 3.4408 -0.9941 0.9858
-0.1257 3.4394 -0.9941 0.9858
-0.2262 3.4344 -0.9941 0.9858
-0.3764 3.4214 -0.9942 0.9858
-0.4264 3.4156 -0.9942 0.9858
-0.5261 3.4018 -0.9943 0.9858
-0.6253 3.3851 -0.9943 0.9858
-0.7239 3.3655 -0.9943 0.9858
-0.7730 3.3547 -0.9944 0.9858
-0.8708 3.3308 -0.9944 0.9858
-1.0160 3.2896 -0.9945 0.9858
-1.0639 3.2745 -0.9945 0.9858
-1.1117 3.2587 -0.9945 0.9858
-1.2064 3.2249 -0.9945 0.9858
-0.2457 0.5782 -0.1815 0.9974
-0.2516 0.5471 -0.1739 0.9975
-0.2556 0.5350 -0.1713 0.9975
-0.2665 0.5004 -0.1638 0.9976
-0.2699 0.4893 -0.1614 0.9977
-0.2731 0.4785 -0.1591 0.9977
-0.2763 0.4679 -0.1569 0.9977
-0.2796 0.4581 -0.1550 0.9978
-0.2862 0.4396 -0.1515 0.9978
-0.2924 0.4216 -0.1482 0.9979
-0.2954 0.4129 -0.1466 0.9979
-0.2982 0.4043 -0.1451 0.9979
-0.3036 0.3873 -0.1422 0.9980
-0.3113 0.3632 -0.1382 0.9980
-0.3160 0.3476 -0.1357 0.9980
-0.3220 0.3244 -0.1320 0.9981
-0.3251 0.3089 -0.1295 0.9981
-0.3265 0.3013 -0.1283 0.9982
-0.3279 0.2939 -0.1272 0.9982
-0.3293 0.2865 -0.1261 0.9982
-0.3305 0.2792 -0.1250 0.9982
-0.3351 0.2510 -0.1209 0.9983
-0.3361 0.2442 -0.1200 0.9983
-0.3370 0.2375 -0.1191 0.9983
-0.3388 0.2241 -0.1173 0.9983
-0.3396 0.2176 -0.1165 0.9983
-0.3404 0.2112 -0.1157 0.9983
-0.3411 0.2048 -0.1149 0.9983
-0.3424 0.1922 -0.1134 0.9984
-0.3435 0.1863 -0.1128 0.9984
-0.3453 0.1744 -0.1117 0.9984
-0.3462 0.1686 -0.1112 0.9984
-0.3470 0.1627 -0.1107 0.9984
-0.3499 0.1339 -0.1082 0.9984
-0.3504 0.1282 -0.1078 0.9984
-0.3508 0.1226 -0.1073 0.9985
-0.3519 0.1059 -0.1062 0.9985
-0.3522 0.1004 -0.1058 0.9985
-0.3525 0.0949 -0.1054 0.9985
-0.3529 0.0841 -0.1048 0.9985
-0.3530 0.0787 -0.1045 0.9985
-0.3532 0.0733 -0.1042 0.9985
-0.3533 0.0680 -0.1039 0.9985
-0.3534 0.0520 -0.1032 0.9985
-0.3534 0.0468 -0.1030 0.9985
-0.3533 0.0415 -0.1028 0.9985
-0.3532 0.0363 -0.1026 0.9985
-0.3532 0.0311 -0.1024 0.9985
-0.3530 0.0259 -0.1022 0.9985
-0.3528 0.0207 -0.1021 0.9985
-0.3524 0.0103 -0.1018 0.9985
-0.3466 -0.0101 -0.1043 0.9986
-0.3473 -0.0305 -0.1049 0.9985
-0.3474 -0.0356 -0.1051 0.9985
-0.3474 -0.0408 -0.1053 0.9985
-0.3475 -0.0459 -0.1055 0.9985
-0.3475 -0.0511 -0.1057 0.9985
-0.3474 -0.0616 -0.1062 0.9985
-0.3474 -0.0668 -0.1064 0.9985
-0.3472 -0.0720 -0.1067 0.9985
-0.3465 -0.0933 -0.1080 0.9985
-0.3462 -0.0986 -0.1083 0.9985
-0.3459 -0.1040 -0.1087 0.9985
-0.3447 -0.1204 -0.1099 0.9985
-0.3443 -0.1259 -0.1103 0.9985
-0.3422 -0.1484 -0.1122 0.9984
-0.3415 -0.1540 -0.1127 0.9984
-0.3400 -0.1655 -0.1138 0.9984
-0.3391 -0.1712 -0.1143 0.9984
-0.3382 -0.1770 -0.1149 0.9984
-0.3372 -0.1828 -0.1154 0.9984
-0.3362 -0.1887 -0.1160 0.9984
-0.3352 -0.1946 -0.1166 0.9984
-0.3330 -0.2134 -0.1190 0.9983
-0.3293 -0.2393 -0.1225 0.9983
-0.3282 -0.2459 -0.1234 0.9983
-0.3260 -0.2595 -0.1254 0.9983
-0.3249 -0.2664 -0.1264 0.9982
-0.3236 -0.2733 -0.1275 0.9982
-0.3223 -0.2804 -0.1285 0.9982
-0.3180 -0.3021 -0.1320 0.9982
-0.3132 -0.3248 -0.1358 0.9981
-0.3113 -0.3325 -0.1371 0.9981
-0.3091 -0.3398 -0.1382 0.9981
-0.3067 -0.3474 -0.1394 0.9981
-0.3043 -0.3550 -0.1407 0.9980
-0.3018 -0.3627 -0.1420 0.9980
-0.2992 -0.3704 -0.1433 0.9980
-0.2911 -0.3945 -0.1475 0.9980
-0.2883 -0.4029 -0.1491 0.9979
-0.2822 -0.4199 -0.1522 0.9979
-0.2758 -0.4374 -0.1556 0.9978
-0.2654 -0.4648 -0.1611 0.9978
-0.2616 -0.4743 -0.1630 0.9977
-0.2547 -0.4955 -0.1676 0.9977
-0.2304 -0.5649 -0.1836 0.9975
-0.2322 -0.5939 -0.1919 0.9973
-0.2451 -0.6854 -0.2190 0.9970
-0.6538 -2.2322 -0.6999 0.9903
-0.6243 -2.3878 -0.7426 0.9897
-0.5086 -2.5450 -0.7809 0.9892
-0.3563 -2.5510 -0.7750 0.9893
-0.3185 -2.5517 -0.7738 0.9893
-0.3008 -2.7343 -0.8277 0.9886
-0.2612 -3.2429 -0.9789 0.9865
-0.2137 -3.2462 -0.9789 0.9865
-0.1663 -3.2491 -0.9789 0.9865
-0.1188 -3.2510 -0.9789 0.9865
-0.0712 -3.2523 -0.9788 0.9865
-0.0238 -3.2530 -0.9788 0.9865
0.0237 -3.2529 -0.9788 0.9865
0.1188 -3.2507 -0.9788 0.9865
0.2137 -3.2458 -0.9787 0.9865
0.3085 -3.2380 -0.9787 0.9865
0.3558 -3.2330 -0.9787 0.9865
0.4500 -3.2212 -0.9786 0.9865
0.4971 -3.2142 -0.9786 0.9865
0.5908 -3.1981 -0.9786 0.9865
0.6374 -3.1891 -0.9786 0.9865
0.6839 -3.1794 -0.9785 0.9865
0.9141 -3.1207 -0.9785 0.9865
0.9596 -3.1070 -0.9784 0.9865
1.0048 -3.0926 -0.9784 0.9865
1.1394 -3.0454 -0.9784 0.9865
1.2278 -3.0107 -0.9783 0.9865
1.2605 -2.7408 -0.9077 0.9875
1.3303 -2.7846 -0.9286 0.9872
1.3993 -2.7215 -0.9208 0.9873
1.6528 -2.7993 -0.9782 0.9865
1.7738 -2.7241 -0.9781 0.9865
1.8526 -2.6711 -0.9781 0.9865
1.9678 -2.5871 -0.9780 0.9865
2.0054 -2.5581 -0.9780 0.9865
2.0792 -2.4983 -0.9780 0.9865
2.1865 -2.4047 -0.9780 0.9865
2.2214 -2.3725 -0.9779 0.9865
2.2558 -2.3397 -0.9779 0.9865
2.2897 -2.3065 -0.9779 0.9865
2.3561 -2.2386 -0.9779 0.9865
2.4518 -2.1330 -0.9778 0.9865
2.4827 -2.0970 -0.9778 0.9865
2.5130 -2.0604 -0.9778 0.9865
2.5721 -1.9861 -0.9778 0.9865
2.6009 -1.9483 -0.9778 0.9865
2.6290 -1.9100 -0.9778 0.9865
2.7523 -1.8209 -0.9930 0.9863
2.7786 -1.7804 -0.9930 0.9863
2.8293 -1.6984 -0.9929 0.9863
2.8538 -1.6569 -0.9929 0.9863
2.8777 -1.6150 -0.9929 0.9863
2.9456 -1.4873 -0.9929 0.9863
2.9670 -1.4441 -0.9929 0.9863
2.9878 -1.4005 -0.9929 0.9863
3.0079 -1.3568 -0.9929 0.9863
3.0274 -1.3127 -0.9929 0.9863
3.0820 -1.1787 -0.9928 0.9863
3.1306 -1.0425 -0.9928 0.9863
3.1596 -0.9505 -0.9928 0.9863
3.2307 -0.6702 -0.9928 0.9863
3.2401 -0.6230 -0.9928 0.9863
3.2489 -0.5755 -0.9928 0.9863
3.2643 -0.4804 -0.9928 0.9863
3.2822 -0.3369 -0.9928 0.9863
3.2867 -0.2889 -0.9928 0.9863
3.2938 -0.1927 -0.9928 0.9863
3.2980 -0.0963 -0.9927 0.9863
3.2990 -0.0481 -0.9927 0.9863
3.2994 0.0000 -0.9927 0.9863
3.2990 0.0482 -0.9927 0.9863
3.2980 0.0964 -0.9927 0.9863
3.2937 0.1927 -0.9928 0.9863
3.2906 0.2409 -0.9928 0.9863
3.2867 0.2889 -0.9928 0.9863
3.2643 0.4804 -0.9928 0.9863
3.2569 0.5281 -0.9928 0.9863
3.2488 0.5756 -0.9928 0.9863
3.1982 0.8112 -0.9928 0.9863
3.1861 0.8579 -0.9928 0.9863
3.1732 0.9043 -0.9928 0.9863
3.1454 0.9967 -0.9928 0.9863
3.1150 1.0882 -0.9928 0.9863
3.0462 1.2683 -0.9928 0.9863
3.0274 1.3127 -0.9929 0.9863
2.9878 1.4006 -0.9929 0.9863
2.9456 1.4873 -0.9929 0.9863
2.8777 1.6151 -0.9929 0.9863
2.8538 1.6570 -0.9929 0.9863
2.8293 1.6985 -0.9929 0.9863
2.8043 1.7396 -0.9929 0.9863
2.7523 1.8209 -0.9930 0.9863
2.7254 1.8609 -0.9930 0.9863
2.6980 1.9006 -0.9930 0.9863
2.6122 2.0171 -0.9930 0.9863
2.5824 2.0550 -0.9930 0.9863
2.5214 2.1297 -0.9931 0.9863
2.4257 2.2382 -0.9931 0.9863
2.3254 2.3425 -0.9931 0.9863
2.2909 2.3763 -0.9931 0.9863
2.2560 2.4095 -0.9932 0.9863
2.1847 2.4745 -0.9932 0.9863
2.1483 2.5061 -0.9932 0.9863
2.0743 2.5679 -0.9932 0.9863
2.0365 2.5980 -0.9932 0.9863
1.8416 2.7399 -0.9933 0.9863
1.8014 2.7666 -0.9933 0.9863
1.7608 2.7927 -0.9934 0.9863
1.6786 2.8430 -0.9934 0.9863
1.5524 2.9140 -0.9934 0.9863
1.4667 2.9582 -0.9935 0.9863
1.3357 3.0198 -0.9935 0.9863
1.2469 3.0577 -0.9936 0.9863
1.2021 3.0755 -0.9936 0.9863
1.1571 3.0929 -0.9936 0.9863
1.0205 3.1408 -0.9937 0.9863
0.8819 3.1827 -0.9937 0.9863
0.7886 3.2072 -0.9937 0.9863
0.6946 3.2290 -0.9938 0.9863
0.6473 3.2388 -0.9938 0.9863
0.5999 3.2480 -0.9938 0.9863
0.5524 3.2565 -0.9938 0.9863
0.5048 3.2643 -0.9939 0.9863
0.4571 3.2714 -0.9939 0.9863
0.4092 3.2777 -0.9939 0.9863
0.3613 3.2835 -0.9939 0.9863
0.3133 3.2884 -0.9939 0.9863
0.1689 3.2992 -0.9940 0.9863
0.1207 3.3014 -0.9940 0.9863
0.0724 3.3029 -0.9940 0.9863
0.0242 3.3036 -0.9940 0.9863
-0.0241 3.3037 -0.9941 0.9863
-0.0724 3.3030 -0.9941 0.9863
-0.1689 3.2997 -0.9941 0.9863
-0.2171 3.2969 -0.9941 0.9863
-0.3614 3.2844 -0.9942 0.9863
-0.4093 3.2788 -0.9942 0.9863
-0.4572 3.2726 -0.9942 0.9863
-0.5050 3.2656 -0.9943 0.9863
-0.5527 3.2580 -0.9943 0.9863
-0.6477 3.2405 -0.9943 0.9863
-0.6949 3.2308 -0.9943 0.9863
-0.7421 3.2203 -0.9944 0.9863
-0.8825 3.1849 -0.9944 0.9863
-0.9290 3.1717 -0.9944 0.9863
-0.9753 3.1579 -0.9944 0.9863
-1.0671 3.1282 -0.9945 0.9863
-0.2383 0.6370 -0.2046 0.9972
-0.2322 0.5941 -0.1919 0.9973
-0.2349 0.5527 -0.1807 0.9975
-0.2392 0.5408 -0.1779 0.9975
-0.2511 0.5065 -0.1701 0.9976
-0.2582 0.4848 -0.1653 0.9977
-0.2616 0.4743 -0.1630 0.9977
-0.2689 0.4556 -0.1592 0.9978
-0.2791 0.4286 -0.1539 0.9979
-0.2853 0.4114 -0.1506 0.9979
-0.2911 0.3946 -0.1475 0.9980
-0.2939 0.3864 -0.1461 0.9980
-0.2992 0.3705 -0.1433 0.9980
-0.3043 0.3550 -0.1407 0.9980
-0.3148 0.3172 -0.1345 0.9981
-0.3180 0.3022 -0.1320 0.9982
-0.3223 0.2804 -0.1285 0.9982
-0.3261 0.2595 -0.1254 0.9983
-0.3272 0.2527 -0.1244 0.9983
-0.3293 0.2393 -0.1225 0.9983
-0.3303 0.2327 -0.1216 0.9983
-0.3312 0.2262 -0.1207 0.9983
-0.3330 0.2134 -0.1190 0.9983
-0.3337 0.2071 -0.1182 0.9984
-0.3382 0.1770 -0.1149 0.9984
-0.3408 0.1598 -0.1133 0.9984
-0.3415 0.1541 -0.1127 0.9984
-0.3422 0.1484 -0.1122 0.9984
-0.3433 0.1371 -0.1112 0.9985
-0.3448 0.1205 -0.1099 0.9985
-0.3452 0.1150 -0.1095 0.9985
-0.3459 0.1041 -0.1087 0.9985
-0.3471 0.0773 -0.1070 0.9985
-0.3474 0.0668 -0.1064 0.9985
-0.3474 0.0357 -0.1051 0.9985
-0.3473 0.0305 -0.1049 0.9985
-0.3466 0.0102 -0.1043 0.9986
-0.3463 0.0051 -0.1042 0.9986
-0.3404 0.0000 -0.1066 0.9986
-0.3407 -0.0049 -0.1067 0.9986
-0.3412 -0.0150 -0.1069 0.9986
-0.3413 -0.0200 -0.1070 0.9986
-0.3417 -0.0351 -0.1075 0.9986
-0.3418 -0.0452 -0.1079 0.9986
-0.3418 -0.0554 -0.1084 0.9985
-0.3413 -0.0760 -0.1095 0.9985
-0.3409 -0.0864 -0.1101 0.9985
-0.3404 -0.0970 -0.1108 0.9985
-0.3400 -0.1023 -0.1112 0.9985
-0.3389 -0.1184 -0.1124 0.9985
-0.3384 -0.1237 -0.1128 0.9985
-0.3379 -0.1292 -0.1132 0.9985
-0.3374 -0.1347 -0.1137 0.9985
-0.3348 -0.1570 -0.1158 0.9985
-0.3331 -0.1682 -0.1168 0.9984
-0.3321 -0.1738 -0.1173 0.9984
-0.3311 -0.1795 -0.1179 0.9984
-0.3290 -0.1910 -0.1191 0.9984
-0.3281 -0.1970 -0.1198 0.9984
-0.3265 -0.2092 -0.1214 0.9984
-0.3256 -0.2155 -0.1222 0.9984
-0.3248 -0.2217 -0.1231 0.9984
-0.3217 -0.2409 -0.1258 0.9983
-0.3206 -0.2475 -0.1268 0.9983
-0.3182 -0.2609 -0.1288 0.9983
-0.3142 -0.2815 -0.1321 0.9982
-0.3096 -0.3029 -0.1356 0.9982
-0.3063 -0.3177 -0.1381 0.9982
-0.3023 -0.3325 -0.1407 0.9981
-0.3000 -0.3398 -0.1419 0.9981
-0.2976 -0.3471 -0.1431 0.9981
-0.2951 -0.3546 -0.1444 0.9981
-0.2871 -0.3775 -0.1484 0.9980
-0.2814 -0.3933 -0.1514 0.9980
-0.2785 -0.4015 -0.1530 0.9980
-0.2754 -0.4097 -0.1545 0.9979
-0.2723 -0.4182 -0.1562 0.9979
-0.2690 -0.4266 -0.1579 0.9979
-0.2656 -0.4353 -0.1596 0.9979
-0.2621 -0.4441 -0.1614 0.9978
-0.2586 -0.4530 -0.1633 0.9978
-0.2549 -0.4620 -0.1652 0.9978
-0.2470 -0.4805 -0.1691 0.9977
-0.2355 -0.5121 -0.1764 0.9976
-0.2314 -0.5231 -0.1791 0.9976
-0.2180 -0.5577 -0.1875 0.9975
-0.2132 -0.5698 -0.1904 0.9975
-0.2175 -0.6084 -0.2023 0.9973
-0.2225 -0.6521 -0.2157 0.9971
-0.7505 -2.3099 -0.7603 0.9899
-0.7377 -2.3886 -0.7825 0.9896
-0.6133 -2.4944 -0.8041 0.9893
-0.5785 -2.5104 -0.8064 0.9893
-0.5254 -2.4428 -0.7822 0.9896
-0.4661 -2.5238 -0.8034 0.9893
-0.4255 -2.5089 -0.7966 0.9894
-0.3855 -2.4934 -0.7898 0.9895
-0.3072 -2.4615 -0.7765 0.9897
-0.2573 -2.7016 -0.8495 0.9887
-0.2169 -2.6937 -0.8459 0.9887
-0.2055 -3.1205 -0.9789 0.9870
-0.1599 -3.1231 -0.9789 0.9870
-0.1142 -3.1251 -0.9789 0.9870
-0.0685 -3.1264 -0.9788 0.9870
-0.0228 -3.1270 -0.9788 0.9870
0.0229 -3.1269 -0.9788 0.9870
0.1599 -3.1227 -0.9788 0.9870
0.2054 -3.1200 -0.9787 0.9870
0.2965 -3.1126 -0.9787 0.9870
0.3420 -3.1079 -0.9787 0.9870
0.3873 -3.1024 -0.9787 0.9870
0.4327 -3.0964 -0.9786 0.9870
0.4778 -3.0897 -0.9786 0.9870
0.5229 -3.0823 -0.9786 0.9870
0.5679 -3.0743 -0.9786 0.9870
0.7020 -3.0463 -0.9785 0.9870
0.7464 -3.0356 -0.9785 0.9870
0.8787 -2.9998 -0.9785 0.9870
0.9224 -2.9867 -0.9785 0.9870
1.0523 -2.9432 -0.9784 0.9870
1.0953 -2.9275 -0.9784 0.9870
1.1379 -2.9111 -0.9784 0.9870
1.1803 -2.8941 -0.9784 0.9870
1.2643 -2.8583 -0.9783 0.9870
1.2689 -2.7590 -0.9506 0.9874
1.4290 -2.7794 -0.9783 0.9870
1.6667 -2.6433 -0.9782 0.9870
1.7432 -2.5934 -0.9781 0.9870
1.7809 -2.5676 -0.9781 0.9870
1.9277 -2.4591 -0.9781 0.9870
1.9634 -2.4306 -0.9780 0.9870
2.0335 -2.3721 -0.9780 0.9870
2.1354 -2.2806 -0.9780 0.9870
2.2011 -2.2172 -0.9779 0.9870
2.2332 -2.1848 -0.9779 0.9870
2.2649 -2.1519 -0.9779 0.9870
2.3268 -2.0847 -0.9779 0.9870
2.3866 -2.0158 -0.9779 0.9870
2.4158 -1.9807 -0.9779 0.9870
2.4445 -1.9452 -0.9778 0.9870
2.5430 -1.8475 -0.9839 0.9869
2.7199 -1.6327 -0.9930 0.9868
2.7434 -1.5928 -0.9930 0.9868
2.7887 -1.5119 -0.9930 0.9868
2.8316 -1.4298 -0.9929 0.9868
2.8722 -1.3464 -0.9929 0.9868
2.9102 -1.2619 -0.9929 0.9868
2.9458 -1.1763 -0.9929 0.9868
2.9627 -1.1331 -0.9929 0.9868
2.9789 -1.0896 -0.9929 0.9868
2.9945 -1.0460 -0.9929 0.9868
3.0095 -1.0022 -0.9929 0.9868
3.0374 -0.9138 -0.9929 0.9868
3.0855 -0.7348 -0.9928 0.9868
3.1148 -0.5988 -0.9928 0.9868
3.1232 -0.5533 -0.9928 0.9868
3.1379 -0.4618 -0.9928 0.9868
3.1444 -0.4159 -0.9928 0.9868
3.1596 -0.2777 -0.9928 0.9868
3.1663 -0.1852 -0.9928 0.9868
3.1687 -0.1390 -0.9928 0.9868
3.1704 -0.0927 -0.9928 0.9868
3.1714 -0.0463 -0.9928 0.9868
3.1717 0.0000 -0.9928 0.9868
3.1663 0.1853 -0.9928 0.9868
3.1633 0.2316 -0.9928 0.9868
3.1596 0.2777 -0.9928 0.9868
3.1501 0.3700 -0.9928 0.9868
3.1444 0.4159 -0.9928 0.9868
3.1380 0.4618 -0.9928 0.9868
3.1147 0.5989 -0.9928 0.9868
3.0959 0.6897 -0.9928 0.9868
3.0745 0.7798 -0.9928 0.9868
3.0237 0.9582 -0.9929 0.9868
2.9945 1.0461 -0.9929 0.9868
2.9789 1.0898 -0.9929 0.9868
2.9627 1.1332 -0.9929 0.9868
2.9458 1.1763 -0.9929 0.9868
2.9284 1.2193 -0.9929 0.9868
2.8915 1.3043 -0.9929 0.9868
2.8722 1.3464 -0.9929 0.9868
2.8316 1.4298 -0.9929 0.9868
2.8105 1.4711 -0.9929 0.9868
2.7887 1.5120 -0.9930 0.9868
2.7434 1.5929 -0.9930 0.9868
2.6957 1.6723 -0.9930 0.9868
2.6711 1.7116 -0.9930 0.9868
2.6458 1.7505 -0.9930 0.9868
2.6199 1.7889 -0.9930 0.9868
2.5111 1.9390 -0.9931 0.9868
2.4534 2.0116 -0.9931 0.9868
2.3936 2.0825 -0.9931 0.9868
2.3630 2.1173 -0.9931 0.9868
2.3318 2.1516 -0.9931 0.9868
2.2354 2.2518 -0.9932 0.9868
2.2023 2.2842 -0.9932 0.9868
2.1346 2.3477 -0.9932 0.9868
2.0652 2.4091 -0.9932 0.9868
1.9210 2.5258 -0.9933 0.9868
1.8839 2.5536 -0.9933 0.9868
1.7703 2.6339 -0.9934 0.9868
1.6533 2.7091 -0.9934 0.9868
1.4923 2.8012 -0.9935 0.9868
1.4513 2.8227 -0.9935 0.9868
1.3682 2.8640 -0.9935 0.9868
1.3262 2.8837 -0.9935 0.9868
1.2840 2.9029 -0.9935 0.9868
1.2415 2.9214 -0.9936 0.9868
1.1986 2.9393 -0.9936 0.9868
1.1556 2.9565 -0.9936 0.9868
1.1123 2.9731 -0.9936 0.9868
1.0250 3.0044 -0.9937 0.9868
0.9810 3.0191 -0.9937 0.9868
0.9368 3.0332 -0.9937 0.9868
0.7580 3.0830 -0.9938 0.9868
0.7129 3.0938 -0.9938 0.9868
0.5767 3.1223 -0.9938 0.9868
0.4853 3.1379 -0.9939 0.9868
0.2087 3.1686 -0.9940 0.9868
0.1623 3.1714 -0.9940 0.9868
0.0696 3.1750 -0.9940 0.9868
-0.0232 3.1757 -0.9941 0.9868
-0.0696 3.1751 -0.9941 0.9868
-0.1160 3.1738 -0.9941 0.9868
-0.1623 3.1718 -0.9941 0.9868
-0.2550 3.1659 -0.9942 0.9868
-0.3012 3.1618 -0.9942 0.9868
-0.3474 3.1572 -0.9942 0.9868
-0.3935 3.1518 -0.9942 0.9868
-0.5770 3.1236 -0.9943 0.9868
-0.6226 3.1150 -0.9943 0.9868
-0.6680 3.1056 -0.9943 0.9868
-0.7133 3.0955 -0.9943 0.9868
-0.7585 3.0848 -0.9944 0.9868
-0.8035 3.0735 -0.9944 0.9868
-0.8483 3.0615 -0.9944 0.9868
-0.9375 3.0355 -0.9944 0.9868
-0.2176 0.6086 -0.2023 0.9973
-0.2180 0.5578 -0.1875 0.9975
-0.2314 0.5231 -0.1791 0.9976
-0.2394 0.5013 -0.1739 0.9977
-0.2432 0.4907 -0.1714 0.9977
-0.2470 0.4806 -0.1691 0.9977
-0.2549 0.4620 -0.1652 0.9978
-0.2586 0.4530 -0.1633 0.9978
-0.2657 0.4353 -0.1596 0.9979
-0.2723 0.4182 -0.1562 0.9979
-0.2871 0.3775 -0.1485 0.9980
-0.2951 0.3546 -0.1444 0.9981
-0.2976 0.3472 -0.1431 0.9981
-0.3000 0.3398 -0.1419 0.9981
-0.3063 0.3177 -0.1381 0.9982
-0.3080 0.3103 -0.1368 0.9982
-0.3113 0.2957 -0.1344 0.9982
-0.3142 0.2816 -0.1321 0.9982
-0.3156 0.2746 -0.1309 0.9982
-0.3228 0.2345 -0.1249 0.9983
-0.3238 0.2281 -0.1240 0.9983
-0.3257 0.2155 -0.1222 0.9984
-0.3291 0.1911 -0.1191 0.9984
-0.3301 0.1853 -0.1185 0.9984
-0.3311 0.1796 -0.1179 0.9984
-0.3331 0.1682 -0.1168 0.9984
-0.3339 0.1626 -0.1163 0.9984
-0.3368 0.1402 -0.1142 0.9985
-0.3374 0.1348 -0.1137 0.9985
-0.3397 0.1077 -0.1115 0.9985
-0.3400 0.1023 -0.1112 0.9985
-0.3404 0.0970 -0.1108 0.9985
-0.3406 0.0918 -0.1104 0.9985
-0.3413 0.0761 -0.1095 0.9985
-0.3415 0.0709 -0.1092 0.9985
-0.3417 0.0605 -0.1086 0.9985
-0.3418 0.0554 -0.1084 0.9985
-0.3417 0.0351 -0.1075 0.9986
-0.3414 0.0200 -0.1070 0.9986
-0.3412 0.0150 -0.1069 0.9986
-0.3410 0.0100 -0.1068 0.9986
-0.3407 0.0050 -0.1067 0.9986
-0.3350 0.0000 -0.1089 0.9986
-0.3352 -0.0049 -0.1090 0.9986
-0.3354 -0.0098 -0.1091 0.9986
-0.3357 -0.0147 -0.1093 0.9986
-0.3358 -0.0196 -0.1094 0.9986
-0.3360 -0.0245 -0.1096 0.9986
-0.3361 -0.0295 -0.1097 0.9986
-0.3362 -0.0395 -0.1101 0.9986
-0.3360 -0.0646 -0.1113 0.9986
-0.3355 -0.0799 -0.1122 0.9986
-0.3350 -0.0902 -0.1128 0.9985
-0.3347 -0.0954 -0.1132 0.9985
-0.3340 -0.1058 -0.1139 0.9985
-0.3336 -0.1111 -0.1143 0.9985
-0.3331 -0.1163 -0.1148 0.9985
-0.3321 -0.1270 -0.1157 0.9985
-0.3316 -0.1324 -0.1161 0.9985
-0.3281 -0.1597 -0.1187 0.9985
-0.3272 -0.1652 -0.1192 0.9985
-0.3262 -0.1707 -0.1198 0.9985
-0.3253 -0.1763 -0.1203 0.9984
-0.3242 -0.1820 -0.1209 0.9984
-0.3231 -0.1876 -0.1215 0.9984
-0.3220 -0.1933 -0.1221 0.9984
-0.3211 -0.1992 -0.1229 0.9984
-0.3203 -0.2052 -0.1237 0.9984
-0.3194 -0.2113 -0.1246 0.9984
-0.3164 -0.2299 -0.1272 0.9984
-0.3130 -0.2491 -0.1301 0.9983
-0.3118 -0.2556 -0.1311 0.9983
-0.3091 -0.2689 -0.1333 0.9983
-0.3047 -0.2895 -0.1367 0.9982
-0.3031 -0.2965 -0.1379 0.9982
-0.3014 -0.3036 -0.1391 0.9982
-0.2959 -0.3254 -0.1430 0.9982
-0.2936 -0.3325 -0.1442 0.9981
-0.2886 -0.3468 -0.1467 0.9981
-0.2861 -0.3541 -0.1480 0.9981
-0.2834 -0.3615 -0.1494 0.9981
-0.2806 -0.3689 -0.1508 0.9981
-0.2778 -0.3765 -0.1522 0.9980
-0.2720 -0.3920 -0.1552 0.9980
-0.2689 -0.4000 -0.1568 0.9980
-0.2625 -0.4163 -0.1601 0.9979
-0.2521 -0.4416 -0.1654 0.9979
-0.2446 -0.4591 -0.1692 0.9978
-0.2281 -0.4960 -0.1776 0.9977
-0.2198 -0.5172 -0.1828 0.9976
-0.2108 -0.5393 -0.1883 0.9976
-0.2060 -0.5506 -0.1912 0.9975
-0.2010 -0.5622 -0.1942 0.9975
-0.2055 -0.6654 -0.2265 0.9971
-0.6470 -2.4752 -0.8321 0.9893
-0.6082 -2.4737 -0.8285 0.9893
-0.5313 -2.4702 -0.8218 0.9894
-0.4230 -2.4939 -0.8227 0.9894
-0.3771 -2.6998 -0.8866 0.9886
-0.2550 -2.6771 -0.8746 0.9888
-0.2149 -2.6694 -0.8710 0.9888
-0.1978 -3.0034 -0.9789 0.9874
-0.0659 -3.0090 -0.9788 0.9874
-0.0220 -3.0096 -0.9788 0.9874
0.0220 -3.0095 -0.9788 0.9874
0.1099 -3.0075 -0.9788 0.9874
0.2854 -2.9957 -0.9787 0.9874
0.3291 -2.9912 -0.9787 0.9874
0.3728 -2.9860 -0.9787 0.9874
0.4164 -2.9802 -0.9787 0.9874
0.6328 -2.9416 -0.9786 0.9874
0.6756 -2.9320 -0.9786 0.9874
0.7610 -2.9109 -0.9785 0.9874
0.8034 -2.8994 -0.9785 0.9874
0.8457 -2.8873 -0.9785 0.9874
0.8878 -2.8746 -0.9785 0.9874
0.9714 -2.8473 -0.9784 0.9874
1.0952 -2.8018 -0.9784 0.9874
1.1360 -2.7855 -0.9784 0.9874
1.2569 -2.7330 -0.9783 0.9874
1.2967 -2.7142 -0.9783 0.9874
1.3754 -2.6751 -0.9783 0.9874
1.4529 -2.6337 -0.9782 0.9874
1.6042 -2.5442 -0.9782 0.9874
1.6778 -2.4961 -0.9782 0.9874
1.7141 -2.4713 -0.9781 0.9874
1.7500 -2.4459 -0.9781 0.9874
1.7855 -2.4201 -0.9781 0.9874
1.8206 -2.3937 -0.9781 0.9874
2.0553 -2.1951 -0.9780 0.9874
2.0872 -2.1648 -0.9780 0.9874
2.1186 -2.1341 -0.9780 0.9874
2.1799 -2.0712 -0.9780 0.9874
2.2395 -2.0065 -0.9779 0.9874
2.2971 -1.9402 -0.9779 0.9874
2.3528 -1.8722 -0.9779 0.9874
2.3942 -1.8487 -0.9838 0.9874
2.5465 -1.6847 -0.9930 0.9872
2.5946 -1.6096 -0.9930 0.9872
2.6179 -1.5715 -0.9930 0.9872
2.6405 -1.5330 -0.9930 0.9872
2.6841 -1.4552 -0.9930 0.9872
2.7255 -1.3761 -0.9930 0.9872
2.7645 -1.2959 -0.9930 0.9872
2.7831 -1.2554 -0.9930 0.9872
2.8012 -1.2145 -0.9929 0.9872
2.8354 -1.1322 -0.9929 0.9872
2.8672 -1.0488 -0.9929 0.9872
2.8822 -1.0068 -0.9929 0.9872
2.9360 -0.8367 -0.9929 0.9872
2.9480 -0.7937 -0.9929 0.9872
2.9592 -0.7505 -0.9929 0.9872
2.9798 -0.6637 -0.9929 0.9872
2.9980 -0.5764 -0.9929 0.9872
3.0369 -0.3117 -0.9929 0.9872
3.0411 -0.2673 -0.9929 0.9872
3.0446 -0.2228 -0.9928 0.9872
3.0476 -0.1783 -0.9928 0.9872
3.0498 -0.1337 -0.9928 0.9872
3.0515 -0.0892 -0.9928 0.9872
3.0528 0.0000 -0.9928 0.9872
3.0515 0.0893 -0.9928 0.9872
3.0476 0.1784 -0.9928 0.9872
3.0447 0.2229 -0.9928 0.9872
3.0411 0.2673 -0.9929 0.9872
3.0265 0.4003 -0.9929 0.9872
3.0135 0.4886 -0.9929 0.9872
2.9592 0.7506 -0.9929 0.9872
2.9479 0.7938 -0.9929 0.9872
2.9361 0.8368 -0.9929 0.9872
2.9235 0.8796 -0.9929 0.9872
2.8672 1.0489 -0.9929 0.9872
2.7452 1.3362 -0.9930 0.9872
2.7254 1.3762 -0.9930 0.9872
2.6405 1.5331 -0.9930 0.9872
2.6179 1.5715 -0.9930 0.9872
2.5709 1.6474 -0.9930 0.9872
2.5465 1.6848 -0.9930 0.9872
2.5217 1.7218 -0.9931 0.9872
2.4963 1.7586 -0.9931 0.9872
2.4439 1.8308 -0.9931 0.9872
2.3894 1.9014 -0.9931 0.9872
2.3329 1.9705 -0.9931 0.9872
2.3038 2.0044 -0.9931 0.9872
2.2444 2.0709 -0.9932 0.9872
2.1829 2.1356 -0.9932 0.9872
2.1197 2.1986 -0.9932 0.9872
2.0873 2.2294 -0.9932 0.9872
1.9877 2.3187 -0.9933 0.9872
1.9537 2.3476 -0.9933 0.9872
1.7408 2.5098 -0.9934 0.9872
1.7039 2.5350 -0.9934 0.9872
1.6667 2.5597 -0.9934 0.9872
1.5912 2.6074 -0.9934 0.9872
1.5530 2.6304 -0.9934 0.9872
1.3968 2.7168 -0.9935 0.9872
1.3570 2.7370 -0.9935 0.9872
1.1122 2.8455 -0.9936 0.9872
0.9442 2.9059 -0.9937 0.9872
0.8589 2.9323 -0.9937 0.9872
0.8160 2.9446 -0.9937 0.9872
0.7729 2.9562 -0.9938 0.9872
0.7296 2.9673 -0.9938 0.9872
0.5550 3.0050 -0.9938 0.9872
0.5111 3.0129 -0.9939 0.9872
0.4670 3.0201 -0.9939 0.9872
0.3786 3.0325 -0.9939 0.9872
0.2898 3.0424 -0.9939 0.9872
0.1562 3.0523 -0.9940 0.9872
-0.1562 3.0527 -0.9941 0.9872
-0.2008 3.0502 -0.9941 0.9872
-0.3343 3.0386 -0.9942 0.9872
-0.4230 3.0277 -0.9942 0.9872
-0.4672 3.0212 -0.9942 0.9872
-0.5553 3.0064 -0.9943 0.9872
-0.7300 2.9690 -0.9943 0.9872
-0.7733 2.9581 -0.9944 0.9872
-0.8165 2.9465 -0.9944 0.9872
-0.2055 0.6655 -0.2265 0.9971
-0.1986 0.5820 -0.2000 0.9974
-0.2010 0.5623 -0.1942 0.9975
-0.2060 0.5507 -0.1912 0.9975
-0.2241 0.5066 -0.1801 0.9977
-0.2281 0.4961 -0.1776 0.9977
-0.2366 0.4772 -0.1732 0.9978
-0.2407 0.4681 -0.1712 0.9978
-0.2557 0.4331 -0.1636 0.9979
-0.2591 0.4246 -0.1618 0.9979
-0.2657 0.4081 -0.1584 0.9980
-0.2719 0.3921 -0.1552 0.9980
-0.2749 0.3843 -0.1536 0.9980
-0.2834 0.3615 -0.1494 0.9981
-0.2936 0.3325 -0.1442 0.9981
-0.3031 0.2965 -0.1379 0.9982
-0.3062 0.2826 -0.1355 0.9982
-0.3077 0.2757 -0.1344 0.9983
-0.3091 0.2689 -0.1333 0.9983
-0.3105 0.2623 -0.1322 0.9983
-0.3175 0.2237 -0.1263 0.9984
-0.3212 0.1993 -0.1229 0.9984
-0.3220 0.1934 -0.1221 0.9984
-0.3262 0.1708 -0.1198 0.9985
-0.3290 0.1542 -0.1182 0.9985
-0.3297 0.1487 -0.1176 0.9985
-0.3304 0.1433 -0.1171 0.9985
-0.3316 0.1325 -0.1161 0.9985
-0.3321 0.1270 -0.1157 0.9985
-0.3336 0.1111 -0.1143 0.9985
-0.3350 0.0902 -0.1128 0.9985
-0.3352 0.0851 -0.1125 0.9985
-0.3357 0.0748 -0.1119 0.9986
-0.3359 0.0697 -0.1116 0.9986
-0.3360 0.0646 -0.1113 0.9986
-0.3361 0.0596 -0.1110 0.9986
-0.3362 0.0495 -0.1105 0.9986
-0.3362 0.0395 -0.1101 0.9986
-0.3362 0.0345 -0.1099 0.9986
-0.3360 0.0246 -0.1096 0.9986
-0.3358 0.0196 -0.1094 0.9986
-0.3355 0.0098 -0.1091 0.9986
-0.3296 0.0000 -0.1113 0.9986
-0.3299 -0.0048 -0.1114 0.9986
-0.3301 -0.0096 -0.1115 0.9986
-0.3303 -0.0145 -0.1116 0.9986
-0.3307 -0.0291 -0.1120 0.9986
-0.3308 -0.0339 -0.1122 0.9986
-0.3308 -0.0388 -0.1124 0.9986
-0.3308 -0.0437 -0.1126 0.9986
-0.3308 -0.0487 -0.1129 0.9986
-0.3307 -0.0536 -0.1131 0.9986
-0.3306 -0.0586 -0.1133 0.9986
-0.3305 -0.0635 -0.1136 0.9986
-0.3304 -0.0685 -0.1139 0.9986
-0.3302 -0.0736 -0.1142 0.9986
-0.3300 -0.0786 -0.1145 0.9986
-0.3295 -0.0887 -0.1152 0.9986
-0.3280 -0.1092 -0.1167 0.9985
-0.3275 -0.1144 -0.1171 0.9985
-0.3265 -0.1249 -0.1180 0.9985
-0.3260 -0.1301 -0.1185 0.9985
-0.3233 -0.1516 -0.1205 0.9985
-0.3215 -0.1623 -0.1216 0.9985
-0.3195 -0.1732 -0.1227 0.9985
-0.3174 -0.1843 -0.1239 0.9985
-0.3163 -0.1898 -0.1245 0.9984
-0.3152 -0.1955 -0.1252 0.9984
-0.3134 -0.2073 -0.1268 0.9984
-0.3114 -0.2193 -0.1286 0.9984
-0.3042 -0.2569 -0.1344 0.9983
-0.2984 -0.2834 -0.1389 0.9983
-0.2967 -0.2903 -0.1401 0.9982
-0.2933 -0.3042 -0.1426 0.9982
-0.2896 -0.3184 -0.1453 0.9982
-0.2824 -0.3393 -0.1490 0.9981
-0.2798 -0.3463 -0.1503 0.9981
-0.2744 -0.3607 -0.1530 0.9981
-0.2716 -0.3680 -0.1544 0.9981
-0.2687 -0.3755 -0.1558 0.9981
-0.2656 -0.3830 -0.1573 0.9980
-0.2626 -0.3907 -0.1589 0.9980
-0.2595 -0.3985 -0.1605 0.9980
-0.2562 -0.4064 -0.1622 0.9980
-0.2529 -0.4144 -0.1639 0.9980
-0.2495 -0.4225 -0.1656 0.9979
-0.2459 -0.4307 -0.1674 0.9979
-0.2422 -0.4391 -0.1693 0.9979
-0.2385 -0.4475 -0.1712 0.9979
-0.2263 -0.4737 -0.1772 0.9978
-0.2220 -0.4827 -0.1794 0.9978
-0.2130 -0.5012 -0.1838 0.9977
-0.2085 -0.5113 -0.1864 0.9977
-0.1943 -0.5435 -0.1948 0.9976
-0.1840 -0.5661 -0.2009 0.9975
-0.1830 -0.5926 -0.2094 0.9974
-0.6757 -2.4384 -0.8541 0.9894
-0.5610 -2.4346 -0.8433 0.9895
-0.5233 -2.4329 -0.8400 0.9895
-0.4554 -2.4656 -0.8463 0.9895
-0.2927 -2.6603 -0.9034 0.9888
-0.2527 -2.6529 -0.8995 0.9888
-0.2130 -2.6454 -0.8958 0.9889
-0.1906 -2.8939 -0.9789 0.9878
-0.0635 -2.8993 -0.9788 0.9878
-0.0212 -2.8999 -0.9788 0.9878
0.0636 -2.8992 -0.9788 0.9878
0.1059 -2.8979 -0.9788 0.9878
0.1482 -2.8960 -0.9788 0.9878
0.2328 -2.8903 -0.9787 0.9878
0.2750 -2.8866 -0.9787 0.9878
0.3171 -2.8822 -0.9787 0.9878
0.3592 -2.8772 -0.9787 0.9878
0.4849 -2.8586 -0.9786 0.9878
0.5266 -2.8512 -0.9786 0.9878
0.6097 -2.8345 -0.9786 0.9878
0.7333 -2.8048 -0.9785 0.9878
0.7742 -2.7938 -0.9785 0.9878
0.8149 -2.7821 -0.9785 0.9878
0.8959 -2.7570 -0.9785 0.9878
1.0553 -2.6998 -0.9784 0.9878
1.0946 -2.6841 -0.9784 0.9878
1.1337 -2.6677 -0.9784 0.9878
1.1725 -2.6509 -0.9784 0.9878
1.4369 -2.5170 -0.9782 0.9878
1.4735 -2.4957 -0.9782 0.9878
1.5098 -2.4739 -0.9782 0.9878
1.5814 -2.4286 -0.9782 0.9878
1.6167 -2.4052 -0.9782 0.9878
1.7544 -2.3065 -0.9781 0.9878
1.8209 -2.2543 -0.9781 0.9878
1.8537 -2.2273 -0.9781 0.9878
1.9179 -2.1722 -0.9781 0.9878
1.9494 -2.1439 -0.9780 0.9878
1.9805 -2.1152 -0.9780 0.9878
2.0112 -2.0860 -0.9780 0.9878
2.0414 -2.0563 -0.9780 0.9878
2.1006 -1.9957 -0.9780 0.9878
2.1580 -1.9335 -0.9780 0.9878
2.1859 -1.9017 -0.9780 0.9878
2.2552 -1.8489 -0.9843 0.9878
2.3024 -1.8321 -0.9931 0.9877
2.3289 -1.7983 -0.9931 0.9877
2.3549 -1.7641 -0.9931 0.9877
2.3804 -1.7295 -0.9931 0.9877
2.4054 -1.6945 -0.9931 0.9877
2.4773 -1.5874 -0.9931 0.9877
2.5226 -1.5143 -0.9931 0.9877
2.5444 -1.4773 -0.9930 0.9877
2.5657 -1.4399 -0.9930 0.9877
2.6263 -1.3261 -0.9930 0.9877
2.7322 -1.0910 -0.9930 0.9877
2.7912 -0.9295 -0.9930 0.9877
2.8045 -0.8886 -0.9929 0.9877
2.8171 -0.8475 -0.9929 0.9877
2.8515 -0.7232 -0.9929 0.9877
2.8618 -0.6815 -0.9929 0.9877
2.8714 -0.6396 -0.9929 0.9877
2.8889 -0.5554 -0.9929 0.9877
2.9038 -0.4708 -0.9929 0.9877
2.9163 -0.3857 -0.9929 0.9877
2.9216 -0.3431 -0.9929 0.9877
2.9263 -0.3004 -0.9929 0.9877
2.9339 -0.2147 -0.9929 0.9877
2.9367 -0.1718 -0.9929 0.9877
2.9389 -0.1289 -0.9929 0.9877
2.9414 -0.0430 -0.9929 0.9877
2.9389 0.1290 -0.9929 0.9877
2.9367 0.1719 -0.9929 0.9877
2.9338 0.2147 -0.9929 0.9877
2.9263 0.3004 -0.9929 0.9877
2.9216 0.3431 -0.9929 0.9877
2.9163 0.3858 -0.9929 0.9877
2.9038 0.4708 -0.9929 0.9877
2.8888 0.5555 -0.9929 0.9877
2.8406 0.7648 -0.9929 0.9877
2.8292 0.8063 -0.9929 0.9877
2.8171 0.8476 -0.9929 0.9877
2.7912 0.9295 -0.9929 0.9877
2.7628 1.0107 -0.9930 0.9877
2.7478 1.0509 -0.9930 0.9877
2.6992 1.1704 -0.9930 0.9877
2.6818 1.2097 -0.9930 0.9877
2.6638 1.2488 -0.9930 0.9877
2.6066 1.3644 -0.9930 0.9877
2.5225 1.5143 -0.9931 0.9877
2.5002 1.5511 -0.9931 0.9877
2.4773 1.5874 -0.9931 0.9877
2.4539 1.6235 -0.9931 0.9877
2.4299 1.6592 -0.9931 0.9877
2.4054 1.6945 -0.9931 0.9877
2.3804 1.7295 -0.9931 0.9877
2.3024 1.8322 -0.9931 0.9877
2.2480 1.8987 -0.9932 0.9877
2.1916 1.9637 -0.9932 0.9877
2.1627 1.9955 -0.9932 0.9877
2.1333 2.0269 -0.9932 0.9877
2.1035 2.0579 -0.9932 0.9877
2.0732 2.0884 -0.9932 0.9877
2.0425 2.1185 -0.9932 0.9877
1.9478 2.2061 -0.9933 0.9877
1.9154 2.2343 -0.9933 0.9877
1.8157 2.3162 -0.9933 0.9877
1.7816 2.3425 -0.9934 0.9877
1.7472 2.3683 -0.9934 0.9877
1.7125 2.3937 -0.9934 0.9877
1.6419 2.4428 -0.9934 0.9877
1.6061 2.4665 -0.9934 0.9877
1.5698 2.4897 -0.9934 0.9877
1.5333 2.5125 -0.9934 0.9877
1.4965 2.5346 -0.9935 0.9877
1.4593 2.5562 -0.9935 0.9877
1.4218 2.5773 -0.9935 0.9877
1.3840 2.5979 -0.9935 0.9877
1.3459 2.6179 -0.9935 0.9876
1.2300 2.6745 -0.9936 0.9876
1.1908 2.6921 -0.9936 0.9876
1.1116 2.7259 -0.9936 0.9876
1.0717 2.7419 -0.9936 0.9876
0.9506 2.7864 -0.9937 0.9876
0.8688 2.8130 -0.9937 0.9876
0.8276 2.8255 -0.9937 0.9876
0.7862 2.8373 -0.9937 0.9876
0.7030 2.8592 -0.9938 0.9876
0.6612 2.8692 -0.9938 0.9876
0.5771 2.8874 -0.9938 0.9876
0.5348 2.8955 -0.9938 0.9876
0.4500 2.9100 -0.9939 0.9876
0.3648 2.9221 -0.9939 0.9876
0.2793 2.9316 -0.9939 0.9876
0.2364 2.9354 -0.9940 0.9876
0.1935 2.9386 -0.9940 0.9876
0.1505 2.9411 -0.9940 0.9876
0.1076 2.9431 -0.9940 0.9876
0.0646 2.9444 -0.9940 0.9876
0.0215 2.9451 -0.9940 0.9876
-0.0215 2.9452 -0.9941 0.9876
-0.0646 2.9445 -0.9941 0.9876
-0.1506 2.9415 -0.9941 0.9876
-0.2365 2.9359 -0.9942 0.9876
-0.2793 2.9323 -0.9942 0.9876
-0.3221 2.9279 -0.9942 0.9876
-0.3649 2.9229 -0.9942 0.9876
-0.4076 2.9173 -0.9942 0.9876
-0.4927 2.9043 -0.9943 0.9876
-0.6195 2.8800 -0.9943 0.9876
-0.6615 2.8707 -0.9943 0.9876
-0.7451 2.8503 -0.9944 0.9876
-0.7867 2.8391 -0.9944 0.9876
-0.1852 0.6323 -0.2224 0.9972
-0.1830 0.5927 -0.2094 0.9974
-0.1892 0.5548 -0.1978 0.9975
-0.2085 0.5113 -0.1864 0.9977
-0.2176 0.4920 -0.1816 0.9977
-0.2263 0.4738 -0.1772 0.9978
-0.2345 0.4562 -0.1731 0.9978
-0.2422 0.4391 -0.1693 0.9979
-0.2495 0.4225 -0.1656 0.9979
-0.2529 0.4144 -0.1639 0.9980
-0.2595 0.3985 -0.1605 0.9980
-0.2626 0.3907 -0.1589 0.9980
-0.2716 0.3681 -0.1544 0.9981
-0.2771 0.3536 -0.1516 0.9981
-0.2798 0.3464 -0.1503 0.9981
-0.2849 0.3324 -0.1477 0.9982
-0.2983 0.2835 -0.1389 0.9983
-0.3014 0.2701 -0.1366 0.9983
-0.3029 0.2635 -0.1355 0.9983
-0.3056 0.2506 -0.1334 0.9983
-0.3069 0.2442 -0.1324 0.9983
-0.3103 0.2255 -0.1295 0.9984
-0.3114 0.2194 -0.1286 0.9984
-0.3143 0.2014 -0.1260 0.9984
-0.3174 0.1843 -0.1239 0.9985
-0.3185 0.1787 -0.1233 0.9985
-0.3224 0.1570 -0.1210 0.9985
-0.3233 0.1516 -0.1205 0.9985
-0.3247 0.1408 -0.1195 0.9985
-0.3265 0.1249 -0.1180 0.9985
-0.3270 0.1196 -0.1175 0.9985
-0.3275 0.1145 -0.1171 0.9985
-0.3284 0.1041 -0.1163 0.9985
-0.3292 0.0938 -0.1155 0.9986
-0.3302 0.0736 -0.1142 0.9986
-0.3304 0.0686 -0.1139 0.9986
-0.3308 0.0487 -0.1129 0.9986
-0.3308 0.0389 -0.1124 0.9986
-0.3307 0.0291 -0.1121 0.9986
-0.3306 0.0242 -0.1119 0.9986
-0.3304 0.0194 -0.1117 0.9986
-0.3244 0.0000 -0.1135 0.9986
-0.3249 -0.0095 -0.1137 0.9986
-0.3253 -0.0238 -0.1141 0.9986
-0.3255 -0.0334 -0.1145 0.9986
-0.3255 -0.0382 -0.1147 0.9986
-0.3255 -0.0430 -0.1149 0.9986
-0.3252 -0.0625 -0.1159 0.9986
-0.3248 -0.0723 -0.1165 0.9986
-0.3246 -0.0773 -0.1168 0.9986
-0.3241 -0.0872 -0.1174 0.9986
-0.3237 -0.0923 -0.1178 0.9986
-0.3211 -0.1228 -0.1203 0.9985
-0.3205 -0.1280 -0.1208 0.9985
-0.3186 -0.1437 -0.1223 0.9985
-0.3177 -0.1489 -0.1228 0.9985
-0.3169 -0.1542 -0.1233 0.9985
-0.3150 -0.1648 -0.1244 0.9985
-0.3129 -0.1756 -0.1256 0.9985
-0.3118 -0.1810 -0.1262 0.9985
-0.3107 -0.1865 -0.1268 0.9985
-0.3095 -0.1920 -0.1274 0.9985
-0.3084 -0.1976 -0.1282 0.9984
-0.3065 -0.2093 -0.1299 0.9984
-0.2995 -0.2455 -0.1355 0.9984
-0.2953 -0.2646 -0.1388 0.9983
-0.2938 -0.2711 -0.1399 0.9983
-0.2853 -0.3046 -0.1460 0.9982
-0.2833 -0.3116 -0.1474 0.9982
-0.2684 -0.3529 -0.1551 0.9981
-0.2627 -0.3671 -0.1580 0.9981
-0.2596 -0.3744 -0.1594 0.9981
-0.2566 -0.3817 -0.1609 0.9981
-0.2534 -0.3892 -0.1625 0.9980
-0.2502 -0.3968 -0.1642 0.9980
-0.2399 -0.4203 -0.1694 0.9980
-0.2363 -0.4284 -0.1712 0.9979
-0.2247 -0.4531 -0.1770 0.9979
-0.2119 -0.4790 -0.1833 0.9978
-0.2074 -0.4879 -0.1855 0.9978
-0.1978 -0.5061 -0.1902 0.9977
-0.1929 -0.5155 -0.1926 0.9977
-0.1880 -0.5258 -0.1954 0.9976
-0.1778 -0.5471 -0.2013 0.9976
-0.1668 -0.5694 -0.2076 0.9975
-0.4501 -2.4372 -0.8672 0.9896
-0.4133 -2.4368 -0.8649 0.9896
-0.4276 -2.7649 -0.9790 0.9882
-0.3466 -2.7761 -0.9790 0.9882
-0.3060 -2.7808 -0.9789 0.9882
-0.0613 -2.7966 -0.9788 0.9882
0.1838 -2.7910 -0.9787 0.9882
0.2653 -2.7844 -0.9787 0.9882
0.3059 -2.7802 -0.9787 0.9882
0.3465 -2.7753 -0.9787 0.9882
0.3870 -2.7699 -0.9787 0.9882
0.4678 -2.7573 -0.9786 0.9882
0.5080 -2.7502 -0.9786 0.9882
0.5881 -2.7341 -0.9786 0.9882
0.7074 -2.7055 -0.9785 0.9882
0.8252 -2.6718 -0.9785 0.9882
0.9029 -2.6465 -0.9785 0.9882
0.9414 -2.6329 -0.9784 0.9882
1.0559 -2.5891 -0.9784 0.9882
1.1310 -2.5570 -0.9784 0.9882
1.1683 -2.5402 -0.9784 0.9882
1.2052 -2.5228 -0.9783 0.9882
1.2419 -2.5049 -0.9783 0.9882
1.2784 -2.4864 -0.9783 0.9882
1.3146 -2.4675 -0.9783 0.9882
1.3861 -2.4279 -0.9783 0.9882
1.4564 -2.3863 -0.9782 0.9882
1.4911 -2.3648 -0.9782 0.9882
1.5254 -2.3427 -0.9782 0.9882
1.5595 -2.3201 -0.9782 0.9882
1.6266 -2.2735 -0.9782 0.9882
1.6923 -2.2250 -0.9781 0.9882
1.7246 -2.1999 -0.9781 0.9882
1.7881 -2.1486 -0.9781 0.9882
1.8500 -2.0954 -0.9781 0.9882
1.8804 -2.0680 -0.9781 0.9882
1.9692 -1.9836 -0.9780 0.9882
1.9979 -1.9546 -0.9780 0.9882
2.0262 -1.9252 -0.9780 0.9882
2.0542 -1.8953 -0.9780 0.9882
2.0816 -1.8651 -0.9780 0.9882
2.2465 -1.7347 -0.9932 0.9880
2.2716 -1.7016 -0.9932 0.9880
2.2962 -1.6683 -0.9931 0.9880
2.3203 -1.6345 -0.9931 0.9880
2.3439 -1.6004 -0.9931 0.9880
2.4118 -1.4961 -0.9931 0.9880
2.4749 -1.3889 -0.9931 0.9880
2.4950 -1.3527 -0.9931 0.9880
2.5334 -1.2792 -0.9931 0.9880
2.5517 -1.2420 -0.9930 0.9880
2.5696 -1.2046 -0.9930 0.9880
2.5869 -1.1669 -0.9930 0.9880
2.6506 -1.0137 -0.9930 0.9880
2.6790 -0.9359 -0.9930 0.9880
2.7174 -0.8175 -0.9930 0.9880
2.7402 -0.7378 -0.9930 0.9880
2.7506 -0.6977 -0.9930 0.9880
2.7698 -0.6170 -0.9930 0.9880
2.7785 -0.5764 -0.9930 0.9880
2.7867 -0.5358 -0.9930 0.9880
2.7942 -0.4950 -0.9929 0.9880
2.8011 -0.4541 -0.9929 0.9880
2.8267 -0.2485 -0.9929 0.9880
2.8301 -0.2071 -0.9929 0.9880
2.8328 -0.1657 -0.9929 0.9880
2.8349 -0.1243 -0.9929 0.9880
2.8364 -0.0829 -0.9929 0.9880
2.8373 0.0415 -0.9929 0.9880
2.8328 0.1658 -0.9929 0.9880
2.8301 0.2072 -0.9929 0.9880
2.8228 0.2898 -0.9929 0.9880
2.8132 0.3721 -0.9929 0.9880
2.8074 0.4132 -0.9929 0.9880
2.8011 0.4542 -0.9929 0.9880
2.7698 0.6170 -0.9930 0.9880
2.7605 0.6575 -0.9930 0.9880
2.7506 0.6977 -0.9930 0.9880
2.7175 0.8176 -0.9930 0.9880
2.7052 0.8572 -0.9930 0.9880
2.6651 0.9750 -0.9930 0.9880
2.5869 1.1669 -0.9930 0.9880
2.5334 1.2792 -0.9931 0.9880
2.5144 1.3161 -0.9931 0.9880
2.4949 1.3527 -0.9931 0.9880
2.4749 1.3890 -0.9931 0.9880
2.4544 1.4250 -0.9931 0.9880
2.4333 1.4608 -0.9931 0.9880
2.3897 1.5312 -0.9931 0.9880
2.3439 1.6005 -0.9931 0.9880
2.3203 1.6345 -0.9931 0.9880
2.2716 1.7017 -0.9932 0.9880
2.2465 1.7347 -0.9932 0.9880
2.2210 1.7673 -0.9932 0.9880
2.1949 1.7996 -0.9932 0.9880
2.1684 1.8316 -0.9932 0.9880
2.1415 1.8631 -0.9932 0.9880
2.1140 1.8942 -0.9932 0.9880
2.0861 1.9249 -0.9932 0.9880
2.0291 1.9851 -0.9933 0.9880
1.9998 2.0145 -0.9933 0.9880
1.9702 2.0436 -0.9933 0.9880
1.9402 2.0721 -0.9933 0.9880
1.8788 2.1280 -0.9933 0.9880
1.8476 2.1553 -0.9933 0.9880
1.7514 2.2343 -0.9934 0.9880
1.7186 2.2596 -0.9934 0.9880
1.6519 2.3089 -0.9934 0.9880
1.6180 2.3329 -0.9934 0.9880
1.5492 2.3792 -0.9934 0.9880
1.4435 2.4449 -0.9935 0.9880
1.4076 2.4658 -0.9935 0.9880
1.3350 2.5059 -0.9935 0.9880
1.2613 2.5439 -0.9936 0.9880
1.1486 2.5969 -0.9936 0.9880
1.1106 2.6134 -0.9936 0.9880
1.0723 2.6295 -0.9936 0.9880
1.0337 2.6448 -0.9936 0.9880
0.9951 2.6597 -0.9937 0.9880
0.9169 2.6877 -0.9937 0.9880
0.8776 2.7009 -0.9937 0.9880
0.8380 2.7135 -0.9937 0.9880
0.7584 2.7369 -0.9938 0.9880
0.7183 2.7477 -0.9938 0.9880
0.6378 2.7677 -0.9938 0.9880
0.5973 2.7767 -0.9938 0.9880
0.4750 2.8004 -0.9939 0.9880
0.4341 2.8070 -0.9939 0.9880
0.3519 2.8186 -0.9939 0.9880
0.3107 2.8235 -0.9939 0.9880
0.1452 2.8370 -0.9940 0.9880
0.0623 2.8402 -0.9940 0.9880
-0.0207 2.8408 -0.9941 0.9880
-0.1037 2.8391 -0.9941 0.9880
-0.1867 2.8350 -0.9941 0.9880
-0.2281 2.8320 -0.9941 0.9880
-0.2695 2.8284 -0.9942 0.9880
-0.3107 2.8241 -0.9942 0.9880
-0.3931 2.8140 -0.9942 0.9880
-0.4342 2.8080 -0.9942 0.9880
-0.5161 2.7942 -0.9943 0.9880
-0.6381 2.7691 -0.9943 0.9880
-0.6785 2.7595 -0.9943 0.9880
-0.7188 2.7493 -0.9943 0.9880
-0.1724 0.5582 -0.2044 0.9975
-0.1880 0.5259 -0.1954 0.9976
-0.1929 0.5155 -0.1926 0.9977
-0.1979 0.5062 -0.1902 0.9977
-0.2074 0.4880 -0.1855 0.9978
-0.2163 0.4703 -0.1811 0.9978
-0.2205 0.4617 -0.1790 0.9978
-0.2247 0.4532 -0.1770 0.9979
-0.2287 0.4448 -0.1750 0.9979
-0.2325 0.4365 -0.1731 0.9979
-0.2363 0.4284 -0.1712 0.9979
-0.2469 0.4046 -0.1658 0.9980
-0.2596 0.3744 -0.1594 0.9981
-0.2626 0.3672 -0.1580 0.9981
-0.2656 0.3600 -0.1565 0.9981
-0.2711 0.3459 -0.1538 0.9981
-0.2813 0.3186 -0.1487 0.9982
-0.2853 0.3047 -0.1460 0.9982
-0.2906 0.2843 -0.1422 0.9983
-0.2922 0.2777 -0.1411 0.9983
-0.2938 0.2711 -0.1399 0.9983
-0.2968 0.2582 -0.1377 0.9983
-0.2982 0.2519 -0.1366 0.9983
-0.2996 0.2457 -0.1355 0.9984
-0.3021 0.2333 -0.1335 0.9984
-0.3044 0.2212 -0.1317 0.9984
-0.3055 0.2152 -0.1307 0.9984
-0.3065 0.2093 -0.1299 0.9984
-0.3075 0.2034 -0.1290 0.9984
-0.3150 0.1649 -0.1244 0.9985
-0.3159 0.1596 -0.1238 0.9985
-0.3169 0.1543 -0.1233 0.9985
-0.3178 0.1490 -0.1228 0.9985
-0.3186 0.1437 -0.1223 0.9985
-0.3192 0.1384 -0.1218 0.9985
-0.3205 0.1280 -0.1208 0.9985
-0.3211 0.1228 -0.1203 0.9985
-0.3225 0.1074 -0.1190 0.9986
-0.3230 0.1024 -0.1186 0.9986
-0.3241 0.0873 -0.1174 0.9986
-0.3244 0.0823 -0.1171 0.9986
-0.3248 0.0724 -0.1165 0.9986
-0.3252 0.0625 -0.1159 0.9986
-0.3253 0.0577 -0.1156 0.9986
-0.3254 0.0528 -0.1154 0.9986
-0.3255 0.0383 -0.1147 0.9986
-0.3252 0.0191 -0.1140 0.9986
-0.3251 0.0143 -0.1139 0.9986
-0.3248 0.0095 -0.1137 0.9986
-0.3246 0.0048 -0.1136 0.9986
-0.3196 -0.0046 -0.1158 0.9986
-0.3200 -0.0140 -0.1161 0.9986
-0.3201 -0.0187 -0.1162 0.9986
-0.3202 -0.0234 -0.1164 0.9986
-0.3203 -0.0281 -0.1165 0.9986
-0.3203 -0.0328 -0.1167 0.9986
-0.3204 -0.0376 -0.1169 0.9986
-0.3203 -0.0471 -0.1173 0.9986
-0.3201 -0.0567 -0.1178 0.9986
-0.3200 -0.0615 -0.1181 0.9986
-0.3198 -0.0663 -0.1184 0.9986
-0.3196 -0.0712 -0.1187 0.9986
-0.3194 -0.0760 -0.1190 0.9986
-0.3188 -0.0858 -0.1197 0.9986
-0.3172 -0.1056 -0.1212 0.9986
-0.3145 -0.1309 -0.1235 0.9986
-0.3139 -0.1361 -0.1240 0.9985
-0.3131 -0.1412 -0.1245 0.9985
-0.3105 -0.1568 -0.1261 0.9985
-0.3096 -0.1620 -0.1266 0.9985
-0.3085 -0.1672 -0.1272 0.9985
-0.3008 -0.2053 -0.1320 0.9985
-0.2962 -0.2287 -0.1357 0.9984
-0.2950 -0.2348 -0.1366 0.9984
-0.2937 -0.2408 -0.1376 0.9984
-0.2923 -0.2469 -0.1387 0.9984
-0.2895 -0.2593 -0.1408 0.9983
-0.2863 -0.2720 -0.1431 0.9983
-0.2811 -0.2916 -0.1468 0.9983
-0.2774 -0.3050 -0.1494 0.9982
-0.2706 -0.3251 -0.1533 0.9982
-0.2626 -0.3453 -0.1572 0.9982
-0.2598 -0.3521 -0.1586 0.9981
-0.2569 -0.3591 -0.1600 0.9981
-0.2445 -0.3877 -0.1661 0.9981
-0.2412 -0.3951 -0.1678 0.9980
-0.2269 -0.4259 -0.1749 0.9979
-0.2230 -0.4338 -0.1768 0.9979
-0.2191 -0.4419 -0.1787 0.9979
-0.2108 -0.4583 -0.1828 0.9979
-0.2064 -0.4667 -0.1849 0.9978
-0.2020 -0.4752 -0.1871 0.9978
-0.1973 -0.4839 -0.1894 0.9978
-0.1826 -0.5106 -0.1965 0.9977
-0.1667 -0.5397 -0.2047 0.9976
-0.1554 -0.5610 -0.2110 0.9975
-0.1498 -0.5730 -0.2146 0.9975
-0.1496 -0.6083 -0.2270 0.9973
-0.5551 -2.4091 -0.8960 0.9895
-0.5182 -2.4093 -0.8931 0.9896
-0.4449 -2.4092 -0.8879 0.9896
-0.3738 -2.6753 -0.9790 0.9886
-0.2954 -2.6850 -0.9789 0.9886
-0.2562 -2.6890 -0.9789 0.9886
-0.0197 -2.7009 -0.9788 0.9886
0.0197 -2.7008 -0.9788 0.9886
0.0592 -2.7002 -0.9788 0.9886
0.0987 -2.6989 -0.9788 0.9886
0.1775 -2.6948 -0.9787 0.9886
0.2561 -2.6884 -0.9787 0.9886
0.2954 -2.6844 -0.9787 0.9886
0.3346 -2.6797 -0.9787 0.9886
0.4127 -2.6688 -0.9787 0.9886
0.5292 -2.6479 -0.9786 0.9886
0.6064 -2.6312 -0.9786 0.9886
0.6447 -2.6221 -0.9786 0.9886
0.6830 -2.6123 -0.9785 0.9886
0.7211 -2.6020 -0.9785 0.9886
0.7590 -2.5912 -0.9785 0.9886
0.7968 -2.5798 -0.9785 0.9886
0.8343 -2.5679 -0.9785 0.9886
0.9090 -2.5423 -0.9785 0.9886
1.0559 -2.4847 -0.9784 0.9886
1.0921 -2.4689 -0.9784 0.9886
1.1280 -2.4527 -0.9784 0.9886
1.1992 -2.4186 -0.9783 0.9886
1.2344 -2.4008 -0.9783 0.9886
1.2693 -2.3825 -0.9783 0.9886
1.3039 -2.3637 -0.9783 0.9886
1.3724 -2.3245 -0.9783 0.9886
1.4062 -2.3041 -0.9783 0.9886
1.6960 -2.0996 -0.9781 0.9886
1.9014 -1.9153 -0.9781 0.9886
1.9583 -1.8606 -0.9790 0.9886
2.0013 -1.8465 -0.9868 0.9885
2.0412 -1.8289 -0.9932 0.9884
2.0677 -1.7989 -0.9932 0.9884
2.0938 -1.7684 -0.9932 0.9884
2.1194 -1.7377 -0.9932 0.9884
2.1445 -1.7065 -0.9932 0.9884
2.1934 -1.6430 -0.9932 0.9884
2.2171 -1.6108 -0.9932 0.9884
2.2404 -1.5782 -0.9932 0.9884
2.3074 -1.4785 -0.9931 0.9884
2.3287 -1.4446 -0.9931 0.9884
2.3495 -1.4104 -0.9931 0.9884
2.3897 -1.3411 -0.9931 0.9884
2.4091 -1.3061 -0.9931 0.9884
2.4462 -1.2351 -0.9931 0.9884
2.5448 -1.0161 -0.9930 0.9884
2.5868 -0.9036 -0.9930 0.9884
2.5997 -0.8657 -0.9930 0.9884
2.6121 -0.8277 -0.9930 0.9884
2.6239 -0.7894 -0.9930 0.9884
2.6351 -0.7510 -0.9930 0.9884
2.6458 -0.7124 -0.9930 0.9884
2.6829 -0.5566 -0.9930 0.9884
2.6907 -0.5173 -0.9930 0.9884
2.6980 -0.4780 -0.9930 0.9884
2.7047 -0.4385 -0.9930 0.9884
2.7108 -0.3989 -0.9930 0.9884
2.7213 -0.3195 -0.9930 0.9884
2.7257 -0.2798 -0.9930 0.9884
2.7295 -0.2399 -0.9930 0.9884
2.7327 -0.2000 -0.9930 0.9884
2.7353 -0.1600 -0.9930 0.9884
2.7373 -0.1201 -0.9930 0.9884
2.7388 -0.0800 -0.9930 0.9884
2.7397 -0.0400 -0.9930 0.9884
2.7400 0.0000 -0.9930 0.9884
2.7353 0.1601 -0.9930 0.9884
2.7327 0.2000 -0.9930 0.9884
2.7295 0.2400 -0.9930 0.9884
2.7213 0.3196 -0.9930 0.9884
2.7163 0.3593 -0.9930 0.9884
2.7108 0.3989 -0.9930 0.9884
2.6745 0.5958 -0.9930 0.9884
2.6560 0.6737 -0.9930 0.9884
2.6352 0.7510 -0.9930 0.9884
2.6239 0.7895 -0.9930 0.9884
2.6121 0.8277 -0.9930 0.9884
2.5297 1.0532 -0.9931 0.9884
2.4461 1.2352 -0.9931 0.9884
2.3897 1.3412 -0.9931 0.9884
2.3074 1.4785 -0.9931 0.9884
2.2632 1.5454 -0.9932 0.9884
2.2404 1.5783 -0.9932 0.9884
2.1934 1.6431 -0.9932 0.9884
2.1691 1.6750 -0.9932 0.9884
2.1194 1.7377 -0.9932 0.9884
2.0938 1.7685 -0.9932 0.9884
2.0677 1.7989 -0.9932 0.9884
2.0143 1.8586 -0.9933 0.9884
1.9592 1.9167 -0.9933 0.9884
1.9310 1.9452 -0.9933 0.9884
1.9024 1.9732 -0.9933 0.9884
1.8439 2.0280 -0.9933 0.9884
1.8141 2.0547 -0.9933 0.9884
1.7839 2.0811 -0.9933 0.9884
1.7534 2.1070 -0.9934 0.9884
1.7224 2.1323 -0.9934 0.9884
1.6911 2.1573 -0.9934 0.9884
1.6595 2.1818 -0.9934 0.9884
1.6274 2.2059 -0.9934 0.9884
1.5950 2.2295 -0.9934 0.9884
1.5623 2.2525 -0.9934 0.9884
1.4958 2.2973 -0.9935 0.9884
1.4621 2.3189 -0.9935 0.9884
1.4281 2.3401 -0.9935 0.9884
1.3938 2.3607 -0.9935 0.9884
1.3592 2.3809 -0.9935 0.9884
1.3242 2.4005 -0.9935 0.9884
1.2890 2.4196 -0.9935 0.9884
1.2536 2.4383 -0.9936 0.9884
1.1818 2.4739 -0.9936 0.9884
1.1456 2.4909 -0.9936 0.9884
1.1091 2.5075 -0.9936 0.9884
1.0723 2.5234 -0.9936 0.9884
1.0354 2.5388 -0.9936 0.9884
0.9982 2.5538 -0.9937 0.9884
0.8854 2.5952 -0.9937 0.9884
0.8473 2.6079 -0.9937 0.9884
0.8092 2.6200 -0.9937 0.9884
0.7323 2.6426 -0.9938 0.9884
0.6936 2.6531 -0.9938 0.9884
0.6548 2.6630 -0.9938 0.9884
0.6158 2.6723 -0.9938 0.9884
0.5375 2.6892 -0.9938 0.9884
0.4981 2.6969 -0.9939 0.9884
0.4587 2.7039 -0.9939 0.9884
0.4191 2.7103 -0.9939 0.9884
0.3398 2.7215 -0.9939 0.9884
0.3000 2.7262 -0.9939 0.9884
0.2601 2.7304 -0.9940 0.9884
0.2202 2.7339 -0.9940 0.9884
0.1402 2.7392 -0.9940 0.9884
0.0601 2.7423 -0.9940 0.9884
0.0200 2.7429 -0.9941 0.9884
-0.0201 2.7429 -0.9941 0.9884
-0.1802 2.7373 -0.9941 0.9884
-0.2202 2.7344 -0.9941 0.9884
-0.2601 2.7309 -0.9942 0.9884
-0.3398 2.7223 -0.9942 0.9884
-0.3796 2.7170 -0.9942 0.9884
-0.5377 2.6904 -0.9943 0.9884
-0.1612 0.5503 -0.2078 0.9976
-0.1720 0.5293 -0.2017 0.9976
-0.1773 0.5199 -0.1991 0.9977
-0.1826 0.5107 -0.1965 0.9977
-0.1926 0.4927 -0.1917 0.9978
-0.1973 0.4839 -0.1894 0.9978
-0.2230 0.4339 -0.1768 0.9979
-0.2377 0.4027 -0.1695 0.9980
-0.2444 0.3877 -0.1661 0.9981
-0.2509 0.3732 -0.1630 0.9981
-0.2653 0.3385 -0.1559 0.9982
-0.2731 0.3186 -0.1520 0.9982
-0.2753 0.3119 -0.1508 0.9982
-0.2773 0.3051 -0.1494 0.9982
-0.2829 0.2850 -0.1455 0.9983
-0.2879 0.2657 -0.1420 0.9983
-0.2909 0.2531 -0.1398 0.9984
-0.2923 0.2470 -0.1387 0.9984
-0.2950 0.2348 -0.1366 0.9984
-0.2975 0.2229 -0.1347 0.9984
-0.3018 0.1997 -0.1311 0.9985
-0.3028 0.1941 -0.1303 0.9985
-0.3040 0.1887 -0.1297 0.9985
-0.3052 0.1833 -0.1290 0.9985
-0.3064 0.1779 -0.1284 0.9985
-0.3115 0.1516 -0.1255 0.9985
-0.3138 0.1361 -0.1240 0.9985
-0.3145 0.1310 -0.1235 0.9986
-0.3152 0.1259 -0.1230 0.9986
-0.3157 0.1208 -0.1225 0.9986
-0.3173 0.1057 -0.1212 0.9986
-0.3185 0.0908 -0.1200 0.9986
-0.3188 0.0859 -0.1197 0.9986
-0.3198 0.0664 -0.1184 0.9986
-0.3200 0.0616 -0.1181 0.9986
-0.3203 0.0471 -0.1173 0.9986
-0.3204 0.0424 -0.1171 0.9986
-0.3204 0.0329 -0.1167 0.9986
-0.3203 0.0282 -0.1165 0.9986
-0.3201 0.0187 -0.1162 0.9986
-0.3200 0.0141 -0.1161 0.9986
-0.3144 0.0000 -0.1179 0.9987
-0.3148 -0.0092 -0.1181 0.9987
-0.3150 -0.0138 -0.1182 0.9987
-0.3151 -0.0184 -0.1184 0.9987
-0.3152 -0.0230 -0.1185 0.9987
-0.3153 -0.0323 -0.1189 0.9986
-0.3153 -0.0464 -0.1195 0.9986
-0.3151 -0.0558 -0.1200 0.9986
-0.3143 -0.0748 -0.1212 0.9986
-0.3137 -0.0844 -0.1218 0.9986
-0.3126 -0.0990 -0.1229 0.9986
-0.3116 -0.1088 -0.1238 0.9986
-0.3105 -0.1187 -0.1247 0.9986
-0.3086 -0.1338 -0.1261 0.9986
-0.3079 -0.1389 -0.1267 0.9986
-0.3071 -0.1439 -0.1272 0.9986
-0.3062 -0.1490 -0.1277 0.9985
-0.3053 -0.1541 -0.1282 0.9985
-0.3033 -0.1644 -0.1294 0.9985
-0.3011 -0.1748 -0.1306 0.9985
-0.2999 -0.1800 -0.1312 0.9985
-0.2987 -0.1853 -0.1318 0.9985
-0.2962 -0.1959 -0.1332 0.9985
-0.2942 -0.2072 -0.1349 0.9985
-0.2894 -0.2302 -0.1387 0.9984
-0.2880 -0.2361 -0.1397 0.9984
-0.2867 -0.2421 -0.1407 0.9984
-0.2853 -0.2481 -0.1418 0.9984
-0.2837 -0.2542 -0.1429 0.9984
-0.2822 -0.2604 -0.1440 0.9984
-0.2772 -0.2792 -0.1475 0.9983
-0.2716 -0.2986 -0.1514 0.9983
-0.2695 -0.3053 -0.1527 0.9983
-0.2650 -0.3183 -0.1553 0.9982
-0.2570 -0.3379 -0.1592 0.9982
-0.2542 -0.3446 -0.1606 0.9982
-0.2513 -0.3513 -0.1620 0.9982
-0.2453 -0.3650 -0.1649 0.9981
