ply
format ascii 1.0
element vertex 1595
property float32 x
property float32 y
property float32 z
property float32 I
end_header
-0.4771 0.0918 -0.0670 0.9980
-0.4768 0.0845 -0.0668 0.9980
-0.4757 0.0629 -0.0662 0.9981
-0.4738 0.0347 -0.0656 0.9981
-0.4713 0.0069 -0.0651 0.9981
-0.4573 -0.0067 -0.0683 0.9982
-0.4579 -0.0134 -0.0684 0.9981
-0.4606 -0.0473 -0.0691 0.9981
-0.4610 -0.0541 -0.0693 0.9981
-0.4613 -0.0610 -0.0695 0.9981
-0.4617 -0.0680 -0.0697 0.9981
-0.4620 -0.0749 -0.0699 0.9981
-0.4627 -0.0960 -0.0706 0.9981
-0.4630 -0.1247 -0.0716 0.9981
-0.4630 -0.1320 -0.0719 0.9981
-0.4629 -0.1467 -0.0725 0.9980
-0.4628 -0.1542 -0.0728 0.9980
-0.4624 -0.1925 -0.0748 0.9980
-0.4624 -0.2005 -0.0752 0.9980
-0.4622 -0.2167 -0.0762 0.9979
-0.4621 -0.2249 -0.0767 0.9979
-0.4619 -0.2332 -0.0773 0.9979
-0.4614 -0.2502 -0.0784 0.9979
-0.4610 -0.2588 -0.0789 0.9979
-0.4602 -0.2763 -0.0801 0.9978
-0.4597 -0.2852 -0.0808 0.9978
-0.4586 -0.3034 -0.0821 0.9978
-0.4579 -0.3127 -0.0828 0.9978
-0.4564 -0.3316 -0.0842 0.9977
-0.4547 -0.3511 -0.0858 0.9977
-0.4525 -0.3822 -0.0884 0.9976
-0.4499 -0.4151 -0.0914 0.9975
-0.4478 -0.4381 -0.0935 0.9975
-0.4454 -0.4620 -0.0958 0.9974
-0.4427 -0.4868 -0.0983 0.9973
-0.4412 -0.4997 -0.0995 0.9973
-0.4396 -0.5127 -0.1008 0.9973
-0.4385 -0.5429 -0.1042 0.9972
-0.4379 -0.5586 -0.1060 0.9971
-3.8804 -5.4239 -0.9958 0.9734
-3.8007 -5.4798 -0.9957 0.9734
-3.6387 -5.5882 -0.9957 0.9734
-3.5565 -5.6405 -0.9956 0.9734
-3.3899 -5.7416 -0.9956 0.9734
-3.2205 -5.8379 -0.9955 0.9734
-3.0483 -5.9291 -0.9954 0.9734
-2.6069 -6.1346 -0.9952 0.9734
-2.3353 -6.2423 -0.9951 0.9734
-2.1518 -6.3075 -0.9951 0.9734
-2.0593 -6.3380 -0.9950 0.9734
-1.9664 -6.3671 -0.9950 0.9734
-1.7794 -6.4214 -0.9949 0.9734
-1.6853 -6.4464 -0.9949 0.9734
-1.4961 -6.4924 -0.9948 0.9734
-1.4011 -6.5134 -0.9948 0.9734
-0.5064 -2.9849 -0.4520 0.9878
-0.3469 -2.4827 -0.3743 0.9899
-0.3123 -2.5018 -0.3764 0.9899
-0.2755 -2.5036 -0.3761 0.9899
-0.2420 -2.5407 -0.3811 0.9897
-0.1891 -2.3474 -0.3516 0.9905
-0.1331 -2.6001 -0.3887 0.9895
-0.0958 -2.6221 -0.3918 0.9894
-0.0572 -2.6110 -0.3899 0.9895
0.1285 -2.5108 -0.3754 0.9899
0.2008 -2.4936 -0.3735 0.9899
0.2348 -2.4646 -0.3697 0.9900
1.1131 -6.5618 -0.9937 0.9734
1.3995 -6.5060 -0.9936 0.9734
1.4943 -6.4846 -0.9936 0.9734
1.5888 -6.4618 -0.9935 0.9734
1.9633 -6.3570 -0.9934 0.9735
2.5119 -6.1593 -0.9932 0.9735
2.6905 -6.0829 -0.9931 0.9735
2.7790 -6.0427 -0.9931 0.9735
2.9542 -5.9585 -0.9930 0.9735
3.1268 -5.8692 -0.9929 0.9735
3.2121 -5.8227 -0.9929 0.9735
3.2968 -5.7749 -0.9929 0.9735
3.3807 -5.7259 -0.9928 0.9735
3.4639 -5.6757 -0.9928 0.9735
3.6280 -5.5717 -0.9927 0.9735
3.7089 -5.5179 -0.9927 0.9735
3.7890 -5.4630 -0.9927 0.9735
2.5058 -3.1965 -0.6064 0.9837
2.4748 -3.0637 -0.5880 0.9842
2.2793 -2.5816 -0.5142 0.9862
2.3464 -2.5806 -0.5208 0.9860
2.4806 -2.4987 -0.5257 0.9859
2.5387 -2.4836 -0.5303 0.9857
2.6561 -2.5236 -0.5470 0.9853
2.8483 -2.6281 -0.5786 0.9844
2.6796 -2.4009 -0.5372 0.9856
2.9028 -2.5254 -0.5745 0.9846
2.8708 -2.4248 -0.5611 0.9849
2.9103 -2.3861 -0.5619 0.9849
3.0702 -2.3707 -0.5792 0.9844
3.1640 -2.3702 -0.5903 0.9841
3.2195 -2.2679 -0.5880 0.9842
3.2137 -2.1943 -0.5810 0.9844
3.2736 -2.1657 -0.5861 0.9843
3.2764 -2.0994 -0.5810 0.9844
3.5236 -2.0458 -0.6084 0.9837
3.5457 -1.9899 -0.6071 0.9837
5.7502 -3.1176 -0.9766 0.9739
5.7950 -3.0332 -0.9766 0.9739
5.8387 -2.9481 -0.9766 0.9739
5.9620 -2.6893 -0.9765 0.9739
6.0005 -2.6018 -0.9765 0.9739
6.0378 -2.5139 -0.9765 0.9739
6.0738 -2.4253 -0.9765 0.9739
6.1085 -2.3363 -0.9765 0.9739
6.1419 -2.2468 -0.9765 0.9739
6.1740 -2.1567 -0.9765 0.9739
6.2342 -1.9754 -0.9764 0.9739
6.4604 -1.5386 -0.9916 0.9735
6.5025 -1.3491 -0.9916 0.9735
6.5215 -1.2539 -0.9916 0.9735
6.5835 -0.8708 -0.9915 0.9735
6.5954 -0.7745 -0.9915 0.9735
6.6060 -0.6780 -0.9915 0.9735
6.6230 -0.4848 -0.9915 0.9735
6.6293 -0.3879 -0.9915 0.9735
6.6343 -0.2910 -0.9915 0.9735
6.6400 -0.0970 -0.9915 0.9735
6.6293 0.3879 -0.9915 0.9735
6.6229 0.4848 -0.9915 0.9735
6.5834 0.8708 -0.9915 0.9735
6.5553 1.0628 -0.9915 0.9735
6.4821 1.4440 -0.9916 0.9735
6.4374 1.6328 -0.9916 0.9735
6.3312 2.0061 -0.9916 0.9735
6.2701 2.1903 -0.9917 0.9735
6.2375 2.2817 -0.9917 0.9735
6.2036 2.3727 -0.9917 0.9735
6.0547 2.7311 -0.9917 0.9735
5.9295 2.9940 -0.9918 0.9735
5.8397 3.1661 -0.9918 0.9735
5.7449 3.3355 -0.9919 0.9735
5.6957 3.4192 -0.9919 0.9735
5.6453 3.5021 -0.9919 0.9735
5.5936 3.5843 -0.9919 0.9735
5.4867 3.7464 -0.9920 0.9735
5.4315 3.8262 -0.9920 0.9735
5.3176 3.9834 -0.9920 0.9735
5.0764 4.2877 -0.9921 0.9735
5.0133 4.3616 -0.9922 0.9735
4.9492 4.4345 -0.9922 0.9735
4.8840 4.5064 -0.9922 0.9735
4.7505 4.6475 -0.9923 0.9735
4.6822 4.7165 -0.9923 0.9735
4.6129 4.7845 -0.9923 0.9735
4.3260 5.0464 -0.9924 0.9735
4.2520 5.1093 -0.9925 0.9735
4.1011 5.2316 -0.9925 0.9735
3.8683 5.4068 -0.9926 0.9735
3.7890 5.4630 -0.9927 0.9735
3.4639 5.6757 -0.9928 0.9735
3.3806 5.7259 -0.9928 0.9735
3.2967 5.7749 -0.9929 0.9735
3.2121 5.8227 -0.9929 0.9735
3.1268 5.8691 -0.9929 0.9735
3.0408 5.9144 -0.9930 0.9735
2.6014 6.1217 -0.9931 0.9735
2.5118 6.1593 -0.9932 0.9735
2.4217 6.1955 -0.9932 0.9735
2.2397 6.2641 -0.9933 0.9735
2.0559 6.3274 -0.9934 0.9735
1.9633 6.3570 -0.9934 0.9735
1.3995 6.5060 -0.9936 0.9734
1.3043 6.5260 -0.9937 0.9734
1.2088 6.5446 -0.9937 0.9734
0.8246 6.6050 -0.9939 0.9734
0.7280 6.6166 -0.9939 0.9734
0.5344 6.6356 -0.9940 0.9734
0.4375 6.6430 -0.9940 0.9734
0.3403 6.6489 -0.9940 0.9734
0.1459 6.6566 -0.9941 0.9734
0.0487 6.6582 -0.9942 0.9734
-0.0486 6.6585 -0.9942 0.9734
-0.1459 6.6573 -0.9942 0.9734
-0.3404 6.6508 -0.9943 0.9734
-0.4376 6.6453 -0.9944 0.9734
-0.6316 6.6302 -0.9944 0.9734
-0.7284 6.6206 -0.9945 0.9734
-0.9217 6.5970 -0.9946 0.9734
-0.9781 6.3251 -0.9556 0.9744
-1.3056 6.5329 -0.9947 0.9734
-1.4010 6.5133 -0.9947 0.9734
-1.4961 6.4925 -0.9948 0.9734
-1.2121 4.9295 -0.7579 0.9797
-1.2685 4.5776 -0.7092 0.9810
-1.3005 4.0026 -0.6284 0.9831
-1.3195 3.8677 -0.6102 0.9836
-1.3756 3.6770 -0.5862 0.9842
-1.4490 3.5531 -0.5729 0.9846
-1.5427 3.4879 -0.5694 0.9847
-1.7370 3.5034 -0.5839 0.9843
-1.8031 3.5071 -0.5888 0.9842
-1.8701 3.5104 -0.5939 0.9840
-2.0161 3.5316 -0.6072 0.9837
-2.1720 3.5591 -0.6225 0.9833
-2.3360 3.5877 -0.6392 0.9828
-2.4214 3.6025 -0.6481 0.9826
-2.5092 3.6179 -0.6574 0.9824
-2.6021 3.6371 -0.6677 0.9821
-0.5187 0.7031 -0.1305 0.9965
-0.4614 0.6066 -0.1138 0.9969
-0.4379 0.5587 -0.1060 0.9971
-0.4391 0.5276 -0.1025 0.9972
-0.4411 0.4997 -0.0995 0.9973
-0.4427 0.4869 -0.0983 0.9973
-0.4441 0.4743 -0.0970 0.9974
-0.4454 0.4620 -0.0958 0.9974
-0.4467 0.4500 -0.0947 0.9974
-0.4489 0.4266 -0.0925 0.9975
-0.4556 0.3413 -0.0850 0.9977
-0.4572 0.3221 -0.0835 0.9977
-0.4579 0.3127 -0.0828 0.9978
-0.4586 0.3034 -0.0821 0.9978
-0.4592 0.2942 -0.0814 0.9978
-0.4597 0.2852 -0.0808 0.9978
-0.4614 0.2502 -0.0784 0.9979
-0.4617 0.2416 -0.0778 0.9979
-0.4619 0.2332 -0.0773 0.9979
-0.4621 0.2249 -0.0767 0.9979
-0.4624 0.2005 -0.0752 0.9980
-0.4624 0.1925 -0.0748 0.9980
-0.4625 0.1847 -0.0744 0.9980
-0.4627 0.1770 -0.0740 0.9980
-0.4628 0.1617 -0.0732 0.9980
-0.4629 0.1467 -0.0725 0.9980
-0.4630 0.1174 -0.0713 0.9981
-0.4629 0.1103 -0.0711 0.9981
-0.4623 0.0819 -0.0701 0.9981
-0.4617 0.0680 -0.0697 0.9981
-0.4606 0.0473 -0.0691 0.9981
-0.4601 0.0404 -0.0690 0.9981
-0.4434 0.0000 -0.0712 0.9982
-0.4441 -0.0065 -0.0714 0.9982
-0.4446 -0.0130 -0.0715 0.9982
-0.4462 -0.0327 -0.0719 0.9982
-0.4467 -0.0393 -0.0720 0.9982
-0.4471 -0.0459 -0.0722 0.9982
-0.4478 -0.0592 -0.0726 0.9982
-0.4481 -0.0659 -0.0728 0.9982
-0.4487 -0.0862 -0.0734 0.9982
-0.4488 -0.0931 -0.0736 0.9981
-0.4489 -0.1000 -0.0739 0.9981
-0.4490 -0.1139 -0.0744 0.9981
-0.4490 -0.1209 -0.0747 0.9981
-0.4488 -0.1351 -0.0753 0.9981
-0.4482 -0.1566 -0.0763 0.9981
-0.4479 -0.1713 -0.0770 0.9981
-0.4469 -0.2095 -0.0793 0.9980
-0.4463 -0.2254 -0.0803 0.9980
-0.4460 -0.2334 -0.0809 0.9980
-0.4452 -0.2498 -0.0820 0.9979
-0.4447 -0.2582 -0.0826 0.9979
-0.4442 -0.2666 -0.0832 0.9979
-0.4422 -0.2925 -0.0852 0.9979
-0.4414 -0.3014 -0.0859 0.9978
-0.4354 -0.3570 -0.0905 0.9977
-0.4342 -0.3668 -0.0913 0.9977
-0.4331 -0.3769 -0.0922 0.9977
-0.4311 -0.3977 -0.0942 0.9976
-0.4299 -0.4084 -0.0953 0.9976
-0.4286 -0.4193 -0.0963 0.9976
-0.4273 -0.4305 -0.0974 0.9975
-0.4264 -0.4423 -0.0987 0.9975
-0.4259 -0.4550 -0.1001 0.9975
-0.4254 -0.4679 -0.1016 0.9974
-0.4249 -0.4812 -0.1031 0.9974
-0.4235 -0.5089 -0.1064 0.9973
-0.4648 -0.6497 -0.1283 0.9968
-3.4569 -5.1431 -0.9956 0.9752
-3.3813 -5.1929 -0.9956 0.9752
-3.3050 -5.2416 -0.9955 0.9752
-3.1502 -5.3356 -0.9955 0.9752
-3.0718 -5.3809 -0.9954 0.9752
-2.9131 -5.4680 -0.9954 0.9752
-2.8328 -5.5098 -0.9953 0.9752
-2.7519 -5.5504 -0.9953 0.9752
-2.6704 -5.5898 -0.9953 0.9752
-2.5057 -5.6651 -0.9952 0.9752
-2.4226 -5.7009 -0.9952 0.9752
-2.2549 -5.7689 -0.9951 0.9752
-2.1703 -5.8010 -0.9951 0.9752
-2.0852 -5.8319 -0.9950 0.9752
-1.8274 -5.9171 -0.9949 0.9752
-1.7407 -5.9430 -0.9949 0.9752
-1.6536 -5.9675 -0.9949 0.9752
-1.4784 -6.0129 -0.9948 0.9752
-1.2134 -6.0712 -0.9947 0.9752
-0.3827 -2.4746 -0.4023 0.9899
-0.3484 -2.4936 -0.4045 0.9899
-0.3137 -2.5129 -0.4068 0.9898
-0.2764 -2.5125 -0.4061 0.9898
-0.2430 -2.5506 -0.4116 0.9897
-0.2071 -2.5722 -0.4146 0.9896
-0.1611 -2.4472 -0.3940 0.9901
-0.0963 -2.6343 -0.4235 0.9894
-0.0189 -2.5891 -0.4160 0.9896
0.0183 -2.4984 -0.4014 0.9899
0.0555 -2.5300 -0.4066 0.9898
0.0912 -2.4942 -0.4010 0.9899
0.2911 -2.6454 -0.4276 0.9893
0.3689 -2.6402 -0.4283 0.9893
1.0345 -6.0985 -0.9938 0.9753
1.1235 -6.0825 -0.9937 0.9753
1.2122 -6.0653 -0.9937 0.9753
1.3007 -6.0467 -0.9937 0.9753
1.3888 -6.0268 -0.9936 0.9753
1.4767 -6.0057 -0.9936 0.9753
1.5643 -5.9832 -0.9936 0.9753
1.8247 -5.9083 -0.9935 0.9753
1.9108 -5.8808 -0.9934 0.9753
2.0817 -5.8221 -0.9933 0.9753
2.1665 -5.7908 -0.9933 0.9753
2.3346 -5.7247 -0.9932 0.9753
2.5829 -5.6163 -0.9931 0.9753
2.6646 -5.5778 -0.9931 0.9753
3.0642 -5.3675 -0.9930 0.9753
3.1422 -5.3220 -0.9929 0.9753
3.2195 -5.2754 -0.9929 0.9753
3.2961 -5.2276 -0.9929 0.9753
3.3721 -5.1787 -0.9928 0.9753
2.4647 -3.3408 -0.6670 0.9833
3.7405 -4.9180 -0.9927 0.9753
2.6764 -3.4143 -0.6970 0.9826
2.4673 -2.9648 -0.6197 0.9845
2.5258 -2.9464 -0.6235 0.9844
2.5849 -2.9277 -0.6274 0.9843
2.4426 -2.6087 -0.5742 0.9856
2.5207 -2.5392 -0.5748 0.9856
2.6879 -2.5538 -0.5957 0.9851
2.7138 -2.5040 -0.5932 0.9852
2.7510 -2.4649 -0.5934 0.9851
2.9804 -2.4436 -0.6192 0.9845
3.0505 -2.3555 -0.6192 0.9845
3.1616 -2.2970 -0.6278 0.9843
3.1593 -2.2255 -0.6209 0.9845
3.1571 -2.1557 -0.6142 0.9846
3.2538 -2.0849 -0.6209 0.9845
3.2482 -2.0150 -0.6141 0.9846
3.4002 -2.0412 -0.6371 0.9841
5.3021 -2.9757 -0.9768 0.9757
5.4272 -2.7404 -0.9768 0.9757
5.5048 -2.5805 -0.9767 0.9757
5.5418 -2.4998 -0.9767 0.9757
5.5776 -2.4185 -0.9767 0.9757
5.6780 -2.1717 -0.9767 0.9757
5.7676 -1.9207 -0.9766 0.9757
5.8851 -1.8647 -0.9918 0.9753
5.9370 -1.6920 -0.9918 0.9753
5.9610 -1.6050 -0.9918 0.9753
5.9838 -1.5177 -0.9918 0.9753
6.0052 -1.4302 -0.9918 0.9753
6.0444 -1.2540 -0.9917 0.9753
6.0620 -1.1655 -0.9917 0.9753
6.1071 -0.8988 -0.9917 0.9753
6.1406 -0.6303 -0.9917 0.9753
6.1491 -0.5405 -0.9917 0.9753
6.1564 -0.4506 -0.9917 0.9753
6.1701 -0.1804 -0.9917 0.9753
6.1721 -0.0902 -0.9917 0.9753
6.1668 0.2705 -0.9917 0.9753
6.1563 0.4505 -0.9917 0.9753
6.1491 0.5405 -0.9917 0.9753
6.1406 0.6303 -0.9917 0.9753
6.1308 0.7200 -0.9917 0.9753
6.1196 0.8095 -0.9917 0.9753
6.1072 0.8988 -0.9917 0.9753
6.0784 1.0769 -0.9917 0.9753
6.0620 1.1656 -0.9917 0.9753
6.0443 1.2540 -0.9917 0.9753
6.0254 1.3422 -0.9918 0.9753
5.9838 1.5178 -0.9918 0.9753
5.9370 1.6920 -0.9918 0.9753
5.9117 1.7786 -0.9918 0.9753
5.8573 1.9506 -0.9918 0.9753
5.8282 2.0360 -0.9918 0.9753
5.7980 2.1209 -0.9918 0.9753
5.7664 2.2055 -0.9919 0.9753
5.7337 2.2895 -0.9919 0.9753
5.6997 2.3731 -0.9919 0.9753
5.6645 2.4561 -0.9919 0.9753
5.2943 3.1782 -0.9920 0.9753
5.2474 3.2552 -0.9921 0.9753
5.1502 3.4073 -0.9921 0.9753
4.9428 3.7027 -0.9922 0.9753
4.7761 3.9160 -0.9923 0.9753
4.6599 4.0541 -0.9923 0.9753
4.5396 4.1887 -0.9924 0.9753
4.4781 4.2547 -0.9924 0.9753
4.4155 4.3198 -0.9924 0.9753
4.2876 4.4472 -0.9925 0.9753
4.1561 4.5708 -0.9925 0.9753
4.0210 4.6905 -0.9926 0.9753
3.9521 4.7489 -0.9926 0.9753
3.5954 5.0255 -0.9927 0.9753
3.5217 5.0777 -0.9928 0.9753
3.2195 5.2754 -0.9929 0.9753
2.9855 5.4119 -0.9930 0.9753
2.8263 5.4971 -0.9930 0.9753
2.7458 5.5380 -0.9931 0.9753
2.6646 5.5777 -0.9931 0.9753
2.4179 5.6897 -0.9932 0.9753
2.3346 5.7246 -0.9932 0.9753
2.2508 5.7584 -0.9933 0.9753
1.5642 5.9832 -0.9936 0.9753
1.3888 6.0268 -0.9936 0.9753
1.1235 6.0825 -0.9937 0.9753
1.0346 6.0985 -0.9938 0.9753
0.7664 6.1387 -0.9939 0.9752
0.5867 6.1589 -0.9939 0.9752
0.4967 6.1670 -0.9940 0.9752
0.3163 6.1793 -0.9941 0.9752
0.1357 6.1864 -0.9941 0.9752
0.0452 6.1880 -0.9942 0.9752
-0.1356 6.1871 -0.9942 0.9752
-0.2260 6.1847 -0.9943 0.9752
-0.4067 6.1759 -0.9943 0.9752
-0.4969 6.1695 -0.9944 0.9752
-0.5870 6.1618 -0.9944 0.9752
-0.6770 6.1528 -0.9945 0.9752
-0.9461 6.1179 -0.9946 0.9752
-1.0354 6.1036 -0.9946 0.9752
-1.2134 6.0712 -0.9947 0.9752
-1.3020 6.0530 -0.9947 0.9752
-1.3904 6.0336 -0.9947 0.9752
-1.2399 4.7429 -0.7876 0.9803
-1.2524 4.2758 -0.7158 0.9821
-1.3197 3.8684 -0.6567 0.9836
-1.4086 3.6039 -0.6216 0.9844
-1.4464 3.5468 -0.6154 0.9846
-1.4938 3.5152 -0.6136 0.9846
-1.5420 3.4863 -0.6124 0.9847
-1.6708 3.4975 -0.6227 0.9844
-1.8737 3.5170 -0.6402 0.9840
-2.0996 3.5562 -0.6635 0.9834
-2.7104 4.2987 -0.8164 0.9796
-2.7283 4.1900 -0.8033 0.9799
-2.7441 4.0826 -0.7903 0.9803
-2.7585 3.9772 -0.7776 0.9806
-0.4267 0.5784 -0.1155 0.9971
-0.4210 0.5536 -0.1117 0.9972
-0.4236 0.5089 -0.1064 0.9973
-0.4242 0.4949 -0.1047 0.9974
-0.4254 0.4679 -0.1016 0.9974
-0.4260 0.4549 -0.1001 0.9975
-0.4299 0.4084 -0.0953 0.9976
-0.4321 0.3872 -0.0932 0.9977
-0.4332 0.3769 -0.0922 0.9977
-0.4354 0.3570 -0.0905 0.9977
-0.4366 0.3475 -0.0896 0.9977
-0.4387 0.3287 -0.0881 0.9978
-0.4397 0.3195 -0.0873 0.9978
-0.4406 0.3104 -0.0866 0.9978
-0.4422 0.2926 -0.0852 0.9979
-0.4429 0.2838 -0.0845 0.9979
-0.4436 0.2752 -0.0839 0.9979
-0.4447 0.2582 -0.0826 0.9979
-0.4460 0.2334 -0.0809 0.9980
-0.4463 0.2254 -0.0803 0.9980
-0.4470 0.2017 -0.0788 0.9980
-0.4472 0.1939 -0.0783 0.9980
-0.4474 0.1863 -0.0779 0.9980
-0.4479 0.1713 -0.0770 0.9981
-0.4485 0.1494 -0.0759 0.9981
-0.4488 0.1350 -0.0753 0.9981
-0.4490 0.1209 -0.0747 0.9981
-0.4490 0.1139 -0.0744 0.9981
-0.4490 0.1000 -0.0739 0.9981
-0.4489 0.0931 -0.0736 0.9981
-0.4487 0.0863 -0.0734 0.9982
-0.4485 0.0795 -0.0732 0.9982
-0.4483 0.0727 -0.0730 0.9982
-0.4481 0.0659 -0.0728 0.9982
-0.4478 0.0592 -0.0726 0.9982
-0.4475 0.0526 -0.0724 0.9982
-0.4462 0.0327 -0.0719 0.9982
-0.4457 0.0261 -0.0717 0.9982
-0.4316 -0.0063 -0.0743 0.9982
-0.4326 -0.0190 -0.0745 0.9982
-0.4339 -0.0381 -0.0749 0.9982
-0.4346 -0.0511 -0.0753 0.9982
-0.4354 -0.0705 -0.0759 0.9982
-0.4358 -0.0904 -0.0766 0.9982
-0.4358 -0.0971 -0.0768 0.9982
-0.4358 -0.1105 -0.0774 0.9982
-0.4356 -0.1241 -0.0779 0.9982
-0.4355 -0.1310 -0.0782 0.9982
-0.4350 -0.1448 -0.0789 0.9981
-0.4337 -0.1732 -0.0803 0.9981
-0.4334 -0.1804 -0.0808 0.9981
-0.4327 -0.1952 -0.0817 0.9981
-0.4321 -0.2103 -0.0827 0.9981
-0.4291 -0.2576 -0.0861 0.9980
-0.4284 -0.2658 -0.0867 0.9980
-0.4277 -0.2741 -0.0874 0.9979
-0.4269 -0.2824 -0.0881 0.9979
-0.4219 -0.3258 -0.0917 0.9978
-0.4181 -0.3532 -0.0942 0.9978
-0.4167 -0.3625 -0.0950 0.9978
-0.4156 -0.3724 -0.0960 0.9977
-0.4148 -0.3827 -0.0971 0.9977
-0.4115 -0.4526 -0.1052 0.9975
-0.4108 -0.4653 -0.1068 0.9975
-0.4099 -0.4782 -0.1084 0.9974
-0.4071 -0.5193 -0.1135 0.9973
-0.4060 -0.5337 -0.1154 0.9973
-0.4671 -0.6950 -0.1441 0.9966
-2.8682 -5.0243 -0.9953 0.9768
-2.7944 -5.0655 -0.9953 0.9768
-2.7200 -5.1057 -0.9953 0.9768
-2.6451 -5.1447 -0.9953 0.9768
-2.4935 -5.2195 -0.9952 0.9768
-2.3397 -5.2898 -0.9951 0.9768
-2.1055 -5.3867 -0.9950 0.9768
-2.0264 -5.4167 -0.9950 0.9768
-1.7064 -5.5252 -0.9949 0.9768
-1.6254 -5.5493 -0.9948 0.9768
-1.3805 -5.6146 -0.9947 0.9768
-1.2158 -5.6522 -0.9947 0.9768
-1.1330 -5.6692 -0.9946 0.9768
-1.0500 -5.6849 -0.9946 0.9768
-0.9668 -5.6995 -0.9946 0.9768
-0.3844 -2.4856 -0.4327 0.9898
-0.3151 -2.5241 -0.4376 0.9897
-0.2081 -2.5839 -0.4460 0.9895
-0.1598 -2.4272 -0.4185 0.9902
-0.0967 -2.6465 -0.4556 0.9893
-0.0572 -2.6109 -0.4493 0.9895
-0.0192 -2.6207 -0.4509 0.9894
0.0184 -2.5163 -0.4329 0.9898
0.0917 -2.5086 -0.4319 0.9899
0.1275 -2.4914 -0.4292 0.9899
0.1608 -2.4426 -0.4211 0.9901
0.2530 -2.6554 -0.4589 0.9892
0.2919 -2.6528 -0.4592 0.9892
0.3309 -2.6502 -0.4595 0.9892
0.3699 -2.6476 -0.4599 0.9892
0.8828 -5.7087 -0.9938 0.9768
0.9661 -5.6950 -0.9938 0.9768
1.0492 -5.6801 -0.9938 0.9768
1.2146 -5.6466 -0.9937 0.9768
1.2970 -5.6280 -0.9937 0.9768
1.3790 -5.6084 -0.9936 0.9768
1.4608 -5.5874 -0.9936 0.9768
1.6233 -5.5420 -0.9935 0.9768
1.7040 -5.5175 -0.9935 0.9768
1.7844 -5.4918 -0.9935 0.9768
1.8644 -5.4650 -0.9934 0.9768
2.0232 -5.4078 -0.9934 0.9768
2.1019 -5.3775 -0.9933 0.9768
2.2580 -5.3135 -0.9933 0.9768
2.4121 -5.2449 -0.9932 0.9768
2.4885 -5.2089 -0.9932 0.9768
2.5642 -5.1718 -0.9932 0.9768
2.6394 -5.1337 -0.9931 0.9768
2.7141 -5.0944 -0.9931 0.9768
2.7881 -5.0541 -0.9931 0.9768
2.9345 -4.9701 -0.9930 0.9768
3.0066 -4.9266 -0.9930 0.9768
3.1492 -4.8363 -0.9929 0.9768
3.2194 -4.7897 -0.9929 0.9768
2.4006 -3.4613 -0.7247 0.9830
2.2990 -3.2135 -0.6798 0.9841
2.3996 -3.2525 -0.6954 0.9837
2.5047 -3.2931 -0.7118 0.9833
2.7249 -3.4760 -0.7599 0.9822
2.5702 -3.1818 -0.7037 0.9835
2.5181 -2.9374 -0.6656 0.9844
2.6151 -2.8760 -0.6688 0.9843
2.6737 -2.6157 -0.6435 0.9849
2.8515 -2.6310 -0.6675 0.9844
2.8803 -2.5807 -0.6654 0.9844
2.8034 -2.4389 -0.6393 0.9850
3.0000 -2.5339 -0.6756 0.9842
3.1664 -2.3004 -0.6734 0.9842
3.1818 -2.2414 -0.6696 0.9843
5.0687 -2.5593 -0.9769 0.9772
5.2092 -2.2587 -0.9768 0.9772
5.2416 -2.1824 -0.9768 0.9772
5.2729 -2.1055 -0.9768 0.9772
5.3030 -2.0282 -0.9768 0.9772
5.3320 -1.9505 -0.9768 0.9772
5.4704 -1.8217 -0.9920 0.9769
5.4964 -1.7416 -0.9920 0.9769
5.5449 -1.5802 -0.9920 0.9769
5.5673 -1.4990 -0.9919 0.9769
5.6769 -1.0057 -0.9919 0.9769
5.7154 -0.7560 -0.9919 0.9769
5.7351 -0.5886 -0.9919 0.9769
5.7430 -0.5048 -0.9919 0.9769
5.7553 -0.3368 -0.9919 0.9769
5.7645 0.0843 -0.9919 0.9769
5.7596 0.2527 -0.9919 0.9769
5.7553 0.3368 -0.9919 0.9769
5.7430 0.5048 -0.9919 0.9769
5.7351 0.5887 -0.9919 0.9769
5.7259 0.6724 -0.9919 0.9769
5.7155 0.7560 -0.9919 0.9769
5.7038 0.8394 -0.9919 0.9769
5.6910 0.9227 -0.9919 0.9769
5.6452 1.1712 -0.9919 0.9769
5.6086 1.3357 -0.9919 0.9769
5.5886 1.4175 -0.9919 0.9769
5.5673 1.4990 -0.9919 0.9769
5.4704 1.8217 -0.9920 0.9769
5.3855 2.0598 -0.9920 0.9769
5.3232 2.2163 -0.9920 0.9769
5.2903 2.2939 -0.9921 0.9769
5.2211 2.4475 -0.9921 0.9769
5.0290 2.8224 -0.9922 0.9769
4.9873 2.8956 -0.9922 0.9769
4.8558 3.1116 -0.9922 0.9769
4.8099 3.1822 -0.9922 0.9769
4.7151 3.3216 -0.9923 0.9769
4.6162 3.4580 -0.9923 0.9769
4.5653 3.5252 -0.9923 0.9769
4.3519 3.7862 -0.9924 0.9769
4.1237 4.0343 -0.9925 0.9769
4.0043 4.1533 -0.9926 0.9769
3.8187 4.3251 -0.9926 0.9769
3.7552 4.3805 -0.9927 0.9769
3.6258 4.4886 -0.9927 0.9769
3.4259 4.6436 -0.9928 0.9769
3.2890 4.7420 -0.9929 0.9768
3.1491 4.8363 -0.9929 0.9768
3.0782 4.8820 -0.9929 0.9768
2.9344 4.9701 -0.9930 0.9768
2.8616 5.0126 -0.9930 0.9768
2.7881 5.0540 -0.9931 0.9768
2.5642 5.1718 -0.9931 0.9768
2.4884 5.2089 -0.9932 0.9768
2.4121 5.2449 -0.9932 0.9768
2.2580 5.3134 -0.9933 0.9768
2.1802 5.3461 -0.9933 0.9768
1.7040 5.5175 -0.9935 0.9768
1.2970 5.6280 -0.9937 0.9768
1.2146 5.6466 -0.9937 0.9768
1.1320 5.6639 -0.9937 0.9768
0.9661 5.6950 -0.9938 0.9768
0.7157 5.7324 -0.9939 0.9768
0.6318 5.7425 -0.9939 0.9768
0.3796 5.7652 -0.9940 0.9768
0.2954 5.7704 -0.9941 0.9768
0.2111 5.7743 -0.9941 0.9768
0.0422 5.7784 -0.9942 0.9768
-0.0422 5.7786 -0.9942 0.9768
-0.1266 5.7775 -0.9942 0.9768
-0.2111 5.7753 -0.9943 0.9768
-0.3797 5.7670 -0.9943 0.9768
-0.7161 5.7358 -0.9945 0.9768
-0.9668 5.6995 -0.9946 0.9768
-1.1330 5.6691 -0.9946 0.9768
-1.2158 5.6522 -0.9947 0.9768
-1.2983 5.6340 -0.9947 0.9768
-1.5441 5.5723 -0.9948 0.9768
-1.2771 4.1352 -0.7446 0.9826
-1.3196 3.8683 -0.7032 0.9835
-1.3367 3.7386 -0.6831 0.9840
-1.4116 3.6114 -0.6671 0.9844
-1.5413 3.4848 -0.6556 0.9847
-1.7386 3.5066 -0.6734 0.9842
-2.6450 5.1447 -0.9953 0.9768
-2.7944 5.0655 -0.9953 0.9768
-2.8682 5.0243 -0.9953 0.9768
-2.6907 4.4088 -0.8886 0.9793
-2.7096 4.2974 -0.8740 0.9796
-2.7272 4.1884 -0.8599 0.9799
-0.4237 0.6108 -0.1279 0.9970
-0.4034 0.5639 -0.1193 0.9972
-0.4059 0.5337 -0.1154 0.9973
-0.4081 0.5052 -0.1117 0.9974
-0.4115 0.4526 -0.1052 0.9975
-0.4144 0.3937 -0.0983 0.9977
-0.4156 0.3725 -0.0960 0.9977
-0.4167 0.3625 -0.0950 0.9978
-0.4207 0.3348 -0.0925 0.9978
-0.4219 0.3258 -0.0917 0.9978
-0.4230 0.3169 -0.0909 0.9979
-0.4241 0.3081 -0.0902 0.9979
-0.4251 0.2995 -0.0895 0.9979
-0.4269 0.2824 -0.0881 0.9979
-0.4284 0.2658 -0.0867 0.9980
-0.4291 0.2576 -0.0861 0.9980
-0.4298 0.2495 -0.0855 0.9980
-0.4303 0.2415 -0.0849 0.9980
-0.4313 0.2258 -0.0838 0.9980
-0.4317 0.2180 -0.0832 0.9980
-0.4321 0.2103 -0.0827 0.9981
-0.4327 0.1952 -0.0817 0.9981
-0.4330 0.1877 -0.0812 0.9981
-0.4334 0.1805 -0.0808 0.9981
-0.4347 0.1519 -0.0792 0.9981
-0.4355 0.1310 -0.0782 0.9982
-0.4357 0.1173 -0.0776 0.9982
-0.4358 0.1105 -0.0774 0.9982
-0.4355 0.0772 -0.0761 0.9982
-0.4346 0.0511 -0.0753 0.9982
-0.4335 0.0317 -0.0748 0.9982
-0.4331 0.0254 -0.0746 0.9982
-0.4326 0.0190 -0.0745 0.9982
-0.4321 0.0127 -0.0744 0.9982
-0.4315 0.0063 -0.0743 0.9982
-0.4191 0.0000 -0.0769 0.9983
-0.4196 -0.0061 -0.0770 0.9983
-0.4206 -0.0185 -0.0773 0.9983
-0.4211 -0.0246 -0.0774 0.9983
-0.4219 -0.0371 -0.0777 0.9983
-0.4222 -0.0434 -0.0779 0.9983
-0.4225 -0.0496 -0.0781 0.9983
-0.4227 -0.0559 -0.0782 0.9983
-0.4229 -0.0622 -0.0784 0.9983
-0.4233 -0.0750 -0.0789 0.9983
-0.4233 -0.0814 -0.0791 0.9982
-0.4234 -0.0943 -0.0796 0.9982
-0.4232 -0.1140 -0.0804 0.9982
-0.4230 -0.1206 -0.0807 0.9982
-0.4228 -0.1272 -0.0810 0.9982
-0.4223 -0.1406 -0.0817 0.9982
-0.4220 -0.1474 -0.0820 0.9982
-0.4216 -0.1542 -0.0824 0.9982
-0.4207 -0.1680 -0.0831 0.9982
-0.4202 -0.1750 -0.0835 0.9982
-0.4197 -0.1820 -0.0839 0.9981
-0.4192 -0.1891 -0.0844 0.9981
-0.4184 -0.2037 -0.0854 0.9981
-0.4180 -0.2111 -0.0859 0.9981
-0.4175 -0.2186 -0.0865 0.9981
-0.4150 -0.2491 -0.0888 0.9980
-0.4134 -0.2649 -0.0901 0.9980
-0.4125 -0.2729 -0.0908 0.9980
-0.4116 -0.2811 -0.0914 0.9980
-0.4106 -0.2892 -0.0921 0.9980
-0.4097 -0.2976 -0.0929 0.9979
-0.4080 -0.3246 -0.0957 0.9979
-0.4073 -0.3339 -0.0966 0.9979
-0.4066 -0.3434 -0.0977 0.9978
-0.4027 -0.3826 -0.1019 0.9977
-0.4014 -0.3927 -0.1030 0.9977
-0.4008 -0.4037 -0.1044 0.9977
-0.3975 -0.4502 -0.1102 0.9976
-0.3965 -0.4626 -0.1118 0.9975
-0.3931 -0.5015 -0.1169 0.9974
-0.3904 -0.5293 -0.1207 0.9973
-0.3890 -0.5437 -0.1227 0.9973
-0.3874 -0.5585 -0.1247 0.9972
-0.3970 -0.5907 -0.1306 0.9971
-0.4679 -0.7422 -0.1610 0.9964
-2.7579 -4.6712 -0.9953 0.9782
-2.6201 -4.7496 -0.9952 0.9782
-2.4801 -4.8238 -0.9952 0.9782
-2.3379 -4.8939 -0.9951 0.9782
-2.2661 -4.9275 -0.9951 0.9782
-2.0478 -5.0216 -0.9950 0.9782
-1.9742 -5.0509 -0.9950 0.9782
-1.8256 -5.1060 -0.9949 0.9782
-1.6756 -5.1569 -0.9949 0.9782
-1.2174 -5.2828 -0.9947 0.9782
-1.1400 -5.2998 -0.9946 0.9782
-1.0624 -5.3158 -0.9946 0.9782
-0.9846 -5.3306 -0.9946 0.9782
-0.3861 -2.4967 -0.4635 0.9898
-0.3515 -2.5160 -0.4661 0.9897
-0.2784 -2.5305 -0.4671 0.9897
-0.2447 -2.5691 -0.4735 0.9896
-0.0572 -2.6109 -0.4792 0.9894
-0.0193 -2.6366 -0.4838 0.9893
0.0185 -2.5345 -0.4650 0.9897
0.0561 -2.5599 -0.4698 0.9896
0.1602 -2.4334 -0.4474 0.9901
0.1989 -2.4695 -0.4546 0.9900
0.2537 -2.6628 -0.4908 0.9892
0.2927 -2.6602 -0.4910 0.9892
0.3318 -2.6576 -0.4914 0.9892
0.8278 -5.3531 -0.9939 0.9782
0.9059 -5.3403 -0.9938 0.9782
1.0615 -5.3112 -0.9938 0.9782
1.2162 -5.2776 -0.9937 0.9782
1.2931 -5.2591 -0.9937 0.9782
1.4462 -5.2188 -0.9936 0.9782
1.5979 -5.1740 -0.9935 0.9782
1.7483 -5.1248 -0.9935 0.9782
1.8230 -5.0984 -0.9935 0.9782
1.8972 -5.0711 -0.9934 0.9782
1.9711 -5.0427 -0.9934 0.9782
2.1174 -4.9827 -0.9933 0.9782
2.1899 -4.9511 -0.9933 0.9782
2.3336 -4.8847 -0.9932 0.9782
2.4046 -4.8499 -0.9932 0.9782
2.4751 -4.8142 -0.9932 0.9782
2.5451 -4.7773 -0.9932 0.9782
2.6146 -4.7395 -0.9931 0.9782
2.9532 -4.5354 -0.9930 0.9782
3.0190 -4.4916 -0.9930 0.9782
3.0843 -4.4469 -0.9929 0.9782
2.3376 -3.1685 -0.7224 0.9841
2.4385 -3.2061 -0.7391 0.9838
2.4878 -3.1736 -0.7399 0.9837
2.5614 -3.1709 -0.7479 0.9836
2.6211 -3.1496 -0.7518 0.9835
2.5105 -2.9286 -0.7077 0.9844
2.4344 -2.5250 -0.6435 0.9858
2.6395 -2.5823 -0.6775 0.9851
2.7250 -2.5891 -0.6897 0.9848
2.8136 -2.5961 -0.7024 0.9846
2.7601 -2.4730 -0.6800 0.9850
2.8646 -2.4921 -0.6966 0.9847
2.8551 -2.4115 -0.6857 0.9849
2.9439 -2.4137 -0.6985 0.9846
2.9832 -2.3739 -0.6995 0.9846
3.0224 -2.3338 -0.7006 0.9846
3.0540 -2.2877 -0.7001 0.9846
3.1017 -2.1850 -0.6961 0.9847
3.1477 -2.0825 -0.6925 0.9848
3.1702 -2.0314 -0.6908 0.9848
3.1921 -1.9803 -0.6892 0.9848
4.5660 -2.7409 -0.9771 0.9786
4.7180 -2.4694 -0.9770 0.9786
4.7880 -2.3305 -0.9770 0.9786
4.8853 -2.1183 -0.9770 0.9786
4.9157 -2.0466 -0.9770 0.9786
4.9879 -1.9077 -0.9798 0.9785
5.0783 -1.8577 -0.9921 0.9782
5.2212 -1.4058 -0.9921 0.9783
5.2599 -1.2527 -0.9921 0.9783
5.2942 -1.0984 -0.9921 0.9783
5.3097 -1.0209 -0.9920 0.9783
5.3492 -0.7873 -0.9920 0.9783
5.3602 -0.7089 -0.9920 0.9783
5.3699 -0.6305 -0.9920 0.9783
5.3923 -0.3947 -0.9920 0.9783
5.4015 -0.2370 -0.9920 0.9783
5.4067 0.0000 -0.9920 0.9783
5.4044 0.1580 -0.9920 0.9783
5.3975 0.3159 -0.9920 0.9783
5.3785 0.5521 -0.9920 0.9783
5.3699 0.6306 -0.9920 0.9783
5.3601 0.7090 -0.9920 0.9783
5.3492 0.7873 -0.9920 0.9783
5.3371 0.8653 -0.9920 0.9783
5.3240 0.9432 -0.9920 0.9783
5.3096 1.0209 -0.9920 0.9783
5.2776 1.1757 -0.9921 0.9783
5.2599 1.2526 -0.9921 0.9783
5.2411 1.3294 -0.9921 0.9783
5.2212 1.4058 -0.9921 0.9783
5.1547 1.6334 -0.9921 0.9782
5.0783 1.8577 -0.9921 0.9782
4.8275 2.4375 -0.9922 0.9782
4.7914 2.5079 -0.9923 0.9782
4.7543 2.5776 -0.9923 0.9782
4.6771 2.7155 -0.9923 0.9782
4.5539 2.9180 -0.9923 0.9782
4.5108 2.9843 -0.9924 0.9782
4.4668 3.0500 -0.9924 0.9782
4.4219 3.1150 -0.9924 0.9782
4.3759 3.1793 -0.9924 0.9782
4.2813 3.3059 -0.9925 0.9782
4.1831 3.4298 -0.9925 0.9782
4.1326 3.4906 -0.9925 0.9782
4.0812 3.5507 -0.9925 0.9782
4.0290 3.6100 -0.9926 0.9782
3.9220 3.7264 -0.9926 0.9782
3.8672 3.7834 -0.9926 0.9782
3.8116 3.8396 -0.9926 0.9782
3.7552 3.8949 -0.9927 0.9782
3.6399 4.0032 -0.9927 0.9782
3.4002 4.2094 -0.9928 0.9782
3.0843 4.4469 -0.9929 0.9782
2.9532 4.5354 -0.9930 0.9782
2.8195 4.6200 -0.9930 0.9782
2.5451 4.7773 -0.9932 0.9782
2.4046 4.8499 -0.9932 0.9782
2.3336 4.8847 -0.9932 0.9782
2.2620 4.9184 -0.9933 0.9782
2.0445 5.0132 -0.9934 0.9782
1.8972 5.0711 -0.9934 0.9782
1.8229 5.0984 -0.9934 0.9782
1.7483 5.1247 -0.9935 0.9782
1.6733 5.1498 -0.9935 0.9782
1.5979 5.1739 -0.9935 0.9782
1.4462 5.2188 -0.9936 0.9782
1.2931 5.2591 -0.9937 0.9782
1.2162 5.2776 -0.9937 0.9782
1.0615 5.3112 -0.9938 0.9782
0.9838 5.3263 -0.9938 0.9782
0.9060 5.3403 -0.9938 0.9782
0.8279 5.3532 -0.9938 0.9782
0.5138 5.3930 -0.9940 0.9782
0.4349 5.4002 -0.9940 0.9782
0.2770 5.4109 -0.9941 0.9782
0.1188 5.4170 -0.9941 0.9782
-0.0396 5.4186 -0.9942 0.9782
-0.1979 5.4154 -0.9943 0.9782
-0.4351 5.4021 -0.9944 0.9782
-0.5928 5.3873 -0.9944 0.9782
-0.6714 5.3783 -0.9945 0.9782
-0.7500 5.3680 -0.9945 0.9782
-0.8283 5.3568 -0.9945 0.9782
-1.1400 5.2998 -0.9946 0.9782
-1.2174 5.2828 -0.9947 0.9782
-1.2945 5.2646 -0.9947 0.9782
-1.4478 5.2249 -0.9948 0.9782
-1.5241 5.2033 -0.9948 0.9782
-1.2767 4.1340 -0.7938 0.9826
-1.3733 3.6708 -0.7191 0.9842
-1.4393 3.6823 -0.7254 0.9841
-2.3379 4.8940 -0.9951 0.9782
-2.4093 4.8594 -0.9952 0.9782
-2.4801 4.8238 -0.9952 0.9782
-2.6201 4.7496 -0.9952 0.9782
-0.4680 0.7422 -0.1610 0.9964
-0.4219 0.6480 -0.1419 0.9969
-0.3971 0.5908 -0.1306 0.9971
-0.3874 0.5585 -0.1247 0.9972
-0.3904 0.5293 -0.1207 0.9973
-0.3931 0.5015 -0.1169 0.9974
-0.3975 0.4503 -0.1102 0.9976
-0.3984 0.4382 -0.1087 0.9976
-0.3993 0.4264 -0.1072 0.9976
-0.4001 0.4149 -0.1058 0.9977
-0.4008 0.4038 -0.1044 0.9977
-0.4027 0.3826 -0.1019 0.9977
-0.4042 0.3729 -0.1009 0.9978
-0.4050 0.3629 -0.0998 0.9978
-0.4058 0.3531 -0.0987 0.9978
-0.4066 0.3434 -0.0977 0.9978
-0.4073 0.3340 -0.0966 0.9979
-0.4080 0.3247 -0.0957 0.9979
-0.4086 0.3155 -0.0947 0.9979
-0.4091 0.3065 -0.0938 0.9979
-0.4096 0.2977 -0.0929 0.9979
-0.4106 0.2892 -0.0921 0.9980
-0.4116 0.2811 -0.0914 0.9980
-0.4125 0.2730 -0.0908 0.9980
-0.4134 0.2649 -0.0901 0.9980
-0.4175 0.2185 -0.0865 0.9981
-0.4192 0.1891 -0.0844 0.9981
-0.4197 0.1820 -0.0839 0.9981
-0.4212 0.1611 -0.0827 0.9982
-0.4216 0.1542 -0.0824 0.9982
-0.4220 0.1474 -0.0820 0.9982
-0.4223 0.1406 -0.0817 0.9982
-0.4228 0.1272 -0.0810 0.9982
-0.4230 0.1205 -0.0807 0.9982
-0.4232 0.1139 -0.0804 0.9982
-0.4233 0.1074 -0.0801 0.9982
-0.4234 0.1008 -0.0799 0.9982
-0.4234 0.0943 -0.0796 0.9982
-0.4234 0.0879 -0.0793 0.9982
-0.4234 0.0814 -0.0791 0.9982
-0.4231 0.0686 -0.0787 0.9983
-0.4229 0.0623 -0.0784 0.9983
-0.4219 0.0371 -0.0777 0.9983
-0.4215 0.0309 -0.0775 0.9983
-0.4206 0.0184 -0.0773 0.9983
-0.4202 0.0123 -0.0771 0.9983
-0.4078 0.0000 -0.0795 0.9983
-0.4083 -0.0059 -0.0796 0.9983
-0.4088 -0.0120 -0.0797 0.9983
-0.4093 -0.0179 -0.0799 0.9983
-0.4109 -0.0482 -0.0807 0.9983
-0.4115 -0.0667 -0.0813 0.9983
-0.4116 -0.0917 -0.0822 0.9983
-0.4109 -0.1236 -0.0837 0.9983
-0.4103 -0.1366 -0.0843 0.9982
-0.4099 -0.1432 -0.0846 0.9982
-0.4090 -0.1564 -0.0854 0.9982
-0.4085 -0.1631 -0.0858 0.9982
-0.4073 -0.1766 -0.0866 0.9982
-0.4060 -0.1903 -0.0874 0.9982
-0.4050 -0.2045 -0.0885 0.9982
-0.4045 -0.2117 -0.0890 0.9981
-0.4039 -0.2190 -0.0896 0.9981
-0.4025 -0.2497 -0.0923 0.9981
-0.4021 -0.2577 -0.0931 0.9981
-0.4007 -0.2823 -0.0955 0.9980
-0.4001 -0.2907 -0.0964 0.9980
-0.3989 -0.3080 -0.0982 0.9979
-0.3974 -0.3259 -0.1002 0.9979
-0.3967 -0.3351 -0.1012 0.9979
-0.3958 -0.3443 -0.1023 0.9979
-0.3949 -0.3538 -0.1034 0.9978
-0.3927 -0.3731 -0.1056 0.9978
-0.3893 -0.3922 -0.1077 0.9978
-0.3871 -0.4134 -0.1104 0.9977
-0.3861 -0.4246 -0.1119 0.9977
-0.3827 -0.4599 -0.1166 0.9976
-0.3801 -0.4849 -0.1201 0.9975
-0.3786 -0.4979 -0.1219 0.9975
-0.3754 -0.5248 -0.1258 0.9974
-0.3737 -0.5387 -0.1278 0.9973
-0.4197 -0.6877 -0.1571 0.9967
-2.5954 -4.3959 -0.9952 0.9794
-2.5308 -4.4332 -0.9952 0.9794
-2.4657 -4.4696 -0.9952 0.9794
-2.4001 -4.5051 -0.9952 0.9794
-2.2673 -4.5730 -0.9951 0.9794
-2.2002 -4.6055 -0.9951 0.9794
-2.1326 -4.6371 -0.9950 0.9794
-2.0645 -4.6676 -0.9950 0.9794
-1.9961 -4.6971 -0.9950 0.9794
-1.9272 -4.7257 -0.9950 0.9794
-1.8579 -4.7532 -0.9949 0.9794
-1.7882 -4.7797 -0.9949 0.9794
-1.7181 -4.8052 -0.9949 0.9794
-1.5769 -4.8530 -0.9948 0.9794
-1.4343 -4.8968 -0.9948 0.9794
-0.9998 -5.0027 -0.9946 0.9794
-0.3531 -2.5273 -0.4975 0.9897
-0.3180 -2.5470 -0.5004 0.9896
-0.2794 -2.5396 -0.4981 0.9896
-0.2100 -2.6079 -0.5101 0.9894
-0.1572 -2.3880 -0.4666 0.9903
-0.0967 -2.6466 -0.5163 0.9893
0.2065 -2.5635 -0.5014 0.9896
0.7791 -5.0380 -0.9939 0.9794
0.9990 -4.9986 -0.9938 0.9794
1.0720 -4.9833 -0.9938 0.9794
1.1446 -4.9670 -0.9937 0.9794
1.2892 -4.9312 -0.9937 0.9794
1.3611 -4.9116 -0.9936 0.9794
1.6455 -4.8232 -0.9935 0.9794
1.9242 -4.7183 -0.9934 0.9794
1.9929 -4.6896 -0.9934 0.9794
2.0611 -4.6598 -0.9934 0.9794
2.1289 -4.6291 -0.9933 0.9794
2.2631 -4.5646 -0.9933 0.9795
2.5256 -4.4241 -0.9932 0.9795
2.6537 -4.3482 -0.9931 0.9795
2.7169 -4.3089 -0.9931 0.9795
2.7795 -4.2687 -0.9931 0.9795
2.2751 -3.3847 -0.7951 0.9835
2.3755 -3.1232 -0.7650 0.9841
2.4755 -3.1579 -0.7823 0.9838
2.5362 -3.1397 -0.7869 0.9837
2.6547 -3.0968 -0.7952 0.9835
2.5447 -2.7986 -0.7374 0.9847
2.7800 -2.7197 -0.7582 0.9843
2.6942 -2.4859 -0.7147 0.9852
2.9699 -2.2248 -0.7234 0.9850
2.9942 -2.1754 -0.7215 0.9850
3.0403 -2.0759 -0.7177 0.9851
3.0627 -2.0262 -0.7159 0.9851
3.2326 -2.0714 -0.7485 0.9845
4.2976 -2.5798 -0.9772 0.9798
4.3348 -2.5168 -0.9772 0.9798
4.4407 -2.3243 -0.9772 0.9798
4.5066 -2.1935 -0.9771 0.9798
4.5381 -2.1274 -0.9771 0.9798
4.5982 -1.9938 -0.9771 0.9798
4.6268 -1.9264 -0.9771 0.9798
4.7539 -1.8182 -0.9923 0.9795
4.7799 -1.7485 -0.9923 0.9795
4.8049 -1.6785 -0.9922 0.9795
4.8288 -1.6081 -0.9922 0.9795
4.8518 -1.5373 -0.9922 0.9795
4.8737 -1.4662 -0.9922 0.9795
4.9144 -1.3232 -0.9922 0.9795
4.9509 -1.1790 -0.9922 0.9795
5.0452 -0.6673 -0.9922 0.9795
5.0544 -0.5936 -0.9921 0.9795
5.0842 -0.2230 -0.9921 0.9795
5.0869 -0.1487 -0.9921 0.9795
5.0890 0.0000 -0.9921 0.9795
5.0885 0.0744 -0.9921 0.9795
5.0869 0.1487 -0.9921 0.9795
5.0842 0.2230 -0.9921 0.9795
5.0804 0.2973 -0.9921 0.9795
5.0695 0.4456 -0.9921 0.9795
5.0349 0.7410 -0.9922 0.9795
5.0112 0.8878 -0.9922 0.9795
4.9977 0.9609 -0.9922 0.9795
4.9831 1.0339 -0.9922 0.9795
4.9509 1.1791 -0.9922 0.9795
4.9332 1.2513 -0.9922 0.9795
4.8945 1.3949 -0.9922 0.9795
4.8737 1.4663 -0.9922 0.9795
4.8518 1.5373 -0.9922 0.9795
4.8049 1.6785 -0.9922 0.9795
4.7799 1.7485 -0.9923 0.9795
4.7539 1.8182 -0.9923 0.9795
4.7269 1.8875 -0.9923 0.9795
4.6989 1.9564 -0.9923 0.9795
4.5768 2.2276 -0.9923 0.9795
4.5098 2.3605 -0.9924 0.9795
4.4749 2.4262 -0.9924 0.9795
4.4391 2.4913 -0.9924 0.9795
4.2457 2.8089 -0.9925 0.9795
4.2043 2.8707 -0.9925 0.9795
4.1187 2.9925 -0.9925 0.9795
4.0747 3.0524 -0.9925 0.9795
4.0297 3.1116 -0.9926 0.9795
3.9372 3.2282 -0.9926 0.9795
3.7922 3.3978 -0.9927 0.9795
3.7422 3.4529 -0.9927 0.9795
3.5875 3.6138 -0.9927 0.9795
3.4805 3.7173 -0.9928 0.9795
2.9637 4.1424 -0.9930 0.9795
2.7795 4.2687 -0.9931 0.9795
2.5900 4.3866 -0.9931 0.9795
2.5257 4.4242 -0.9932 0.9795
2.3954 4.4963 -0.9932 0.9795
2.3296 4.5310 -0.9932 0.9795
2.1962 4.5973 -0.9933 0.9795
2.1289 4.6291 -0.9933 0.9794
2.0611 4.6598 -0.9934 0.9794
1.9929 4.6896 -0.9934 0.9794
1.4326 4.8911 -0.9936 0.9794
1.2892 4.9312 -0.9937 0.9794
1.2170 4.9496 -0.9937 0.9794
1.0719 4.9834 -0.9938 0.9794
0.9990 4.9986 -0.9938 0.9794
0.7054 5.0491 -0.9939 0.9794
0.6316 5.0590 -0.9939 0.9794
0.4094 5.0823 -0.9940 0.9794
0.3350 5.0879 -0.9940 0.9794
0.2607 5.0923 -0.9941 0.9794
0.0373 5.0993 -0.9942 0.9794
-0.0372 5.0995 -0.9942 0.9794
-0.1862 5.0966 -0.9943 0.9794
-0.3351 5.0892 -0.9943 0.9794
-0.4837 5.0776 -0.9944 0.9794
-0.9266 5.0166 -0.9946 0.9794
-1.2182 4.9545 -0.9947 0.9794
-1.3625 4.9171 -0.9947 0.9794
-1.4343 4.8968 -0.9948 0.9794
-1.2763 4.1325 -0.8432 0.9825
-1.2989 3.9977 -0.8195 0.9830
-1.3188 3.8658 -0.7963 0.9835
-1.3364 3.7378 -0.7739 0.9840
-1.4432 3.6924 -0.7729 0.9840
-1.5106 3.7043 -0.7799 0.9838
-1.9961 4.6971 -0.9950 0.9794
-2.0645 4.6676 -0.9950 0.9794
-2.1326 4.6370 -0.9950 0.9794
-2.2002 4.6055 -0.9951 0.9794
-2.2673 4.5730 -0.9951 0.9794
-2.3339 4.5395 -0.9951 0.9794
-2.4001 4.5051 -0.9952 0.9794
-2.5954 4.3959 -0.9952 0.9794
-0.4197 0.6877 -0.1571 0.9967
-0.3737 0.5388 -0.1278 0.9973
-0.3800 0.4849 -0.1201 0.9975
-0.3827 0.4599 -0.1166 0.9976
-0.3839 0.4479 -0.1150 0.9976
-0.3851 0.4361 -0.1134 0.9976
-0.3861 0.4246 -0.1119 0.9977
-0.3871 0.4134 -0.1104 0.9977
-0.3893 0.3922 -0.1077 0.9978
-0.3949 0.3539 -0.1034 0.9978
-0.3982 0.3169 -0.0992 0.9979
-0.4007 0.2823 -0.0955 0.9980
-0.4012 0.2739 -0.0947 0.9980
-0.4021 0.2577 -0.0931 0.9981
-0.4025 0.2497 -0.0923 0.9981
-0.4028 0.2418 -0.0916 0.9981
-0.4034 0.2264 -0.0902 0.9981
-0.4039 0.2190 -0.0896 0.9981
-0.4095 0.1498 -0.0850 0.9982
-0.4103 0.1366 -0.0843 0.9982
-0.4106 0.1301 -0.0840 0.9982
-0.4108 0.1236 -0.0837 0.9983
-0.4111 0.1172 -0.0833 0.9983
-0.4114 0.1044 -0.0828 0.9983
-0.4117 0.0917 -0.0822 0.9983
-0.4117 0.0791 -0.0817 0.9983
-0.4116 0.0729 -0.0815 0.9983
-0.4115 0.0667 -0.0813 0.9983
-0.4107 0.0421 -0.0805 0.9983
-0.4101 0.0300 -0.0802 0.9983
-0.4093 0.0179 -0.0799 0.9983
-0.3989 -0.0234 -0.0825 0.9984
-0.3995 -0.0351 -0.0828 0.9984
-0.3998 -0.0411 -0.0830 0.9984
-0.4002 -0.0529 -0.0834 0.9984
-0.4003 -0.0589 -0.0836 0.9983
-0.4005 -0.0831 -0.0845 0.9983
-0.4004 -0.0954 -0.0850 0.9983
-0.4002 -0.1015 -0.0853 0.9983
-0.4000 -0.1077 -0.0855 0.9983
-0.3995 -0.1202 -0.0861 0.9983
-0.3993 -0.1265 -0.0865 0.9983
-0.3990 -0.1329 -0.0869 0.9983
-0.3988 -0.1393 -0.0872 0.9983
-0.3986 -0.1458 -0.0876 0.9983
-0.3983 -0.1523 -0.0880 0.9983
-0.3979 -0.1589 -0.0885 0.9983
-0.3975 -0.1655 -0.0889 0.9982
-0.3971 -0.1722 -0.0894 0.9982
-0.3967 -0.1790 -0.0899 0.9982
-0.3962 -0.1857 -0.0904 0.9982
-0.3957 -0.1926 -0.0909 0.9982
-0.3948 -0.2216 -0.0935 0.9982
-0.3932 -0.2520 -0.0964 0.9981
-0.3922 -0.2678 -0.0981 0.9981
-0.3916 -0.2759 -0.0989 0.9980
-0.3910 -0.2841 -0.0998 0.9980
-0.3903 -0.2924 -0.1007 0.9980
-0.3896 -0.3008 -0.1016 0.9980
-0.3888 -0.3094 -0.1026 0.9980
-0.3871 -0.3270 -0.1046 0.9979
-0.3862 -0.3360 -0.1057 0.9979
-0.3853 -0.3452 -0.1068 0.9979
-0.3831 -0.3640 -0.1091 0.9978
-0.3745 -0.4118 -0.1149 0.9977
-0.3733 -0.4228 -0.1165 0.9977
-0.3720 -0.4340 -0.1180 0.9977
-0.3693 -0.4572 -0.1214 0.9976
-0.3678 -0.4692 -0.1231 0.9976
-0.3662 -0.4815 -0.1249 0.9975
-0.3659 -0.5996 -0.1450 0.9971
-0.3850 -0.6521 -0.1564 0.9969
-0.4156 -0.7280 -0.1731 0.9966
-2.3279 -4.2198 -0.9951 0.9805
-2.2659 -4.2533 -0.9951 0.9805
-2.0772 -4.3482 -0.9950 0.9805
-1.8846 -4.4347 -0.9949 0.9805
-1.7541 -4.4877 -0.9949 0.9805
-1.6883 -4.5127 -0.9949 0.9805
-1.4888 -4.5820 -0.9948 0.9805
-1.2864 -4.6424 -0.9947 0.9805
-1.1502 -4.6778 -0.9947 0.9805
-1.0817 -4.6939 -0.9946 0.9805
-0.8748 -4.7364 -0.9945 0.9805
-0.8055 -4.7486 -0.9945 0.9805
-0.3896 -2.5193 -0.5264 0.9896
-0.3547 -2.5389 -0.5293 0.9896
-0.2838 -2.5789 -0.5357 0.9895
-0.1560 -2.3687 -0.4902 0.9904
-0.1275 -2.4908 -0.5150 0.9899
-0.0865 -2.3670 -0.4891 0.9904
-0.0540 -2.4646 -0.5090 0.9900
-0.0195 -2.6730 -0.5520 0.9891
0.0190 -2.6031 -0.5375 0.9894
0.0562 -2.5637 -0.5295 0.9896
0.1635 -2.4821 -0.5136 0.9899
0.2551 -2.6779 -0.5554 0.9891
0.2944 -2.6752 -0.5557 0.9891
0.7356 -4.7568 -0.9939 0.9805
0.8050 -4.7455 -0.9939 0.9805
0.8743 -4.7330 -0.9938 0.9805
1.1491 -4.6734 -0.9937 0.9805
1.2173 -4.6560 -0.9937 0.9805
1.2851 -4.6376 -0.9937 0.9805
1.4200 -4.5978 -0.9936 0.9805
1.5537 -4.5541 -0.9936 0.9805
1.6200 -4.5308 -0.9935 0.9805
1.6860 -4.5065 -0.9935 0.9805
2.0102 -4.3708 -0.9934 0.9805
2.0738 -4.3409 -0.9934 0.9805
2.1996 -4.2782 -0.9933 0.9805
2.3236 -4.2119 -0.9933 0.9805
2.3848 -4.1774 -0.9932 0.9805
2.4455 -4.1420 -0.9932 0.9805
2.0529 -3.2559 -0.7948 0.9844
2.1042 -3.2315 -0.7962 0.9844
2.1552 -3.2063 -0.7977 0.9843
2.4556 -3.0400 -0.8069 0.9842
2.5534 -2.9786 -0.8101 0.9841
2.5933 -2.8520 -0.7959 0.9844
2.6223 -2.8006 -0.7922 0.9845
2.7741 -2.7945 -0.8131 0.9840
2.8263 -2.7651 -0.8164 0.9840
2.6303 -2.4991 -0.7492 0.9853
2.8284 -2.5343 -0.7842 0.9846
2.9592 -2.4995 -0.7998 0.9843
2.7273 -2.2361 -0.7282 0.9857
2.8835 -2.1600 -0.7439 0.9854
2.9557 -2.0821 -0.7465 0.9853
3.2152 -2.1954 -0.8039 0.9842
3.2185 -2.1293 -0.7968 0.9844
4.0581 -2.4361 -0.9773 0.9809
4.0932 -2.3765 -0.9773 0.9809
4.1608 -2.2558 -0.9773 0.9809
4.3832 -1.9006 -0.9865 0.9807
4.4634 -1.7823 -0.9924 0.9806
4.4890 -1.7169 -0.9924 0.9806
4.5135 -1.6511 -0.9924 0.9806
4.5598 -1.5185 -0.9923 0.9806
4.5814 -1.4517 -0.9923 0.9806
4.6021 -1.3846 -0.9923 0.9806
4.6218 -1.3171 -0.9923 0.9806
4.6405 -1.2495 -0.9923 0.9806
4.6583 -1.1815 -0.9923 0.9806
4.6907 -1.0449 -0.9923 0.9806
4.7054 -0.9762 -0.9923 0.9806
4.7192 -0.9074 -0.9923 0.9806
4.7320 -0.8383 -0.9923 0.9806
4.7543 -0.6997 -0.9923 0.9806
4.7804 -0.4907 -0.9923 0.9806
4.7870 -0.4208 -0.9923 0.9806
4.8050 -0.0702 -0.9922 0.9806
4.8054 0.0000 -0.9922 0.9806
4.8009 0.2106 -0.9922 0.9806
4.7973 0.2807 -0.9923 0.9806
4.7870 0.4207 -0.9923 0.9806
4.7804 0.4907 -0.9923 0.9806
4.7727 0.5605 -0.9923 0.9806
4.7436 0.7691 -0.9923 0.9806
4.7319 0.8383 -0.9923 0.9806
4.6907 1.0449 -0.9923 0.9806
4.6750 1.1133 -0.9923 0.9806
4.6405 1.2495 -0.9923 0.9806
4.6218 1.3171 -0.9923 0.9806
4.5814 1.4517 -0.9923 0.9806
4.5597 1.5185 -0.9923 0.9806
4.5371 1.5850 -0.9924 0.9806
4.4634 1.7823 -0.9924 0.9806
4.4095 1.9120 -0.9924 0.9806
4.3812 1.9762 -0.9924 0.9806
4.3519 2.0401 -0.9924 0.9806
4.2906 2.1664 -0.9925 0.9806
4.1917 2.3525 -0.9925 0.9806
4.1212 2.4740 -0.9925 0.9806
4.0091 2.6524 -0.9926 0.9806
3.9300 2.7685 -0.9926 0.9806
3.8475 2.8822 -0.9926 0.9806
3.8051 2.9381 -0.9927 0.9806
3.7177 3.0482 -0.9927 0.9806
3.6272 3.1557 -0.9927 0.9806
3.5336 3.2604 -0.9928 0.9806
3.4369 3.3624 -0.9928 0.9806
3.3374 3.4616 -0.9928 0.9806
3.1826 3.6047 -0.9929 0.9806
3.1297 3.6509 -0.9929 0.9806
3.0218 3.7409 -0.9930 0.9806
2.9669 3.7848 -0.9930 0.9805
2.9114 3.8278 -0.9930 0.9805
2.8552 3.8700 -0.9930 0.9805
2.6245 4.0305 -0.9931 0.9805
2.5654 4.0686 -0.9931 0.9805
2.4455 4.1420 -0.9932 0.9805
2.3235 4.2119 -0.9932 0.9805
2.1996 4.2782 -0.9933 0.9805
2.1369 4.3100 -0.9933 0.9805
2.0738 4.3409 -0.9933 0.9805
2.0102 4.3709 -0.9934 0.9805
1.9461 4.3998 -0.9934 0.9805
1.8817 4.4279 -0.9934 0.9805
1.8168 4.4551 -0.9935 0.9805
1.5537 4.5541 -0.9936 0.9805
1.4870 4.5764 -0.9936 0.9805
1.4200 4.5978 -0.9936 0.9805
1.2172 4.6560 -0.9937 0.9805
1.1491 4.6734 -0.9937 0.9805
1.0808 4.6898 -0.9937 0.9805
0.9433 4.7196 -0.9938 0.9805
0.8743 4.7331 -0.9938 0.9805
0.5963 4.7766 -0.9939 0.9805
0.5265 4.7849 -0.9940 0.9805
0.4565 4.7923 -0.9940 0.9805
0.3163 4.8038 -0.9941 0.9805
0.2461 4.8080 -0.9941 0.9805
0.1758 4.8112 -0.9941 0.9805
0.1055 4.8135 -0.9941 0.9805
-0.1055 4.8139 -0.9942 0.9805
-0.1758 4.8120 -0.9943 0.9805
-0.2462 4.8090 -0.9943 0.9805
-0.3866 4.8000 -0.9943 0.9805
-0.4567 4.7941 -0.9944 0.9805
-0.5267 4.7870 -0.9944 0.9805
-0.5966 4.7789 -0.9944 0.9805
-0.7360 4.7597 -0.9945 0.9805
-0.8055 4.7486 -0.9945 0.9805
-0.9440 4.7233 -0.9946 0.9805
-1.0129 4.7091 -0.9946 0.9805
-1.1502 4.6778 -0.9946 0.9805
-1.2184 4.6606 -0.9947 0.9805
-1.2864 4.6424 -0.9947 0.9805
-1.3542 4.6232 -0.9947 0.9805
-1.3360 3.7366 -0.8194 0.9839
-1.3860 3.7047 -0.8167 0.9840
-1.4543 3.7208 -0.8249 0.9838
-1.5241 3.7373 -0.8334 0.9837
-1.8846 4.4347 -0.9949 0.9805
-1.9492 4.4068 -0.9950 0.9805
-2.2035 4.2859 -0.9951 0.9805
-2.3279 4.2199 -0.9951 0.9805
-0.3850 0.6522 -0.1564 0.9969
-0.3546 0.5623 -0.1373 0.9973
-0.3609 0.5204 -0.1308 0.9974
-0.3645 0.4941 -0.1268 0.9975
-0.3662 0.4816 -0.1249 0.9975
-0.3693 0.4572 -0.1214 0.9976
-0.3707 0.4455 -0.1197 0.9976
-0.3720 0.4340 -0.1180 0.9977
-0.3745 0.4119 -0.1149 0.9977
-0.3778 0.3918 -0.1124 0.9978
-0.3796 0.3824 -0.1112 0.9978
-0.3814 0.3731 -0.1102 0.9978
-0.3831 0.3641 -0.1091 0.9978
-0.3853 0.3452 -0.1068 0.9979
-0.3871 0.3270 -0.1046 0.9979
-0.3888 0.3095 -0.1026 0.9980
-0.3910 0.2841 -0.0998 0.9980
-0.3916 0.2759 -0.0989 0.9980
-0.3922 0.2678 -0.0981 0.9981
-0.3927 0.2598 -0.0972 0.9981
-0.3944 0.2290 -0.0942 0.9981
-0.3947 0.2216 -0.0935 0.9982
-0.3953 0.2070 -0.0921 0.9982
-0.3955 0.1997 -0.0915 0.9982
-0.3957 0.1927 -0.0909 0.9982
-0.3962 0.1858 -0.0904 0.9982
-0.3967 0.1790 -0.0899 0.9982
-0.3971 0.1722 -0.0894 0.9982
-0.3985 0.1458 -0.0876 0.9983
-0.3988 0.1394 -0.0872 0.9983
-0.3990 0.1329 -0.0869 0.9983
-0.3993 0.1265 -0.0865 0.9983
-0.3995 0.1202 -0.0861 0.9983
-0.4002 0.1015 -0.0853 0.9983
-0.4004 0.0953 -0.0850 0.9983
-0.4005 0.0831 -0.0845 0.9983
-0.4004 0.0649 -0.0838 0.9983
-0.4002 0.0529 -0.0834 0.9984
-0.4000 0.0470 -0.0832 0.9984
-0.3998 0.0411 -0.0830 0.9984
-0.3995 0.0352 -0.0828 0.9984
-0.3992 0.0292 -0.0827 0.9984
-0.3988 0.0234 -0.0825 0.9984
-0.3985 0.0175 -0.0824 0.9984
-0.3980 0.0116 -0.0822 0.9984
-0.3900 0.0000 -0.0850 0.9984
-0.3904 -0.0057 -0.0851 0.9984
-0.3907 -0.0114 -0.0852 0.9984
-0.3910 -0.0171 -0.0853 0.9984
-0.3918 -0.0345 -0.0858 0.9984
-0.3926 -0.0695 -0.0869 0.9984
-0.3926 -0.0755 -0.0872 0.9984
-0.3926 -0.0814 -0.0874 0.9984
-0.3926 -0.0874 -0.0877 0.9984
-0.3925 -0.0935 -0.0880 0.9983
-0.3924 -0.0995 -0.0883 0.9983
-0.3918 -0.1241 -0.0896 0.9983
-0.3913 -0.1367 -0.0904 0.9983
-0.3907 -0.1494 -0.0912 0.9983
-0.3903 -0.1558 -0.0916 0.9983
-0.3895 -0.1689 -0.0926 0.9983
-0.3890 -0.1755 -0.0931 0.9983
-0.3885 -0.1821 -0.0936 0.9982
-0.3878 -0.1887 -0.0941 0.9982
-0.3874 -0.1956 -0.0946 0.9982
-0.3871 -0.2026 -0.0953 0.9982
-0.3852 -0.2389 -0.0988 0.9981
-0.3829 -0.2697 -0.1021 0.9981
-0.3822 -0.2777 -0.1030 0.9981
-0.3815 -0.2858 -0.1039 0.9981
-0.3738 -0.3551 -0.1124 0.9979
-0.3665 -0.3914 -0.1169 0.9978
-0.3645 -0.4009 -0.1182 0.9978
-0.3608 -0.4209 -0.1209 0.9977
-0.3594 -0.4319 -0.1225 0.9977
-0.3579 -0.4430 -0.1242 0.9977
-0.3563 -0.4545 -0.1259 0.9976
-0.3528 -0.4781 -0.1296 0.9976
-0.3509 -0.4905 -0.1315 0.9975
-0.3445 -0.5291 -0.1377 0.9974
-0.3583 -0.6275 -0.1576 0.9970
-0.3769 -0.6833 -0.1702 0.9968
-1.9668 -4.1171 -0.9950 0.9815
-1.7228 -4.2246 -0.9949 0.9815
-1.4729 -4.3176 -0.9948 0.9815
-1.3461 -4.3585 -0.9947 0.9815
-1.2822 -4.3776 -0.9947 0.9815
-0.9591 -4.4589 -0.9946 0.9815
-0.8938 -4.4723 -0.9945 0.9815
-0.8284 -4.4848 -0.9945 0.9815
-0.4260 -2.5114 -0.5555 0.9896
-0.2851 -2.5909 -0.5684 0.9894
-0.2488 -2.6115 -0.5721 0.9893
-0.1747 -2.6537 -0.5799 0.9892
-0.1264 -2.4698 -0.5393 0.9899
0.0190 -2.6065 -0.5684 0.9894
0.0560 -2.5534 -0.5569 0.9896
0.0915 -2.5023 -0.5460 0.9898
0.1256 -2.4531 -0.5356 0.9900
0.1629 -2.4741 -0.5407 0.9899
0.2952 -2.6829 -0.5886 0.9890
0.3346 -2.6803 -0.5890 0.9890
0.7623 -4.4936 -0.9939 0.9815
0.8279 -4.4818 -0.9939 0.9815
1.0234 -4.4409 -0.9938 0.9815
1.1526 -4.4088 -0.9937 0.9815
1.2169 -4.3914 -0.9937 0.9815
1.2809 -4.3730 -0.9937 0.9815
1.3446 -4.3537 -0.9936 0.9815
2.0235 -4.0813 -0.9934 0.9815
2.1418 -4.0202 -0.9933 0.9815
2.2003 -3.9884 -0.9933 0.9815
2.2582 -3.9558 -0.9933 0.9815
2.3158 -3.9223 -0.9933 0.9815
2.4293 -3.8527 -0.9932 0.9815
2.2842 -2.9138 -0.8074 0.9850
2.3308 -2.8855 -0.8088 0.9849
2.5142 -2.7651 -0.8149 0.9848
2.5592 -2.7332 -0.8165 0.9848
2.7918 -2.8123 -0.8641 0.9839
2.9438 -2.7970 -0.8855 0.9835
2.8987 -2.5972 -0.8487 0.9842
2.9223 -2.5425 -0.8447 0.9843
3.1673 -2.5204 -0.8827 0.9836
3.5876 -2.6875 -0.9775 0.9818
3.7383 -2.4732 -0.9774 0.9818
3.2108 -2.0575 -0.8316 0.9845
3.8089 -2.3629 -0.9774 0.9818
3.8762 -2.2505 -0.9774 0.9818
3.9086 -2.1936 -0.9774 0.9818
3.9401 -2.1362 -0.9774 0.9818
3.9709 -2.0784 -0.9773 0.9818
4.0008 -2.0201 -0.9773 0.9818
4.0298 -1.9614 -0.9773 0.9818
4.0768 -1.9111 -0.9818 0.9817
4.2742 -1.5636 -0.9925 0.9815
4.2966 -1.5009 -0.9925 0.9815
4.4113 -1.1189 -0.9924 0.9815
4.4420 -0.9895 -0.9924 0.9815
4.4690 -0.8593 -0.9924 0.9815
4.5115 -0.5968 -0.9924 0.9815
4.5270 -0.4646 -0.9924 0.9815
4.5333 -0.3985 -0.9924 0.9815
4.5386 -0.3322 -0.9924 0.9815
4.5430 -0.2658 -0.9924 0.9815
4.5464 -0.1994 -0.9924 0.9815
4.5488 -0.1330 -0.9924 0.9815
4.5503 -0.0665 -0.9924 0.9815
4.5507 0.0000 -0.9924 0.9815
4.5502 0.0665 -0.9924 0.9815
4.5488 0.1330 -0.9924 0.9815
4.5464 0.1994 -0.9924 0.9815
4.5197 0.5308 -0.9924 0.9815
4.5023 0.6626 -0.9924 0.9815
4.4922 0.7283 -0.9924 0.9815
4.4811 0.7939 -0.9924 0.9815
4.4560 0.9245 -0.9924 0.9815
4.4421 0.9895 -0.9924 0.9815
4.4272 1.0543 -0.9924 0.9815
4.4113 1.1189 -0.9924 0.9815
4.3945 1.1832 -0.9924 0.9815
4.3768 1.2473 -0.9924 0.9815
4.3581 1.3112 -0.9924 0.9815
4.3386 1.3747 -0.9924 0.9815
4.2743 1.5636 -0.9925 0.9815
4.2268 1.6878 -0.9925 0.9815
4.2017 1.7494 -0.9925 0.9815
4.1758 1.8106 -0.9925 0.9815
4.1212 1.9319 -0.9925 0.9815
4.0327 2.1107 -0.9926 0.9815
4.0015 2.1695 -0.9926 0.9815
3.9365 2.2855 -0.9926 0.9815
3.8681 2.3996 -0.9926 0.9815
3.8327 2.4559 -0.9926 0.9815
3.7965 2.5117 -0.9927 0.9815
3.7594 2.5670 -0.9927 0.9815
3.6435 2.7294 -0.9927 0.9815
3.6033 2.7823 -0.9927 0.9815
3.5205 2.8866 -0.9928 0.9815
3.4348 2.9883 -0.9928 0.9815
3.3909 3.0382 -0.9928 0.9815
3.3462 3.0875 -0.9928 0.9815
3.3008 3.1362 -0.9929 0.9815
3.2546 3.1841 -0.9929 0.9815
3.0633 3.3690 -0.9929 0.9815
2.9637 3.4572 -0.9930 0.9815
2.8615 3.5425 -0.9930 0.9815
2.8095 3.5840 -0.9931 0.9815
2.7037 3.6647 -0.9931 0.9815
2.6499 3.7039 -0.9931 0.9815
2.5956 3.7423 -0.9931 0.9815
2.5407 3.7800 -0.9932 0.9815
2.3728 3.8879 -0.9932 0.9815
2.1418 4.0202 -0.9933 0.9815
2.0829 4.0512 -0.9933 0.9815
2.0235 4.0813 -0.9934 0.9815
1.9637 4.1105 -0.9934 0.9815
1.7204 4.2187 -0.9935 0.9815
1.6586 4.2434 -0.9935 0.9815
1.5340 4.2903 -0.9936 0.9815
1.4712 4.3124 -0.9936 0.9815
1.4081 4.3335 -0.9936 0.9815
1.3446 4.3537 -0.9936 0.9815
1.2809 4.3730 -0.9937 0.9815
1.2169 4.3914 -0.9937 0.9815
0.9584 4.4554 -0.9938 0.9815
0.8932 4.4691 -0.9938 0.9815
0.8279 4.4818 -0.9939 0.9815
0.5647 4.5230 -0.9940 0.9815
0.4323 4.5378 -0.9940 0.9815
0.3660 4.5437 -0.9940 0.9815
