ply
format ascii 1.0
element vertex 1597
property float32 x
property float32 y
property float32 z
property float32 I
end_header
4.5635 -2.0585 -0.9760 0.9798
4.5930 -1.9916 -0.9760 0.9798
4.6539 -1.8584 -0.9770 0.9798
4.7534 -1.8180 -0.9922 0.9795
4.8284 -1.6080 -0.9921 0.9795
4.8941 -1.3948 -0.9921 0.9795
4.9139 -1.3231 -0.9921 0.9795
4.9327 -1.2512 -0.9921 0.9795
4.9670 -1.1065 -0.9921 0.9795
4.9827 -1.0338 -0.9921 0.9795
5.0107 -0.8877 -0.9921 0.9795
5.0231 -0.8144 -0.9921 0.9795
5.0344 -0.7409 -0.9921 0.9795
5.0447 -0.6673 -0.9921 0.9795
5.0539 -0.5935 -0.9921 0.9795
5.0620 -0.5196 -0.9920 0.9795
5.0750 -0.3714 -0.9920 0.9795
5.0837 -0.2230 -0.9920 0.9795
5.0863 -0.1487 -0.9920 0.9795
5.0880 0.0744 -0.9920 0.9795
5.0863 0.1487 -0.9920 0.9795
5.0799 0.2972 -0.9920 0.9795
5.0750 0.3714 -0.9920 0.9795
5.0539 0.5935 -0.9921 0.9795
5.0447 0.6672 -0.9921 0.9795
5.0344 0.7409 -0.9921 0.9795
5.0231 0.8144 -0.9921 0.9795
5.0106 0.8877 -0.9921 0.9795
4.9826 1.0337 -0.9921 0.9795
4.9670 1.1064 -0.9921 0.9795
4.9504 1.1789 -0.9921 0.9795
4.9326 1.2511 -0.9921 0.9795
4.8732 1.4661 -0.9921 0.9795
4.8284 1.6079 -0.9921 0.9795
4.8044 1.6783 -0.9921 0.9795
4.7794 1.7483 -0.9922 0.9795
4.7534 1.8180 -0.9922 0.9795
4.7264 1.8873 -0.9922 0.9795
4.6984 1.9562 -0.9922 0.9795
4.6693 2.0246 -0.9922 0.9795
4.6393 2.0927 -0.9922 0.9795
4.5763 2.2274 -0.9922 0.9795
4.4386 2.4911 -0.9923 0.9795
4.2857 2.7462 -0.9924 0.9795
4.2452 2.8086 -0.9924 0.9795
4.2038 2.8704 -0.9924 0.9795
4.1615 2.9316 -0.9924 0.9795
4.1183 2.9921 -0.9924 0.9795
3.9835 3.1699 -0.9925 0.9795
3.9368 3.2278 -0.9925 0.9795
3.7917 3.3974 -0.9926 0.9795
3.7418 3.4526 -0.9926 0.9795
3.6395 3.5605 -0.9926 0.9795
3.5340 3.6655 -0.9927 0.9795
3.3142 3.8660 -0.9927 0.9795
3.1999 3.9614 -0.9928 0.9795
2.9633 4.1420 -0.9929 0.9795
2.9025 4.1849 -0.9929 0.9795
2.6534 4.3477 -0.9930 0.9795
2.5897 4.3862 -0.9930 0.9795
2.5254 4.4236 -0.9931 0.9795
2.4605 4.4602 -0.9931 0.9795
2.3951 4.4958 -0.9931 0.9795
2.1960 4.5968 -0.9932 0.9795
1.5812 3.5747 -0.7620 0.9842
1.3171 3.3697 -0.7053 0.9854
1.2588 3.3648 -0.7004 0.9855
1.2023 3.3626 -0.6962 0.9856
1.0946 3.3687 -0.6906 0.9857
1.0422 3.3746 -0.6886 0.9857
0.8878 3.3960 -0.6843 0.9858
0.6842 3.4234 -0.6806 0.9859
0.6336 3.4300 -0.6800 0.9859
0.5830 3.4367 -0.6796 0.9859
0.4821 3.4509 -0.6793 0.9859
0.4319 3.4596 -0.6797 0.9859
0.2321 3.5241 -0.6885 0.9857
0.1814 3.5448 -0.6920 0.9856
0.1332 3.6448 -0.7111 0.9852
0.0278 3.8108 -0.7430 0.9846
-0.1117 5.0979 -0.9941 0.9794
-0.1862 5.0959 -0.9941 0.9794
-0.4094 5.0833 -0.9942 0.9794
-0.6318 5.0609 -0.9943 0.9794
-0.7795 5.0405 -0.9944 0.9794
-0.8530 5.0288 -0.9944 0.9794
-0.9330 3.7945 -0.7618 0.9842
-0.9528 3.6445 -0.7344 0.9848
-0.9985 3.6034 -0.7290 0.9849
-1.1840 3.6440 -0.7470 0.9845
-1.3132 3.6729 -0.7605 0.9842
-1.7879 4.7790 -0.9948 0.9794
-1.9269 4.7250 -0.9948 0.9794
-2.0643 4.6670 -0.9949 0.9794
-2.1999 4.6049 -0.9949 0.9794
-2.2670 4.5724 -0.9950 0.9794
-2.3336 4.5389 -0.9950 0.9794
-2.3997 4.5044 -0.9950 0.9794
-2.5950 4.3953 -0.9951 0.9794
-0.3737 0.5388 -0.1278 0.9973
-0.3754 0.5247 -0.1258 0.9974
-0.3771 0.5111 -0.1238 0.9974
-0.3786 0.4978 -0.1219 0.9975
-0.3801 0.4848 -0.1201 0.9975
-0.3815 0.4722 -0.1183 0.9975
-0.3839 0.4479 -0.1150 0.9976
-0.3851 0.4361 -0.1134 0.9976
-0.3861 0.4246 -0.1119 0.9977
-0.3871 0.4134 -0.1104 0.9977
-0.3893 0.3921 -0.1077 0.9978
-0.3910 0.3825 -0.1066 0.9978
-0.3940 0.3635 -0.1045 0.9978
-0.3975 0.3259 -0.1002 0.9979
-0.3995 0.2993 -0.0973 0.9980
-0.4007 0.2823 -0.0955 0.9980
-0.4012 0.2739 -0.0947 0.9980
-0.4031 0.2340 -0.0909 0.9981
-0.4034 0.2264 -0.0902 0.9981
-0.4039 0.2190 -0.0896 0.9981
-0.4051 0.2045 -0.0885 0.9982
-0.4056 0.1973 -0.0879 0.9982
-0.4067 0.1834 -0.0870 0.9982
-0.4079 0.1698 -0.0861 0.9982
-0.4085 0.1631 -0.0858 0.9982
-0.4090 0.1564 -0.0854 0.9982
-0.4103 0.1366 -0.0843 0.9982
-0.4111 0.1172 -0.0833 0.9983
-0.4113 0.1107 -0.0830 0.9983
-0.4117 0.0917 -0.0822 0.9983
-0.4116 0.0791 -0.0817 0.9983
-0.4112 0.0544 -0.0809 0.9983
-0.4101 0.0300 -0.0802 0.9983
-0.4097 0.0239 -0.0800 0.9983
-0.4088 0.0120 -0.0797 0.9983
-0.4084 0.0059 -0.0796 0.9983
-0.3980 -0.0117 -0.0822 0.9984
-0.3985 -0.0175 -0.0824 0.9984
-0.3995 -0.0352 -0.0828 0.9984
-0.4000 -0.0470 -0.0832 0.9984
-0.4002 -0.0530 -0.0834 0.9984
-0.4003 -0.0589 -0.0836 0.9983
-0.4005 -0.0649 -0.0838 0.9983
-0.4005 -0.0893 -0.0847 0.9983
-0.3998 -0.1140 -0.0858 0.9983
-0.3995 -0.1202 -0.0861 0.9983
-0.3991 -0.1329 -0.0869 0.9983
-0.3988 -0.1393 -0.0872 0.9983
-0.3986 -0.1458 -0.0876 0.9983
-0.3979 -0.1589 -0.0885 0.9983
-0.3976 -0.1655 -0.0889 0.9982
-0.3967 -0.1789 -0.0899 0.9982
-0.3962 -0.1857 -0.0904 0.9982
-0.3956 -0.1997 -0.0915 0.9982
-0.3944 -0.2290 -0.0942 0.9981
-0.3940 -0.2366 -0.0949 0.9981
-0.3932 -0.2520 -0.0964 0.9981
-0.3927 -0.2598 -0.0972 0.9981
-0.3922 -0.2678 -0.0981 0.9981
-0.3916 -0.2759 -0.0989 0.9980
-0.3903 -0.2924 -0.1007 0.9980
-0.3896 -0.3008 -0.1016 0.9980
-0.3880 -0.3182 -0.1036 0.9980
-0.3862 -0.3361 -0.1057 0.9979
-0.3778 -0.3918 -0.1124 0.9978
-0.3745 -0.4119 -0.1149 0.9977
-0.3733 -0.4228 -0.1165 0.9977
-0.3720 -0.4341 -0.1180 0.9977
-0.3707 -0.4455 -0.1197 0.9976
-0.3693 -0.4572 -0.1214 0.9976
-0.3609 -0.5204 -0.1308 0.9974
-0.3568 -0.5479 -0.1350 0.9973
-0.3546 -0.5623 -0.1373 0.9973
-0.3659 -0.5996 -0.1450 0.9971
-0.4156 -0.7280 -0.1731 0.9966
-2.3276 -4.2193 -0.9950 0.9805
-2.2657 -4.2528 -0.9950 0.9805
-1.1602 -2.4288 -0.5558 0.9891
-1.0494 -2.3727 -0.5357 0.9895
-0.9975 -2.3473 -0.5266 0.9896
-0.9125 -2.4391 -0.5377 0.9894
-0.8723 -2.4399 -0.5350 0.9895
-0.8011 -2.4655 -0.5353 0.9895
-0.7173 -2.4493 -0.5270 0.9896
-0.5322 -2.1648 -0.4603 0.9909
-0.4666 -2.0252 -0.4291 0.9915
-0.4431 -2.0601 -0.4351 0.9914
-0.3059 -1.9781 -0.4133 0.9919
-0.2628 -1.8811 -0.3922 0.9923
-0.2353 -1.8853 -0.3923 0.9923
-0.1254 -1.9049 -0.3942 0.9922
-0.0977 -1.9105 -0.3950 0.9922
-0.0700 -1.9162 -0.3959 0.9922
-0.0421 -1.9223 -0.3970 0.9922
-0.0140 -1.9287 -0.3983 0.9922
0.0142 -1.9354 -0.3997 0.9921
0.0427 -1.9424 -0.4012 0.9921
0.0713 -1.9497 -0.4029 0.9921
0.1452 -2.2042 -0.4561 0.9910
0.1830 -2.2709 -0.4704 0.9907
0.2877 -2.3038 -0.4794 0.9906
0.4496 -2.4337 -0.5110 0.9899
0.5111 -2.5569 -0.5384 0.9894
1.1489 -4.6729 -0.9936 0.9805
1.3525 -4.6177 -0.9935 0.9805
1.4868 -4.5759 -0.9935 0.9805
1.5535 -4.5536 -0.9934 0.9805
1.6858 -4.5060 -0.9934 0.9805
1.7514 -4.4808 -0.9934 0.9805
1.9459 -4.3994 -0.9933 0.9805
2.0735 -4.3404 -0.9932 0.9805
2.1994 -4.2777 -0.9932 0.9805
2.3233 -4.2115 -0.9931 0.9805
1.7564 -2.8780 -0.6962 0.9863
1.7978 -2.8513 -0.6960 0.9863
1.7078 -2.6228 -0.6463 0.9873
1.8162 -2.7020 -0.6722 0.9868
2.9666 -3.7844 -0.9929 0.9806
3.0286 -3.6393 -0.9776 0.9808
3.2825 -3.4047 -0.9765 0.9809
3.3804 -3.3071 -0.9765 0.9809
3.4283 -3.2573 -0.9765 0.9809
3.4755 -3.2068 -0.9764 0.9809
3.5219 -3.1557 -0.9764 0.9809
3.5676 -3.1038 -0.9764 0.9809
3.6566 -2.9981 -0.9764 0.9809
3.7425 -2.8899 -0.9763 0.9809
3.8653 -2.7230 -0.9763 0.9809
3.9047 -2.6661 -0.9763 0.9809
3.9808 -2.5508 -0.9762 0.9809
4.0176 -2.4923 -0.9762 0.9809
4.0535 -2.4334 -0.9762 0.9809
4.0886 -2.3738 -0.9762 0.9809
4.1885 -2.1923 -0.9762 0.9809
4.3136 -1.9458 -0.9771 0.9809
4.3415 -1.8825 -0.9771 0.9809
4.4629 -1.7822 -0.9923 0.9806
4.6016 -1.3845 -0.9922 0.9806
4.6213 -1.3170 -0.9922 0.9806
4.6745 -1.1132 -0.9922 0.9806
4.6902 -1.0448 -0.9922 0.9806
4.7187 -0.9073 -0.9922 0.9806
4.7314 -0.8382 -0.9922 0.9806
4.7539 -0.6997 -0.9922 0.9806
4.7866 -0.4208 -0.9922 0.9806
4.7922 -0.3508 -0.9922 0.9806
4.8004 -0.2106 -0.9922 0.9806
4.8045 -0.0702 -0.9922 0.9806
4.8050 0.0000 -0.9921 0.9806
4.8029 0.1404 -0.9922 0.9806
4.7968 0.2807 -0.9922 0.9806
4.7922 0.3507 -0.9922 0.9806
4.7799 0.4906 -0.9922 0.9806
4.7636 0.6300 -0.9922 0.9806
4.7539 0.6996 -0.9922 0.9806
4.7315 0.8383 -0.9922 0.9806
4.7050 0.9761 -0.9922 0.9806
4.6745 1.1132 -0.9922 0.9806
4.6578 1.1814 -0.9922 0.9806
4.6401 1.2493 -0.9922 0.9806
4.6213 1.3170 -0.9922 0.9806
4.6016 1.3844 -0.9922 0.9806
4.5809 1.4515 -0.9922 0.9806
4.4630 1.7821 -0.9923 0.9806
4.4365 1.8471 -0.9923 0.9806
4.4091 1.9118 -0.9923 0.9806
4.3212 2.1032 -0.9923 0.9806
4.2580 2.2287 -0.9924 0.9806
4.1912 2.3522 -0.9924 0.9806
4.1564 2.4132 -0.9924 0.9806
4.0843 2.5338 -0.9924 0.9806
4.0469 2.5931 -0.9925 0.9806
3.9695 2.7104 -0.9925 0.9806
3.8888 2.8253 -0.9925 0.9806
3.8471 2.8819 -0.9925 0.9806
3.8046 2.9378 -0.9925 0.9806
3.7614 2.9932 -0.9926 0.9806
3.7173 3.0479 -0.9926 0.9806
3.6724 3.1019 -0.9926 0.9806
3.6268 3.1553 -0.9926 0.9806
3.4853 3.3114 -0.9927 0.9806
3.3871 3.4119 -0.9927 0.9806
3.3370 3.4612 -0.9927 0.9806
3.2861 3.5096 -0.9928 0.9806
3.2346 3.5573 -0.9928 0.9806
3.1823 3.6042 -0.9928 0.9806
3.1294 3.6505 -0.9928 0.9806
2.8549 3.8696 -0.9929 0.9806
2.7981 3.9110 -0.9929 0.9806
2.7407 3.9515 -0.9930 0.9806
2.6242 4.0301 -0.9930 0.9805
2.3845 4.1769 -0.9931 0.9805
2.1993 4.2777 -0.9932 0.9805
2.1366 4.3095 -0.9932 0.9805
1.4735 3.6132 -0.8057 0.9842
1.5450 4.1298 -0.9105 0.9822
1.6198 4.5302 -0.9934 0.9805
1.4198 4.5972 -0.9935 0.9805
1.3525 4.6176 -0.9935 0.9805
1.2849 4.6370 -0.9935 0.9805
1.1490 4.6728 -0.9936 0.9805
1.0120 4.7047 -0.9937 0.9805
0.9432 4.7191 -0.9937 0.9805
0.8741 4.7325 -0.9937 0.9805
0.7355 4.7562 -0.9938 0.9805
0.6660 4.7666 -0.9938 0.9805
0.5264 4.7843 -0.9938 0.9805
0.4565 4.7916 -0.9939 0.9805
0.3864 4.7979 -0.9939 0.9805
0.1945 3.7996 -0.7856 0.9846
0.0279 3.8277 -0.7904 0.9845
-0.1055 4.8133 -0.9941 0.9805
-0.2461 4.8084 -0.9942 0.9805
-0.5267 4.7863 -0.9943 0.9805
-0.5965 4.7783 -0.9943 0.9805
-0.7360 4.7591 -0.9944 0.9805
-0.8054 4.7480 -0.9944 0.9805
-0.9095 3.9464 -0.8362 0.9836
-0.9322 3.7914 -0.8062 0.9842
-0.9523 3.6425 -0.7774 0.9847
-1.0085 3.6391 -0.7797 0.9847
-1.1325 3.6669 -0.7924 0.9844
-1.1962 3.6814 -0.7993 0.9843
-1.2609 3.6961 -0.8064 0.9842
-1.3269 3.7112 -0.8138 0.9840
-1.8193 4.4610 -0.9948 0.9805
-1.9489 4.4062 -0.9948 0.9805
-2.0770 4.3476 -0.9949 0.9805
-2.1403 4.3169 -0.9949 0.9805
-2.2032 4.2852 -0.9949 0.9805
-2.2656 4.2528 -0.9950 0.9805
-0.3660 0.5996 -0.1450 0.9971
-0.3568 0.5479 -0.1350 0.9973
-0.3589 0.5339 -0.1328 0.9974
-0.3609 0.5203 -0.1308 0.9974
-0.3628 0.5070 -0.1287 0.9975
-0.3645 0.4941 -0.1268 0.9975
-0.3721 0.4340 -0.1180 0.9977
-0.3733 0.4228 -0.1165 0.9977
-0.3759 0.4015 -0.1136 0.9978
-0.3796 0.3823 -0.1112 0.9978
-0.3814 0.3731 -0.1102 0.9978
-0.3842 0.3545 -0.1079 0.9979
-0.3862 0.3360 -0.1057 0.9979
-0.3896 0.3008 -0.1016 0.9980
-0.3903 0.2923 -0.1007 0.9980
-0.3910 0.2841 -0.0998 0.9980
-0.3916 0.2759 -0.0989 0.9980
-0.3922 0.2677 -0.0981 0.9981
-0.3927 0.2598 -0.0972 0.9981
-0.3941 0.2366 -0.0949 0.9981
-0.3948 0.2215 -0.0935 0.9982
-0.3954 0.2069 -0.0921 0.9982
-0.3955 0.1997 -0.0915 0.9982
-0.3957 0.1926 -0.0909 0.9982
-0.3962 0.1857 -0.0904 0.9982
-0.3976 0.1655 -0.0889 0.9982
-0.3979 0.1589 -0.0885 0.9983
-0.3982 0.1523 -0.0880 0.9983
-0.3986 0.1458 -0.0876 0.9983
-0.3988 0.1393 -0.0872 0.9983
-0.3991 0.1329 -0.0869 0.9983
-0.4004 0.0953 -0.0850 0.9983
-0.4004 0.0589 -0.0836 0.9983
-0.4000 0.0470 -0.0832 0.9984
-0.3998 0.0410 -0.0830 0.9984
-0.3995 0.0351 -0.0828 0.9984
-0.3985 0.0175 -0.0824 0.9984
-0.3981 0.0116 -0.0822 0.9984
-0.3976 0.0058 -0.0821 0.9984
-0.3900 0.0000 -0.0850 0.9984
-0.3907 -0.0114 -0.0852 0.9984
-0.3910 -0.0171 -0.0853 0.9984
-0.3916 -0.0287 -0.0856 0.9984
-0.3922 -0.0461 -0.0861 0.9984
-0.3923 -0.0519 -0.0863 0.9984
-0.3925 -0.0637 -0.0867 0.9984
-0.3926 -0.0695 -0.0869 0.9984
-0.3926 -0.0815 -0.0874 0.9984
-0.3926 -0.0875 -0.0877 0.9984
-0.3925 -0.0996 -0.0883 0.9983
-0.3923 -0.1057 -0.0886 0.9983
-0.3922 -0.1118 -0.0889 0.9983
-0.3920 -0.1179 -0.0893 0.9983
-0.3916 -0.1304 -0.0900 0.9983
-0.3913 -0.1367 -0.0904 0.9983
-0.3910 -0.1430 -0.0908 0.9983
-0.3903 -0.1559 -0.0916 0.9983
-0.3895 -0.1689 -0.0926 0.9983
-0.3890 -0.1755 -0.0931 0.9983
-0.3885 -0.1821 -0.0936 0.9982
-0.3879 -0.1888 -0.0941 0.9982
-0.3871 -0.2026 -0.0953 0.9982
-0.3868 -0.2097 -0.0959 0.9982
-0.3847 -0.2465 -0.0996 0.9981
-0.3822 -0.2777 -0.1030 0.9981
-0.3798 -0.3023 -0.1059 0.9980
-0.3780 -0.3194 -0.1079 0.9980
-0.3771 -0.3280 -0.1090 0.9980
-0.3760 -0.3370 -0.1101 0.9979
-0.3738 -0.3551 -0.1124 0.9979
-0.3704 -0.3731 -0.1146 0.9979
-0.3684 -0.3821 -0.1157 0.9978
-0.3665 -0.3915 -0.1169 0.9978
-0.3645 -0.4009 -0.1182 0.9978
-0.3624 -0.4105 -0.1194 0.9978
-0.3608 -0.4209 -0.1209 0.9977
-0.3594 -0.4319 -0.1225 0.9977
-0.3579 -0.4430 -0.1242 0.9977
-0.3528 -0.4782 -0.1296 0.9976
-0.3509 -0.4905 -0.1315 0.9975
-0.3489 -0.5030 -0.1335 0.9975
-0.3467 -0.5159 -0.1355 0.9975
-0.3445 -0.5291 -0.1377 0.9974
-0.3422 -0.5427 -0.1399 0.9974
-0.3397 -0.5567 -0.1422 0.9973
-0.3770 -0.6833 -0.1702 0.9968
-2.0861 -4.0576 -0.9949 0.9815
-2.0265 -4.0875 -0.9949 0.9815
-1.1562 -2.6140 -0.6233 0.9884
-1.0405 -2.5515 -0.6009 0.9888
-0.9424 -2.4112 -0.5645 0.9895
-0.8812 -2.3555 -0.5484 0.9898
-0.8676 -2.4268 -0.5620 0.9895
-0.8356 -2.4495 -0.5644 0.9895
-0.5022 -1.9211 -0.4330 0.9919
-0.4729 -1.9235 -0.4319 0.9919
-0.3818 -1.9107 -0.4249 0.9921
-0.3573 -1.9348 -0.4291 0.9920
-0.3288 -1.9389 -0.4289 0.9920
-0.3004 -1.9428 -0.4287 0.9920
-0.2436 -1.9514 -0.4288 0.9920
-0.1868 -1.9611 -0.4296 0.9920
-0.1012 -1.9779 -0.4319 0.9919
0.1342 -2.0368 -0.4451 0.9917
0.1805 -2.2409 -0.4903 0.9908
0.2510 -2.2807 -0.5003 0.9907
0.2807 -2.2480 -0.4940 0.9908
0.3563 -2.5496 -0.5614 0.9895
0.4232 -2.4944 -0.5517 0.9897
0.4559 -2.4677 -0.5472 0.9898
0.5119 -2.5609 -0.5695 0.9894
1.0232 -4.4404 -0.9937 0.9815
1.2807 -4.3725 -0.9936 0.9815
1.3445 -4.3532 -0.9935 0.9815
1.4079 -4.3330 -0.9935 0.9815
1.4710 -4.3119 -0.9935 0.9815
1.5338 -4.2898 -0.9935 0.9815
1.6584 -4.2430 -0.9934 0.9815
1.7816 -4.1925 -0.9934 0.9815
1.8426 -4.1659 -0.9933 0.9815
1.9032 -4.1384 -0.9933 0.9815
1.9634 -4.1101 -0.9933 0.9815
2.1415 -4.0198 -0.9932 0.9815
2.2580 -3.9553 -0.9932 0.9815
1.7325 -2.9344 -0.7431 0.9861
1.7164 -2.6361 -0.6859 0.9872
1.9048 -2.7464 -0.7288 0.9864
2.7661 -3.5287 -0.9777 0.9818
2.8174 -3.4878 -0.9777 0.9818
2.9179 -3.4039 -0.9777 0.9818
2.9673 -3.3608 -0.9776 0.9818
3.0129 -3.3136 -0.9766 0.9818
3.0610 -3.2692 -0.9766 0.9818
3.1551 -3.1782 -0.9766 0.9818
3.2011 -3.1317 -0.9765 0.9818
3.2911 -3.0367 -0.9765 0.9818
3.3351 -2.9883 -0.9765 0.9818
3.3783 -2.9392 -0.9765 0.9818
3.5836 -2.6845 -0.9764 0.9818
3.6224 -2.6318 -0.9764 0.9818
3.6604 -2.5786 -0.9764 0.9818
3.7341 -2.4704 -0.9763 0.9818
3.7697 -2.4155 -0.9763 0.9818
3.8045 -2.3602 -0.9763 0.9818
3.8386 -2.3043 -0.9763 0.9818
3.8717 -2.2480 -0.9763 0.9818
3.9664 -2.0761 -0.9762 0.9818
4.0951 -1.8472 -0.9796 0.9818
4.1753 -1.8105 -0.9924 0.9815
4.2264 -1.6877 -0.9924 0.9815
4.2505 -1.6257 -0.9924 0.9815
4.2738 -1.5634 -0.9924 0.9815
4.2962 -1.5008 -0.9924 0.9815
4.3176 -1.4379 -0.9923 0.9815
4.3381 -1.3746 -0.9923 0.9815
4.3940 -1.1831 -0.9923 0.9815
4.4267 -1.0542 -0.9923 0.9815
4.4416 -0.9894 -0.9923 0.9815
4.4806 -0.7938 -0.9923 0.9815
4.4917 -0.7282 -0.9923 0.9815
4.5019 -0.6626 -0.9923 0.9815
4.5111 -0.5967 -0.9923 0.9815
4.5193 -0.5308 -0.9923 0.9815
4.5328 -0.3984 -0.9923 0.9815
4.5382 -0.3322 -0.9923 0.9815
4.5459 -0.1995 -0.9923 0.9815
4.5498 -0.0665 -0.9923 0.9815
4.5503 0.0000 -0.9923 0.9815
4.5483 0.1330 -0.9923 0.9815
4.5459 0.1994 -0.9923 0.9815
4.5425 0.2658 -0.9923 0.9815
4.5328 0.3984 -0.9923 0.9815
4.5265 0.4646 -0.9923 0.9815
4.5019 0.6625 -0.9923 0.9815
4.4917 0.7282 -0.9923 0.9815
4.4556 0.9244 -0.9923 0.9815
4.4416 0.9894 -0.9923 0.9815
4.4267 1.0542 -0.9923 0.9815
4.4108 1.1187 -0.9923 0.9815
4.3941 1.1831 -0.9923 0.9815
4.3763 1.2472 -0.9923 0.9815
4.3381 1.3746 -0.9923 0.9815
4.3176 1.4378 -0.9923 0.9815
4.2961 1.5007 -0.9924 0.9815
4.2738 1.5634 -0.9924 0.9815
4.2505 1.6257 -0.9924 0.9815
4.1485 1.8712 -0.9924 0.9815
4.1207 1.9317 -0.9924 0.9815
4.0921 1.9917 -0.9924 0.9815
4.0626 2.0513 -0.9924 0.9815
4.0323 2.1105 -0.9925 0.9815
3.9361 2.2853 -0.9925 0.9815
3.9023 2.3426 -0.9925 0.9815
3.8677 2.3994 -0.9925 0.9815
3.8323 2.4557 -0.9925 0.9815
3.7590 2.5666 -0.9926 0.9815
3.6431 2.7291 -0.9926 0.9815
3.5202 2.8862 -0.9927 0.9815
3.4777 2.9374 -0.9927 0.9815
3.4344 2.9880 -0.9927 0.9815
3.3458 3.0871 -0.9927 0.9815
3.0630 3.3686 -0.9928 0.9815
2.9126 3.4998 -0.9929 0.9815
2.7566 3.6243 -0.9930 0.9815
2.4849 3.8163 -0.9931 0.9815
2.3155 3.9218 -0.9931 0.9815
2.2000 3.9879 -0.9932 0.9815
2.0827 4.0507 -0.9932 0.9815
2.0233 4.0808 -0.9933 0.9815
1.9635 4.1100 -0.9933 0.9815
1.6656 3.6217 -0.8693 0.9838
1.6041 3.6266 -0.8647 0.9839
1.5433 3.6316 -0.8605 0.9840
1.4836 3.6380 -0.8568 0.9840
1.4079 4.3330 -0.9935 0.9815
1.1525 4.4083 -0.9936 0.9815
1.0880 4.4248 -0.9936 0.9815
1.0232 4.4403 -0.9937 0.9815
0.9583 4.4549 -0.9937 0.9815
0.7622 4.4930 -0.9938 0.9815
0.6965 4.5037 -0.9938 0.9815
0.6306 4.5136 -0.9938 0.9815
0.3659 4.5432 -0.9939 0.9815
0.2700 4.0999 -0.8960 0.9833
0.0842 3.8438 -0.8384 0.9844
-0.0333 4.5585 -0.9941 0.9815
-0.0999 4.5577 -0.9941 0.9815
-0.1665 4.5558 -0.9941 0.9815
-0.3660 4.5445 -0.9942 0.9815
-0.4324 4.5387 -0.9942 0.9815
-0.4987 4.5321 -0.9943 0.9815
-0.6309 4.5158 -0.9943 0.9815
-0.6969 4.5062 -0.9943 0.9815
-0.7627 4.4957 -0.9944 0.9815
-0.8283 4.4842 -0.9944 0.9815
-0.8937 4.4717 -0.9944 0.9815
-0.9085 3.9426 -0.8823 0.9836
-0.9574 3.6620 -0.8254 0.9846
-1.1441 3.7044 -0.8454 0.9843
-1.2085 3.7193 -0.8528 0.9841
-1.2776 3.7448 -0.8628 0.9839
-1.5357 4.2950 -0.9947 0.9815
-1.5983 4.2722 -0.9947 0.9815
-1.7841 4.1984 -0.9948 0.9815
-1.8453 4.1720 -0.9948 0.9815
-1.9666 4.1165 -0.9948 0.9815
-0.3583 0.6276 -0.1576 0.9970
-0.3397 0.5566 -0.1422 0.9973
-0.3422 0.5427 -0.1399 0.9974
-0.3446 0.5291 -0.1377 0.9974
-0.3528 0.4781 -0.1296 0.9976
-0.3546 0.4661 -0.1277 0.9976
-0.3608 0.4209 -0.1209 0.9977
-0.3684 0.3821 -0.1157 0.9978
-0.3722 0.3641 -0.1136 0.9979
-0.3760 0.3369 -0.1101 0.9979
-0.3780 0.3193 -0.1079 0.9980
-0.3790 0.3107 -0.1069 0.9980
-0.3799 0.3023 -0.1059 0.9980
-0.3807 0.2939 -0.1049 0.9980
-0.3814 0.2857 -0.1039 0.9981
-0.3829 0.2697 -0.1021 0.9981
-0.3847 0.2465 -0.0996 0.9981
-0.3856 0.2315 -0.0981 0.9982
-0.3861 0.2241 -0.0973 0.9982
-0.3868 0.2097 -0.0959 0.9982
-0.3871 0.2026 -0.0953 0.9982
-0.3885 0.1821 -0.0936 0.9982
-0.3890 0.1754 -0.0931 0.9983
-0.3895 0.1689 -0.0926 0.9983
-0.3903 0.1559 -0.0916 0.9983
-0.3910 0.1430 -0.0908 0.9983
-0.3916 0.1304 -0.0900 0.9983
-0.3918 0.1241 -0.0896 0.9983
-0.3920 0.1180 -0.0893 0.9983
-0.3922 0.1118 -0.0889 0.9983
-0.3923 0.1056 -0.0886 0.9983
-0.3926 0.0875 -0.0877 0.9984
-0.3926 0.0814 -0.0874 0.9984
-0.3925 0.0636 -0.0867 0.9984
-0.3921 0.0461 -0.0861 0.9984
-0.3918 0.0344 -0.0858 0.9984
-0.3916 0.0286 -0.0856 0.9984
-0.3910 0.0171 -0.0853 0.9984
-0.3907 0.0114 -0.0852 0.9984
-0.3904 0.0057 -0.0851 0.9984
-0.3832 -0.0000 -0.0880 0.9984
-0.3836 -0.0056 -0.0881 0.9984
-0.3839 -0.0112 -0.0882 0.9984
-0.3842 -0.0169 -0.0883 0.9984
-0.3849 -0.0338 -0.0887 0.9984
-0.3853 -0.0510 -0.0893 0.9984
-0.3855 -0.0625 -0.0897 0.9984
-0.3855 -0.0683 -0.0899 0.9984
-0.3855 -0.0800 -0.0904 0.9984
-0.3854 -0.0918 -0.0910 0.9984
-0.3853 -0.0977 -0.0913 0.9984
-0.3852 -0.1037 -0.0916 0.9984
-0.3848 -0.1158 -0.0923 0.9984
-0.3846 -0.1218 -0.0927 0.9983
-0.3843 -0.1280 -0.0930 0.9983
-0.3833 -0.1466 -0.0943 0.9983
-0.3829 -0.1529 -0.0947 0.9983
-0.3821 -0.1657 -0.0957 0.9983
-0.3816 -0.1721 -0.0961 0.9983
-0.3803 -0.1851 -0.0972 0.9983
-0.3796 -0.1917 -0.0977 0.9983
-0.3792 -0.1985 -0.0983 0.9982
-0.3789 -0.2054 -0.0990 0.9982
-0.3780 -0.2195 -0.1004 0.9982
-0.3758 -0.2487 -0.1035 0.9982
-0.3752 -0.2562 -0.1044 0.9981
-0.3745 -0.2639 -0.1052 0.9981
-0.3738 -0.2716 -0.1061 0.9981
-0.3730 -0.2795 -0.1070 0.9981
-0.3721 -0.2874 -0.1080 0.9981
-0.3713 -0.2955 -0.1090 0.9981
-0.3703 -0.3037 -0.1100 0.9980
-0.3693 -0.3120 -0.1110 0.9980
-0.3672 -0.3290 -0.1132 0.9980
-0.3648 -0.3466 -0.1156 0.9979
-0.3635 -0.3556 -0.1168 0.9979
-0.3616 -0.3642 -0.1179 0.9979
-0.3596 -0.3730 -0.1190 0.9979
-0.3512 -0.4097 -0.1239 0.9978
-0.3489 -0.4193 -0.1253 0.9978
-0.3376 -0.4867 -0.1361 0.9976
-0.3280 -0.5375 -0.1446 0.9974
-0.3253 -0.5511 -0.1470 0.9974
-0.3335 -0.6046 -0.1586 0.9972
-0.3492 -0.6555 -0.1706 0.9970
-0.3673 -0.7145 -0.1845 0.9967
-1.3091 -2.7402 -0.6976 0.9876
-1.2022 -2.7182 -0.6827 0.9879
-1.1504 -2.7073 -0.6757 0.9880
-0.8381 -2.3441 -0.5718 0.9898
-0.7562 -2.2168 -0.5380 0.9904
-0.7141 -2.1979 -0.5308 0.9906
-0.6137 -1.9872 -0.4777 0.9915
-0.5824 -1.9885 -0.4760 0.9915
-0.5207 -1.9920 -0.4730 0.9916
-0.4903 -1.9942 -0.4717 0.9916
-0.4601 -1.9967 -0.4707 0.9916
-0.3584 -1.9409 -0.4534 0.9919
-0.2817 -2.0167 -0.4677 0.9917
-0.2196 -1.9965 -0.4614 0.9918
-0.1886 -1.9802 -0.4569 0.9919
-0.1641 -2.0384 -0.4698 0.9916
-0.0452 -2.0642 -0.4743 0.9916
-0.0151 -2.0716 -0.4759 0.9915
0.0767 -2.0959 -0.4818 0.9914
0.1078 -2.1048 -0.4841 0.9914
0.1711 -2.1239 -0.4895 0.9913
0.2626 -2.3856 -0.5513 0.9902
0.3957 -2.5582 -0.5946 0.9894
0.4293 -2.5302 -0.5895 0.9895
0.4949 -2.4760 -0.5800 0.9897
0.9097 -4.2293 -0.9937 0.9824
0.9714 -4.2155 -0.9937 0.9824
1.2159 -4.1511 -0.9936 0.9824
1.3965 -4.0936 -0.9935 0.9824
1.4562 -4.0726 -0.9935 0.9824
1.5155 -4.0508 -0.9935 0.9824
1.5745 -4.0281 -0.9934 0.9824
1.8069 -3.9290 -0.9933 0.9824
1.8641 -3.9020 -0.9933 0.9824
1.9208 -3.8743 -0.9933 0.9824
1.9772 -3.8457 -0.9933 0.9824
2.0331 -3.8163 -0.9933 0.9824
2.0886 -3.7862 -0.9932 0.9824
2.1437 -3.7551 -0.9932 0.9824
2.1646 -3.6662 -0.9780 0.9827
1.7252 -2.6495 -0.7262 0.9871
1.7235 -2.5641 -0.7097 0.9874
2.0197 -2.6555 -0.7664 0.9864
2.6262 -3.3501 -0.9778 0.9827
2.6748 -3.3113 -0.9778 0.9827
2.8171 -3.1908 -0.9777 0.9827
2.8634 -3.1492 -0.9777 0.9827
2.9061 -3.1038 -0.9767 0.9827
2.9954 -3.0174 -0.9766 0.9827
3.0822 -2.9285 -0.9766 0.9827
3.1664 -2.8371 -0.9766 0.9827
3.2074 -2.7905 -0.9765 0.9827
3.3265 -2.6471 -0.9765 0.9827
3.3647 -2.5982 -0.9765 0.9827
3.4023 -2.5487 -0.9765 0.9827
3.4752 -2.4481 -0.9764 0.9827
3.5106 -2.3970 -0.9764 0.9827
3.5790 -2.2934 -0.9764 0.9827
3.6120 -2.2408 -0.9764 0.9827
3.6444 -2.1878 -0.9764 0.9827
3.7980 -1.9177 -0.9773 0.9827
3.8255 -1.8620 -0.9773 0.9827
3.9036 -1.8299 -0.9903 0.9825
3.9386 -1.7766 -0.9925 0.9824
3.9641 -1.7189 -0.9925 0.9824
3.9888 -1.6608 -0.9925 0.9824
4.0355 -1.5435 -0.9925 0.9824
4.0576 -1.4843 -0.9924 0.9824
4.0992 -1.3652 -0.9924 0.9824
4.1373 -1.2448 -0.9924 0.9824
4.1550 -1.1842 -0.9924 0.9824
4.2028 -1.0009 -0.9924 0.9824
4.2170 -0.9394 -0.9924 0.9824
4.2302 -0.8777 -0.9924 0.9824
4.2426 -0.8158 -0.9924 0.9824
4.2540 -0.7537 -0.9924 0.9824
4.2646 -0.6914 -0.9924 0.9824
4.2742 -0.6291 -0.9924 0.9824
4.2829 -0.5665 -0.9924 0.9824
4.2907 -0.5039 -0.9924 0.9824
4.2976 -0.4411 -0.9924 0.9824
4.3086 -0.3154 -0.9923 0.9824
4.3160 -0.1893 -0.9923 0.9824
4.3183 -0.1262 -0.9923 0.9824
4.3197 -0.0632 -0.9923 0.9824
4.3197 0.0631 -0.9923 0.9824
4.3183 0.1262 -0.9923 0.9824
4.3086 0.3153 -0.9923 0.9824
4.3036 0.3783 -0.9923 0.9824
4.2976 0.4411 -0.9924 0.9824
4.2907 0.5038 -0.9924 0.9824
4.2540 0.7536 -0.9924 0.9824
4.2426 0.8157 -0.9924 0.9824
4.2170 0.9393 -0.9924 0.9824
4.1878 1.0622 -0.9924 0.9824
4.1550 1.1841 -0.9924 0.9824
4.0992 1.3651 -0.9924 0.9824
4.0789 1.4248 -0.9924 0.9824
4.0576 1.4843 -0.9924 0.9824
4.0355 1.5434 -0.9925 0.9824
3.9641 1.7188 -0.9925 0.9824
3.9387 1.7766 -0.9925 0.9824
3.9123 1.8340 -0.9925 0.9824
3.8283 2.0037 -0.9925 0.9824
3.7987 2.0595 -0.9925 0.9824
3.7682 2.1148 -0.9926 0.9824
3.7049 2.2241 -0.9926 0.9824
3.6040 2.3844 -0.9926 0.9824
3.5329 2.4887 -0.9927 0.9824
3.4962 2.5402 -0.9927 0.9824
3.4588 2.5910 -0.9927 0.9824
3.4206 2.6412 -0.9927 0.9824
3.3817 2.6910 -0.9927 0.9824
3.3017 2.7887 -0.9927 0.9824
3.2189 2.8841 -0.9928 0.9824
3.1765 2.9309 -0.9928 0.9824
3.0896 3.0226 -0.9928 0.9824
3.0452 3.0675 -0.9928 0.9824
2.9543 3.1552 -0.9929 0.9824
2.9080 3.1982 -0.9929 0.9824
2.8610 3.2403 -0.9929 0.9824
2.7164 3.3628 -0.9930 0.9824
2.6171 3.4409 -0.9930 0.9824
2.4639 3.5525 -0.9931 0.9824
2.3592 3.6231 -0.9931 0.9824
2.3060 3.6573 -0.9931 0.9824
2.1983 3.7233 -0.9932 0.9824
1.9772 3.8457 -0.9933 0.9824
1.9208 3.8742 -0.9933 0.9824
1.5676 3.6888 -0.9207 0.9837
1.5001 3.8378 -0.9465 0.9832
1.4562 4.0726 -0.9935 0.9824
1.2159 4.1511 -0.9936 0.9824
1.1551 4.1685 -0.9936 0.9824
0.9097 4.2293 -0.9937 0.9824
0.7858 4.2543 -0.9937 0.9824
0.6612 4.2756 -0.9938 0.9824
0.5987 4.2849 -0.9938 0.9824
0.5360 4.2934 -0.9938 0.9824
0.3474 4.3130 -0.9939 0.9824
0.2699 4.0996 -0.9437 0.9833
0.1980 3.8678 -0.8896 0.9842
0.0285 3.9002 -0.8959 0.9841
-0.1581 4.3250 -0.9941 0.9824
-0.2213 4.3223 -0.9941 0.9824
-0.2844 4.3187 -0.9942 0.9824
-0.3475 4.3142 -0.9942 0.9824
-0.4105 4.3088 -0.9942 0.9824
-0.4734 4.3024 -0.9942 0.9824
-0.5362 4.2952 -0.9943 0.9824
-0.7240 4.2678 -0.9943 0.9824
-0.7863 4.2569 -0.9944 0.9824
-1.0418 3.7593 -0.8961 0.9841
-1.1085 3.7843 -0.9058 0.9839
-1.1768 3.8104 -0.9160 0.9838
-1.4579 4.0773 -0.9946 0.9824
-1.5173 4.0557 -0.9947 0.9824
-1.5764 4.0332 -0.9947 0.9824
-1.8095 3.9346 -0.9948 0.9824
-1.8669 3.9078 -0.9948 0.9824
-0.3493 0.6555 -0.1706 0.9970
-0.3335 0.6046 -0.1586 0.9972
-0.3253 0.5510 -0.1470 0.9974
-0.3306 0.5243 -0.1424 0.9975
-0.3330 0.5115 -0.1402 0.9975
-0.3376 0.4867 -0.1361 0.9976
-0.3417 0.4631 -0.1322 0.9976
-0.3554 0.3909 -0.1214 0.9978
-0.3595 0.3729 -0.1190 0.9979
-0.3635 0.3555 -0.1168 0.9979
-0.3648 0.3465 -0.1156 0.9979
-0.3660 0.3377 -0.1144 0.9980
-0.3672 0.3289 -0.1132 0.9980
-0.3683 0.3204 -0.1121 0.9980
-0.3693 0.3119 -0.1110 0.9980
-0.3730 0.2794 -0.1070 0.9981
-0.3738 0.2715 -0.1061 0.9981
-0.3752 0.2561 -0.1044 0.9981
-0.3759 0.2486 -0.1035 0.9982
-0.3785 0.2124 -0.0997 0.9982
-0.3795 0.1916 -0.0977 0.9983
-0.3810 0.1786 -0.0967 0.9983
-0.3820 0.1657 -0.0957 0.9983
-0.3825 0.1593 -0.0952 0.9983
-0.3830 0.1529 -0.0947 0.9983
-0.3833 0.1466 -0.0943 0.9983
-0.3837 0.1404 -0.0938 0.9983
-0.3840 0.1341 -0.0934 0.9983
-0.3843 0.1280 -0.0930 0.9983
-0.3854 0.0918 -0.0910 0.9984
-0.3855 0.0859 -0.0907 0.9984
-0.3855 0.0800 -0.0904 0.9984
-0.3855 0.0741 -0.0902 0.9984
-0.3855 0.0683 -0.0899 0.9984
-0.3855 0.0625 -0.0897 0.9984
-0.3854 0.0509 -0.0893 0.9984
-0.3849 0.0338 -0.0887 0.9984
-0.3842 0.0168 -0.0883 0.9984
-0.3838 0.0112 -0.0882 0.9984
-0.3769 -0.0055 -0.0910 0.9985
-0.3777 -0.0221 -0.0913 0.9984
-0.3780 -0.0277 -0.0915 0.9984
-0.3785 -0.0445 -0.0920 0.9984
-0.3786 -0.0501 -0.0922 0.9984
-0.3787 -0.0557 -0.0924 0.9984
-0.3787 -0.0614 -0.0926 0.9984
-0.3786 -0.0843 -0.0936 0.9984
-0.3785 -0.0901 -0.0939 0.9984
-0.3782 -0.1019 -0.0946 0.9984
-0.3776 -0.1197 -0.0956 0.9984
-0.3770 -0.1317 -0.0964 0.9984
-0.3766 -0.1378 -0.0968 0.9984
-0.3762 -0.1439 -0.0972 0.9983
-0.3749 -0.1626 -0.0986 0.9983
-0.3744 -0.1689 -0.0991 0.9983
-0.3738 -0.1752 -0.0997 0.9983
-0.3730 -0.1816 -0.1002 0.9983
-0.3722 -0.1880 -0.1007 0.9983
-0.3716 -0.1945 -0.1012 0.9983
-0.3712 -0.2013 -0.1019 0.9983
-0.3707 -0.2080 -0.1026 0.9983
-0.3702 -0.2150 -0.1033 0.9982
-0.3697 -0.2220 -0.1041 0.9982
-0.3691 -0.2290 -0.1049 0.9982
-0.3685 -0.2362 -0.1057 0.9982
-0.3679 -0.2434 -0.1065 0.9982
-0.3672 -0.2507 -0.1073 0.9982
-0.3639 -0.2810 -0.1110 0.9981
-0.3620 -0.2968 -0.1130 0.9981
-0.3609 -0.3049 -0.1141 0.9981
-0.3587 -0.3214 -0.1163 0.9980
-0.3575 -0.3298 -0.1174 0.9980
-0.3562 -0.3384 -0.1186 0.9980
-0.3548 -0.3471 -0.1198 0.9980
-0.3531 -0.3557 -0.1210 0.9979
-0.3468 -0.3814 -0.1244 0.9979
-0.3447 -0.3904 -0.1257 0.9979
-0.3377 -0.4181 -0.1297 0.9978
-0.3352 -0.4277 -0.1312 0.9978
-0.3332 -0.4380 -0.1329 0.9977
-0.3270 -0.4714 -0.1385 0.9976
-0.3246 -0.4830 -0.1405 0.9976
-0.3222 -0.4949 -0.1426 0.9976
-0.3197 -0.5071 -0.1447 0.9975
-0.3171 -0.5195 -0.1469 0.9975
-0.3143 -0.5323 -0.1492 0.9975
-0.3114 -0.5454 -0.1516 0.9974
-0.3237 -0.6296 -0.1709 0.9971
-0.3388 -0.6832 -0.1841 0.9969
-1.2402 -2.6967 -0.7165 0.9879
-1.1881 -2.6862 -0.7090 0.9880
-1.1370 -2.6757 -0.7018 0.9881
-0.9431 -2.3127 -0.6029 0.9898
-0.8889 -2.3761 -0.6124 0.9896
-0.8103 -2.2664 -0.5810 0.9901
-0.7555 -2.3255 -0.5903 0.9900
-0.7359 -2.3829 -0.6020 0.9898
-0.7154 -2.4427 -0.6144 0.9896
-0.5408 -2.0687 -0.5162 0.9912
-0.3842 -1.9228 -0.4733 0.9920
-0.3596 -1.9471 -0.4780 0.9919
-0.3345 -1.9720 -0.4828 0.9918
-0.3088 -1.9974 -0.4879 0.9917
-0.2511 -2.0117 -0.4894 0.9917
-0.1655 -2.0559 -0.4979 0.9915
-0.1397 -2.1227 -0.5135 0.9913
-0.0451 -2.0580 -0.4969 0.9916
-0.0153 -2.1013 -0.5073 0.9914
0.0158 -2.1602 -0.5215 0.9912
0.0476 -2.1689 -0.5237 0.9911
0.0845 -2.3086 -0.5577 0.9905
0.1451 -2.2033 -0.5330 0.9910
0.1735 -2.1537 -0.5216 0.9911
0.3024 -2.4219 -0.5892 0.9900
0.7477 -4.0483 -0.9938 0.9832
0.9244 -4.0113 -0.9937 0.9832
0.9829 -3.9973 -0.9937 0.9832
1.0992 -3.9667 -0.9936 0.9832
1.1570 -3.9501 -0.9936 0.9832
1.3289 -3.8953 -0.9935 0.9832
1.3856 -3.8754 -0.9935 0.9832
1.4421 -3.8547 -0.9935 0.9832
1.5540 -3.8107 -0.9934 0.9832
1.7194 -3.7387 -0.9934 0.9832
1.7999 -3.6302 -0.9781 0.9835
1.9051 -3.5759 -0.9781 0.9835
2.1105 -3.4582 -0.9780 0.9835
1.6687 -2.6466 -0.7553 0.9872
1.7589 -2.6168 -0.7611 0.9871
2.3571 -3.2946 -0.9779 0.9835
2.0242 -2.6614 -0.8072 0.9863
2.5910 -3.1134 -0.9778 0.9835
2.6362 -3.0752 -0.9778 0.9835
2.7248 -2.9967 -0.9777 0.9835
2.7683 -2.9566 -0.9777 0.9835
2.8921 -2.8294 -0.9767 0.9835
3.0131 -2.6998 -0.9766 0.9835
3.1284 -2.5651 -0.9766 0.9835
3.2019 -2.4724 -0.9765 0.9835
3.2727 -2.3778 -0.9765 0.9835
3.3070 -2.3297 -0.9765 0.9835
3.4058 -2.1824 -0.9765 0.9835
3.4373 -2.1324 -0.9765 0.9835
3.4980 -2.0310 -0.9764 0.9835
3.5309 -1.9816 -0.9774 0.9835
3.5595 -1.9298 -0.9774 0.9835
3.5872 -1.8776 -0.9774 0.9835
3.6972 -1.7995 -0.9926 0.9832
3.7958 -1.5804 -0.9926 0.9832
3.8185 -1.5248 -0.9925 0.9832
3.8403 -1.4688 -0.9925 0.9832
3.8815 -1.3559 -0.9925 0.9832
3.9009 -1.2991 -0.9925 0.9832
3.9371 -1.1845 -0.9925 0.9832
3.9700 -1.0690 -0.9925 0.9832
3.9852 -1.0109 -0.9925 0.9832
3.9995 -0.9525 -0.9925 0.9832
4.0256 -0.8352 -0.9925 0.9832
4.0373 -0.7763 -0.9925 0.9832
4.0674 -0.5987 -0.9924 0.9832
4.0954 -0.3600 -0.9924 0.9832
4.1002 -0.3001 -0.9924 0.9832
4.1072 -0.1802 -0.9924 0.9832
4.1112 -0.0000 -0.9924 0.9832
4.1107 0.0600 -0.9924 0.9832
4.1094 0.1201 -0.9924 0.9832
4.0832 0.4795 -0.9924 0.9832
4.0674 0.5986 -0.9924 0.9832
4.0583 0.6579 -0.9924 0.9832
4.0482 0.7172 -0.9925 0.9832
4.0373 0.7763 -0.9925 0.9832
4.0256 0.8352 -0.9925 0.9832
3.9995 0.9524 -0.9925 0.9832
3.9852 1.0108 -0.9925 0.9832
3.9371 1.1845 -0.9925 0.9832
3.9194 1.2419 -0.9925 0.9832
3.8815 1.3559 -0.9925 0.9832
3.8403 1.4688 -0.9925 0.9832
3.8185 1.5247 -0.9925 0.9832
3.7958 1.5804 -0.9926 0.9832
3.7481 1.6907 -0.9926 0.9832
3.6971 1.7995 -0.9926 0.9832
3.4624 2.2186 -0.9927 0.9832
3.3962 2.3189 -0.9927 0.9832
3.3620 2.3683 -0.9927 0.9832
3.2551 2.5135 -0.9928 0.9832
3.2180 2.5608 -0.9928 0.9832
3.1803 2.6076 -0.9928 0.9832
3.1029 2.6995 -0.9928 0.9832
3.0631 2.7446 -0.9928 0.9832
3.0228 2.7891 -0.9929 0.9832
2.9818 2.8330 -0.9929 0.9832
2.9401 2.8763 -0.9929 0.9832
2.8549 2.9611 -0.9929 0.9832
2.8113 3.0025 -0.9929 0.9832
2.7673 3.0434 -0.9930 0.9832
2.7225 3.0835 -0.9930 0.9832
2.6772 3.1230 -0.9930 0.9832
2.6314 3.1619 -0.9930 0.9832
2.5379 3.2375 -0.9931 0.9832
2.3938 3.3459 -0.9931 0.9832
2.3446 3.3805 -0.9931 0.9832
2.2951 3.4145 -0.9931 0.9832
2.2450 3.4477 -0.9932 0.9832
2.1434 3.5120 -0.9932 0.9832
2.0919 3.5430 -0.9932 0.9832
2.0399 3.5733 -0.9932 0.9832
1.9875 3.6028 -0.9933 0.9832
1.9347 3.6315 -0.9933 0.9832
1.8815 3.6595 -0.9933 0.9832
1.7738 3.7130 -0.9934 0.9832
1.7194 3.7386 -0.9934 0.9832
1.6095 3.7875 -0.9934 0.9832
1.5540 3.8107 -0.9934 0.9832
1.4982 3.8330 -0.9935 0.9832
1.4421 3.8546 -0.9935 0.9832
1.3856 3.8754 -0.9935 0.9832
1.3289 3.8953 -0.9935 0.9832
0.9244 4.0113 -0.9937 0.9832
0.8657 4.0245 -0.9937 0.9832
0.8068 4.0367 -0.9937 0.9832
0.5696 4.0774 -0.9938 0.9832
0.5101 4.0854 -0.9939 0.9832
0.4503 4.0925 -0.9939 0.9832
0.3904 4.0987 -0.9939 0.9832
0.3305 4.1041 -0.9939 0.9832
0.2700 4.0994 -0.9917 0.9832
0.2024 3.9548 -0.9560 0.9838
0.1451 3.9695 -0.9589 0.9838
0.0873 3.9849 -0.9622 0.9837
-0.0301 4.1178 -0.9941 0.9832
-0.0902 4.1170 -0.9941 0.9832
-0.1504 4.1154 -0.9941 0.9832
-0.3306 4.1051 -0.9942 0.9832
-0.3906 4.1000 -0.9942 0.9832
-0.4505 4.0939 -0.9942 0.9832
-0.5102 4.0871 -0.9943 0.9832
-0.5699 4.0792 -0.9943 0.9832
-0.6295 4.0705 -0.9943 0.9832
-0.6889 4.0610 -0.9943 0.9832
-0.8073 4.0393 -0.9944 0.9832
-0.9250 4.0143 -0.9944 0.9832
-0.9836 4.0004 -0.9944 0.9832
-1.0420 3.9857 -0.9945 0.9832
-1.1001 3.9702 -0.9945 0.9832
-1.1581 3.9537 -0.9945 0.9832
-1.2157 3.9364 -0.9945 0.9832
-1.3303 3.8994 -0.9946 0.9832
-1.3871 3.8797 -0.9946 0.9832
-1.4438 3.8591 -0.9946 0.9832
-1.5000 3.8377 -0.9947 0.9832
-1.5560 3.8154 -0.9947 0.9832
-1.6116 3.7923 -0.9947 0.9832
-1.6668 3.7685 -0.9947 0.9832
-0.3561 0.7454 -0.1994 0.9966
-0.3106 0.5830 -0.1594 0.9973
-0.3083 0.5589 -0.1541 0.9974
-0.3114 0.5454 -0.1516 0.9974
-0.3171 0.5195 -0.1469 0.9975
-0.3197 0.5070 -0.1447 0.9975
-0.3222 0.4949 -0.1426 0.9976
-0.3246 0.4830 -0.1405 0.9976
-0.3291 0.4600 -0.1365 0.9977
-0.3312 0.4489 -0.1347 0.9977
-0.3332 0.4380 -0.1329 0.9977
-0.3401 0.4087 -0.1284 0.9978
-0.3468 0.3814 -0.1244 0.9979
-0.3490 0.3727 -0.1233 0.9979
-0.3511 0.3641 -0.1221 0.9979
-0.3548 0.3471 -0.1198 0.9980
-0.3562 0.3384 -0.1186 0.9980
-0.3587 0.3213 -0.1163 0.9980
-0.3598 0.3130 -0.1151 0.9980
-0.3648 0.2733 -0.1100 0.9981
-0.3656 0.2656 -0.1091 0.9981
-0.3664 0.2581 -0.1082 0.9982
-0.3672 0.2507 -0.1073 0.9982
-0.3679 0.2434 -0.1065 0.9982
-0.3691 0.2290 -0.1049 0.9982
-0.3697 0.2219 -0.1041 0.9982
-0.3707 0.2080 -0.1026 0.9983
-0.3712 0.2013 -0.1019 0.9983
-0.3716 0.1945 -0.1012 0.9983
-0.3754 0.1563 -0.0982 0.9983
-0.3763 0.1439 -0.0972 0.9983
-0.3766 0.1378 -0.0968 0.9984
-0.3770 0.1317 -0.0964 0.9984
-0.3773 0.1256 -0.0960 0.9984
-0.3778 0.1137 -0.0952 0.9984
-0.3781 0.1077 -0.0949 0.9984
-0.3782 0.1018 -0.0946 0.9984
-0.3784 0.0960 -0.0942 0.9984
-0.3785 0.0901 -0.0939 0.9984
-0.3786 0.0843 -0.0936 0.9984
-0.3787 0.0728 -0.0931 0.9984
-0.3787 0.0671 -0.0928 0.9984
-0.3785 0.0445 -0.0920 0.9984
-0.3783 0.0388 -0.0918 0.9984
-0.3782 0.0332 -0.0916 0.9984
-0.3779 0.0277 -0.0915 0.9984
-0.3777 0.0221 -0.0913 0.9984
-0.3775 0.0166 -0.0912 0.9984
-0.3701 -0.0000 -0.0937 0.9985
-0.3704 -0.0055 -0.0938 0.9985
-0.3707 -0.0109 -0.0939 0.9985
-0.3712 -0.0217 -0.0941 0.9985
-0.3715 -0.0272 -0.0943 0.9985
-0.3716 -0.0327 -0.0944 0.9985
-0.3720 -0.0492 -0.0950 0.9985
-0.3721 -0.0548 -0.0952 0.9984
-0.3721 -0.0604 -0.0954 0.9984
-0.3721 -0.0716 -0.0959 0.9984
-0.3720 -0.0829 -0.0965 0.9984
-0.3717 -0.0943 -0.0971 0.9984
-0.3715 -0.1001 -0.0974 0.9984
-0.3713 -0.1059 -0.0977 0.9984
-0.3711 -0.1116 -0.0981 0.9984
-0.3708 -0.1175 -0.0985 0.9984
-0.3701 -0.1293 -0.0993 0.9984
-0.3698 -0.1353 -0.0997 0.9984
-0.3694 -0.1413 -0.1001 0.9984
-0.3685 -0.1534 -0.1010 0.9984
-0.3679 -0.1595 -0.1015 0.9983
-0.3637 -0.1973 -0.1048 0.9983
-0.3615 -0.2243 -0.1077 0.9982
-0.3587 -0.2527 -0.1111 0.9982
-0.3578 -0.2600 -0.1120 0.9982
-0.3560 -0.2749 -0.1139 0.9981
-0.3529 -0.2981 -0.1169 0.9981
-0.3517 -0.3060 -0.1180 0.9981
-0.3505 -0.3141 -0.1191 0.9981
-0.3479 -0.3306 -0.1215 0.9980
-0.3465 -0.3391 -0.1227 0.9980
-0.3450 -0.3475 -0.1240 0.9980
-0.3430 -0.3557 -0.1251 0.9980
-0.3386 -0.3725 -0.1274 0.9979
-0.3364 -0.3810 -0.1287 0.9979
-0.3341 -0.3898 -0.1300 0.9979
-0.3318 -0.3987 -0.1313 0.9979
-0.3293 -0.4077 -0.1327 0.9978
-0.3268 -0.4169 -0.1341 0.9978
-0.3145 -0.4680 -0.1427 0.9977
-0.2946 -0.5529 -0.1586 0.9974
-0.2911 -0.5662 -0.1612 0.9974
-0.3002 -0.6054 -0.1711 0.9972
-0.3267 -0.7103 -0.1979 0.9968
-0.8504 -2.3787 -0.6395 0.9896
-0.6920 -2.3626 -0.6232 0.9899
-0.5242 -2.1321 -0.5558 0.9910
-0.4335 -1.8814 -0.4888 0.9921
-0.4097 -1.9050 -0.4933 0.9920
-0.3855 -1.9289 -0.4980 0.9919
-0.3608 -1.9534 -0.5029 0.9918
-0.2828 -2.0248 -0.5176 0.9916
-0.1688 -2.0959 -0.5323 0.9914
-0.1128 -2.2036 -0.5586 0.9909
-0.0810 -2.2171 -0.5616 0.9909
-0.0152 -2.0842 -0.5277 0.9914
0.0148 -2.0239 -0.5124 0.9917
0.0522 -2.3763 -0.6017 0.9902
0.0870 -2.3778 -0.6024 0.9902
0.1132 -2.2096 -0.5601 0.9909
0.2208 -2.3171 -0.5893 0.9904
0.2658 -2.4149 -0.6150 0.9900
0.3392 -2.4276 -0.6205 0.9899
0.3765 -2.4340 -0.6235 0.9899
0.6565 -3.8703 -0.9938 0.9839
0.7693 -3.8494 -0.9938 0.9839
0.8814 -3.8251 -0.9937 0.9839
0.9928 -3.7975 -0.9937 0.9839
1.0481 -3.7825 -0.9936 0.9839
1.1582 -3.7501 -0.9936 0.9839
1.4068 -3.5991 -0.9783 0.9842
1.4591 -3.5781 -0.9782 0.9842
1.5113 -3.5563 -0.9782 0.9842
1.6145 -3.5105 -0.9782 0.9842
1.7163 -3.4616 -0.9781 0.9842
1.7667 -3.4361 -0.9781 0.9842
1.8166 -3.4099 -0.9781 0.9842
1.9154 -3.3552 -0.9781 0.9842
1.9642 -3.3268 -0.9780 0.9842
1.6780 -2.6614 -0.7965 0.9871
1.8157 -2.7014 -0.8240 0.9867
1.9166 -2.7634 -0.8514 0.9862
2.0287 -2.6673 -0.8484 0.9863
2.4272 -3.0048 -0.9779 0.9842
2.5138 -2.9325 -0.9778 0.9842
2.5564 -2.8954 -0.9778 0.9842
2.8733 -2.5745 -0.9767 0.9842
2.9106 -2.5323 -0.9767 0.9842
2.9833 -2.4460 -0.9766 0.9842
3.0186 -2.4021 -0.9766 0.9842
3.1209 -2.2674 -0.9766 0.9842
3.1536 -2.2216 -0.9766 0.9842
3.2479 -2.0812 -0.9765 0.9842
3.2812 -2.0355 -0.9775 0.9842
3.3671 -1.8898 -0.9775 0.9842
3.4096 -1.8486 -0.9818 0.9841
3.5003 -1.7674 -0.9927 0.9840
3.5503 -1.6644 -0.9926 0.9840
3.6198 -1.5071 -0.9926 0.9840
3.6622 -1.4007 -0.9926 0.9840
3.6822 -1.3470 -0.9926 0.9840
3.7015 -1.2931 -0.9926 0.9840
3.7200 -1.2389 -0.9926 0.9840
3.7376 -1.1843 -0.9926 0.9840
3.7545 -1.1296 -0.9926 0.9840
3.8140 -0.9083 -0.9925 0.9840
3.8268 -0.8525 -0.9925 0.9840
3.8389 -0.7965 -0.9925 0.9840
3.8501 -0.7403 -0.9925 0.9840
3.8605 -0.6839 -0.9925 0.9840
3.8701 -0.6275 -0.9925 0.9840
3.8788 -0.5709 -0.9925 0.9840
3.8867 -0.5141 -0.9925 0.9840
3.9000 -0.4004 -0.9925 0.9840
3.9100 -0.2862 -0.9925 0.9840
3.9167 -0.1718 -0.9925 0.9840
3.9205 0.0000 -0.9925 0.9840
3.9201 0.0573 -0.9925 0.9840
3.9168 0.1718 -0.9925 0.9840
3.9138 0.2290 -0.9925 0.9840
3.8937 0.4572 -0.9925 0.9840
3.8788 0.5708 -0.9925 0.9840
3.8605 0.6839 -0.9925 0.9840
3.8389 0.7964 -0.9925 0.9840
3.8269 0.8524 -0.9925 0.9840
3.8140 0.9083 -0.9925 0.9840
3.8003 0.9639 -0.9925 0.9840
3.7859 1.0194 -0.9926 0.9840
3.7545 1.1295 -0.9926 0.9840
3.7015 1.2930 -0.9926 0.9840
3.6622 1.4007 -0.9926 0.9840
3.6413 1.4540 -0.9926 0.9840
3.6198 1.5071 -0.9926 0.9840
3.5742 1.6122 -0.9926 0.9840
3.5503 1.6643 -0.9926 0.9840
3.5257 1.7161 -0.9927 0.9840
3.3621 2.0183 -0.9927 0.9839
3.3018 2.1157 -0.9927 0.9839
3.2060 2.2584 -0.9928 0.9839
3.1727 2.3051 -0.9928 0.9839
3.1041 2.3969 -0.9928 0.9839
2.9211 2.6173 -0.9929 0.9839
2.7224 2.8237 -0.9930 0.9839
2.6810 2.8632 -0.9930 0.9839
2.5962 2.9405 -0.9930 0.9839
2.5092 3.0151 -0.9931 0.9839
2.4202 3.0873 -0.9931 0.9839
2.2827 3.1906 -0.9932 0.9839
2.2359 3.2236 -0.9932 0.9839
2.1886 3.2561 -0.9932 0.9839
2.0925 3.3187 -0.9932 0.9839
2.0439 3.3490 -0.9932 0.9839
1.9948 3.3786 -0.9933 0.9839
1.7941 3.4896 -0.9933 0.9839
1.6915 3.5407 -0.9934 0.9839
1.5873 3.5887 -0.9934 0.9839
1.5348 3.6116 -0.9934 0.9839
1.3213 3.6954 -0.9935 0.9839
1.2672 3.7145 -0.9936 0.9839
1.1582 3.7500 -0.9936 0.9839
0.9928 3.7974 -0.9937 0.9839
0.8255 3.8376 -0.9937 0.9839
0.7693 3.8493 -0.9938 0.9839
0.7130 3.8602 -0.9938 0.9839
0.6565 3.8703 -0.9938 0.9839
0.6000 3.8796 -0.9938 0.9839
0.5432 3.8880 -0.9938 0.9839
0.4863 3.8956 -0.9939 0.9839
0.4294 3.9024 -0.9939 0.9839
0.3723 3.9084 -0.9939 0.9839
0.3152 3.9134 -0.9939 0.9839
0.2007 3.9212 -0.9940 0.9839
0.1434 3.9238 -0.9940 0.9839
0.0860 3.9255 -0.9940 0.9839
0.0287 3.9265 -0.9940 0.9839
-0.0287 3.9266 -0.9941 0.9839
-0.0861 3.9258 -0.9941 0.9839
-0.1434 3.9242 -0.9941 0.9839
-0.2007 3.9218 -0.9941 0.9839
-0.3153 3.9145 -0.9942 0.9839
-0.4295 3.9037 -0.9942 0.9839
-0.4865 3.8971 -0.9943 0.9839
-0.6002 3.8815 -0.9943 0.9839
-0.6569 3.8723 -0.9943 0.9839
-0.7134 3.8624 -0.9943 0.9839
-0.8260 3.8401 -0.9944 0.9839
-0.8820 3.8277 -0.9944 0.9839
-0.9379 3.8145 -0.9944 0.9839
-1.0490 3.7856 -0.9945 0.9839
-1.1043 3.7700 -0.9945 0.9839
-1.1593 3.7535 -0.9945 0.9839
-1.2685 3.7182 -0.9946 0.9839
-1.3227 3.6994 -0.9946 0.9839
-1.4303 3.6593 -0.9946 0.9839
-1.4836 3.6380 -0.9946 0.9839
-1.5367 3.6161 -0.9947 0.9839
-0.3267 0.7103 -0.1979 0.9968
-0.3125 0.6543 -0.1836 0.9970
-0.3002 0.6054 -0.1711 0.9972
-0.2945 0.5529 -0.1586 0.9974
-0.2978 0.5398 -0.1561 0.9975
-0.3009 0.5271 -0.1537 0.9975
-0.3121 0.4792 -0.1448 0.9976
-0.3146 0.4679 -0.1427 0.9977
-0.3191 0.4461 -0.1389 0.9977
-0.3215 0.4357 -0.1371 0.9978
-0.3242 0.4262 -0.1356 0.9978
-0.3268 0.4169 -0.1341 0.9978
-0.3341 0.3897 -0.1300 0.9979
-0.3363 0.3810 -0.1287 0.9979
-0.3409 0.3640 -0.1262 0.9979
-0.3429 0.3557 -0.1251 0.9980
-0.3450 0.3475 -0.1240 0.9980
-0.3505 0.3141 -0.1191 0.9981
-0.3517 0.3060 -0.1180 0.9981
-0.3529 0.2980 -0.1169 0.9981
-0.3540 0.2902 -0.1159 0.9981
-0.3560 0.2749 -0.1139 0.9981
-0.3570 0.2674 -0.1129 0.9982
-0.3579 0.2599 -0.1120 0.9982
-0.3587 0.2527 -0.1111 0.9982
-0.3602 0.2383 -0.1093 0.9982
-0.3609 0.2313 -0.1085 0.9982
-0.3628 0.2106 -0.1062 0.9983
-0.3633 0.2039 -0.1055 0.9983
-0.3643 0.1906 -0.1041 0.9983
-0.3652 0.1844 -0.1036 0.9983
-0.3674 0.1657 -0.1020 0.9983
-0.3684 0.1534 -0.1010 0.9984
-0.3689 0.1473 -0.1006 0.9984
-0.3694 0.1412 -0.1001 0.9984
-0.3698 0.1352 -0.0997 0.9984
-0.3717 0.0943 -0.0971 0.9984
-0.3719 0.0885 -0.0968 0.9984
-0.3720 0.0772 -0.0962 0.9984
-0.3721 0.0715 -0.0959 0.9984
-0.3721 0.0659 -0.0957 0.9984
-0.3721 0.0547 -0.0952 0.9984
-0.3720 0.0492 -0.0950 0.9985
-0.3718 0.0382 -0.0946 0.9985
-0.3716 0.0326 -0.0944 0.9985
-0.3714 0.0272 -0.0943 0.9985
-0.3710 0.0162 -0.0940 0.9985
-0.3638 0.0000 -0.0964 0.9985
-0.3645 -0.0107 -0.0966 0.9985
-0.3647 -0.0160 -0.0967 0.9985
-0.3649 -0.0214 -0.0969 0.9985
-0.3651 -0.0268 -0.0970 0.9985
-0.3653 -0.0321 -0.0972 0.9985
-0.3654 -0.0375 -0.0973 0.9985
-0.3657 -0.0593 -0.0982 0.9985
-0.3657 -0.0648 -0.0984 0.9985
-0.3657 -0.0704 -0.0987 0.9985
-0.3656 -0.0759 -0.0989 0.9985
-0.3655 -0.0814 -0.0992 0.9985
-0.3654 -0.0870 -0.0995 0.9984
-0.3650 -0.0983 -0.1002 0.9984
-0.3647 -0.1039 -0.1005 0.9984
-0.3642 -0.1154 -0.1012 0.9984
-0.3635 -0.1270 -0.1020 0.9984
-0.3631 -0.1329 -0.1025 0.9984
-0.3617 -0.1507 -0.1038 0.9984
-0.3612 -0.1566 -0.1043 0.9984
-0.3606 -0.1627 -0.1048 0.9984
-0.3600 -0.1688 -0.1054 0.9984
-0.3592 -0.1749 -0.1059 0.9983
-0.3575 -0.1871 -0.1069 0.9983
-0.3566 -0.1934 -0.1075 0.9983
-0.3561 -0.1999 -0.1082 0.9983
-0.3555 -0.2064 -0.1089 0.9983
-0.3549 -0.2130 -0.1097 0.9983
-0.3528 -0.2334 -0.1121 0.9983
-0.3512 -0.2474 -0.1138 0.9982
-0.3494 -0.2618 -0.1157 0.9982
-0.3484 -0.2691 -0.1166 0.9982
-0.3474 -0.2764 -0.1176 0.9982
-0.3463 -0.2839 -0.1187 0.9981
-0.3439 -0.2993 -0.1208 0.9981
-0.3427 -0.3071 -0.1219 0.9981
-0.3400 -0.3230 -0.1243 0.9981
-0.3386 -0.3312 -0.1255 0.9980
-0.3371 -0.3395 -0.1268 0.9980
-0.3352 -0.3477 -0.1280 0.9980
-0.3213 -0.3977 -0.1355 0.9979
-0.3187 -0.4066 -0.1369 0.9979
-0.3134 -0.4248 -0.1399 0.9978
-0.3106 -0.4341 -0.1414 0.9978
-0.3076 -0.4436 -0.1430 0.9978
-0.3050 -0.4537 -0.1449 0.9977
-0.3024 -0.4645 -0.1469 0.9977
-0.2971 -0.4867 -0.1511 0.9976
-0.2879 -0.5220 -0.1580 0.9975
-0.2846 -0.5343 -0.1604 0.9975
-0.2812 -0.5470 -0.1629 0.9975
-0.2776 -0.5598 -0.1656 0.9974
-0.2884 -0.6272 -0.1829 0.9971
-0.3129 -0.7364 -0.2120 0.9967
-0.9599 -2.3539 -0.6736 0.9895
-0.8001 -2.3455 -0.6567 0.9898
-0.7123 -2.3065 -0.6397 0.9901
-0.6528 -2.3561 -0.6478 0.9899
-0.4583 -1.8642 -0.5087 0.9921
-0.4349 -1.8874 -0.5132 0.9920
-0.3620 -1.9598 -0.5281 0.9918
-0.2845 -2.0370 -0.5450 0.9915
-0.2576 -2.0639 -0.5511 0.9914
-0.2014 -2.1146 -0.5629 0.9912
-0.1700 -2.1115 -0.5613 0.9913
-0.1109 -2.1673 -0.5750 0.9911
-0.0827 -2.2654 -0.6007 0.9907
0.1189 -2.3228 -0.6163 0.9904
0.2657 -2.4141 -0.6436 0.9900
0.5644 -3.6497 -0.9786 0.9848
0.6177 -3.6410 -0.9786 0.9848
0.7237 -3.6212 -0.9785 0.9848
0.8817 -3.5858 -0.9785 0.9848
0.9861 -3.5584 -0.9784 0.9848
1.0896 -3.5279 -0.9784 0.9848
1.1921 -3.4944 -0.9783 0.9848
1.2937 -3.4579 -0.9783 0.9848
1.3440 -3.4386 -0.9783 0.9848
1.4438 -3.3977 -0.9782 0.9848
1.5425 -3.3539 -0.9782 0.9848
1.6398 -3.3073 -0.9782 0.9848
1.7356 -3.2579 -0.9781 0.9848
1.8766 -3.1784 -0.9781 0.9848
1.7586 -2.7009 -0.8540 0.9868
1.8295 -2.7219 -0.8690 0.9865
1.9206 -2.7692 -0.8930 0.9862
1.9554 -2.7332 -0.8905 0.9862
1.9957 -2.7051 -0.8908 0.9862
2.2342 -2.9375 -0.9779 0.9848
2.2768 -2.9045 -0.9779 0.9848
2.3606 -2.8366 -0.9779 0.9848
2.4424 -2.7663 -0.9778 0.9848
2.4826 -2.7303 -0.9778 0.9848
2.5997 -2.6187 -0.9778 0.9848
2.6376 -2.5805 -0.9778 0.9848
2.8187 -2.3809 -0.9777 0.9848
2.8532 -2.3394 -0.9777 0.9848
2.9202 -2.2550 -0.9777 0.9848
2.9528 -2.2120 -0.9776 0.9848
2.9848 -2.1686 -0.9776 0.9848
3.0161 -2.1247 -0.9776 0.9848
3.0769 -2.0356 -0.9776 0.9848
3.1063 -1.9905 -0.9776 0.9848
3.1630 -1.8988 -0.9776 0.9848
3.2644 -1.8320 -0.9919 0.9846
3.2936 -1.7857 -0.9928 0.9846
3.3193 -1.7373 -0.9927 0.9846
3.3443 -1.6887 -0.9927 0.9846
3.4150 -1.5405 -0.9927 0.9846
3.4371 -1.4904 -0.9927 0.9846
3.4990 -1.3383 -0.9927 0.9846
3.5181 -1.2870 -0.9927 0.9846
3.5872 -1.0793 -0.9926 0.9846
3.6026 -1.0267 -0.9926 0.9846
3.6310 -0.9210 -0.9926 0.9846
3.6563 -0.8145 -0.9926 0.9846
3.6678 -0.7610 -0.9926 0.9846
3.7135 -0.4912 -0.9926 0.9846
3.7262 -0.3825 -0.9926 0.9846
3.7314 -0.3280 -0.9926 0.9846
3.7358 -0.2734 -0.9926 0.9846
3.7454 -0.0547 -0.9926 0.9846
3.7458 0.0000 -0.9926 0.9846
3.7454 0.0547 -0.9926 0.9846
3.7442 0.1095 -0.9926 0.9846
3.7422 0.1641 -0.9926 0.9846
3.7263 0.3824 -0.9926 0.9846
3.7059 0.5454 -0.9926 0.9846
3.6440 0.8678 -0.9926 0.9846
3.6310 0.9209 -0.9926 0.9846
3.6026 1.0267 -0.9926 0.9846
3.5872 1.0792 -0.9926 0.9846
3.5711 1.1315 -0.9926 0.9846
3.5542 1.1836 -0.9926 0.9846
3.5365 1.2354 -0.9927 0.9846
3.4791 1.3892 -0.9927 0.9846
3.3921 1.5901 -0.9927 0.9846
3.3685 1.6395 -0.9927 0.9846
3.3443 1.6886 -0.9927 0.9846
3.2671 1.8336 -0.9928 0.9846
3.1837 1.9751 -0.9928 0.9846
3.1546 2.0214 -0.9928 0.9846
3.1247 2.0673 -0.9928 0.9846
3.0943 2.1128 -0.9928 0.9846
3.0631 2.1578 -0.9928 0.9846
3.0313 2.2024 -0.9929 0.9846
2.9988 2.2464 -0.9929 0.9846
2.9320 2.3331 -0.9929 0.9846
2.6787 2.6206 -0.9930 0.9846
2.6402 2.6595 -0.9930 0.9846
2.6011 2.6978 -0.9930 0.9846
2.5212 2.7727 -0.9931 0.9846
2.4805 2.8093 -0.9931 0.9846
2.4392 2.8454 -0.9931 0.9846
2.3974 2.8807 -0.9931 0.9846
2.3123 2.9497 -0.9931 0.9846
2.2252 3.0161 -0.9932 0.9846
2.1809 3.0483 -0.9932 0.9846
2.0453 3.1411 -0.9932 0.9846
1.9527 3.1996 -0.9933 0.9846
1.8107 3.2823 -0.9933 0.9846
1.5664 3.4061 -0.9934 0.9846
1.4663 3.4505 -0.9935 0.9846
1.4158 3.4717 -0.9935 0.9846
1.2107 3.5487 -0.9936 0.9846
1.1587 3.5661 -0.9936 0.9846
1.0014 3.6137 -0.9937 0.9846
0.9485 3.6280 -0.9937 0.9846
0.7350 3.6776 -0.9938 0.9846
0.6812 3.6880 -0.9938 0.9846
0.6272 3.6976 -0.9938 0.9846
0.5189 3.7145 -0.9939 0.9846
0.4102 3.7283 -0.9939 0.9846
0.3557 3.7339 -0.9939 0.9846
0.3011 3.7388 -0.9939 0.9846
0.1370 3.7487 -0.9940 0.9846
0.0822 3.7504 -0.9940 0.9846
0.0274 3.7513 -0.9940 0.9846
-0.1918 3.7468 -0.9941 0.9846
-0.2465 3.7437 -0.9942 0.9846
-0.4104 3.7295 -0.9942 0.9846
-0.6276 3.6995 -0.9943 0.9846
-0.7891 3.6687 -0.9944 0.9846
-0.9492 3.6308 -0.9944 0.9846
-1.1075 3.5859 -0.9945 0.9846
-1.3152 3.5154 -0.9946 0.9846
-1.3664 3.4959 -0.9946 0.9846
-1.4174 3.4756 -0.9946 0.9846
-0.2999 0.6780 -0.1964 0.9969
-0.2884 0.6271 -0.1829 0.9971
-0.2783 0.5826 -0.1711 0.9973
-0.2846 0.5343 -0.1604 0.9975
-0.2879 0.5220 -0.1580 0.9975
-0.2941 0.4982 -0.1533 0.9976
-0.2998 0.4755 -0.1490 0.9977
-0.3024 0.4645 -0.1469 0.9977
-0.3050 0.4537 -0.1449 0.9977
-0.3105 0.4341 -0.1414 0.9978
-0.3161 0.4156 -0.1384 0.9978
-0.3187 0.4066 -0.1369 0.9979
-0.3213 0.3977 -0.1355 0.9979
-0.3237 0.3890 -0.1341 0.9979
-0.3308 0.3638 -0.1303 0.9980
-0.3352 0.3476 -0.1280 0.9980
-0.3370 0.3395 -0.1268 0.9980
-0.3414 0.3150 -0.1231 0.9981
-0.3427 0.3070 -0.1219 0.9981
-0.3440 0.2992 -0.1208 0.9981
-0.3452 0.2915 -0.1197 0.9981
-0.3463 0.2839 -0.1187 0.9981
-0.3484 0.2691 -0.1166 0.9982
-0.3512 0.2474 -0.1138 0.9982
-0.3521 0.2403 -0.1130 0.9982
-0.3528 0.2334 -0.1121 0.9983
-0.3535 0.2266 -0.1113 0.9983
-0.3549 0.2130 -0.1097 0.9983
-0.3555 0.2064 -0.1089 0.9983
-0.3575 0.1871 -0.1069 0.9983
-0.3592 0.1748 -0.1059 0.9983
-0.3600 0.1687 -0.1054 0.9984
-0.3612 0.1566 -0.1043 0.9984
-0.3627 0.1387 -0.1029 0.9984
-0.3635 0.1270 -0.1020 0.9984
-0.3642 0.1154 -0.1012 0.9984
-0.3645 0.1097 -0.1009 0.9984
-0.3648 0.1039 -0.1005 0.9984
-0.3650 0.0983 -0.1002 0.9984
-0.3652 0.0926 -0.0998 0.9984
-0.3656 0.0758 -0.0989 0.9985
-0.3657 0.0648 -0.0984 0.9985
