ply
format ascii 1.0
element vertex 1594
property float32 x
property float32 y
property float32 z
property float32 I
end_header
-0.4241 0.3081 -0.0902 0.9979
-0.4260 0.2909 -0.0887 0.9979
-0.4284 0.2658 -0.0867 0.9980
-0.4291 0.2576 -0.0861 0.9980
-0.4297 0.2495 -0.0855 0.9980
-0.4321 0.2103 -0.0827 0.9981
-0.4324 0.2027 -0.0822 0.9981
-0.4327 0.1952 -0.0817 0.9981
-0.4340 0.1660 -0.0799 0.9981
-0.4350 0.1449 -0.0789 0.9981
-0.4356 0.1242 -0.0779 0.9982
-0.4358 0.1038 -0.0771 0.9982
-0.4358 0.0971 -0.0768 0.9982
-0.4358 0.0904 -0.0766 0.9982
-0.4357 0.0838 -0.0763 0.9982
-0.4356 0.0771 -0.0761 0.9982
-0.4352 0.0640 -0.0757 0.9982
-0.4349 0.0575 -0.0755 0.9982
-0.4339 0.0381 -0.0749 0.9982
-0.4331 0.0253 -0.0746 0.9982
-0.4196 -0.0061 -0.0770 0.9983
-0.4202 -0.0123 -0.0771 0.9983
-0.4211 -0.0246 -0.0774 0.9983
-0.4215 -0.0308 -0.0775 0.9983
-0.4219 -0.0371 -0.0777 0.9983
-0.4222 -0.0433 -0.0779 0.9983
-0.4228 -0.0559 -0.0782 0.9983
-0.4231 -0.0686 -0.0786 0.9983
-0.4233 -0.0750 -0.0789 0.9983
-0.4234 -0.0814 -0.0791 0.9982
-0.4234 -0.0879 -0.0793 0.9982
-0.4234 -0.1008 -0.0799 0.9982
-0.4233 -0.1074 -0.0801 0.9982
-0.4232 -0.1139 -0.0804 0.9982
-0.4228 -0.1272 -0.0810 0.9982
-0.4223 -0.1406 -0.0817 0.9982
-0.4220 -0.1474 -0.0820 0.9982
-0.4207 -0.1680 -0.0831 0.9982
-0.4202 -0.1749 -0.0835 0.9982
-0.4197 -0.1820 -0.0839 0.9981
-0.4192 -0.1891 -0.0844 0.9981
-0.4184 -0.2037 -0.0854 0.9981
-0.4180 -0.2111 -0.0859 0.9981
-0.4175 -0.2186 -0.0865 0.9981
-0.4164 -0.2337 -0.0876 0.9981
-0.4157 -0.2414 -0.0882 0.9980
-0.4150 -0.2491 -0.0888 0.9980
-0.4142 -0.2570 -0.0894 0.9980
-0.4134 -0.2649 -0.0901 0.9980
-0.4116 -0.2810 -0.0914 0.9980
-0.4106 -0.2892 -0.0921 0.9980
-0.4096 -0.2976 -0.0929 0.9979
-0.4092 -0.3065 -0.0938 0.9979
-0.4086 -0.3155 -0.0947 0.9979
-0.4066 -0.3434 -0.0977 0.9978
-0.4058 -0.3531 -0.0987 0.9978
-0.4042 -0.3729 -0.1009 0.9978
-0.4027 -0.3826 -0.1019 0.9977
-0.4014 -0.3927 -0.1030 0.9977
-0.4008 -0.4037 -0.1044 0.9977
-0.4000 -0.4150 -0.1058 0.9977
-0.3965 -0.4626 -0.1118 0.9975
-0.3904 -0.5292 -0.1207 0.9973
-0.3874 -0.5586 -0.1247 0.9972
-0.3971 -0.5907 -0.1306 0.9971
-0.4219 -0.6479 -0.1419 0.9969
-0.4679 -0.7421 -0.1610 0.9964
-1.2251 -2.1460 -0.4534 0.9900
-1.2027 -2.1802 -0.4568 0.9899
-1.0117 -2.2875 -0.4589 0.9899
-0.9801 -2.3064 -0.4598 0.9899
-0.9484 -2.3255 -0.4608 0.9898
-0.9166 -2.3451 -0.4620 0.9898
-0.8848 -2.3650 -0.4633 0.9898
-0.7886 -2.4271 -0.4682 0.9897
-0.8162 -2.6432 -0.5076 0.9888
-0.7606 -2.9095 -0.5518 0.9878
-0.7112 -2.8925 -0.5465 0.9880
-0.6627 -2.8760 -0.5415 0.9881
-0.6424 -2.9868 -0.5605 0.9877
-1.0623 -5.3150 -0.9945 0.9782
-0.9065 -5.3435 -0.9944 0.9782
-0.8282 -5.3560 -0.9944 0.9782
-0.7499 -5.3674 -0.9944 0.9782
-0.5927 -5.3867 -0.9943 0.9782
-0.5139 -5.3946 -0.9943 0.9782
-0.4350 -5.4013 -0.9942 0.9782
-0.2770 -5.4114 -0.9942 0.9782
-0.1187 -5.4168 -0.9941 0.9782
-0.0396 -5.4178 -0.9941 0.9782
0.0396 -5.4177 -0.9940 0.9782
0.1187 -5.4163 -0.9940 0.9782
0.1979 -5.4138 -0.9940 0.9782
0.2769 -5.4102 -0.9939 0.9782
0.3560 -5.4054 -0.9939 0.9782
0.8277 -5.3525 -0.9937 0.9782
0.9058 -5.3396 -0.9937 0.9782
0.5570 -2.7867 -0.5214 0.9885
0.6752 -2.7459 -0.5188 0.9886
0.8705 -2.6790 -0.5168 0.9886
0.9522 -2.5450 -0.4986 0.9890
1.0180 -2.6044 -0.5131 0.9887
1.0845 -2.6592 -0.5269 0.9884
1.0633 -2.5019 -0.4988 0.9890
1.1012 -2.4894 -0.4994 0.9890
1.1693 -2.5424 -0.5134 0.9887
1.2383 -2.5920 -0.5270 0.9884
1.2422 -2.5055 -0.5131 0.9887
1.2751 -2.3935 -0.4976 0.9890
1.3366 -2.3413 -0.4946 0.9891
1.3576 -2.2994 -0.4899 0.9892
1.4701 -2.2577 -0.4943 0.9891
1.3736 -2.0436 -0.4518 0.9900
1.3725 -1.9183 -0.4328 0.9905
1.4385 -1.9497 -0.4446 0.9902
1.5829 -2.0191 -0.4707 0.9896
1.6528 -2.0460 -0.4826 0.9894
1.6628 -1.9980 -0.4769 0.9895
1.8576 -2.1039 -0.5149 0.9887
1.8819 -2.0696 -0.5132 0.9887
1.9061 -2.0356 -0.5117 0.9887
3.8112 -3.8391 -0.9925 0.9782
3.8668 -3.7829 -0.9925 0.9782
3.8614 -3.6688 -0.9773 0.9786
3.9668 -3.5543 -0.9772 0.9786
4.0182 -3.4958 -0.9772 0.9786
4.0688 -3.4367 -0.9772 0.9786
4.1673 -3.3162 -0.9772 0.9786
3.7666 -2.8215 -0.8635 0.9810
3.8618 -2.7204 -0.8667 0.9810
3.9235 -2.6790 -0.8717 0.9809
4.4412 -2.9382 -0.9770 0.9786
4.4836 -2.8730 -0.9770 0.9786
4.5250 -2.8071 -0.9770 0.9786
4.6434 -2.6061 -0.9770 0.9786
4.7174 -2.4691 -0.9769 0.9786
4.7530 -2.3999 -0.9769 0.9786
4.9151 -2.0464 -0.9769 0.9786
5.0409 -1.8439 -0.9848 0.9784
5.1043 -1.7831 -0.9920 0.9783
5.1298 -1.7083 -0.9920 0.9783
5.1541 -1.6332 -0.9920 0.9783
5.1996 -1.4818 -0.9920 0.9783
5.2206 -1.4057 -0.9920 0.9783
5.2405 -1.3292 -0.9920 0.9783
5.2771 -1.1755 -0.9920 0.9783
5.3091 -1.0208 -0.9919 0.9783
5.3234 -0.9431 -0.9919 0.9783
5.3486 -0.7871 -0.9919 0.9783
5.3693 -0.6305 -0.9919 0.9783
5.3854 -0.4734 -0.9919 0.9783
5.3969 -0.3158 -0.9919 0.9783
5.4010 -0.2369 -0.9919 0.9783
5.4038 -0.1579 -0.9919 0.9783
5.4055 -0.0790 -0.9919 0.9783
5.4061 -0.0000 -0.9919 0.9783
5.4038 0.1580 -0.9919 0.9783
5.4009 0.2369 -0.9919 0.9783
5.3969 0.3158 -0.9919 0.9783
5.3854 0.4734 -0.9919 0.9783
5.3693 0.6305 -0.9919 0.9783
5.3596 0.7089 -0.9919 0.9783
5.3486 0.7871 -0.9919 0.9783
5.3091 1.0208 -0.9919 0.9783
5.2936 1.0983 -0.9919 0.9783
5.2771 1.1755 -0.9920 0.9783
5.2593 1.2525 -0.9920 0.9783
5.2405 1.3293 -0.9920 0.9783
5.1541 1.6331 -0.9920 0.9783
5.1043 1.7831 -0.9920 0.9783
4.9916 2.0783 -0.9921 0.9783
4.8960 2.2951 -0.9921 0.9783
4.7909 2.5076 -0.9921 0.9782
4.6766 2.7152 -0.9922 0.9782
4.6365 2.7834 -0.9922 0.9782
4.5954 2.8508 -0.9922 0.9782
4.5103 2.9840 -0.9923 0.9782
4.4213 3.1146 -0.9923 0.9782
4.3754 3.1789 -0.9923 0.9782
4.2809 3.3056 -0.9923 0.9782
4.1826 3.4294 -0.9924 0.9782
4.1321 3.4902 -0.9924 0.9782
4.0286 3.6096 -0.9924 0.9782
3.9755 3.6682 -0.9925 0.9782
3.9215 3.7259 -0.9925 0.9782
3.8667 3.7829 -0.9925 0.9782
3.8111 3.8391 -0.9925 0.9782
3.3819 3.7194 -0.9223 0.9798
3.4026 3.8539 -0.9433 0.9793
3.4243 3.9946 -0.9654 0.9788
3.4608 4.1586 -0.9927 0.9782
3.3998 4.2089 -0.9927 0.9782
3.3380 4.2582 -0.9927 0.9782
3.2755 4.3066 -0.9927 0.9782
3.1485 4.4007 -0.9928 0.9782
3.0187 4.4911 -0.9929 0.9782
2.9528 4.5348 -0.9929 0.9782
2.0993 3.8055 -0.7974 0.9825
2.0316 3.8135 -0.7928 0.9826
1.9648 3.8215 -0.7884 0.9827
1.8987 3.8295 -0.7843 0.9828
2.1172 4.9821 -0.9932 0.9782
1.9708 5.0421 -0.9933 0.9782
1.8970 5.0705 -0.9933 0.9782
1.6731 5.1492 -0.9934 0.9782
1.5977 5.1733 -0.9934 0.9782
1.5220 5.1962 -0.9934 0.9782
1.4460 5.2181 -0.9935 0.9782
0.6384 2.7705 -0.5217 0.9885
0.5150 2.7883 -0.5202 0.9885
0.4330 2.8003 -0.5199 0.9885
0.3921 2.8064 -0.5199 0.9885
0.3511 2.8124 -0.5200 0.9885
0.3101 2.8186 -0.5203 0.9885
0.1042 2.8501 -0.5233 0.9885
0.0209 2.8630 -0.5253 0.9884
-0.0210 2.8696 -0.5265 0.9884
-0.1479 2.8900 -0.5309 0.9883
-0.1908 2.8968 -0.5327 0.9883
-0.4098 2.9329 -0.5434 0.9880
-0.5927 2.9656 -0.5549 0.9878
-0.6398 2.9743 -0.5582 0.9877
-1.2172 5.2821 -0.9945 0.9782
-1.1032 4.4868 -0.8477 0.9814
-1.1752 4.0122 -0.7671 0.9831
-2.1207 4.9905 -0.9949 0.9782
-2.1935 4.9592 -0.9949 0.9782
-2.2658 4.9268 -0.9950 0.9782
-2.4089 4.8587 -0.9950 0.9782
-2.6197 4.7489 -0.9951 0.9782
-0.4679 0.7421 -0.1610 0.9964
-0.4218 0.6479 -0.1418 0.9969
-0.3970 0.5907 -0.1306 0.9971
-0.3918 0.5152 -0.1188 0.9974
-0.3975 0.4502 -0.1102 0.9976
-0.3984 0.4382 -0.1087 0.9976
-0.4008 0.4037 -0.1044 0.9977
-0.4050 0.3629 -0.0998 0.9978
-0.4080 0.3246 -0.0957 0.9979
-0.4086 0.3155 -0.0947 0.9979
-0.4091 0.3065 -0.0938 0.9979
-0.4106 0.2892 -0.0921 0.9980
-0.4116 0.2810 -0.0914 0.9980
-0.4125 0.2729 -0.0908 0.9980
-0.4134 0.2649 -0.0901 0.9980
-0.4150 0.2491 -0.0888 0.9980
-0.4157 0.2414 -0.0882 0.9980
-0.4184 0.2036 -0.0854 0.9981
-0.4188 0.1963 -0.0849 0.9981
-0.4197 0.1820 -0.0839 0.9981
-0.4202 0.1750 -0.0835 0.9982
-0.4207 0.1680 -0.0831 0.9982
-0.4212 0.1611 -0.0827 0.9982
-0.4226 0.1339 -0.0813 0.9982
-0.4234 0.1008 -0.0799 0.9982
-0.4234 0.0943 -0.0796 0.9982
-0.4233 0.0814 -0.0791 0.9982
-0.4233 0.0750 -0.0789 0.9983
-0.4230 0.0623 -0.0784 0.9983
-0.4225 0.0496 -0.0781 0.9983
-0.4222 0.0433 -0.0779 0.9983
-0.4219 0.0371 -0.0777 0.9983
-0.4215 0.0309 -0.0775 0.9983
-0.4211 0.0246 -0.0774 0.9983
-0.4206 0.0185 -0.0773 0.9983
-0.4078 0.0000 -0.0795 0.9983
-0.4083 -0.0060 -0.0796 0.9983
-0.4093 -0.0179 -0.0799 0.9983
-0.4101 -0.0300 -0.0802 0.9983
-0.4110 -0.0482 -0.0807 0.9983
-0.4112 -0.0544 -0.0809 0.9983
-0.4113 -0.0605 -0.0811 0.9983
-0.4115 -0.0667 -0.0813 0.9983
-0.4117 -0.0791 -0.0817 0.9983
-0.4117 -0.0854 -0.0820 0.9983
-0.4116 -0.0980 -0.0825 0.9983
-0.4115 -0.1044 -0.0828 0.9983
-0.4109 -0.1236 -0.0836 0.9983
-0.4099 -0.1432 -0.0846 0.9982
-0.4095 -0.1498 -0.0850 0.9982
-0.4073 -0.1766 -0.0866 0.9982
-0.4060 -0.1903 -0.0874 0.9982
-0.4056 -0.1974 -0.0879 0.9982
-0.4045 -0.2117 -0.0890 0.9981
-0.4039 -0.2190 -0.0896 0.9981
-0.4034 -0.2264 -0.0902 0.9981
-0.4031 -0.2340 -0.0909 0.9981
-0.4028 -0.2418 -0.0916 0.9981
-0.4024 -0.2496 -0.0923 0.9981
-0.4007 -0.2822 -0.0955 0.9980
-0.4001 -0.2907 -0.0964 0.9980
-0.3982 -0.3169 -0.0992 0.9979
-0.3975 -0.3259 -0.1002 0.9979
-0.3958 -0.3443 -0.1023 0.9979
-0.3940 -0.3635 -0.1045 0.9978
-0.3927 -0.3730 -0.1056 0.9978
-0.3893 -0.3922 -0.1077 0.9978
-0.3880 -0.4025 -0.1090 0.9977
-0.3814 -0.4722 -0.1183 0.9975
-0.3801 -0.4849 -0.1201 0.9975
-0.3754 -0.5248 -0.1258 0.9974
-0.3737 -0.5388 -0.1278 0.9973
-0.3718 -0.5532 -0.1299 0.9973
-1.2289 -2.1527 -0.4832 0.9899
-1.2097 -2.1929 -0.4882 0.9898
-1.1900 -2.2338 -0.4934 0.9897
-1.1700 -2.2757 -0.4989 0.9896
-1.0774 -2.3427 -0.5027 0.9895
-1.0122 -2.2886 -0.4879 0.9899
-0.9966 -2.3453 -0.4968 0.9897
-0.9794 -2.4017 -0.5057 0.9895
-0.8810 -2.4641 -0.5102 0.9894
-0.8704 -2.5514 -0.5256 0.9891
-0.8442 -2.7337 -0.5578 0.9884
-0.7990 -2.7279 -0.5541 0.9885
-0.7714 -2.9509 -0.5946 0.9876
-0.7212 -2.9332 -0.5889 0.9878
-0.9997 -5.0020 -0.9945 0.9794
-0.8531 -5.0288 -0.9944 0.9794
-0.7795 -5.0405 -0.9944 0.9794
-0.4094 -5.0833 -0.9942 0.9794
-0.3351 -5.0886 -0.9942 0.9794
-0.1863 -5.0959 -0.9941 0.9794
-0.0373 -5.0989 -0.9941 0.9794
0.0373 -5.0987 -0.9940 0.9794
0.1118 -5.0974 -0.9940 0.9794
0.1862 -5.0951 -0.9940 0.9794
0.3350 -5.0871 -0.9939 0.9794
0.4835 -5.0750 -0.9939 0.9794
0.6315 -5.0583 -0.9938 0.9794
0.7053 -5.0484 -0.9938 0.9794
0.7790 -5.0374 -0.9937 0.9794
0.8525 -5.0254 -0.9937 0.9794
0.5985 -2.7820 -0.5548 0.9885
0.6380 -2.7683 -0.5538 0.9885
0.6774 -2.7547 -0.5530 0.9885
0.7167 -2.7412 -0.5524 0.9885
0.7951 -2.7143 -0.5514 0.9885
0.8733 -2.6876 -0.5509 0.9885
0.9124 -2.6743 -0.5509 0.9886
0.9375 -2.6218 -0.5428 0.9887
0.9553 -2.5535 -0.5315 0.9890
0.9760 -2.4968 -0.5226 0.9891
0.9959 -2.4421 -0.5142 0.9893
1.0153 -2.3890 -0.5061 0.9895
1.1310 -2.4591 -0.5277 0.9890
1.2309 -2.3941 -0.5248 0.9891
1.2954 -2.3484 -0.5229 0.9891
1.3921 -2.2078 -0.5088 0.9894
1.2585 -1.9326 -0.4496 0.9906
1.3192 -1.9625 -0.4610 0.9904
1.3833 -1.9944 -0.4732 0.9902
1.5234 -2.0648 -0.5002 0.9896
1.4801 -1.8880 -0.4677 0.9903
1.9034 -2.0932 -0.5516 0.9885
3.4268 -3.6599 -0.9774 0.9798
3.4798 -3.6093 -0.9774 0.9798
3.5836 -3.5059 -0.9774 0.9798
3.6344 -3.4531 -0.9774 0.9798
3.6844 -3.3996 -0.9773 0.9798
3.7336 -3.3453 -0.9773 0.9798
3.7821 -3.2904 -0.9773 0.9798
3.8296 -3.2347 -0.9773 0.9798
3.8764 -3.1783 -0.9773 0.9798
3.9675 -3.0636 -0.9772 0.9798
3.7731 -2.8265 -0.9191 0.9810
3.7617 -2.7330 -0.9065 0.9812
3.8766 -2.7309 -0.9245 0.9809
4.1394 -2.8264 -0.9772 0.9798
4.2201 -2.7041 -0.9771 0.9798
4.2590 -2.6421 -0.9771 0.9798
4.2971 -2.5796 -0.9771 0.9798
4.3343 -2.5165 -0.9771 0.9798
4.3705 -2.4529 -0.9771 0.9798
4.5376 -2.1271 -0.9770 0.9798
4.5977 -1.9936 -0.9770 0.9798
4.6263 -1.9262 -0.9770 0.9798
4.6570 -1.8596 -0.9776 0.9798
4.7534 -1.8180 -0.9922 0.9795
4.7794 -1.7484 -0.9921 0.9795
4.8512 -1.5372 -0.9921 0.9795
4.8731 -1.4661 -0.9921 0.9795
4.8940 -1.3948 -0.9921 0.9795
4.9326 -1.2511 -0.9921 0.9795
4.9826 -1.0337 -0.9921 0.9795
4.9971 -0.9608 -0.9921 0.9795
5.0106 -0.8877 -0.9921 0.9795
5.0230 -0.8143 -0.9921 0.9795
5.0344 -0.7409 -0.9920 0.9795
5.0690 -0.4455 -0.9920 0.9795
5.0798 -0.2973 -0.9920 0.9795
5.0836 -0.2230 -0.9920 0.9795
5.0863 -0.1487 -0.9920 0.9795
5.0879 -0.0743 -0.9920 0.9795
5.0863 0.1487 -0.9920 0.9795
5.0836 0.2230 -0.9920 0.9795
5.0798 0.2972 -0.9920 0.9795
5.0690 0.4455 -0.9920 0.9795
5.0620 0.5196 -0.9920 0.9795
5.0344 0.7409 -0.9920 0.9795
5.0230 0.8144 -0.9921 0.9795
4.9138 1.3231 -0.9921 0.9795
4.8940 1.3947 -0.9921 0.9795
4.8283 1.6079 -0.9921 0.9795
4.8043 1.6783 -0.9921 0.9795
4.7794 1.7484 -0.9921 0.9795
4.7263 1.8873 -0.9922 0.9795
4.6393 2.0927 -0.9922 0.9795
4.6082 2.1603 -0.9922 0.9795
4.5093 2.3602 -0.9923 0.9795
4.4744 2.4259 -0.9923 0.9795
4.4386 2.4911 -0.9923 0.9795
4.3640 2.6197 -0.9923 0.9795
4.3253 2.6833 -0.9923 0.9795
4.2452 2.8086 -0.9924 0.9795
4.2038 2.8704 -0.9924 0.9795
4.0292 3.1113 -0.9924 0.9795
3.9834 3.1699 -0.9925 0.9795
3.8892 3.2850 -0.9925 0.9795
3.6910 3.5069 -0.9926 0.9795
3.6394 3.5605 -0.9926 0.9795
3.5871 3.6134 -0.9926 0.9795
3.5340 3.6655 -0.9926 0.9795
3.4801 3.7168 -0.9927 0.9795
3.3702 3.8171 -0.9927 0.9795
3.1999 3.9614 -0.9928 0.9795
3.1417 4.0078 -0.9928 0.9795
3.0829 4.0534 -0.9928 0.9795
3.0234 4.0981 -0.9928 0.9795
2.9633 4.1420 -0.9929 0.9795
2.9025 4.1849 -0.9929 0.9795
2.8412 4.2270 -0.9929 0.9795
2.6534 4.3477 -0.9930 0.9795
2.1139 3.8320 -0.8532 0.9823
1.9291 4.0380 -0.8724 0.9819
2.0609 4.6593 -0.9932 0.9795
1.9239 4.7177 -0.9933 0.9795
1.8548 4.7455 -0.9933 0.9795
1.7854 4.7722 -0.9933 0.9794
1.6452 4.8226 -0.9934 0.9794
1.5037 4.8689 -0.9935 0.9794
1.3609 4.9111 -0.9935 0.9794
0.9399 3.5950 -0.7244 0.9850
0.6826 2.7762 -0.5574 0.9884
0.3526 2.8242 -0.5549 0.9885
0.1876 2.8492 -0.5567 0.9884
0.0629 2.8685 -0.5594 0.9884
0.0210 2.8751 -0.5605 0.9884
-0.1118 5.0979 -0.9941 0.9794
-0.2607 5.0928 -0.9942 0.9794
-0.3351 5.0886 -0.9942 0.9794
-0.4837 5.0769 -0.9942 0.9794
-0.5578 5.0695 -0.9943 0.9794
-0.7795 5.0405 -0.9944 0.9794
-0.8531 5.0288 -0.9944 0.9794
-1.0728 4.9870 -0.9945 0.9794
-1.1455 4.9710 -0.9945 0.9794
-1.1024 4.4834 -0.9001 0.9814
-1.1296 4.3206 -0.8706 0.9820
-1.1534 4.1624 -0.8421 0.9826
-1.1746 4.0101 -0.8146 0.9831
-1.2322 3.9896 -0.8141 0.9831
-1.3716 4.0207 -0.8282 0.9828
-1.8576 4.7525 -0.9948 0.9794
-2.1323 4.6364 -0.9949 0.9794
-2.1999 4.6049 -0.9949 0.9794
-2.2670 4.5724 -0.9950 0.9794
-2.3336 4.5389 -0.9950 0.9794
-2.4654 4.4690 -0.9950 0.9794
-0.4196 0.6876 -0.1570 0.9967
-0.3916 0.6211 -0.1432 0.9970
-0.3723 0.5718 -0.1330 0.9972
-0.3718 0.5532 -0.1299 0.9973
-0.3737 0.5388 -0.1278 0.9973
-0.3754 0.5248 -0.1258 0.9974
-0.3771 0.5111 -0.1238 0.9974
-0.3786 0.4978 -0.1219 0.9975
-0.3851 0.4361 -0.1134 0.9976
-0.3871 0.4134 -0.1104 0.9977
-0.3893 0.3921 -0.1077 0.9978
-0.3910 0.3825 -0.1066 0.9978
-0.3958 0.3443 -0.1023 0.9979
-0.3967 0.3350 -0.1012 0.9979
-0.3974 0.3259 -0.1002 0.9979
-0.3982 0.3169 -0.0992 0.9979
-0.3989 0.3080 -0.0982 0.9979
-0.3995 0.2993 -0.0973 0.9980
-0.4001 0.2907 -0.0964 0.9980
-0.4006 0.2822 -0.0955 0.9980
-0.4012 0.2739 -0.0947 0.9980
-0.4021 0.2577 -0.0931 0.9981
-0.4039 0.2190 -0.0896 0.9981
-0.4090 0.1564 -0.0854 0.9982
-0.4095 0.1498 -0.0850 0.9982
-0.4099 0.1432 -0.0846 0.9982
-0.4109 0.1236 -0.0836 0.9983
-0.4111 0.1171 -0.0833 0.9983
-0.4113 0.1107 -0.0830 0.9983
-0.4115 0.1044 -0.0828 0.9983
-0.4116 0.0980 -0.0825 0.9983
-0.4117 0.0854 -0.0820 0.9983
-0.4116 0.0791 -0.0817 0.9983
-0.4115 0.0667 -0.0813 0.9983
-0.4113 0.0605 -0.0811 0.9983
-0.4110 0.0482 -0.0807 0.9983
-0.4104 0.0361 -0.0803 0.9983
-0.4097 0.0240 -0.0800 0.9983
-0.4093 0.0179 -0.0799 0.9983
-0.4088 0.0120 -0.0797 0.9983
-0.3971 0.0000 -0.0820 0.9984
-0.3980 -0.0116 -0.0822 0.9984
-0.3985 -0.0175 -0.0824 0.9984
-0.3995 -0.0351 -0.0828 0.9984
-0.3998 -0.0411 -0.0830 0.9984
-0.4000 -0.0470 -0.0832 0.9984
-0.4002 -0.0529 -0.0834 0.9984
-0.4003 -0.0589 -0.0836 0.9983
-0.4004 -0.0649 -0.0838 0.9983
-0.4005 -0.0710 -0.0840 0.9983
-0.4005 -0.0770 -0.0842 0.9983
-0.4004 -0.0892 -0.0847 0.9983
-0.3990 -0.1329 -0.0868 0.9983
-0.3986 -0.1458 -0.0876 0.9983
-0.3983 -0.1523 -0.0880 0.9983
-0.3962 -0.1857 -0.0904 0.9982
-0.3957 -0.1926 -0.0909 0.9982
-0.3955 -0.1997 -0.0915 0.9982
-0.3951 -0.2142 -0.0928 0.9982
-0.3948 -0.2216 -0.0935 0.9982
-0.3944 -0.2290 -0.0942 0.9981
-0.3940 -0.2365 -0.0949 0.9981
-0.3936 -0.2442 -0.0957 0.9981
-0.3927 -0.2598 -0.0972 0.9981
-0.3916 -0.2759 -0.0989 0.9980
-0.3910 -0.2841 -0.0998 0.9980
-0.3903 -0.2923 -0.1007 0.9980
-0.3896 -0.3008 -0.1016 0.9980
-0.3888 -0.3094 -0.1026 0.9980
-0.3871 -0.3270 -0.1046 0.9979
-0.3842 -0.3545 -0.1079 0.9979
-0.3814 -0.3731 -0.1102 0.9978
-0.3778 -0.3918 -0.1124 0.9978
-0.3759 -0.4015 -0.1136 0.9978
-0.3745 -0.4118 -0.1149 0.9977
-0.3693 -0.4572 -0.1214 0.9976
-0.3678 -0.4692 -0.1231 0.9976
-0.3645 -0.4941 -0.1268 0.9975
-0.3628 -0.5070 -0.1287 0.9975
-0.3609 -0.5203 -0.1307 0.9974
-0.3589 -0.5339 -0.1328 0.9974
-0.3546 -0.5623 -0.1373 0.9973
-1.2135 -2.1998 -0.5187 0.9898
-1.0893 -2.4629 -0.5561 0.9891
-0.9561 -2.3445 -0.5228 0.9897
-1.0328 -2.6422 -0.5858 0.9885
-0.9734 -2.6021 -0.5736 0.9887
-0.9105 -2.5467 -0.5584 0.9890
-0.7740 -2.7933 -0.5985 0.9882
-1.1501 -4.6771 -0.9945 0.9805
-1.0815 -4.6933 -0.9945 0.9805
-0.9439 -4.7227 -0.9944 0.9805
-0.8747 -4.7358 -0.9944 0.9805
-0.8054 -4.7480 -0.9944 0.9805
-0.6663 -4.7692 -0.9943 0.9805
-0.5965 -4.7782 -0.9943 0.9805
-0.5266 -4.7863 -0.9943 0.9805
-0.4567 -4.7934 -0.9942 0.9805
-0.3866 -4.7995 -0.9942 0.9805
-0.3164 -4.8044 -0.9942 0.9805
-0.0352 -4.8141 -0.9941 0.9805
0.1055 -4.8129 -0.9940 0.9805
0.3163 -4.8032 -0.9939 0.9805
0.5264 -4.7844 -0.9938 0.9805
0.8049 -4.7449 -0.9937 0.9805
0.6004 -2.7911 -0.5895 0.9884
0.6401 -2.7773 -0.5885 0.9884
0.6796 -2.7636 -0.5877 0.9884
0.7569 -2.7311 -0.5852 0.9885
0.8369 -2.7096 -0.5856 0.9885
0.8761 -2.6963 -0.5854 0.9885
0.9586 -2.5620 -0.5648 0.9889
0.9988 -2.3504 -0.5273 0.9896
1.0373 -2.3450 -0.5295 0.9896
1.0555 -2.2950 -0.5216 0.9897
1.1574 -2.3343 -0.5380 0.9894
1.1917 -2.3178 -0.5381 0.9894
1.2552 -2.1986 -0.5227 0.9897
1.4112 -2.2380 -0.5463 0.9893
1.3293 -2.0414 -0.5030 0.9901
1.3954 -2.0759 -0.5165 0.9898
1.5861 -2.0853 -0.5410 0.9894
1.7855 -2.0222 -0.5570 0.9890
2.0882 -2.2302 -0.6308 0.9876
3.2858 -3.4081 -0.9775 0.9808
3.3838 -3.3105 -0.9775 0.9809
3.4318 -3.2606 -0.9774 0.9809
3.4790 -3.2100 -0.9774 0.9809
3.5254 -3.1588 -0.9774 0.9809
3.5712 -3.1069 -0.9774 0.9809
3.7881 -2.8377 -0.9773 0.9809
3.7969 -2.7586 -0.9691 0.9810
3.8693 -2.7257 -0.9773 0.9809
3.9848 -2.5534 -0.9772 0.9809
4.0216 -2.4948 -0.9772 0.9809
4.1269 -2.3161 -0.9772 0.9809
4.1927 -2.1945 -0.9771 0.9809
4.2550 -2.0710 -0.9771 0.9809
4.3136 -1.9457 -0.9771 0.9809
4.3414 -1.8825 -0.9771 0.9809
4.4221 -1.8412 -0.9891 0.9806
4.4884 -1.7167 -0.9923 0.9806
4.5130 -1.6509 -0.9923 0.9806
4.5592 -1.5183 -0.9922 0.9806
4.5809 -1.4515 -0.9922 0.9806
4.6577 -1.1814 -0.9922 0.9806
4.6745 -1.1132 -0.9922 0.9806
4.6902 -1.0448 -0.9922 0.9806
4.7049 -0.9761 -0.9922 0.9806
4.7187 -0.9073 -0.9922 0.9806
4.7314 -0.8382 -0.9922 0.9806
4.7538 -0.6996 -0.9922 0.9806
4.7635 -0.6300 -0.9922 0.9806
4.7722 -0.5604 -0.9922 0.9806
4.7799 -0.4906 -0.9921 0.9806
4.7865 -0.4207 -0.9921 0.9806
4.7921 -0.3507 -0.9921 0.9806
4.8003 -0.2105 -0.9921 0.9806
4.8029 -0.1404 -0.9921 0.9806
4.8044 -0.0702 -0.9921 0.9806
4.8044 0.0702 -0.9921 0.9806
4.8029 0.1404 -0.9921 0.9806
4.7968 0.2807 -0.9921 0.9806
4.7921 0.3507 -0.9921 0.9806
4.7722 0.5604 -0.9922 0.9806
4.7431 0.7690 -0.9922 0.9806
4.7314 0.8382 -0.9922 0.9806
4.7187 0.9073 -0.9922 0.9806
4.6213 1.3170 -0.9922 0.9806
4.5809 1.4515 -0.9922 0.9806
4.5592 1.5183 -0.9922 0.9806
4.5366 1.5848 -0.9922 0.9806
4.4885 1.7167 -0.9923 0.9806
4.4365 1.8472 -0.9923 0.9806
4.4091 1.9118 -0.9923 0.9806
4.3212 2.1032 -0.9923 0.9806
4.2900 2.1662 -0.9923 0.9806
4.2251 2.2907 -0.9924 0.9806
4.0842 2.5337 -0.9924 0.9806
4.0086 2.6521 -0.9925 0.9806
3.9695 2.7104 -0.9925 0.9806
3.8887 2.8254 -0.9925 0.9806
3.8046 2.9378 -0.9925 0.9806
3.7173 3.0479 -0.9926 0.9806
3.6724 3.1019 -0.9926 0.9806
3.5803 3.2080 -0.9926 0.9806
3.5331 3.2600 -0.9926 0.9806
3.4852 3.3114 -0.9927 0.9806
3.4365 3.3620 -0.9927 0.9806
3.3871 3.4119 -0.9927 0.9806
3.3369 3.4611 -0.9927 0.9806
3.2861 3.5096 -0.9927 0.9806
3.2345 3.5573 -0.9928 0.9806
3.1293 3.6505 -0.9928 0.9806
3.0757 3.6959 -0.9928 0.9806
3.0215 3.7405 -0.9928 0.9806
2.9666 3.7843 -0.9929 0.9806
2.8548 3.8696 -0.9929 0.9806
2.6827 3.9912 -0.9930 0.9805
2.5054 4.1053 -0.9931 0.9805
2.4452 4.1415 -0.9931 0.9805
2.3845 4.1769 -0.9931 0.9805
2.3233 4.2114 -0.9931 0.9805
2.0745 3.8939 -0.9110 0.9821
2.0045 3.8988 -0.9052 0.9823
1.9355 3.9038 -0.8997 0.9824
1.9291 4.0380 -0.9240 0.9819
2.0099 4.3703 -0.9933 0.9805
1.8814 4.4274 -0.9933 0.9805
1.7513 4.4807 -0.9934 0.9805
1.6858 4.5059 -0.9934 0.9805
1.6198 4.5302 -0.9934 0.9805
1.5534 4.5535 -0.9934 0.9805
1.4868 4.5759 -0.9935 0.9805
1.2171 4.6554 -0.9936 0.9805
0.8937 3.6347 -0.7729 0.9848
0.6771 3.6660 -0.7698 0.9849
0.5264 4.7843 -0.9938 0.9805
0.4565 4.7916 -0.9939 0.9805
0.3163 4.8032 -0.9939 0.9805
0.2461 4.8074 -0.9940 0.9805
0.1758 4.8107 -0.9940 0.9805
0.1055 4.8128 -0.9940 0.9805
0.0351 4.8140 -0.9940 0.9805
-0.1055 4.8133 -0.9941 0.9805
-0.1759 4.8113 -0.9941 0.9805
-0.4566 4.7934 -0.9942 0.9805
-0.5965 4.7783 -0.9943 0.9805
-0.6663 4.7692 -0.9943 0.9805
-0.7360 4.7591 -0.9943 0.9805
-0.8054 4.7479 -0.9944 0.9805
-1.0815 4.6933 -0.9945 0.9805
-1.1015 4.4796 -0.9525 0.9813
-1.1285 4.3166 -0.9213 0.9819
-1.3258 4.0802 -0.8858 0.9826
-1.4786 4.1354 -0.9068 0.9822
-1.6880 4.5121 -0.9947 0.9805
-2.0132 4.3774 -0.9949 0.9805
-2.2032 4.2853 -0.9949 0.9805
-2.2656 4.2528 -0.9950 0.9805
-0.3850 0.6520 -0.1564 0.9969
-0.3546 0.5623 -0.1373 0.9973
-0.3568 0.5479 -0.1350 0.9973
-0.3589 0.5339 -0.1328 0.9974
-0.3628 0.5070 -0.1287 0.9975
-0.3662 0.4815 -0.1249 0.9975
-0.3678 0.4692 -0.1231 0.9976
-0.3693 0.4572 -0.1214 0.9976
-0.3759 0.4014 -0.1136 0.9978
-0.3842 0.3545 -0.1079 0.9979
-0.3872 0.3270 -0.1046 0.9979
-0.3880 0.3181 -0.1036 0.9980
-0.3916 0.2759 -0.0989 0.9980
-0.3922 0.2678 -0.0981 0.9981
-0.3927 0.2598 -0.0972 0.9981
-0.3932 0.2520 -0.0964 0.9981
-0.3940 0.2365 -0.0949 0.9981
-0.3944 0.2290 -0.0942 0.9981
-0.3951 0.2142 -0.0928 0.9982
-0.3955 0.1997 -0.0915 0.9982
-0.3957 0.1926 -0.0909 0.9982
-0.3967 0.1789 -0.0899 0.9982
-0.3971 0.1722 -0.0894 0.9982
-0.3976 0.1655 -0.0889 0.9982
-0.3985 0.1458 -0.0876 0.9983
-0.3988 0.1393 -0.0872 0.9983
-0.3993 0.1265 -0.0865 0.9983
-0.3998 0.1139 -0.0858 0.9983
-0.4000 0.1077 -0.0855 0.9983
-0.4002 0.1015 -0.0853 0.9983
-0.4004 0.0954 -0.0850 0.9983
-0.4005 0.0892 -0.0847 0.9983
-0.4005 0.0770 -0.0842 0.9983
-0.4004 0.0650 -0.0838 0.9983
-0.4003 0.0589 -0.0836 0.9983
-0.4002 0.0529 -0.0834 0.9984
-0.4000 0.0470 -0.0832 0.9984
-0.3995 0.0352 -0.0828 0.9984
-0.3992 0.0293 -0.0826 0.9984
-0.3989 0.0233 -0.0825 0.9984
-0.3985 0.0175 -0.0824 0.9984
-0.3976 0.0058 -0.0821 0.9984
-0.3900 0.0000 -0.0850 0.9984
-0.3904 -0.0057 -0.0851 0.9984
-0.3910 -0.0171 -0.0853 0.9984
-0.3913 -0.0229 -0.0855 0.9984
-0.3918 -0.0344 -0.0858 0.9984
-0.3920 -0.0402 -0.0859 0.9984
-0.3923 -0.0519 -0.0863 0.9984
-0.3925 -0.0636 -0.0867 0.9984
-0.3926 -0.0695 -0.0869 0.9984
-0.3926 -0.0814 -0.0874 0.9984
-0.3926 -0.0874 -0.0877 0.9984
-0.3925 -0.0935 -0.0880 0.9983
-0.3924 -0.0995 -0.0883 0.9983
-0.3918 -0.1241 -0.0896 0.9983
-0.3910 -0.1430 -0.0908 0.9983
-0.3907 -0.1495 -0.0912 0.9983
-0.3895 -0.1689 -0.0926 0.9983
-0.3890 -0.1755 -0.0931 0.9983
-0.3885 -0.1821 -0.0936 0.9982
-0.3868 -0.2097 -0.0959 0.9982
-0.3861 -0.2242 -0.0973 0.9982
-0.3847 -0.2465 -0.0996 0.9981
-0.3835 -0.2618 -0.1013 0.9981
-0.3829 -0.2697 -0.1021 0.9981
-0.3822 -0.2777 -0.1030 0.9981
-0.3807 -0.2939 -0.1049 0.9980
-0.3799 -0.3023 -0.1059 0.9980
-0.3780 -0.3193 -0.1079 0.9980
-0.3770 -0.3280 -0.1090 0.9980
-0.3760 -0.3369 -0.1101 0.9979
-0.3737 -0.3551 -0.1124 0.9979
-0.3722 -0.3642 -0.1136 0.9979
-0.3665 -0.3914 -0.1169 0.9978
-0.3645 -0.4009 -0.1181 0.9978
-0.3624 -0.4105 -0.1194 0.9978
-0.3608 -0.4209 -0.1209 0.9977
-0.3546 -0.4661 -0.1277 0.9976
-0.3488 -0.5030 -0.1335 0.9975
-0.3467 -0.5159 -0.1355 0.9975
-0.3420 -0.5792 -0.1467 0.9972
-0.3583 -0.6275 -0.1576 0.9970
-0.3769 -0.6833 -0.1702 0.9968
-0.4094 -0.7684 -0.1899 0.9964
-1.1776 -2.2905 -0.5616 0.9895
-1.1571 -2.3339 -0.5681 0.9894
-1.1066 -2.3164 -0.5598 0.9895
-1.0854 -2.3602 -0.5665 0.9894
-1.0459 -2.4613 -0.5832 0.9891
-1.0276 -2.6290 -0.6155 0.9885
-0.8562 -2.6353 -0.6042 0.9887
-1.0889 -4.4286 -0.9945 0.9815
-1.0241 -4.4439 -0.9945 0.9815
-0.9590 -4.4583 -0.9944 0.9815
-0.8937 -4.4718 -0.9944 0.9815
-0.8283 -4.4842 -0.9944 0.9815
-0.5649 -4.5245 -0.9943 0.9815
-0.4987 -4.5321 -0.9943 0.9815
-0.2330 -4.5530 -0.9941 0.9815
-0.1665 -4.5558 -0.9941 0.9815
-0.0999 -4.5576 -0.9941 0.9815
-0.0333 -4.5585 -0.9941 0.9815
0.1665 -4.5552 -0.9940 0.9815
0.2330 -4.5521 -0.9940 0.9815
0.3659 -4.5432 -0.9939 0.9815
0.4322 -4.5372 -0.9939 0.9815
0.5646 -4.5224 -0.9938 0.9815
0.6306 -4.5136 -0.9938 0.9815
0.7622 -4.4930 -0.9938 0.9815
0.8277 -4.4812 -0.9937 0.9815
0.8931 -4.4685 -0.9937 0.9815
0.6422 -2.7864 -0.6236 0.9884
0.7609 -2.7455 -0.6213 0.9884
0.7909 -2.6999 -0.6135 0.9885
0.7932 -2.4411 -0.5597 0.9895
1.0024 -2.4580 -0.5789 0.9892
1.0218 -2.4045 -0.5697 0.9894
1.0406 -2.3525 -0.5609 0.9895
1.0588 -2.3022 -0.5526 0.9897
1.0766 -2.2534 -0.5446 0.9898
1.2519 -2.4348 -0.5970 0.9889
1.2607 -2.3663 -0.5847 0.9891
1.3328 -2.4160 -0.6017 0.9888
1.4127 -2.3147 -0.5913 0.9890
1.4223 -2.2556 -0.5815 0.9891
1.4089 -2.1637 -0.5630 0.9895
1.5287 -2.2040 -0.5849 0.9891
1.5526 -2.1044 -0.5703 0.9894
1.5640 -2.0562 -0.5634 0.9895
1.5487 -1.9756 -0.5474 0.9898
1.5857 -1.9630 -0.5503 0.9897
1.5961 -1.9178 -0.5441 0.9898
1.9803 -2.2428 -0.6524 0.9878
2.0162 -2.2174 -0.6535 0.9878
2.0522 -2.1916 -0.6547 0.9878
3.1115 -3.2273 -0.9776 0.9818
3.2498 -3.0877 -0.9775 0.9818
3.3385 -2.9913 -0.9775 0.9818
3.3818 -2.9421 -0.9775 0.9818
3.4243 -2.8923 -0.9775 0.9818
3.4662 -2.8420 -0.9774 0.9818
3.5476 -2.7394 -0.9774 0.9818
3.6641 -2.5812 -0.9774 0.9818
3.7378 -2.4729 -0.9773 0.9818
3.8424 -2.3066 -0.9773 0.9818
3.9081 -2.1933 -0.9773 0.9818
3.9397 -2.1360 -0.9772 0.9818
3.9704 -2.0782 -0.9772 0.9818
4.0003 -2.0198 -0.9772 0.9818
4.1753 -1.8104 -0.9924 0.9815
4.2737 -1.5634 -0.9924 0.9815
4.3576 -1.3110 -0.9923 0.9815
4.3763 -1.2472 -0.9923 0.9815
4.4108 -1.1187 -0.9923 0.9815
4.4267 -1.0542 -0.9923 0.9815
4.4685 -0.8592 -0.9923 0.9815
4.4917 -0.7282 -0.9923 0.9815
4.5018 -0.6625 -0.9923 0.9815
4.5192 -0.5307 -0.9923 0.9815
4.5265 -0.4646 -0.9923 0.9815
4.5328 -0.3984 -0.9922 0.9815
4.5425 -0.2658 -0.9922 0.9815
4.5459 -0.1994 -0.9922 0.9815
4.5483 -0.1330 -0.9922 0.9815
4.5497 -0.0665 -0.9922 0.9815
4.5381 0.3321 -0.9922 0.9815
4.5265 0.4646 -0.9922 0.9815
4.5192 0.5307 -0.9923 0.9815
4.5110 0.5967 -0.9923 0.9815
4.4415 0.9894 -0.9923 0.9815
4.4108 1.1188 -0.9923 0.9815
4.3763 1.2472 -0.9923 0.9815
4.3576 1.3110 -0.9923 0.9815
4.3380 1.3746 -0.9923 0.9815
4.2737 1.5634 -0.9924 0.9815
4.2505 1.6257 -0.9924 0.9815
4.2263 1.6877 -0.9924 0.9815
4.2012 1.7492 -0.9924 0.9815
4.1484 1.8713 -0.9924 0.9815
4.0921 1.9918 -0.9924 0.9815
4.0626 2.0513 -0.9924 0.9815
4.0010 2.1692 -0.9925 0.9815
3.8677 2.3993 -0.9925 0.9815
3.8323 2.4557 -0.9925 0.9815
3.6825 2.6755 -0.9926 0.9815
3.6028 2.7820 -0.9926 0.9815
3.5619 2.8344 -0.9926 0.9815
3.5201 2.8862 -0.9927 0.9815
3.4777 2.9374 -0.9927 0.9815
3.4344 2.9879 -0.9927 0.9815
3.3905 3.0379 -0.9927 0.9815
3.3003 3.1357 -0.9927 0.9815
3.1600 3.2775 -0.9928 0.9815
3.0134 3.4130 -0.9929 0.9815
2.9633 3.4568 -0.9929 0.9815
2.8612 3.5421 -0.9929 0.9815
2.8092 3.5836 -0.9929 0.9815
2.7565 3.6243 -0.9930 0.9815
2.7034 3.6643 -0.9930 0.9815
2.6496 3.7035 -0.9930 0.9815
2.5404 3.7795 -0.9930 0.9815
2.4849 3.8163 -0.9931 0.9815
2.4289 3.8523 -0.9931 0.9815
2.3725 3.8875 -0.9931 0.9815
2.2580 3.9553 -0.9932 0.9815
2.1415 4.0198 -0.9932 0.9815
2.0826 4.0507 -0.9932 0.9815
1.9291 4.0381 -0.9759 0.9818
1.9032 4.1384 -0.9933 0.9815
1.8426 4.1659 -0.9933 0.9815
1.7816 4.1925 -0.9933 0.9815
1.7202 4.2182 -0.9934 0.9815
1.5963 4.2668 -0.9934 0.9815
1.4079 4.3330 -0.9935 0.9815
1.3444 4.3532 -0.9935 0.9815
1.2807 4.3725 -0.9935 0.9815
1.1525 4.4082 -0.9936 0.9815
0.8470 3.6754 -0.8225 0.9847
0.7923 3.6832 -0.8216 0.9847
0.7378 3.6912 -0.8208 0.9847
0.6833 3.6993 -0.8203 0.9847
0.6306 4.5136 -0.9938 0.9815
0.5646 4.5224 -0.9938 0.9815
0.3659 4.5432 -0.9939 0.9815
0.2330 4.5521 -0.9940 0.9815
0.0333 4.5584 -0.9940 0.9815
-0.0999 4.5576 -0.9941 0.9815
-0.2996 4.5493 -0.9942 0.9815
-0.3660 4.5445 -0.9942 0.9815
-0.4324 4.5388 -0.9942 0.9815
-0.5648 4.5245 -0.9943 0.9815
-0.6309 4.5158 -0.9943 0.9815
-0.7627 4.4957 -0.9944 0.9815
-0.8283 4.4842 -0.9944 0.9815
-0.8937 4.4717 -0.9944 0.9815
-0.9590 4.4584 -0.9944 0.9815
-1.0889 4.4286 -0.9945 0.9815
-1.1516 4.1560 -0.9404 0.9825
-1.2155 4.1499 -0.9430 0.9825
-1.5983 4.2723 -0.9947 0.9815
-1.6606 4.2486 -0.9947 0.9815
-1.7841 4.1984 -0.9948 0.9815
-1.8454 4.1720 -0.9948 0.9815
-1.9062 4.1447 -0.9948 0.9815
-2.0265 4.0875 -0.9949 0.9815
-0.3769 0.6832 -0.1702 0.9968
-0.3422 0.5427 -0.1399 0.9974
-0.3445 0.5291 -0.1377 0.9974
-0.3509 0.4904 -0.1315 0.9975
-0.3528 0.4781 -0.1296 0.9976
-0.3562 0.4545 -0.1259 0.9976
-0.3579 0.4430 -0.1242 0.9977
-0.3594 0.4318 -0.1225 0.9977
-0.3608 0.4209 -0.1209 0.9977
-0.3645 0.4009 -0.1181 0.9978
-0.3665 0.3914 -0.1169 0.9978
-0.3703 0.3730 -0.1146 0.9979
-0.3738 0.3550 -0.1124 0.9979
-0.3770 0.3280 -0.1090 0.9980
-0.3780 0.3193 -0.1079 0.9980
-0.3790 0.3107 -0.1069 0.9980
-0.3799 0.3022 -0.1059 0.9980
-0.3807 0.2939 -0.1049 0.9980
-0.3822 0.2777 -0.1030 0.9981
-0.3829 0.2697 -0.1021 0.9981
-0.3835 0.2619 -0.1013 0.9981
-0.3841 0.2541 -0.1004 0.9981
-0.3847 0.2465 -0.0996 0.9981
-0.3852 0.2389 -0.0988 0.9981
-0.3856 0.2315 -0.0981 0.9982
-0.3860 0.2242 -0.0973 0.9982
-0.3864 0.2169 -0.0966 0.9982
-0.3874 0.1956 -0.0946 0.9982
-0.3878 0.1888 -0.0941 0.9982
-0.3890 0.1755 -0.0931 0.9983
-0.3895 0.1689 -0.0926 0.9983
-0.3907 0.1494 -0.0912 0.9983
-0.3910 0.1430 -0.0908 0.9983
-0.3916 0.1304 -0.0900 0.9983
-0.3920 0.1179 -0.0893 0.9983
-0.3922 0.1118 -0.0889 0.9983
-0.3924 0.0995 -0.0883 0.9983
-0.3925 0.0935 -0.0880 0.9983
-0.3926 0.0875 -0.0877 0.9984
-0.3926 0.0815 -0.0874 0.9984
-0.3924 0.0577 -0.0865 0.9984
-0.3913 0.0229 -0.0855 0.9984
-0.3838 -0.0112 -0.0882 0.9984
-0.3841 -0.0168 -0.0883 0.9984
-0.3844 -0.0225 -0.0884 0.9984
-0.3846 -0.0282 -0.0886 0.9984
-0.3854 -0.0567 -0.0895 0.9984
-0.3855 -0.0625 -0.0897 0.9984
-0.3855 -0.0741 -0.0902 0.9984
-0.3854 -0.0918 -0.0910 0.9984
-0.3850 -0.1097 -0.0920 0.9984
-0.3833 -0.1466 -0.0943 0.9983
-0.3829 -0.1529 -0.0947 0.9983
-0.3810 -0.1786 -0.0967 0.9983
-0.3803 -0.1851 -0.0972 0.9983
-0.3788 -0.2054 -0.0990 0.9982
-0.3784 -0.2124 -0.0997 0.9982
-0.3776 -0.2266 -0.1011 0.9982
-0.3770 -0.2339 -0.1019 0.9982
-0.3764 -0.2412 -0.1027 0.9982
-0.3745 -0.2638 -0.1052 0.9981
-0.3721 -0.2873 -0.1080 0.9981
-0.3703 -0.3036 -0.1100 0.9980
-0.3671 -0.3290 -0.1132 0.9980
-0.3660 -0.3377 -0.1144 0.9980
-0.3648 -0.3466 -0.1156 0.9979
-0.3615 -0.3642 -0.1179 0.9979
-0.3596 -0.3730 -0.1190 0.9979
-0.3534 -0.4002 -0.1226 0.9978
-0.3512 -0.4096 -0.1239 0.9978
-0.3453 -0.4406 -0.1286 0.9977
-0.3435 -0.4517 -0.1304 0.9977
-0.3397 -0.4748 -0.1341 0.9976
-0.3354 -0.4989 -0.1381 0.9975
-0.3306 -0.5243 -0.1424 0.9975
-0.3253 -0.5510 -0.1470 0.9974
-0.3225 -0.5649 -0.1494 0.9973
-0.3335 -0.6045 -0.1586 0.9972
-0.3673 -0.7145 -0.1845 0.9967
-1.0784 -2.4381 -0.6124 0.9891
-1.0733 -2.5257 -0.6304 0.9888
-0.9700 -2.5929 -0.6359 0.9887
-0.9270 -2.5926 -0.6324 0.9888
-0.8401 -2.5857 -0.6245 0.9889
-0.8298 -2.6871 -0.6460 0.9885
-1.0951 -4.1887 -0.9945 0.9824
-0.9722 -4.2188 -0.9944 0.9824
-0.9104 -4.2324 -0.9944 0.9824
-0.7863 -4.2569 -0.9944 0.9824
-0.7240 -4.2679 -0.9943 0.9824
-0.5990 -4.2870 -0.9943 0.9824
-0.4734 -4.3025 -0.9942 0.9824
-0.4105 -4.3088 -0.9942 0.9824
-0.3475 -4.3143 -0.9942 0.9824
-0.2844 -4.3187 -0.9942 0.9824
-0.2212 -4.3223 -0.9941 0.9824
-0.1581 -4.3250 -0.9941 0.9824
-0.0949 -4.3268 -0.9941 0.9824
-0.0316 -4.3275 -0.9941 0.9824
0.0316 -4.3274 -0.9940 0.9824
0.1580 -4.3245 -0.9940 0.9824
0.2212 -4.3216 -0.9940 0.9824
0.2843 -4.3178 -0.9939 0.9824
0.3474 -4.3130 -0.9939 0.9824
0.4732 -4.3008 -0.9939 0.9824
0.6612 -4.2756 -0.9938 0.9824
0.5187 -2.8075 -0.6558 0.9884
0.5586 -2.7948 -0.6547 0.9884
0.6381 -2.7690 -0.6527 0.9884
0.6777 -2.7560 -0.6519 0.9884
0.7171 -2.7429 -0.6512 0.9884
0.7257 -2.6186 -0.6242 0.9889
0.7478 -2.4210 -0.5820 0.9897
0.8656 -2.6638 -0.6434 0.9886
0.9070 -2.6586 -0.6452 0.9885
0.9617 -2.4602 -0.6068 0.9892
0.9779 -2.3010 -0.5743 0.9898
1.0622 -2.3095 -0.5839 0.9896
1.1474 -2.3141 -0.5933 0.9895
1.2265 -2.3855 -0.6161 0.9891
1.2864 -2.4145 -0.6284 0.9888
1.2853 -2.3298 -0.6112 0.9891
1.4811 -2.2745 -0.6235 0.9889
1.5068 -2.1725 -0.6073 0.9892
1.5191 -2.1232 -0.5997 0.9893
1.5874 -2.1516 -0.6142 0.9891
1.7342 -2.2800 -0.6580 0.9883
1.5858 -2.0229 -0.5904 0.9895
2.8634 -3.1491 -0.9777 0.9827
2.9540 -3.0640 -0.9776 0.9827
2.9985 -3.0205 -0.9776 0.9827
3.1278 -2.8860 -0.9776 0.9827
3.1696 -2.8399 -0.9776 0.9827
3.2511 -2.7461 -0.9775 0.9827
3.2908 -2.6982 -0.9775 0.9827
3.3299 -2.6497 -0.9775 0.9827
3.4057 -2.5513 -0.9775 0.9827
3.4787 -2.4506 -0.9774 0.9827
3.5141 -2.3995 -0.9774 0.9827
3.5826 -2.2957 -0.9774 0.9827
3.6157 -2.2430 -0.9774 0.9827
3.7104 -2.0824 -0.9773 0.9827
3.7404 -2.0279 -0.9773 0.9827
3.7696 -1.9730 -0.9773 0.9827
3.7979 -1.9177 -0.9773 0.9827
3.8303 -1.8643 -0.9785 0.9827
3.9641 -1.7188 -0.9925 0.9824
3.9887 -1.6607 -0.9925 0.9824
4.0576 -1.4843 -0.9924 0.9824
4.0788 -1.4248 -0.9924 0.9824
4.0991 -1.3651 -0.9924 0.9824
4.1372 -1.2447 -0.9924 0.9824
4.1550 -1.1841 -0.9924 0.9824
4.1718 -1.1232 -0.9924 0.9824
4.2169 -0.9394 -0.9924 0.9824
4.2302 -0.8776 -0.9924 0.9824
4.2425 -0.8158 -0.9924 0.9824
4.2829 -0.5665 -0.9923 0.9824
4.2976 -0.4411 -0.9923 0.9824
4.3086 -0.3154 -0.9923 0.9824
4.3127 -0.2523 -0.9923 0.9824
4.3201 0.0000 -0.9923 0.9824
4.3086 0.3154 -0.9923 0.9824
4.2907 0.5039 -0.9923 0.9824
4.2741 0.6290 -0.9924 0.9824
4.2539 0.7536 -0.9924 0.9824
4.2425 0.8157 -0.9924 0.9824
4.2302 0.8777 -0.9924 0.9824
4.1877 1.0622 -0.9924 0.9824
4.1718 1.1232 -0.9924 0.9824
4.1372 1.2447 -0.9924 0.9824
4.0788 1.4249 -0.9924 0.9824
4.0576 1.4843 -0.9924 0.9824
4.0126 1.6023 -0.9925 0.9824
3.9641 1.7189 -0.9925 0.9824
3.8851 1.8910 -0.9925 0.9824
3.8571 1.9476 -0.9925 0.9824
3.8283 2.0037 -0.9925 0.9824
3.7986 2.0595 -0.9925 0.9824
3.7682 2.1148 -0.9926 0.9824
3.7369 2.1696 -0.9926 0.9824
3.6720 2.2780 -0.9926 0.9824
3.5329 2.4887 -0.9926 0.9824
3.4206 2.6413 -0.9927 0.9824
3.3817 2.6911 -0.9927 0.9824
3.3017 2.7888 -0.9927 0.9824
3.1765 2.9310 -0.9928 0.9824
3.0896 3.0226 -0.9928 0.9824
3.0452 3.0675 -0.9928 0.9824
2.9543 3.1553 -0.9929 0.9824
2.9080 3.1982 -0.9929 0.9824
2.7652 3.3227 -0.9930 0.9824
2.6670 3.4022 -0.9930 0.9824
2.6171 3.4409 -0.9930 0.9824
2.4639 3.5525 -0.9931 0.9824
2.3592 3.6231 -0.9931 0.9824
2.1437 3.7551 -0.9932 0.9824
2.0886 3.7861 -0.9932 0.9824
1.8641 3.9020 -0.9933 0.9824
1.7494 3.9550 -0.9934 0.9824
1.6914 3.9802 -0.9934 0.9824
1.6331 4.0046 -0.9934 0.9824
1.5744 4.0281 -0.9934 0.9824
1.5155 4.0508 -0.9935 0.9824
1.1551 4.1685 -0.9936 0.9824
0.8053 3.7438 -0.8796 0.9844
0.6941 3.7579 -0.8778 0.9844
0.6388 3.7656 -0.8773 0.9844
0.5836 3.7737 -0.8771 0.9845
0.0316 4.3275 -0.9940 0.9824
-0.0316 4.3275 -0.9941 0.9824
-0.0949 4.3267 -0.9941 0.9824
-0.1581 4.3250 -0.9941 0.9824
-0.2213 4.3223 -0.9941 0.9824
-0.3475 4.3143 -0.9942 0.9824
-0.4105 4.3087 -0.9942 0.9824
-0.5362 4.2952 -0.9943 0.9824
-0.5989 4.2870 -0.9943 0.9824
-0.7240 4.2679 -0.9943 0.9824
-0.7863 4.2570 -0.9944 0.9824
-0.9104 4.2324 -0.9944 0.9824
-0.9722 4.2187 -0.9944 0.9824
-1.0337 4.2042 -0.9945 0.9824
-1.1562 4.1724 -0.9945 0.9824
-1.2777 4.1370 -0.9946 0.9824
-1.3380 4.1180 -0.9946 0.9824
-1.4579 4.0773 -0.9946 0.9824
-1.5173 4.0557 -0.9947 0.9824
-1.6937 3.9856 -0.9947 0.9824
-1.7518 3.9605 -0.9948 0.9824
-1.9238 3.8802 -0.9948 0.9824
-0.3492 0.6555 -0.1706 0.9970
-0.3335 0.6045 -0.1586 0.9972
-0.3225 0.5649 -0.1494 0.9973
-0.3253 0.5510 -0.1470 0.9974
-0.3280 0.5375 -0.1446 0.9974
-0.3306 0.5243 -0.1424 0.9975
-0.3375 0.4867 -0.1361 0.9976
-0.3471 0.4296 -0.1269 0.9977
-0.3512 0.4096 -0.1239 0.9978
-0.3575 0.3818 -0.1201 0.9979
-0.3635 0.3556 -0.1168 0.9979
-0.3648 0.3466 -0.1156 0.9979
-0.3683 0.3204 -0.1121 0.9980
-0.3703 0.3036 -0.1100 0.9980
-0.3712 0.2954 -0.1090 0.9981
-0.3721 0.2873 -0.1080 0.9981
-0.3730 0.2794 -0.1070 0.9981
-0.3738 0.2715 -0.1061 0.9981
-0.3758 0.2486 -0.1035 0.9982
-0.3764 0.2412 -0.1027 0.9982
-0.3780 0.2195 -0.1004 0.9982
-0.3784 0.2124 -0.0997 0.9982
-0.3788 0.2054 -0.0990 0.9982
-0.3803 0.1851 -0.0972 0.9983
-0.3820 0.1657 -0.0957 0.9983
-0.3833 0.1466 -0.0943 0.9983
-0.3846 0.1219 -0.0927 0.9983
-0.3848 0.1158 -0.0923 0.9984
-0.3850 0.1097 -0.0920 0.9984
-0.3852 0.1037 -0.0916 0.9984
-0.3854 0.0918 -0.0910 0.9984
-0.3855 0.0859 -0.0907 0.9984
-0.3855 0.0683 -0.0899 0.9984
-0.3854 0.0567 -0.0895 0.9984
-0.3853 0.0510 -0.0893 0.9984
-0.3852 0.0453 -0.0891 0.9984
-0.3848 0.0338 -0.0887 0.9984
-0.3846 0.0282 -0.0886 0.9984
-0.3835 0.0056 -0.0881 0.9984
-0.3769 -0.0055 -0.0910 0.9985
-0.3774 -0.0166 -0.0912 0.9984
-0.3781 -0.0332 -0.0916 0.9984
-0.3785 -0.0444 -0.0920 0.9984
-0.3786 -0.0500 -0.0922 0.9984
-0.3787 -0.0557 -0.0924 0.9984
-0.3787 -0.0671 -0.0928 0.9984
-0.3787 -0.0729 -0.0931 0.9984
-0.3782 -0.1018 -0.0946 0.9984
-0.3778 -0.1137 -0.0952 0.9984
-0.3776 -0.1196 -0.0956 0.9984
-0.3770 -0.1317 -0.0964 0.9984
-0.3762 -0.1439 -0.0972 0.9983
-0.3758 -0.1500 -0.0977 0.9983
-0.3749 -0.1625 -0.0986 0.9983
-0.3730 -0.1816 -0.1002 0.9983
-0.3722 -0.1879 -0.1007 0.9983
-0.3716 -0.1945 -0.1012 0.9983
-0.3712 -0.2012 -0.1019 0.9983
-0.3707 -0.2080 -0.1026 0.9983
-0.3702 -0.2149 -0.1033 0.9982
-0.3697 -0.2219 -0.1041 0.9982
-0.3685 -0.2361 -0.1057 0.9982
-0.3679 -0.2434 -0.1065 0.9982
-0.3664 -0.2582 -0.1082 0.9982
-0.3648 -0.2732 -0.1100 0.9981
-0.3639 -0.2811 -0.1110 0.9981
-0.3609 -0.3049 -0.1140 0.9981
-0.3598 -0.3130 -0.1151 0.9980
-0.3562 -0.3384 -0.1186 0.9980
-0.3531 -0.3557 -0.1210 0.9979
-0.3511 -0.3641 -0.1221 0.9979
-0.3468 -0.3814 -0.1244 0.9979
-0.3424 -0.3995 -0.1270 0.9978
-0.3401 -0.4087 -0.1284 0.9978
-0.3352 -0.4276 -0.1312 0.9978
-0.3312 -0.4489 -0.1347 0.9977
-0.3246 -0.4830 -0.1405 0.9976
-0.3171 -0.5195 -0.1469 0.9975
-0.3083 -0.5589 -0.1541 0.9974
-0.3105 -0.5829 -0.1594 0.9973
-0.3237 -0.6296 -0.1709 0.9971
-0.3561 -0.7453 -0.1994 0.9966
-1.0610 -2.3989 -0.6332 0.9893
-0.9085 -2.5409 -0.6514 0.9890
-0.8668 -2.5407 -0.6480 0.9890
-0.8330 -2.6971 -0.6814 0.9885
-0.9836 -4.0004 -0.9944 0.9832
-0.7482 -4.0506 -0.9944 0.9832
-0.6889 -4.0611 -0.9943 0.9832
-0.5699 -4.0792 -0.9943 0.9832
-0.5102 -4.0870 -0.9943 0.9832
-0.3906 -4.1000 -0.9942 0.9832
-0.1504 -4.1154 -0.9941 0.9832
-0.0301 -4.1179 -0.9941 0.9832
0.0903 -4.1168 -0.9940 0.9832
0.1504 -4.1149 -0.9940 0.9832
0.2105 -4.1122 -0.9940 0.9832
0.2705 -4.1086 -0.9939 0.9832
0.3305 -4.1041 -0.9939 0.9832
0.3905 -4.0987 -0.9939 0.9832
0.4503 -4.0925 -0.9939 0.9832
0.5100 -4.0854 -0.9939 0.9832
0.6885 -4.0588 -0.9938 0.9832
0.7478 -4.0482 -0.9938 0.9832
0.5534 -2.7689 -0.6816 0.9884
0.6322 -2.7434 -0.6796 0.9885
0.7105 -2.7176 -0.6781 0.9885
0.7884 -2.6915 -0.6770 0.9885
0.7695 -2.4914 -0.6295 0.9893
0.7857 -2.4179 -0.6137 0.9896
0.8142 -2.2771 -0.5838 0.9901
1.0473 -2.3677 -0.6250 0.9894
1.2030 -2.3397 -0.6351 0.9892
1.2607 -2.3663 -0.6472 0.9890
1.3714 -2.4023 -0.6677 0.9887
1.4046 -2.2275 -0.6357 0.9892
1.5820 -2.2809 -0.6701 0.9886
1.6515 -2.3082 -0.6851 0.9884
1.6323 -2.2124 -0.6637 0.9888
1.8115 -2.2426 -0.6959 0.9882
2.7683 -2.9565 -0.9777 0.9835
2.8950 -2.8322 -0.9777 0.9835
2.9360 -2.7896 -0.9776 0.9835
3.0553 -2.6581 -0.9776 0.9835
3.0938 -2.6131 -0.9776 0.9835
3.2052 -2.4750 -0.9775 0.9835
3.2409 -2.4279 -0.9775 0.9835
3.3104 -2.3320 -0.9775 0.9835
3.4093 -2.1846 -0.9775 0.9835
3.4408 -2.1345 -0.9774 0.9835
3.4716 -2.0840 -0.9774 0.9835
3.5016 -2.0331 -0.9774 0.9835
3.5594 -1.9298 -0.9774 0.9835
3.5872 -1.8776 -0.9774 0.9835
3.6578 -1.8469 -0.9892 0.9833
3.7230 -1.7453 -0.9926 0.9832
3.7723 -1.6357 -0.9926 0.9832
3.8403 -1.4688 -0.9925 0.9832
3.8613 -1.4125 -0.9925 0.9832
3.8815 -1.3559 -0.9925 0.9832
3.9371 -1.1845 -0.9925 0.9832
3.9540 -1.1269 -0.9925 0.9832
3.9700 -1.0689 -0.9925 0.9832
3.9852 -1.0108 -0.9925 0.9832
3.9994 -0.9525 -0.9925 0.9832
4.0129 -0.8939 -0.9925 0.9832
4.0757 -0.5391 -0.9924 0.9832
4.1094 -0.1201 -0.9924 0.9832
4.1094 0.1201 -0.9924 0.9832
4.1041 0.2402 -0.9924 0.9832
4.0831 0.4795 -0.9924 0.9832
4.0757 0.5391 -0.9924 0.9832
4.0674 0.5986 -0.9924 0.9832
4.0373 0.7763 -0.9924 0.9832
4.0255 0.8352 -0.9924 0.9832
4.0129 0.8939 -0.9925 0.9832
3.9995 0.9525 -0.9925 0.9832
3.9699 1.0689 -0.9925 0.9832
3.9540 1.1268 -0.9925 0.9832
3.9194 1.2419 -0.9925 0.9832
3.8815 1.3559 -0.9925 0.9832
3.8184 1.5247 -0.9925 0.9832
3.7958 1.5804 -0.9925 0.9832
3.7480 1.6907 -0.9926 0.9832
3.7230 1.7452 -0.9926 0.9832
3.6971 1.7995 -0.9926 0.9832
3.5561 2.0647 -0.9926 0.9832
3.5256 2.1164 -0.9926 0.9832
3.4944 2.1678 -0.9927 0.9832
3.4296 2.2690 -0.9927 0.9832
3.3270 2.4172 -0.9927 0.9832
3.2914 2.4656 -0.9927 0.9832
3.2551 2.5135 -0.9928 0.9832
3.1803 2.6076 -0.9928 0.9832
3.1419 2.6538 -0.9928 0.9832
3.1029 2.6995 -0.9928 0.9832
3.0631 2.7446 -0.9928 0.9832
2.9817 2.8330 -0.9929 0.9832
2.8978 2.9190 -0.9929 0.9832
2.8549 2.9611 -0.9929 0.9832
2.7672 3.0434 -0.9930 0.9832
2.7225 3.0836 -0.9930 0.9832
2.4904 3.2743 -0.9931 0.9832
2.3446 3.3805 -0.9931 0.9832
2.2950 3.4145 -0.9931 0.9832
2.2450 3.4477 -0.9932 0.9832
2.1433 3.5120 -0.9932 0.9832
2.0399 3.5733 -0.9932 0.9832
1.9347 3.6315 -0.9933 0.9832
1.8814 3.6595 -0.9933 0.9832
1.7194 3.7386 -0.9934 0.9832
1.6646 3.7634 -0.9934 0.9832
1.4982 3.8330 -0.9935 0.9832
1.4421 3.8546 -0.9935 0.9832
1.2719 3.9143 -0.9935 0.9832
1.2146 3.9326 -0.9936 0.9832
1.1570 3.9500 -0.9936 0.9832
0.7702 3.8534 -0.9486 0.9840
0.5997 3.8778 -0.9472 0.9840
0.5697 4.0774 -0.9938 0.9832
0.5101 4.0854 -0.9939 0.9832
0.3905 4.0988 -0.9939 0.9832
0.3305 4.1041 -0.9939 0.9832
0.2706 4.1086 -0.9939 0.9832
0.2105 4.1122 -0.9940 0.9832
0.0301 4.1178 -0.9940 0.9832
-0.0301 4.1179 -0.9941 0.9832
-0.0902 4.1171 -0.9941 0.9832
-0.2105 4.1129 -0.9941 0.9832
-0.2706 4.1095 -0.9942 0.9832
-0.3306 4.1052 -0.9942 0.9832
-0.3906 4.1000 -0.9942 0.9832
-0.5699 4.0793 -0.9943 0.9832
-0.6889 4.0610 -0.9943 0.9832
-0.8073 4.0394 -0.9944 0.9832
-1.1581 3.9537 -0.9945 0.9832
-1.2158 3.9365 -0.9945 0.9832
-1.3872 3.8796 -0.9946 0.9832
-1.4438 3.8591 -0.9946 0.9832
-1.5000 3.8377 -0.9947 0.9832
-1.5560 3.8154 -0.9947 0.9832
-1.6116 3.7924 -0.9947 0.9832
-1.7218 3.7438 -0.9947 0.9832
-0.3387 0.6832 -0.1841 0.9969
-0.3083 0.5589 -0.1541 0.9974
-0.3113 0.5454 -0.1516 0.9974
-0.3269 0.4714 -0.1385 0.9976
-0.3291 0.4600 -0.1365 0.9977
-0.3312 0.4489 -0.1347 0.9977
-0.3352 0.4277 -0.1312 0.9978
-0.3424 0.3995 -0.1270 0.9978
-0.3490 0.3727 -0.1233 0.9979
-0.3511 0.3641 -0.1221 0.9979
-0.3548 0.3471 -0.1198 0.9980
-0.3562 0.3384 -0.1186 0.9980
-0.3598 0.3130 -0.1151 0.9980
-0.3620 0.2968 -0.1130 0.9981
-0.3629 0.2889 -0.1120 0.9981
-0.3648 0.2733 -0.1100 0.9981
-0.3656 0.2657 -0.1091 0.9981
-0.3686 0.2362 -0.1057 0.9982
-0.3697 0.2220 -0.1041 0.9982
-0.3707 0.2081 -0.1026 0.9983
-0.3722 0.1880 -0.1007 0.9983
-0.3730 0.1816 -0.1002 0.9983
-0.3738 0.1753 -0.0997 0.9983
-0.3743 0.1689 -0.0991 0.9983
-0.3766 0.1378 -0.0968 0.9984
-0.3770 0.1317 -0.0964 0.9984
-0.3773 0.1257 -0.0960 0.9984
-0.3776 0.1196 -0.0956 0.9984
-0.3782 0.1018 -0.0946 0.9984
-0.3785 0.0901 -0.0939 0.9984
-0.3787 0.0728 -0.0931 0.9984
-0.3787 0.0671 -0.0928 0.9984
-0.3786 0.0500 -0.0922 0.9984
-0.3779 0.0277 -0.0915 0.9984
-0.3777 0.0221 -0.0913 0.9984
-0.3769 0.0055 -0.0910 0.9985
-0.3707 -0.0109 -0.0939 0.9985
-0.3712 -0.0217 -0.0941 0.9985
-0.3714 -0.0271 -0.0943 0.9985
-0.3721 -0.0603 -0.0954 0.9984
-0.3721 -0.0659 -0.0957 0.9984
-0.3720 -0.0771 -0.0962 0.9984
-0.3720 -0.0829 -0.0965 0.9984
-0.3718 -0.0886 -0.0968 0.9984
-0.3717 -0.0943 -0.0971 0.9984
-0.3715 -0.1000 -0.0974 0.9984
-0.3713 -0.1058 -0.0977 0.9984
-0.3708 -0.1175 -0.0985 0.9984
-0.3705 -0.1234 -0.0989 0.9984
-0.3701 -0.1293 -0.0993 0.9984
-0.3689 -0.1473 -0.1006 0.9984
-0.3684 -0.1534 -0.1010 0.9984
-0.3660 -0.1781 -0.1031 0.9983
-0.3652 -0.1844 -0.1036 0.9983
-0.3638 -0.1972 -0.1047 0.9983
-0.3633 -0.2039 -0.1055 0.9983
-0.3628 -0.2106 -0.1062 0.9983
-0.3622 -0.2174 -0.1069 0.9983
-0.3615 -0.2243 -0.1077 0.9982
-0.3602 -0.2383 -0.1093 0.9982
-0.3595 -0.2454 -0.1102 0.9982
-0.3560 -0.2750 -0.1139 0.9981
-0.3550 -0.2825 -0.1149 0.9981
-0.3540 -0.2902 -0.1159 0.9981
-0.3529 -0.2981 -0.1169 0.9981
-0.3517 -0.3060 -0.1180 0.9981
-0.3492 -0.3223 -0.1203 0.9980
-0.3479 -0.3306 -0.1215 0.9980
-0.3450 -0.3475 -0.1240 0.9980
-0.3429 -0.3557 -0.1251 0.9980
-0.3387 -0.3725 -0.1274 0.9979
-0.3341 -0.3897 -0.1299 0.9979
-0.3293 -0.4077 -0.1327 0.9978
-0.3192 -0.4461 -0.1389 0.9977
-0.3169 -0.4569 -0.1408 0.9977
-0.3146 -0.4679 -0.1427 0.9977
-0.3121 -0.4793 -0.1448 0.9976
-0.3095 -0.4908 -0.1469 0.9976
-0.2946 -0.5529 -0.1586 0.9974
-0.2911 -0.5662 -0.1612 0.9974
-0.3001 -0.6054 -0.1711 0.9972
-0.3267 -0.7103 -0.1979 0.9968
-0.3430 -0.7754 -0.2147 0.9965
-1.0324 -2.6413 -0.7179 0.9884
-0.8906 -2.4910 -0.6697 0.9891
-0.9796 -2.8715 -0.7681 0.9876
-0.8741 -2.6903 -0.7161 0.9884
-0.8569 -3.0922 -0.8123 0.9868
-0.9936 -3.8005 -0.9945 0.9839
-0.9379 -3.8145 -0.9944 0.9839
-0.8821 -3.8277 -0.9944 0.9839
-0.8260 -3.8401 -0.9944 0.9839
-0.7134 -3.8625 -0.9943 0.9839
-0.6002 -3.8814 -0.9943 0.9839
-0.5434 -3.8897 -0.9943 0.9839
-0.4865 -3.8971 -0.9943 0.9839
-0.2007 -3.9218 -0.9941 0.9839
-0.0287 -3.9266 -0.9941 0.9839
0.0287 -3.9265 -0.9940 0.9839
0.0861 -3.9255 -0.9940 0.9839
0.2579 -3.9177 -0.9940 0.9839
0.3723 -3.9084 -0.9939 0.9839
0.7693 -3.8493 -0.9937 0.9839
0.5874 -2.7308 -0.7071 0.9885
0.6201 -2.6907 -0.6990 0.9887
0.6479 -2.6348 -0.6869 0.9889
0.6745 -2.5796 -0.6750 0.9891
0.6877 -2.1164 -0.5634 0.9909
0.9925 -2.5391 -0.6901 0.9888
0.9449 -2.3169 -0.6334 0.9897
1.0507 -2.3754 -0.6576 0.9893
1.1759 -2.3717 -0.6702 0.9891
1.3849 -2.3457 -0.6896 0.9888
1.3958 -2.2136 -0.6625 0.9893
1.4860 -2.2820 -0.6894 0.9888
1.4293 -1.8792 -0.5977 0.9903
1.7979 -2.2934 -0.7377 0.9880
1.8782 -2.3252 -0.7567 0.9877
2.0752 -2.4936 -0.8213 0.9867
2.6398 -2.8194 -0.9778 0.9842
2.6807 -2.7804 -0.9777 0.9842
2.7210 -2.7410 -0.9777 0.9842
2.7607 -2.7008 -0.9777 0.9842
2.7998 -2.6602 -0.9777 0.9842
2.8383 -2.6189 -0.9777 0.9842
2.9136 -2.5348 -0.9777 0.9842
3.1240 -2.2698 -0.9776 0.9842
3.1569 -2.2238 -0.9776 0.9842
3.2204 -2.1305 -0.9775 0.9842
3.2511 -2.0833 -0.9775 0.9842
3.2812 -2.0355 -0.9775 0.9842
3.3105 -1.9873 -0.9775 0.9842
3.3392 -1.9387 -0.9775 0.9842
3.3671 -1.8897 -0.9775 0.9842
3.5503 -1.6643 -0.9926 0.9840
3.5742 -1.6123 -0.9926 0.9840
3.6622 -1.4007 -0.9926 0.9840
3.6822 -1.3470 -0.9926 0.9840
3.7015 -1.2930 -0.9926 0.9840
3.7376 -1.1843 -0.9926 0.9840
3.7706 -1.0746 -0.9926 0.9840
3.7858 -1.0194 -0.9925 0.9840
3.8140 -0.9083 -0.9925 0.9840
3.8268 -0.8525 -0.9925 0.9840
3.8787 -0.5708 -0.9925 0.9840
3.8938 -0.4573 -0.9925 0.9840
3.9000 -0.4003 -0.9925 0.9840
3.9100 -0.2862 -0.9925 0.9840
3.9138 -0.2290 -0.9925 0.9840
3.9167 -0.1718 -0.9925 0.9840
3.9187 -0.1146 -0.9925 0.9840
3.9201 -0.0573 -0.9925 0.9840
3.9138 0.2290 -0.9925 0.9840
3.9100 0.2862 -0.9925 0.9840
3.8867 0.5141 -0.9925 0.9840
3.8788 0.5708 -0.9925 0.9840
3.8700 0.6275 -0.9925 0.9840
3.8604 0.6839 -0.9925 0.9840
3.8501 0.7403 -0.9925 0.9840
3.8388 0.7964 -0.9925 0.9840
3.8140 0.9083 -0.9925 0.9840
3.7859 1.0193 -0.9925 0.9840
3.7706 1.0746 -0.9926 0.9840
3.7199 1.2388 -0.9926 0.9840
3.7015 1.2930 -0.9926 0.9840
3.6622 1.4007 -0.9926 0.9840
3.6413 1.4540 -0.9926 0.9840
3.6197 1.5071 -0.9926 0.9840
3.5742 1.6123 -0.9926 0.9840
3.5256 1.7160 -0.9926 0.9840
3.5002 1.7674 -0.9927 0.9840
3.4472 1.8689 -0.9927 0.9840
3.4195 1.9191 -0.9927 0.9840
3.3912 1.9689 -0.9927 0.9840
3.3621 2.0182 -0.9927 0.9840
3.3323 2.0672 -0.9927 0.9839
3.3017 2.1157 -0.9927 0.9839
3.2386 2.2113 -0.9928 0.9839
3.1387 2.3512 -0.9928 0.9839
3.0687 2.4420 -0.9928 0.9839
3.0328 2.4866 -0.9928 0.9839
2.9962 2.5307 -0.9929 0.9839
2.8825 2.6597 -0.9929 0.9839
2.8434 2.7016 -0.9929 0.9839
2.7224 2.8237 -0.9930 0.9839
