ply
format ascii 1.0
element vertex 1592
property float32 x
property float32 y
property float32 z
property float32 I
end_header
42.1964 -82.0727 6.7873 0.6906
45.2397 -82.0067 6.8882 0.6868
46.7962 -81.9729 6.9421 0.6848
49.9852 -81.9038 7.0570 0.6806
51.6202 -81.8684 7.1181 0.6783
53.2842 -81.8323 7.1819 0.6759
54.9788 -81.7956 7.2484 0.6735
56.7053 -81.7582 7.3178 0.6709
21.7381 -14.3817 1.9170 0.9007
21.7811 -12.6461 1.8524 0.9039
26.0998 -13.1787 2.1504 0.8893
26.7372 -13.0137 2.1870 0.8876
26.4378 -12.3936 2.1475 0.8895
6.1123 -2.7571 0.4932 0.9735
31.3179 -12.5056 2.4802 0.8735
31.6813 -12.1170 2.4947 0.8728
37.5716 -11.9050 2.8987 0.8538
41.8161 -12.5806 3.2116 0.8393
41.9792 -11.9636 3.2104 0.8394
13.2602 -2.7511 0.9960 0.9471
17.5978 -3.3836 1.3180 0.9306
17.1128 -3.0318 1.2782 0.9327
17.5588 -2.3225 1.3026 0.9314
17.7832 -2.0884 1.3169 0.9307
17.7571 -1.8227 1.3128 0.9309
18.1614 -1.5964 1.3409 0.9295
28.6520 -1.6766 2.1109 0.8913
33.0899 9.4303 2.5306 0.8711
27.0135 8.5596 2.0841 0.8926
27.3197 9.0979 2.1178 0.8909
27.1760 9.9412 2.1282 0.8904
26.9143 10.2938 2.1193 0.8909
23.6332 9.4370 1.8716 0.9030
21.4620 9.6810 1.7316 0.9099
6.3533 5.2091 0.6043 0.9676
4.8652 9.8128 0.8055 0.9570
0.9524 3.8735 0.2934 0.9841
0.8925 3.8729 0.2923 0.9842
0.8331 3.8732 0.2914 0.9842
0.7744 3.8744 0.2906 0.9843
0.7159 3.8756 0.2899 0.9843
0.6577 3.8771 0.2892 0.9844
0.4863 3.8951 0.2887 0.9844
0.3165 3.9295 0.2899 0.9843
0.2029 3.9635 0.2919 0.9842
0.0877 3.9991 0.2942 0.9841
-0.6219 9.4438 0.6961 0.9628
-0.9125 7.3092 0.5417 0.9709
-1.1635 7.5239 0.5599 0.9699
-1.2532 6.7848 0.5074 0.9727
-1.2976 6.4927 0.4870 0.9738
-1.3351 5.1070 0.3882 0.9791
-1.4234 4.3809 0.3388 0.9817
-1.4418 4.2262 0.3284 0.9822
-1.5481 3.3663 0.2725 0.9852
-1.5600 3.2655 0.2662 0.9856
-1.6038 2.9073 0.2442 0.9868
-1.6143 2.8277 0.2395 0.9870
-1.6470 2.7896 0.2383 0.9871
-1.8322 2.8139 0.2470 0.9866
-1.8971 2.8224 0.2501 0.9865
-1.9636 2.8311 0.2534 0.9863
-2.3251 2.8784 0.2721 0.9853
-2.4038 2.8885 0.2764 0.9850
-2.4845 2.8983 0.2808 0.9848
-2.5678 2.9084 0.2853 0.9846
-2.9450 2.9666 0.3074 0.9834
-3.1653 3.0075 0.3211 0.9826
-3.8074 3.1217 0.3621 0.9804
-16.4950 9.5771 1.4028 0.9264
-16.7297 9.3891 1.4109 0.9259
-1.4718 0.7704 0.1222 0.9934
-1.4717 0.7431 0.1213 0.9934
-1.2434 0.6053 0.1017 0.9945
-1.1690 0.5480 0.0950 0.9948
-1.1672 0.5265 0.0942 0.9949
-1.1655 0.5054 0.0934 0.9949
-1.1603 0.4634 0.0919 0.9950
-1.1578 0.4429 0.0912 0.9950
-1.1488 0.3641 0.0886 0.9952
-1.1474 0.3452 0.0881 0.9952
-1.1460 0.3266 0.0876 0.9952
-1.1447 0.3082 0.0872 0.9953
-1.1434 0.2900 0.0868 0.9953
-1.1411 0.2542 0.0860 0.9953
-1.1391 0.2190 0.0853 0.9954
-1.1312 0.1496 0.0839 0.9954
-1.1279 0.1325 0.0835 0.9955
-1.1154 0.0653 0.0822 0.9955
-1.1096 0.0325 0.0816 0.9956
-1.0331 0.0000 0.0645 0.9959
-1.0538 -0.0616 0.0659 0.9958
-1.0661 -0.0937 0.0668 0.9957
-1.0726 -0.1101 0.0673 0.9957
-1.0860 -0.1436 0.0684 0.9956
-1.0930 -0.1609 0.0690 0.9956
-1.1057 -0.1959 0.0701 0.9955
-1.1092 -0.2641 0.0712 0.9954
-1.1102 -0.2816 0.0715 0.9954
-1.1124 -0.3170 0.0722 0.9954
-1.1135 -0.3350 0.0726 0.9954
-1.1147 -0.3532 0.0730 0.9953
-1.1162 -0.3717 0.0734 0.9953
-1.1223 -0.4292 0.0750 0.9952
-1.1244 -0.4490 0.0756 0.9952
-1.1337 -0.5314 0.0781 0.9950
-1.1716 -0.5702 0.0813 0.9948
-1.2577 -0.6351 0.0879 0.9944
-1.4418 -0.7817 0.1024 0.9934
-50.0994 -30.0751 3.6471 0.7912
-46.8239 -30.0040 3.4710 0.8002
-17.8618 -12.1962 1.3499 0.9170
-17.5861 -12.3885 1.3426 0.9174
-17.1899 -12.4891 1.3262 0.9184
-35.2249 -29.7526 2.8778 0.8313
-34.1722 -29.7298 2.8270 0.8340
-33.1559 -29.7078 2.7785 0.8366
-32.1735 -29.6865 2.7323 0.8391
-31.2232 -29.6659 2.6881 0.8415
-30.9333 -30.2626 2.7009 0.8408
-33.1158 -35.3681 3.0241 0.8235
-33.0935 -36.3960 3.0703 0.8211
-32.8590 -38.3309 3.1511 0.8168
-32.8347 -39.4549 3.2037 0.8141
-32.8095 -40.6174 3.2588 0.8112
-32.9708 -42.0598 3.3356 0.8072
-32.8558 -47.3717 3.5982 0.7937
-12.9928 -19.9540 1.4862 0.9090
-5.9686 -9.7799 0.7151 0.9551
-5.8205 -9.8584 0.7145 0.9552
-5.6727 -9.9368 0.7141 0.9552
-5.1604 -9.6864 0.6850 0.9570
-4.6690 -9.4170 0.6560 0.9587
-4.6192 -9.6691 0.6688 0.9580
-4.4151 -9.6001 0.6595 0.9585
-4.3168 -9.7595 0.6661 0.9581
-4.0866 -9.6166 0.6522 0.9590
-4.0309 -9.8843 0.6662 0.9581
-3.9028 -9.9850 0.6691 0.9579
-3.7621 -10.0561 0.6701 0.9579
-3.6480 -10.2029 0.6763 0.9575
-3.4931 -10.2390 0.6752 0.9576
-3.4621 -10.6552 0.6993 0.9561
-13.1848 -47.5803 3.0816 0.8205
-12.4349 -47.5641 3.0684 0.8212
-9.8315 -45.7060 2.9180 0.8291
-9.5488 -47.7768 3.0409 0.8226
-9.4728 -51.2849 3.2550 0.8114
-9.3853 -55.3254 3.5024 0.7986
-9.2834 -60.0316 3.7914 0.7839
-9.0190 -72.2418 4.5439 0.7469
-8.8431 -80.3688 5.0464 0.7232
-7.7150 -80.9842 5.0774 0.7218
2.3744 -12.8547 0.8159 0.9490
29.4438 -82.3491 5.4584 0.7043
32.2420 -82.4885 5.5277 0.7012
39.3332 -82.3348 5.6951 0.6937
40.8055 -82.3029 5.7336 0.6920
51.6202 -81.8684 6.0407 0.6785
55.1511 -82.0519 6.1705 0.6729
13.4592 -10.7104 1.0736 0.9334
16.7178 -12.9091 1.3183 0.9188
21.8352 -13.9917 1.6186 0.9013
21.7754 -13.0720 1.5852 0.9032
21.6619 -12.5769 1.5634 0.9045
6.1124 -2.7571 0.4185 0.9735
31.5070 -12.5811 2.1175 0.8729
31.6458 -12.1034 2.1147 0.8730
36.6460 -13.4055 2.4355 0.8552
36.6726 -12.8108 2.4245 0.8558
37.1766 -12.3805 2.4456 0.8547
41.3480 -12.4397 2.6950 0.8411
42.0419 -11.9815 2.7285 0.8393
47.0942 -11.9452 3.0324 0.8231
50.8702 -12.1146 3.2638 0.8109
13.2600 -2.7511 0.8452 0.9472
17.6733 -3.3981 1.1233 0.9304
17.4366 -2.8270 1.1025 0.9317
17.2712 -2.5418 1.0896 0.9324
17.8405 -2.0950 1.1211 0.9305
17.8012 -1.8272 1.1169 0.9308
9.6551 0.9911 0.6058 0.9618
57.7064 10.2235 3.6578 0.7907
52.3669 10.0689 3.3283 0.8076
41.1673 10.4418 2.6508 0.8435
41.3373 11.1303 2.6719 0.8423
26.9396 8.5361 1.7638 0.8929
27.2437 9.0726 1.7922 0.8913
27.6611 9.6629 1.8288 0.8892
23.8319 9.9225 1.6112 0.9017
23.4348 10.1615 1.5942 0.9027
21.7846 9.8266 1.4916 0.9087
15.5309 9.9520 1.1513 0.9287
6.3534 5.2093 0.5128 0.9676
0.9327 3.7935 0.2438 0.9845
0.8741 3.7931 0.2429 0.9845
0.7585 3.7952 0.2416 0.9846
0.7013 3.7968 0.2410 0.9846
0.6444 3.7986 0.2405 0.9847
0.5884 3.8049 0.2403 0.9847
0.5327 3.8131 0.2403 0.9847
0.4767 3.8186 0.2402 0.9847
0.4214 3.8295 0.2405 0.9847
0.3100 3.8491 0.2410 0.9846
0.2545 3.8652 0.2418 0.9846
0.1424 3.8984 0.2435 0.9845
0.0858 3.9154 0.2444 0.9844
-0.6232 9.4654 0.5920 0.9627
-1.1605 7.5048 0.4740 0.9700
-1.2059 7.1090 0.4500 0.9715
-1.2517 6.7769 0.4301 0.9728
-1.2431 5.7791 0.3689 0.9766
-1.2761 5.5378 0.3547 0.9775
-1.3067 5.3144 0.3416 0.9783
-1.3345 5.1043 0.3293 0.9791
-1.3587 4.9030 0.3176 0.9798
-1.3812 4.7156 0.3067 0.9805
-1.5068 3.6950 0.2491 0.9841
-1.5462 3.3621 0.2310 0.9853
-1.5581 3.2616 0.2256 0.9856
-1.6470 2.7896 0.2022 0.9871
-1.7073 2.7975 0.2046 0.9870
-1.7690 2.8056 0.2070 0.9868
-1.8322 2.8138 0.2096 0.9866
-1.8970 2.8223 0.2122 0.9865
-2.3250 2.8783 0.2309 0.9853
-2.4040 2.8887 0.2346 0.9851
-2.4852 2.8991 0.2383 0.9848
-2.7437 2.9304 0.2505 0.9840
-2.8425 2.9483 0.2556 0.9837
-2.9459 2.9675 0.2610 0.9834
-3.1657 3.0078 0.2725 0.9827
-3.4041 3.0501 0.2853 0.9818
-3.5319 3.0728 0.2922 0.9814
-3.6662 3.0966 0.2995 0.9810
-3.8073 3.1217 0.3073 0.9805
-1.4517 0.8429 0.1048 0.9933
-1.4446 0.8108 0.1034 0.9934
-1.4422 0.7549 0.1016 0.9935
-1.1717 0.5703 0.0813 0.9948
-1.1202 0.4098 0.0744 0.9952
-1.1181 0.3906 0.0739 0.9953
-1.1162 0.3717 0.0734 0.9953
-1.1147 0.3532 0.0730 0.9953
-1.1092 0.2642 0.0712 0.9954
-1.1083 0.2469 0.0709 0.9955
-1.1074 0.2298 0.0706 0.9955
-1.1003 0.1784 0.0696 0.9955
-1.0930 0.1609 0.0690 0.9956
-1.0860 0.1437 0.0684 0.9956
-1.0792 0.1268 0.0678 0.9957
-1.0726 0.1101 0.0673 0.9957
-1.0661 0.0937 0.0668 0.9957
-1.0421 0.0305 0.0651 0.9958
-0.9723 -0.0142 0.0499 0.9961
-0.9803 -0.0430 0.0503 0.9961
-0.9898 -0.0724 0.0509 0.9960
-1.0121 -0.1338 0.0524 0.9959
-1.0180 -0.1498 0.0528 0.9959
-1.0361 -0.1992 0.0541 0.9958
-1.0407 -0.2318 0.0547 0.9957
-1.0431 -0.2484 0.0550 0.9957
-1.0457 -0.2652 0.0553 0.9957
-1.0483 -0.2823 0.0557 0.9957
-1.0539 -0.3171 0.0565 0.9956
-1.0569 -0.3349 0.0569 0.9956
-1.0621 -0.3537 0.0574 0.9955
-1.0733 -0.3927 0.0586 0.9954
-1.0750 -0.4111 0.0590 0.9954
-1.0767 -0.4300 0.0595 0.9954
-1.0785 -0.4490 0.0599 0.9953
-1.0805 -0.4684 0.0604 0.9953
-1.0845 -0.5084 0.0614 0.9952
-1.1839 -0.5978 0.0680 0.9947
-1.4204 -0.7434 0.0822 0.9936
-1.4171 -0.8228 0.0841 0.9935
-45.3013 -29.9710 2.7863 0.8045
-17.8944 -12.2184 1.1115 0.9169
-41.6149 -30.2349 2.6386 0.8138
-40.3239 -30.2070 2.5845 0.8173
-39.0846 -30.1801 2.5331 0.8205
-37.8934 -30.1543 2.4841 0.8237
-34.1722 -29.7298 2.3235 0.8341
-33.1558 -29.7077 2.2836 0.8367
-30.9331 -30.2624 2.2198 0.8409
-33.1156 -35.3679 2.4854 0.8236
-33.0933 -36.3957 2.5234 0.8212
-33.0703 -37.4557 2.5631 0.8186
-33.0466 -38.5498 2.6046 0.8160
-32.8436 -39.4657 2.6338 0.8141
-32.9968 -40.8492 2.6937 0.8103
-32.8860 -45.9661 2.8992 0.7974
-32.8555 -47.3713 2.9573 0.7938
-5.4799 -9.9334 0.5819 0.9556
-4.9106 -9.5511 0.5509 0.9579
-4.7161 -9.5121 0.5446 0.9584
-4.2518 -9.6126 0.5392 0.9588
-3.8848 -9.5260 0.5277 0.9596
-3.9163 -10.0196 0.5518 0.9578
-2.9185 -10.5318 0.5606 0.9572
-12.4349 -47.5641 2.5219 0.8213
-11.2458 -45.7366 2.4160 0.8281
-2.6659 -12.3938 0.6503 0.9505
-9.5486 -47.7758 2.4992 0.8227
-9.3851 -55.3241 2.8785 0.7987
-9.2832 -60.0301 3.1159 0.7840
-9.0188 -72.2396 3.7344 0.7471
-8.8428 -80.3661 4.1474 0.7234
-7.9462 -98.6606 5.0773 0.6727
-0.1813 -8.2687 0.4243 0.9674
0.0604 -8.2677 0.4241 0.9674
0.1812 -8.2672 0.4242 0.9674
0.3021 -8.2669 0.4243 0.9674
0.7869 -8.2601 0.4256 0.9673
1.0425 -8.3502 0.4317 0.9669
1.9623 -11.5677 0.6019 0.9541
2.3599 -12.7763 0.6665 0.9493
28.4573 -83.4152 4.5211 0.7026
32.1644 -82.2902 4.5322 0.7020
34.9439 -82.2299 4.5832 0.6992
36.3578 -82.1993 4.6106 0.6977
42.1964 -82.0727 4.7339 0.6910
1.4248 -2.6743 0.1554 0.9879
46.7962 -81.9730 4.8419 0.6852
53.4127 -82.0296 5.0212 0.6757
6.1125 -2.7572 0.3440 0.9735
31.6534 -12.6396 1.7484 0.8724
31.8038 -12.1640 1.7467 0.8725
31.9597 -11.6912 1.7457 0.8726
32.1153 -11.2188 1.7450 0.8726
41.4701 -12.4765 2.2215 0.8408
46.7181 -12.5790 2.4818 0.8238
48.0225 -11.4364 2.5323 0.8206
57.0889 -12.7171 3.0002 0.7912
13.2598 -2.7510 0.6947 0.9472
17.7768 -3.4180 0.9286 0.9301
17.2211 -3.0510 0.8971 0.9323
17.3956 -2.5601 0.9019 0.9320
17.7153 -2.3433 0.9167 0.9309
17.7738 -2.0872 0.9180 0.9308
25.7536 -1.8849 1.3246 0.9017
28.3686 -1.6600 1.4577 0.8924
93.7484 -2.7406 4.8110 0.6868
93.8130 -1.3709 4.8128 0.6867
9.6663 0.8496 0.4978 0.9619
75.0512 8.8134 3.8763 0.7388
72.2065 9.5509 3.7362 0.7470
62.7816 9.2395 3.2552 0.7756
57.2162 9.2766 2.9733 0.7928
52.0275 10.0036 2.7177 0.8088
42.1890 8.7530 2.2102 0.8415
41.9266 9.3395 2.2034 0.8419
41.5269 9.8895 2.1898 0.8428
33.1188 10.4941 1.7821 0.8701
27.5693 10.0852 1.5059 0.8891
23.6031 9.8273 1.3115 0.9027
23.5360 11.0332 1.3334 0.9011
5.0255 9.7746 0.5637 0.9569
0.9139 3.7168 0.1963 0.9848
0.7997 3.7180 0.1951 0.9849
0.6874 3.7213 0.1941 0.9850
0.6316 3.7232 0.1937 0.9850
0.5225 3.7395 0.1937 0.9850
0.4676 3.7451 0.1936 0.9850
0.3038 3.7727 0.1942 0.9850
0.2494 3.7876 0.1947 0.9849
0.1396 3.8193 0.1960 0.9848
0.0282 3.8535 0.1977 0.9847
-1.2503 6.7690 0.3531 0.9728
-1.2950 6.4793 0.3389 0.9739
-1.2431 5.7790 0.3032 0.9766
-1.2761 5.5377 0.2915 0.9775
-1.3329 5.0986 0.2703 0.9791
-1.3798 4.7106 0.2518 0.9805
-1.4206 4.3723 0.2358 0.9818
-1.4390 4.2181 0.2286 0.9823
-1.4568 4.0743 0.2220 0.9828
-1.4743 3.9408 0.2158 0.9833
-1.5319 3.4633 0.1943 0.9849
-1.5444 3.3581 0.1896 0.9853
-1.5563 3.2578 0.1852 0.9856
-1.5677 3.1620 0.1810 0.9860
-1.5891 2.9827 0.1734 0.9866
-1.5991 2.8987 0.1698 0.9868
-1.6094 2.8192 0.1665 0.9871
-1.6470 2.7896 0.1662 0.9871
-2.0318 2.8399 0.1791 0.9861
-2.1020 2.8491 0.1816 0.9859
-2.3250 2.8783 0.1898 0.9853
-2.4039 2.8887 0.1928 0.9851
-2.6553 2.9203 0.2025 0.9843
-2.7445 2.9311 0.2060 0.9840
-2.8433 2.9492 0.2101 0.9837
-2.9468 2.9684 0.2146 0.9834
-3.1656 3.0077 0.2240 0.9827
-3.4040 3.0501 0.2345 0.9819
-3.6661 3.0966 0.2462 0.9810
-3.8072 3.1216 0.2526 0.9805
-1.4487 0.8987 0.0875 0.9932
-1.4186 0.8516 0.0849 0.9934
-1.4171 0.8228 0.0841 0.9935
-1.4171 0.7954 0.0834 0.9935
-1.0845 0.5084 0.0614 0.9952
-1.0824 0.4882 0.0609 0.9953
-1.0785 0.4491 0.0599 0.9953
-1.0750 0.4112 0.0590 0.9954
-1.0733 0.3927 0.0586 0.9954
-1.0705 0.3739 0.0582 0.9955
-1.0621 0.3537 0.0574 0.9955
-1.0569 0.3349 0.0569 0.9956
-1.0539 0.3171 0.0565 0.9956
-1.0511 0.2995 0.0561 0.9956
-1.0483 0.2823 0.0557 0.9957
-1.0457 0.2652 0.0553 0.9957
-1.0432 0.2484 0.0550 0.9957
-1.0305 0.1826 0.0537 0.9958
-1.0242 0.1661 0.0532 0.9959
-1.0181 0.1498 0.0528 0.9959
-1.0063 0.1182 0.0520 0.9960
-0.9951 0.0875 0.0512 0.9960
-0.9846 0.0577 0.0506 0.9961
-0.9803 0.0430 0.0503 0.9961
-0.9763 0.0285 0.0501 0.9961
-0.9115 0.0000 0.0366 0.9964
-0.9149 -0.0134 0.0368 0.9963
-0.9255 -0.0541 0.0373 0.9963
-0.9331 -0.0820 0.0376 0.9963
-0.9427 -0.1107 0.0381 0.9962
-0.9634 -0.1707 0.0393 0.9961
-0.9689 -0.1863 0.0397 0.9961
-0.9728 -0.2018 0.0399 0.9960
-0.9767 -0.2326 0.0404 0.9960
-0.9851 -0.2964 0.0413 0.9959
-0.9874 -0.3128 0.0416 0.9959
-0.9938 -0.3309 0.0421 0.9958
-1.0158 -0.3885 0.0437 0.9957
-1.0216 -0.4079 0.0442 0.9956
-1.0229 -0.4259 0.0445 0.9956
-1.0243 -0.4441 0.0449 0.9955
-1.0258 -0.4627 0.0452 0.9955
-1.0288 -0.5007 0.0460 0.9954
-1.0322 -0.5402 0.0468 0.9953
-1.2465 -0.6758 0.0570 0.9943
-1.4222 -0.8823 0.0673 0.9933
-14.0124 -9.2705 0.6753 0.9350
-42.4578 -29.9094 2.0874 0.8123
-39.0845 -30.1801 1.9847 0.8206
-37.8934 -30.1543 1.9464 0.8238
-35.2249 -29.7526 1.8532 0.8315
-34.1722 -29.7298 1.8205 0.8342
-33.1558 -29.7077 1.7893 0.8368
-31.2232 -29.6659 1.7310 0.8416
-30.9329 -30.2622 1.7393 0.8409
-30.9138 -31.1405 1.7636 0.8389
-33.1370 -34.3701 1.9189 0.8260
-33.0701 -37.4555 2.0082 0.8187
-8.9009 -10.6955 0.5593 0.9458
-9.2696 -11.4756 0.5929 0.9427
-32.9150 -44.6145 2.2283 0.8010
-32.8857 -45.9657 2.2716 0.7975
-31.2363 -47.9717 2.3008 0.7952
-5.6754 -9.9416 0.4601 0.9552
-5.5315 -10.0269 0.4603 0.9552
-5.2972 -9.9431 0.4528 0.9559
-4.3876 -9.5403 0.4220 0.9588
-4.1314 -9.3404 0.4105 0.9599
-3.9326 -9.2542 0.4041 0.9605
-3.7670 -9.6375 0.4159 0.9594
-3.6839 -9.8469 0.4226 0.9588
-3.6437 -10.1909 0.4350 0.9576
-2.9512 -10.6503 0.4442 0.9567
-2.7785 -10.6280 0.4415 0.9570
-11.2458 -45.7367 1.8930 0.8282
-9.4451 -67.6033 2.7435 0.7609
-8.8425 -80.3633 3.2495 0.7235
-0.5625 -8.5426 0.3441 0.9663
-0.1803 -8.2230 0.3306 0.9676
0.3004 -8.2191 0.3306 0.9676
0.4205 -8.2166 0.3307 0.9676
0.6614 -8.2120 0.3311 0.9676
0.7822 -8.2102 0.3315 0.9675
1.2666 -8.1907 0.3331 0.9674
4.2415 -13.0538 0.5517 0.9465
30.7972 -82.3198 3.5325 0.7034
32.1644 -82.2902 3.5511 0.7021
34.9439 -82.2299 3.5910 0.6993
42.1964 -82.0727 3.7091 0.6911
45.2397 -82.0067 3.7643 0.6873
49.9852 -81.9039 3.8565 0.6811
51.6203 -81.8684 3.8899 0.6788
53.2843 -81.8324 3.9248 0.6764
54.9788 -81.7956 3.9611 0.6740
56.7054 -81.7582 3.9990 0.6715
13.4587 -10.7100 0.6913 0.9335
27.6330 -12.9538 1.2266 0.8850
31.9634 -12.2250 1.3754 0.8720
36.6916 -13.4221 1.5703 0.8552
37.1176 -12.9662 1.5802 0.8544
37.5772 -12.5138 1.5918 0.8534
42.2375 -13.3834 1.7808 0.8375
41.7825 -12.5705 1.7537 0.8397
47.5409 -12.8006 1.9788 0.8211
48.6908 -12.3501 2.0189 0.8178
57.2501 -12.7530 2.3574 0.7907
25.7548 -1.8850 1.0379 0.9018
28.8059 -1.6855 1.1597 0.8909
37.1815 -1.6309 1.4958 0.8616
93.2607 -2.7263 3.7499 0.6883
93.4628 -1.3658 3.7569 0.6878
9.6304 0.9885 0.3891 0.9620
74.9581 8.8025 3.0334 0.7392
62.4597 9.1921 2.5374 0.7767
56.7936 10.0618 2.3182 0.7938
42.1464 8.7441 1.7300 0.8417
18.8656 4.2025 0.7768 0.9255
18.9213 4.7993 0.7846 0.9248
27.5883 10.0921 1.1807 0.8891
23.8433 9.5209 1.0319 0.9023
23.0072 9.5791 1.0017 0.9050
22.6212 10.2039 0.9974 0.9054
23.4860 11.0098 1.0425 0.9014
15.5337 9.9537 0.7415 0.9288
9.7847 7.7864 0.5026 0.9512
9.5240 8.0445 0.5011 0.9513
3.2368 9.0529 0.3864 0.9622
1.0231 3.6923 0.1540 0.9848
0.9535 3.6472 0.1515 0.9850
0.8958 3.6432 0.1508 0.9851
0.7840 3.6450 0.1499 0.9852
0.5657 3.6582 0.1488 0.9853
0.3517 3.6922 0.1491 0.9853
0.1368 3.7434 0.1506 0.9851
-1.1580 7.4881 0.3045 0.9701
-1.2488 6.7612 0.2763 0.9729
-1.2936 6.4723 0.2653 0.9739
-1.2761 5.5377 0.2284 0.9775
-1.4192 4.3680 0.1846 0.9818
-1.4377 4.2141 0.1790 0.9823
-1.4723 3.9354 0.1689 0.9833
-1.4881 3.8072 0.1643 0.9838
-1.5029 3.6853 0.1600 0.9842
-1.5167 3.5693 0.1559 0.9846
-1.5545 3.2539 0.1449 0.9857
-1.5873 2.9795 0.1357 0.9866
-1.5974 2.8955 0.1329 0.9868
-1.6070 2.8150 0.1303 0.9871
-1.7072 2.7974 0.1317 0.9870
-1.8970 2.8223 0.1367 0.9865
-1.9635 2.8310 0.1385 0.9863
-2.1019 2.8491 0.1423 0.9859
-2.2484 2.8682 0.1465 0.9855
-2.3249 2.8783 0.1487 0.9853
-2.4039 2.8886 0.1510 0.9851
-2.4854 2.8992 0.1535 0.9848
-2.5695 2.9102 0.1560 0.9846
-2.9473 2.9689 0.1681 0.9834
-3.2821 3.0283 0.1795 0.9823
-3.4040 3.0500 0.1837 0.9819
-1.4127 0.8481 0.0662 0.9934
-1.2467 0.6759 0.0570 0.9943
-1.0322 0.5403 0.0468 0.9953
-1.0305 0.5204 0.0464 0.9954
-1.0288 0.5008 0.0460 0.9954
-1.0273 0.4816 0.0456 0.9955
-1.0257 0.4627 0.0452 0.9955
-1.0243 0.4441 0.0449 0.9955
-1.0158 0.3886 0.0437 0.9957
-1.0091 0.3691 0.0432 0.9957
-1.0015 0.3498 0.0426 0.9958
-0.9938 0.3309 0.0421 0.9958
-0.9874 0.3129 0.0416 0.9959
-0.9851 0.2964 0.0413 0.9959
-0.9766 0.2326 0.0404 0.9960
-0.9747 0.2171 0.0401 0.9960
-0.9689 0.1863 0.0397 0.9961
-0.9634 0.1707 0.0393 0.9961
-0.9477 0.1254 0.0384 0.9962
-0.9427 0.1107 0.0382 0.9962
-0.9379 0.0963 0.0379 0.9962
-0.9292 0.0680 0.0374 0.9963
-0.9255 0.0541 0.0373 0.9963
-0.9149 0.0134 0.0368 0.9963
-0.8670 -0.0253 0.0252 0.9965
-0.8867 -0.1041 0.0260 0.9964
-0.8910 -0.1179 0.0262 0.9964
-0.8954 -0.1318 0.0263 0.9964
-0.9000 -0.1459 0.0265 0.9964
-0.9092 -0.1748 0.0269 0.9963
-0.9140 -0.1896 0.0272 0.9963
-0.9167 -0.2042 0.0273 0.9962
-0.9197 -0.2333 0.0276 0.9962
-0.9213 -0.2480 0.0278 0.9962
-0.9247 -0.2782 0.0281 0.9961
-0.9338 -0.3109 0.0286 0.9961
-0.9403 -0.3285 0.0290 0.9960
-0.9470 -0.3464 0.0293 0.9960
-0.9539 -0.3648 0.0297 0.9959
-0.9657 -0.4021 0.0304 0.9958
-0.9718 -0.4214 0.0308 0.9958
-0.9748 -0.4397 0.0311 0.9957
-0.9758 -0.4574 0.0314 0.9957
-0.9769 -0.4754 0.0316 0.9957
-0.9804 -0.5315 0.0324 0.9955
-1.1001 -0.6174 0.0367 0.9950
-13.9268 -9.2138 0.4859 0.9354
-13.9212 -9.5054 0.4905 0.9348
-40.3239 -30.2070 1.4660 0.8174
-39.0845 -30.1801 1.4368 0.8207
-36.3163 -29.7762 1.3665 0.8287
-33.1559 -29.7078 1.2953 0.8368
-32.1736 -29.6864 1.2738 0.8393
-31.2232 -29.6658 1.2532 0.8417
-12.7096 -12.4340 0.5174 0.9313
-33.1151 -35.3674 1.4098 0.8238
-9.3520 -10.5921 0.4111 0.9450
-8.8331 -10.6141 0.4018 0.9462
-8.9711 -11.1059 0.4154 0.9445
-8.7978 -11.2231 0.4149 0.9445
-8.7135 -11.4565 0.4188 0.9440
-32.8855 -45.9655 1.6445 0.7976
-31.2363 -47.9717 1.6657 0.7953
-5.9108 -9.6852 0.3301 0.9556
-5.8156 -9.8500 0.3328 0.9553
-4.9654 -9.6579 0.3160 0.9575
-4.8827 -9.8483 0.3198 0.9570
-4.5464 -9.5169 0.3069 0.9587
-4.5091 -9.8045 0.3140 0.9577
-3.9915 -9.3927 0.2970 0.9600
-3.7948 -9.7086 0.3033 0.9591
-3.6779 -9.8310 0.3054 0.9589
-3.4356 -10.0705 0.3096 0.9583
-3.2387 -9.9676 0.3050 0.9589
-3.0905 -10.0070 0.3047 0.9590
-3.1110 -10.6214 0.3220 0.9567
-2.8846 -10.4096 0.3143 0.9577
-10.5361 -45.7213 1.3652 0.8288
-2.6531 -12.3341 0.3671 0.9508
-9.8639 -53.4020 1.5801 0.8047
-9.3847 -55.3214 1.6327 0.7989
-9.4451 -67.6033 1.9861 0.7610
-8.9502 -81.3424 2.3811 0.7207
-0.5390 -8.1850 0.2387 0.9677
-0.0597 -8.1750 0.2379 0.9678
0.2987 -8.1719 0.2379 0.9678
0.4181 -8.1690 0.2380 0.9678
0.5377 -8.1655 0.2381 0.9678
0.6575 -8.1629 0.2383 0.9678
0.7775 -8.1611 0.2385 0.9677
1.0176 -8.1512 0.2390 0.9677
1.1384 -8.1479 0.2394 0.9676
1.2594 -8.1440 0.2398 0.9676
1.3807 -8.1393 0.2402 0.9675
1.6275 -8.1430 0.2416 0.9673
1.7531 -8.1502 0.2426 0.9672
4.2412 -13.0529 0.3993 0.9466
28.4581 -83.4176 2.5646 0.7028
29.4438 -82.3492 2.5447 0.7047
30.7972 -82.3198 2.5574 0.7035
33.5464 -82.2602 2.5849 0.7008
34.9439 -82.2299 2.5997 0.6994
36.3579 -82.1993 2.6153 0.6979
42.1964 -82.0727 2.6852 0.6912
1.4521 -2.6323 0.0875 0.9880
46.7962 -81.9730 2.7465 0.6854
48.3776 -81.9388 2.7687 0.6833
49.9851 -81.9039 2.7919 0.6812
56.7053 -81.7582 2.8951 0.6716
13.4590 -10.7102 0.5005 0.9335
47.3381 -12.7460 1.4265 0.8219
48.4579 -12.2911 1.4546 0.8187
13.2601 -2.7511 0.3940 0.9472
67.4299 -12.9651 1.9980 0.7597
17.3305 -3.0704 0.5121 0.9320
17.6051 -2.8544 0.5189 0.9311
17.6495 -2.5975 0.5191 0.9311
17.9251 -2.1050 0.5252 0.9303
25.1983 -2.2148 0.7360 0.9037
25.3999 -1.8590 0.7410 0.9031
32.6014 -1.9076 0.9502 0.8775
36.7007 -1.0728 1.0683 0.8634
9.5881 0.9842 0.2804 0.9622
9.6114 1.1287 0.2816 0.9620
71.4762 9.4543 2.0979 0.7494
62.4757 9.1945 1.8374 0.7767
61.5502 10.9045 1.8188 0.7787
52.1612 10.0293 1.5455 0.8085
19.5694 4.0601 0.5815 0.9231
18.7406 4.1747 0.5587 0.9260
18.4947 4.4045 0.5532 0.9267
18.5284 4.6997 0.5562 0.9264
18.5626 4.9981 0.5594 0.9260
18.6194 5.3064 0.5633 0.9254
18.6796 5.6199 0.5676 0.9249
27.6514 10.1152 0.8567 0.8889
23.0647 10.0010 0.7315 0.9043
22.6781 11.0380 0.7339 0.9040
15.5644 9.9734 0.5379 0.9287
9.7809 7.7833 0.3637 0.9512
6.3537 5.2095 0.2391 0.9677
0.9353 3.5777 0.1076 0.9853
0.7149 3.5772 0.1061 0.9855
0.6611 3.5793 0.1059 0.9855
0.5027 3.5982 0.1057 0.9856
0.4503 3.6064 0.1058 0.9856
0.3978 3.6150 0.1058 0.9856
0.2398 3.6415 0.1062 0.9855
0.1872 3.6562 0.1065 0.9855
0.1342 3.6709 0.1069 0.9854
0.0271 3.7016 0.1077 0.9853
-0.0272 3.7218 0.1083 0.9852
-0.6246 9.4852 0.2766 0.9627
-1.1566 7.4794 0.2202 0.9702
-1.2011 7.0804 0.2090 0.9717
-1.2470 6.7515 0.1998 0.9729
-1.2922 6.4654 0.1918 0.9740
-1.2431 5.7789 0.1720 0.9766
-1.3038 5.3026 0.1589 0.9784
-1.3300 5.0872 0.1530 0.9792
-1.3542 4.8872 0.1476 0.9799
-1.3769 4.7009 0.1425 0.9806
-1.3981 4.5268 0.1379 0.9812
-1.4179 4.3637 0.1335 0.9818
-1.4363 4.2102 0.1294 0.9824
-1.4703 3.9301 0.1221 0.9833
-1.4862 3.8021 0.1188 0.9838
-1.5010 3.6805 0.1157 0.9842
-1.5149 3.5648 0.1127 0.9846
-1.5281 3.4548 0.1099 0.9850
-1.5406 3.3500 0.1073 0.9854
-1.5747 3.0628 0.1002 0.9863
-1.5941 2.8897 0.0960 0.9869
-1.6044 2.8105 0.0942 0.9871
-1.8322 2.8139 0.0977 0.9867
-1.9635 2.8309 0.1002 0.9863
-2.1019 2.8491 0.1030 0.9859
-2.3249 2.8782 0.1077 0.9853
-2.4038 2.8885 0.1093 0.9851
-2.4853 2.8992 0.1111 0.9848
-2.6565 2.9216 0.1149 0.9843
-2.7459 2.9327 0.1169 0.9841
-2.9472 2.9689 0.1217 0.9834
-3.0540 2.9878 0.1243 0.9830
-3.4039 3.0499 0.1330 0.9819
-3.5317 3.0726 0.1362 0.9814
-3.6659 3.0964 0.1396 0.9810
-3.8070 3.1214 0.1432 0.9805
-1.4230 0.8828 0.0487 0.9933
-1.1002 0.6175 0.0367 0.9950
-0.9804 0.5316 0.0324 0.9955
-0.9780 0.4938 0.0319 0.9956
-0.9748 0.4397 0.0311 0.9957
-0.9719 0.4214 0.0308 0.9958
-0.9657 0.4021 0.0304 0.9958
-0.9539 0.3648 0.0297 0.9959
-0.9470 0.3464 0.0293 0.9960
-0.9338 0.3110 0.0286 0.9961
-0.9275 0.2939 0.0283 0.9961
-0.9247 0.2782 0.0281 0.9961
-0.9230 0.2630 0.0279 0.9962
-0.9197 0.2333 0.0276 0.9962
-0.9167 0.2042 0.0273 0.9962
-0.9045 0.1603 0.0267 0.9963
-0.8955 0.1318 0.0263 0.9964
-0.8867 0.1041 0.0260 0.9964
-0.8832 0.0907 0.0258 0.9965
-0.8798 0.0773 0.0257 0.9965
-0.8765 0.0642 0.0256 0.9965
-0.8640 0.0127 0.0251 0.9965
-0.8296 -0.0607 0.0150 0.9967
-0.8354 -0.0857 0.0151 0.9966
-0.8384 -0.0984 0.0152 0.9966
-0.8414 -0.1113 0.0153 0.9966
-0.8447 -0.1243 0.0154 0.9966
-0.8485 -0.1375 0.0155 0.9966
-0.8675 -0.2200 0.0161 0.9964
-0.8754 -0.2773 0.0165 0.9963
-0.8807 -0.2932 0.0167 0.9963
-0.8862 -0.3095 0.0169 0.9963
-0.9037 -0.3608 0.0175 0.9961
-0.9141 -0.3963 0.0179 0.9960
-0.9248 -0.4335 0.0184 0.9959
-0.9299 -0.4526 0.0186 0.9959
-0.9313 -0.4875 0.0189 0.9958
-13.4957 -9.2149 0.2943 0.9367
-42.4579 -29.9094 0.9353 0.8124
-40.3239 -30.2070 0.9074 0.8174
-39.0845 -30.1801 0.8893 0.8207
-37.8934 -30.1543 0.8721 0.8239
-36.3163 -29.7763 0.8458 0.8287
-35.2249 -29.7526 0.8304 0.8315
-32.1736 -29.6864 0.7884 0.8393
-31.2232 -29.6659 0.7756 0.8417
-30.9325 -30.2619 0.7793 0.8410
-30.9135 -31.1401 0.7902 0.8390
-8.9100 -10.7065 0.2509 0.9458
-8.7328 -11.1401 0.2549 0.9449
-8.7281 -11.4756 0.2597 0.9440
-32.8852 -45.9652 1.0178 0.7976
-32.8548 -47.3702 1.0382 0.7940
-32.2590 -47.9938 1.0414 0.7935
-31.2363 -47.9717 1.0309 0.7953
-5.5402 -9.7048 0.2013 0.9563
-5.1175 -9.9536 0.2016 0.9562
-4.8902 -9.8632 0.1983 0.9569
-4.2959 -9.3408 0.1852 0.9597
-4.0521 -9.5352 0.1866 0.9594
-3.9258 -9.6264 0.1872 0.9593
-3.5863 -10.0302 0.1918 0.9583
-2.7771 -10.6226 0.1977 0.9570
-2.6570 -12.3519 0.2275 0.9507
-9.8637 -53.4008 0.9780 0.8047
-9.3845 -55.3203 1.0105 0.7989
-9.4451 -67.6033 1.2293 0.7610
-9.0180 -72.2332 1.3110 0.7473
-0.7761 -8.1465 0.1474 0.9678
-0.1783 -8.1335 0.1465 0.9680
-0.0594 -8.1306 0.1464 0.9680
0.0594 -8.1276 0.1464 0.9680
0.2970 -8.1253 0.1464 0.9680
0.4157 -8.1220 0.1465 0.9680
0.7729 -8.1126 0.1468 0.9679
0.8923 -8.1091 0.1469 0.9679
1.0117 -8.1036 0.1471 0.9679
1.1317 -8.1005 0.1473 0.9678
1.2522 -8.0972 0.1476 0.9678
1.3729 -8.0931 0.1478 0.9677
1.6174 -8.0924 0.1486 0.9675
1.8679 -8.1056 0.1498 0.9673
1.9906 -8.0958 0.1501 0.9672
2.1113 -8.0756 0.1503 0.9672
28.4585 -83.4188 1.5873 0.7028
29.4438 -82.3492 1.5750 0.7048
30.7972 -82.3198 1.5829 0.7035
32.1644 -82.2902 1.5912 0.7022
33.5464 -82.2602 1.5999 0.7009
36.3578 -82.1993 1.6187 0.6980
37.7891 -82.1683 1.6288 0.6964
42.1964 -82.0727 1.6620 0.6913
1.4308 -2.6857 0.0548 0.9879
51.6202 -81.8685 1.7430 0.6790
53.2843 -81.8324 1.7586 0.6766
54.9788 -81.7957 1.7749 0.6742
56.7054 -81.7582 1.7919 0.6716
26.8048 -13.0467 0.5369 0.8876
23.9685 -8.7679 0.4596 0.9029
13.2603 -2.7511 0.2439 0.9473
17.3857 -3.0801 0.3180 0.9318
17.7792 -2.6166 0.3236 0.9306
25.3001 -2.2238 0.4574 0.9034
35.7675 -1.5689 0.6448 0.8666
36.8026 -1.0758 0.6631 0.8630
9.5756 0.9829 0.1734 0.9622
34.3402 4.5423 0.6238 0.8706
34.5209 5.0804 0.6284 0.8697
18.4560 4.3953 0.3417 0.9269
18.4895 4.6898 0.3435 0.9265
18.5576 5.2887 0.3475 0.9257
18.6422 5.9070 0.3522 0.9247
18.8869 6.5978 0.3603 0.9231
23.6506 9.4440 0.4586 0.9031
22.5101 10.1538 0.4447 0.9059
22.6176 11.0086 0.4530 0.9043
4.9993 9.7237 0.1969 0.9572
0.9178 3.5107 0.0654 0.9856
0.7546 3.5079 0.0646 0.9857
0.7015 3.5101 0.0645 0.9858
0.6487 3.5123 0.0643 0.9858
0.4934 3.5315 0.0642 0.9858
0.4420 3.5404 0.0643 0.9858
0.3904 3.5481 0.0643 0.9858
0.3387 3.5554 0.0643 0.9858
0.1836 3.5868 0.0647 0.9857
0.0265 3.6302 0.0654 0.9856
-0.1364 3.7330 0.0673 0.9852
-1.1552 7.4702 0.1361 0.9702
-1.2139 6.5719 0.1204 0.9736
-1.2908 6.4585 0.1186 0.9740
-1.3023 5.2964 0.0982 0.9784
-1.3285 5.0815 0.0946 0.9792
-1.3528 4.8819 0.0912 0.9799
-1.3755 4.6959 0.0881 0.9806
-1.3966 4.5222 0.0852 0.9812
-1.3238 3.8804 0.0738 0.9837
-1.3664 3.8216 0.0731 0.9839
-1.4096 3.7680 0.0725 0.9840
-1.4588 3.7323 0.0722 0.9841
-1.4973 3.6716 0.0714 0.9843
-1.5106 3.5548 0.0696 0.9847
-1.5233 3.4439 0.0678 0.9850
-1.5353 3.3384 0.0662 0.9854
-1.5468 3.2379 0.0646 0.9857
-1.5682 3.0502 0.0618 0.9864
-1.5793 2.9646 0.0605 0.9867
-1.6460 2.7878 0.0583 0.9871
-1.7687 2.8052 0.0597 0.9868
-1.8975 2.8230 0.0613 0.9865
-1.9640 2.8317 0.0621 0.9863
-2.0322 2.8406 0.0629 0.9861
-2.2488 2.8687 0.0656 0.9855
-2.3253 2.8787 0.0666 0.9853
-2.4042 2.8890 0.0677 0.9851
-2.5697 2.9105 0.0699 0.9846
-3.1657 3.0079 0.0786 0.9827
-3.4042 3.0502 0.0823 0.9819
-3.6663 3.0968 0.0864 0.9810
-3.8069 3.1214 0.0887 0.9805
-1.1484 0.6894 0.0241 0.9947
-0.9329 0.5236 0.0193 0.9957
-0.9306 0.4699 0.0188 0.9958
-0.9299 0.4527 0.0186 0.9959
-0.9194 0.4147 0.0182 0.9960
-0.9090 0.3785 0.0177 0.9961
-0.8807 0.2933 0.0167 0.9963
-0.8714 0.2622 0.0164 0.9964
-0.8688 0.2339 0.0162 0.9964
-0.8663 0.2063 0.0160 0.9964
-0.8648 0.1927 0.0160 0.9965
-0.8606 0.1786 0.0158 0.9965
-0.8565 0.1647 0.0157 0.9965
-0.8446 0.1243 0.0154 0.9966
-0.8414 0.1113 0.0153 0.9966
-0.8354 0.0858 0.0151 0.9966
-0.8325 0.0732 0.0151 0.9967
-0.8296 0.0607 0.0150 0.9967
-0.8268 0.0484 0.0149 0.9967
-0.8211 0.0240 0.0148 0.9967
-0.8184 0.0120 0.0147 0.9967
-0.7774 -0.0114 0.0054 0.9969
-0.7799 -0.0228 0.0054 0.9969
-0.7900 -0.0694 0.0055 0.9968
-0.7926 -0.0813 0.0055 0.9968
-0.7952 -0.0934 0.0055 0.9968
-0.7978 -0.1055 0.0056 0.9968
-0.8005 -0.1178 0.0056 0.9968
-0.8061 -0.1428 0.0057 0.9967
-0.8096 -0.1556 0.0057 0.9967
-0.8167 -0.1819 0.0058 0.9967
-0.8200 -0.1953 0.0058 0.9966
-0.8219 -0.2213 0.0059 0.9966
-0.8229 -0.2345 0.0059 0.9966
-0.8287 -0.2626 0.0060 0.9965
-0.8381 -0.2927 0.0061 0.9965
-0.8429 -0.3083 0.0062 0.9964
-0.8478 -0.3242 0.0063 0.9964
-0.8580 -0.3572 0.0064 0.9963
-0.8763 -0.4265 0.0068 0.9961
-0.8810 -0.4448 0.0068 0.9961
-0.8859 -0.4637 0.0069 0.9960
-0.8887 -0.4988 0.0071 0.9959
-0.8891 -0.5162 0.0071 0.9959
-0.9722 -0.6031 0.0079 0.9954
-13.7721 -8.8249 0.1133 0.9367
-13.4880 -9.2097 0.1131 0.9368
-15.0762 -11.2937 0.1305 0.9274
-14.6499 -11.3123 0.1282 0.9286
-14.3650 -11.4312 0.1271 0.9292
-32.1735 -29.6865 0.3032 0.8394
-31.2232 -29.6659 0.2983 0.8417
-30.9323 -30.2616 0.2997 0.8411
-33.1363 -34.3694 0.3307 0.8262
-9.7505 -10.7236 0.1004 0.9437
-9.3546 -10.5951 0.0979 0.9450
-9.2153 -10.7499 0.0981 0.9449
-8.9333 -10.7344 0.0967 0.9457
-8.5583 -11.2524 0.0979 0.9450
-8.4271 -11.4225 0.0983 0.9448
-8.4896 -11.8663 0.1011 0.9433
-32.8545 -47.3699 0.3993 0.7941
-31.2363 -47.9717 0.3965 0.7953
-30.2338 -47.9500 0.3926 0.7971
-5.2965 -9.6010 0.0759 0.9571
-4.4971 -9.4136 0.0723 0.9591
-4.3209 -9.3954 0.0716 0.9595
-3.3840 -9.9193 0.0726 0.9589
-3.2772 -10.0863 0.0735 0.9585
-3.0381 -9.8371 0.0713 0.9597
-2.9030 -9.9113 0.0715 0.9595
-2.8236 -10.1896 0.0732 0.9586
-11.2458 -45.7367 0.3262 0.8283
-2.6658 -12.3929 0.0878 0.9506
-0.9853 -7.8918 0.0551 0.9687
-0.8680 -7.8893 0.0550 0.9688
-0.7720 -8.1039 0.0564 0.9680
-0.6524 -8.1007 0.0563 0.9680
-0.5332 -8.0975 0.0562 0.9681
-0.2957 -8.0921 0.0561 0.9681
0.1771 -8.0808 0.0560 0.9682
0.2953 -8.0790 0.0560 0.9682
0.5315 -8.0721 0.0560 0.9682
0.7683 -8.0653 0.0561 0.9681
1.0058 -8.0564 0.0562 0.9680
1.1252 -8.0536 0.0563 0.9680
1.2453 -8.0527 0.0564 0.9679
1.4866 -8.0483 0.0567 0.9678
1.6087 -8.0488 0.0569 0.9677
1.9834 -8.0666 0.0575 0.9673
33.5464 -82.2603 0.6153 0.7009
39.2386 -82.1369 0.6305 0.6948
1.4329 -2.6895 0.0211 0.9879
1.4562 -2.6397 0.0209 0.9880
49.9852 -81.9039 0.6646 0.6813
53.2843 -81.8323 0.6763 0.6766
56.7054 -81.7582 0.6891 0.6717
26.8078 -13.0481 0.2065 0.8876
6.1130 -2.7574 0.0464 0.9735
23.5262 -8.9980 0.1745 0.9042
23.5181 -8.6032 0.1734 0.9047
25.6844 -8.1384 0.1866 0.8978
28.8429 -8.2199 0.2077 0.8869
31.3992 -7.9642 0.2244 0.8785
34.9614 -8.3260 0.2489 0.8661
36.4060 -8.1098 0.2583 0.8614
17.9106 -2.6359 0.1254 0.9301
22.1543 -2.2739 0.1542 0.9148
25.4109 -2.2336 0.1767 0.9030
35.6511 -2.0861 0.2473 0.8669
35.5311 -1.5585 0.2463 0.8674
26.4934 4.2954 0.1859 0.8982
26.6214 5.1186 0.1878 0.8972
18.4984 4.1207 0.1313 0.9270
18.4175 4.3862 0.1311 0.9271
18.4843 4.9770 0.1326 0.9263
18.5183 5.2776 0.1334 0.9259
18.6658 6.5206 0.1369 0.9240
23.5408 9.4002 0.1756 0.9036
22.8318 9.5061 0.1713 0.9058
22.7665 10.2695 0.1730 0.9049
22.4663 10.9350 0.1731 0.9049
15.5792 9.9829 0.1282 0.9287
9.5210 8.0420 0.0863 0.9514
1.0809 3.4998 0.0254 0.9855
0.9573 3.4545 0.0248 0.9858
0.8482 3.4498 0.0246 0.9859
0.7435 3.4567 0.0245 0.9860
0.6914 3.4592 0.0244 0.9860
0.6394 3.4616 0.0244 0.9860
0.5373 3.4745 0.0243 0.9860
0.4867 3.4836 0.0244 0.9860
0.3341 3.5069 0.0244 0.9860
0.2830 3.5134 0.0244 0.9860
0.2320 3.5225 0.0244 0.9860
0.1809 3.5341 0.0245 0.9859
0.1296 3.5477 0.0246 0.9859
0.0781 3.5614 0.0247 0.9859
-0.0262 3.5874 0.0248 0.9858
-0.0791 3.6078 0.0250 0.9857
-0.1326 3.6284 0.0251 0.9856
-0.1878 3.6684 0.0254 0.9854
-0.6237 9.4709 0.0657 0.9627
-1.1844 6.4124 0.0452 0.9743
-1.2716 6.3627 0.0449 0.9744
-1.3270 5.0759 0.0363 0.9792
-1.3741 4.6912 0.0339 0.9806
-1.3062 4.0198 0.0293 0.9832
-1.3229 3.8779 0.0284 0.9837
-1.3829 3.6965 0.0273 0.9843
-1.4903 3.6543 0.0273 0.9843
-1.5164 3.4284 0.0260 0.9851
-1.5286 3.3238 0.0253 0.9855
-1.5402 3.2240 0.0247 0.9858
-1.5522 3.1309 0.0242 0.9861
-1.5649 3.0437 0.0237 0.9864
-1.5770 2.9600 0.0232 0.9867
-1.5886 2.8796 0.0228 0.9869
-1.6451 2.7864 0.0224 0.9871
-1.7057 2.7950 0.0227 0.9870
-1.7678 2.8037 0.0230 0.9868
-1.8314 2.8127 0.0232 0.9867
-1.8967 2.8218 0.0235 0.9865
-1.9637 2.8312 0.0239 0.9863
-2.1030 2.8505 0.0245 0.9859
-2.2495 2.8696 0.0253 0.9855
-2.5705 2.9114 0.0269 0.9846
-2.8460 2.9519 0.0284 0.9837
-3.1669 3.0089 0.0303 0.9827
-3.5326 3.0734 0.0324 0.9814
-0.8887 0.4988 0.0071 0.9959
-0.8884 0.4816 0.0070 0.9960
-0.8811 0.4449 0.0068 0.9961
-0.8763 0.4266 0.0068 0.9961
-0.8717 0.4087 0.0067 0.9962
-0.8673 0.3912 0.0066 0.9962
-0.8629 0.3741 0.0065 0.9962
-0.8429 0.3083 0.0062 0.9964
-0.8242 0.2480 0.0060 0.9966
-0.8229 0.2345 0.0059 0.9966
-0.8219 0.2213 0.0059 0.9966
-0.8200 0.1953 0.0058 0.9966
-0.8131 0.1687 0.0058 0.9967
-0.8096 0.1557 0.0057 0.9967
-0.7979 0.1055 0.0056 0.9968
-0.7952 0.0934 0.0055 0.9968
-0.7900 0.0695 0.0055 0.9968
-0.7874 0.0577 0.0055 0.9968
-0.7849 0.0459 0.0054 0.9969
-0.7824 0.0343 0.0054 0.9969
-0.7774 0.0114 0.0054 0.9969
-0.7381 0.0000 -0.0031 0.9971
-0.7426 -0.0217 -0.0031 0.9970
-0.7448 -0.0327 -0.0031 0.9970
-0.7539 -0.0774 -0.0031 0.9970
-0.7562 -0.0888 -0.0032 0.9970
-0.7608 -0.1120 -0.0032 0.9969
-0.7737 -0.1723 -0.0033 0.9968
-0.7769 -0.1850 -0.0033 0.9968
-0.7798 -0.2099 -0.0034 0.9968
-0.7868 -0.2493 -0.0034 0.9967
-0.7908 -0.2634 -0.0035 0.9967
-0.7948 -0.2777 -0.0035 0.9966
-0.7990 -0.2923 -0.0035 0.9966
-0.8118 -0.3380 -0.0037 0.9965
-0.8163 -0.3539 -0.0037 0.9964
-0.8207 -0.3702 -0.0037 0.9964
-0.8321 -0.4202 -0.0039 0.9963
-0.8487 -0.5438 -0.0042 0.9960
-13.4864 -8.9225 -0.0672 0.9374
-13.4803 -9.2045 -0.0678 0.9368
-13.9183 -11.4118 -0.0748 0.9305
-34.1722 -29.7298 -0.1882 0.8343
-33.1559 -29.7078 -0.1850 0.8369
-11.2360 -10.9923 -0.0653 0.9391
-8.8819 -9.4859 -0.0540 0.9493
-32.8847 -45.9645 -0.2349 0.7977
-32.8543 -47.3695 -0.2396 0.7941
-31.2363 -47.9717 -0.2379 0.7953
-30.2337 -47.9500 -0.2356 0.7971
-6.1186 -10.0256 -0.0488 0.9541
-5.6814 -9.6227 -0.0464 0.9563
-5.5536 -9.7281 -0.0466 0.9562
-5.2442 -9.5062 -0.0451 0.9575
-5.1671 -9.6988 -0.0457 0.9570
-4.0445 -9.1438 -0.0415 0.9608
-4.0068 -9.4288 -0.0426 0.9598
-3.8638 -9.8852 -0.0441 0.9584
-3.1835 -9.7977 -0.0428 0.9596
-3.0484 -9.8705 -0.0429 0.9595
-2.9255 -9.9877 -0.0432 0.9592
-2.8306 -10.2149 -0.0440 0.9585
-2.6530 -10.1481 -0.0436 0.9589
-10.5361 -45.7213 -0.1950 0.8289
-2.6786 -12.4528 -0.0529 0.9503
-9.5476 -47.7710 -0.2025 0.8229
-1.5024 -8.1335 -0.0344 0.9675
-1.3754 -8.1080 -0.0342 0.9676
-1.2511 -8.0900 -0.0340 0.9678
-1.1288 -8.0791 -0.0339 0.9679
-0.6491 -8.0587 -0.0336 0.9682
-0.2941 -8.0480 -0.0335 0.9683
-0.1763 -8.0444 -0.0334 0.9683
-0.0587 -8.0408 -0.0334 0.9683
0.2935 -8.0302 -0.0334 0.9684
0.4109 -8.0268 -0.0334 0.9684
0.8818 -8.0136 -0.0335 0.9683
1.2379 -8.0050 -0.0337 0.9681
1.3586 -8.0088 -0.0338 0.9680
1.6011 -8.0109 -0.0339 0.9679
2.1131 -8.0827 -0.0347 0.9671
3.6170 -13.0525 -0.0563 0.9473
3.8598 -13.1773 -0.0571 0.9466
4.2403 -13.0502 -0.0570 0.9466
30.7972 -82.3198 -0.3652 0.7036
32.1644 -82.2902 -0.3671 0.7023
34.9439 -82.2300 -0.3713 0.6995
36.3579 -82.1993 -0.3735 0.6980
39.2387 -82.1368 -0.3783 0.6948
42.1964 -82.0728 -0.3835 0.6913
49.9852 -81.9039 -0.3987 0.6813
51.6203 -81.8685 -0.4022 0.6790
54.9788 -81.7957 -0.4096 0.6742
16.7374 -12.9241 -0.0879 0.9189
6.1131 -2.7575 -0.0279 0.9735
22.7396 -9.4677 -0.1024 0.9062
22.6835 -8.6757 -0.1009 0.9074
22.7138 -8.3089 -0.1005 0.9078
23.1422 -8.0842 -0.1019 0.9066
29.0950 -7.8339 -0.1252 0.8865
30.7363 -7.7961 -0.1318 0.8809
33.8911 -8.0710 -0.1448 0.8699
35.4233 -7.8909 -0.1508 0.8649
13.2606 -2.7512 -0.0563 0.9473
40.5138 -7.7898 -0.1714 0.8479
17.4970 -3.0998 -0.0738 0.9314
17.9294 -2.6387 -0.0753 0.9301
17.9740 -2.3775 -0.0753 0.9300
18.1107 -2.1268 -0.0758 0.9297
22.1053 -2.2689 -0.0923 0.9149
25.4912 -2.2406 -0.1063 0.9027
35.5354 -2.0793 -0.1479 0.8673
36.1271 -1.5847 -0.1503 0.8653
36.2664 -1.0602 -0.1508 0.8649
9.5439 0.6985 -0.0398 0.9624
9.5682 0.8410 -0.0399 0.9623
9.5679 0.9821 -0.0400 0.9623
30.4223 4.0241 -0.1275 0.8845
26.4283 5.0815 -0.1118 0.8979
18.3932 4.0973 -0.0783 0.9274
18.5132 5.5698 -0.0803 0.9256
18.5477 5.8771 -0.0808 0.9251
18.6180 6.5038 -0.0820 0.9241
23.3600 9.3280 -0.1045 0.9043
22.9769 9.5665 -0.1034 0.9052
22.5693 10.5800 -0.1036 0.9051
22.4183 10.9116 -0.1036 0.9051
22.8203 11.5227 -0.1062 0.9028
9.7809 7.7834 -0.0519 0.9512
6.3540 5.2097 -0.0341 0.9677
9.5211 8.0420 -0.0518 0.9514
4.8495 9.7812 -0.0454 0.9573
3.2362 9.0510 -0.0399 0.9623
1.0651 3.4487 -0.0150 0.9857
0.8399 3.4160 -0.0146 0.9860
0.7881 3.4201 -0.0146 0.9861
0.7362 3.4226 -0.0145 0.9861
0.6848 3.4264 -0.0145 0.9861
0.5836 3.4400 -0.0145 0.9861
0.5328 3.4455 -0.0145 0.9862
0.4824 3.4526 -0.0145 0.9862
0.4322 3.4617 -0.0145 0.9861
0.2301 3.4948 -0.0146 0.9861
0.1793 3.5036 -0.0146 0.9861
0.1284 3.5124 -0.0146 0.9860
-0.0780 3.5602 -0.0148 0.9859
-0.2433 3.6959 -0.0154 0.9853
-1.0703 6.9210 -0.0291 0.9724
-1.2408 5.7684 -0.0245 0.9767
-1.2710 5.5157 -0.0235 0.9776
-1.2994 5.2845 -0.0226 0.9785
-1.3256 5.0705 -0.0218 0.9793
-1.3500 4.8718 -0.0210 0.9800
-1.3727 4.6866 -0.0203 0.9807
-1.3379 3.7420 -0.0165 0.9842
-1.5229 3.3114 -0.0151 0.9855
-1.5367 3.2166 -0.0148 0.9858
-1.5498 3.1259 -0.0145 0.9861
-1.5624 3.0390 -0.0142 0.9864
-1.5862 2.8754 -0.0136 0.9870
-1.6443 2.7850 -0.0134 0.9871
-1.8305 2.8112 -0.0139 0.9867
-1.8957 2.8203 -0.0141 0.9865
-1.9626 2.8297 -0.0143 0.9863
-2.0314 2.8394 -0.0145 0.9861
-2.1749 2.8596 -0.0149 0.9857
-2.2499 2.8701 -0.0152 0.9855
-2.3267 2.8804 -0.0154 0.9853
-2.4056 2.8907 -0.0156 0.9851
-2.6583 2.9237 -0.0164 0.9843
-2.7484 2.9354 -0.0167 0.9840
-2.9495 2.9712 -0.0174 0.9834
-3.4039 3.0499 -0.0190 0.9819
-3.5299 3.0710 -0.0194 0.9815
-0.8486 0.5265 -0.0041 0.9960
-0.8486 0.5095 -0.0041 0.9960
-0.8486 0.4927 -0.0041 0.9961
-0.8401 0.4555 -0.0040 0.9962
-0.8361 0.4376 -0.0039 0.9962
-0.8321 0.4202 -0.0039 0.9963
-0.8244 0.3865 -0.0038 0.9964
-0.7990 0.2923 -0.0035 0.9966
-0.7948 0.2777 -0.0035 0.9966
-0.7769 0.1851 -0.0033 0.9968
-0.7737 0.1724 -0.0033 0.9968
-0.7609 0.1120 -0.0032 0.9969
-0.7539 0.0774 -0.0031 0.9970
-0.7516 0.0661 -0.0031 0.9970
-0.7493 0.0548 -0.0031 0.9970
-0.7471 0.0437 -0.0031 0.9970
-0.7448 0.0327 -0.0031 0.9970
-0.7426 0.0217 -0.0031 0.9970
-0.7404 0.0109 -0.0031 0.9970
-0.7046 0.0000 -0.0107 0.9972
-0.7107 -0.0312 -0.0108 0.9972
-0.7147 -0.0523 -0.0109 0.9971
-0.7168 -0.0630 -0.0110 0.9971
-0.7333 -0.1521 -0.0114 0.9970
-0.7354 -0.1638 -0.0115 0.9970
-0.7377 -0.1757 -0.0116 0.9970
-0.7405 -0.1878 -0.0116 0.9969
-0.7424 -0.2116 -0.0118 0.9969
-0.7456 -0.2243 -0.0119 0.9969
-0.7524 -0.2505 -0.0121 0.9968
-0.7594 -0.2778 -0.0123 0.9968
-0.7630 -0.2918 -0.0124 0.9967
-0.7666 -0.3061 -0.0126 0.9967
-0.7741 -0.3357 -0.0129 0.9966
-0.7780 -0.3509 -0.0130 0.9966
-0.7819 -0.3665 -0.0132 0.9966
-0.7851 -0.3821 -0.0133 0.9965
-0.7883 -0.3980 -0.0135 0.9965
-0.8017 -0.4654 -0.0141 0.9963
-0.8088 -0.5017 -0.0145 0.9962
-0.8104 -0.5361 -0.0148 0.9961
-13.6779 -9.6354 -0.2549 0.9353
-14.8641 -11.1348 -0.2830 0.9284
-14.3988 -11.1184 -0.2772 0.9298
-3.6438 -2.9877 -0.0718 0.9813
-11.4101 -10.5281 -0.2366 0.9398
-11.2000 -10.6413 -0.2354 0.9401
-11.0619 -10.8221 -0.2358 0.9400
-8.7503 -9.3453 -0.1951 0.9501
-7.9987 -9.3305 -0.1873 0.9520
-8.7575 -10.8415 -0.2124 0.9458
-8.6521 -11.0371 -0.2137 0.9454
-8.6807 -11.4133 -0.2185 0.9442
-32.7433 -45.7668 -0.8575 0.7984
-32.1558 -47.8404 -0.8784 0.7941
-5.7116 -9.3589 -0.1671 0.9571
-5.6305 -9.8629 -0.1731 0.9556
-5.2192 -9.4608 -0.1646 0.9577
-5.1018 -9.5763 -0.1653 0.9575
-4.9266 -9.5823 -0.1642 0.9578
-4.7628 -9.6064 -0.1634 0.9580
-4.1310 -9.3394 -0.1556 0.9600
-3.7228 -9.5243 -0.1558 0.9599
-3.6396 -9.7284 -0.1583 0.9593
-3.4719 -9.7103 -0.1571 0.9596
-3.0296 -9.8094 -0.1564 0.9598
-2.8851 -9.8497 -0.1564 0.9598
-2.8377 -10.2404 -0.1619 0.9584
-1.4899 -8.0663 -0.1250 0.9677
-1.3640 -8.0406 -0.1243 0.9679
-1.2411 -8.0257 -0.1237 0.9680
-1.0010 -8.0180 -0.1231 0.9682
-0.7631 -8.0105 -0.1226 0.9683
-0.6449 -8.0077 -0.1224 0.9684
-0.5271 -8.0047 -0.1222 0.9684
-0.4095 -8.0010 -0.1221 0.9685
-0.2922 -7.9974 -0.1219 0.9685
-0.1752 -7.9938 -0.1218 0.9685
0.1750 -7.9832 -0.1217 0.9686
0.2916 -7.9797 -0.1217 0.9686
0.4083 -7.9763 -0.1217 0.9686
0.7589 -7.9661 -0.1219 0.9685
0.8763 -7.9642 -0.1221 0.9685
0.9942 -7.9635 -0.1223 0.9684
1.1130 -7.9663 -0.1226 0.9683
1.7199 -7.9959 -0.1246 0.9678
1.9754 -8.0341 -0.1261 0.9674
3.6157 -13.0477 -0.2063 0.9473
4.1149 -13.3233 -0.2125 0.9457
20.5672 -60.2873 -0.9707 0.7751
21.4382 -59.9590 -0.9703 0.7751
22.3041 -59.6180 -0.9700 0.7752
23.1647 -59.2651 -0.9696 0.7753
27.3814 -57.3166 -0.9679 0.7756
29.0253 -56.4545 -0.9673 0.7757
1.4603 -2.6471 -0.0461 0.9880
31.4399 -55.0734 -0.9663 0.7759
33.0143 -54.0962 -0.9657 0.7761
33.7903 -53.5906 -0.9654 0.7761
35.3197 -52.5476 -0.9648 0.7762
36.8173 -51.4613 -0.9642 0.7764
37.5538 -50.9021 -0.9639 0.7764
39.0020 -49.7535 -0.9633 0.7765
40.4154 -48.5642 -0.9628 0.7767
41.7934 -47.3356 -0.9622 0.7768
42.4689 -46.7070 -0.9620 0.7768
43.1349 -46.0687 -0.9617 0.7769
43.7913 -45.4209 -0.9614 0.7769
44.4387 -44.7645 -0.9612 0.7770
45.7038 -43.4243 -0.9607 0.7771
46.3213 -42.7406 -0.9604 0.7771
46.9294 -42.0489 -0.9602 0.7772
48.6915 -39.9229 -0.9595 0.7773
51.9300 -35.4583 -0.9582 0.7776
53.4017 -33.1284 -0.9576 0.7777
53.8693 -32.3382 -0.9574 0.7777
54.3257 -31.5416 -0.9572 0.7778
54.7707 -30.7388 -0.9571 0.7778
55.2043 -29.9300 -0.9569 0.7779
55.6259 -29.1151 -0.9567 0.7779
57.5566 -24.9569 -0.9560 0.7780
22.5108 -9.3725 -0.3716 0.9071
25.3139 -8.0210 -0.4046 0.8992
28.8696 -7.7732 -0.4556 0.8873
35.3909 -7.8836 -0.5525 0.8650
13.2608 -2.7512 -0.2064 0.9473
17.5532 -3.1098 -0.2716 0.9312
18.0683 -2.6591 -0.2783 0.9295
17.7455 -2.3472 -0.2728 0.9309
18.1565 -2.1321 -0.2786 0.9295
22.2631 -2.2851 -0.3410 0.9144
25.6058 -2.2507 -0.3917 0.9023
35.3969 -2.0712 -0.5403 0.8678
53.2850 -0.7787 -0.8121 0.8080
63.5704 0.9290 -0.9688 0.7754
63.5510 1.8578 -0.9688 0.7754
63.5175 2.7862 -0.9688 0.7754
63.4710 3.7140 -0.9688 0.7754
27.4600 3.6322 -0.4221 0.8951
26.2918 3.8694 -0.4049 0.8991
26.0902 4.2300 -0.4028 0.8997
26.2947 4.6585 -0.4069 0.8987
18.3099 4.0788 -0.2858 0.9277
18.1082 4.5930 -0.2847 0.9280
18.4401 5.2553 -0.2922 0.9262
18.5509 6.1778 -0.2979 0.9248
18.4993 6.7672 -0.3002 0.9242
18.4454 7.0548 -0.3009 0.9240
22.4091 9.3302 -0.3699 0.9075
22.5396 9.7733 -0.3744 0.9064
21.8353 9.8494 -0.3650 0.9086
22.6404 10.6134 -0.3810 0.9048
55.2039 29.9298 -0.9569 0.7779
54.7692 30.7374 -0.9571 0.7778
54.3250 31.5411 -0.9572 0.7778
15.2168 9.1348 -0.2704 0.9315
53.4008 33.1279 -0.9576 0.7777
52.4310 34.6880 -0.9580 0.7776
50.8932 36.9761 -0.9586 0.7775
50.3583 37.7238 -0.9588 0.7775
9.7809 7.7834 -0.1905 0.9512
6.3541 5.2098 -0.1252 0.9677
9.5211 8.0420 -0.1899 0.9514
45.7032 43.4236 -0.9607 0.7771
43.7910 45.4205 -0.9614 0.7769
43.1346 46.0684 -0.9617 0.7769
42.4679 46.7058 -0.9619 0.7768
39.0014 49.7528 -0.9633 0.7765
38.2817 50.3325 -0.9636 0.7765
37.5532 50.9014 -0.9639 0.7764
36.0720 52.0090 -0.9645 0.7763
33.0136 54.0948 -0.9657 0.7761
31.4393 55.0721 -0.9663 0.7759
29.0244 56.4527 -0.9673 0.7757
4.8497 9.7816 -0.1664 0.9573
27.3811 57.3157 -0.9679 0.7756
25.7076 58.1206 -0.9684 0.7755
24.8649 58.5118 -0.9688 0.7754
24.0165 58.8913 -0.9691 0.7754
20.5670 60.2867 -0.9706 0.7751
1.1276 3.4702 -0.0556 0.9855
1.0498 3.3990 -0.0542 0.9859
0.9341 3.3708 -0.0533 0.9861
0.7298 3.3929 -0.0529 0.9862
0.6795 3.3997 -0.0528 0.9862
0.6292 3.4065 -0.0528 0.9862
0.4284 3.4310 -0.0527 0.9863
0.3285 3.4477 -0.0528 0.9862
0.2283 3.4675 -0.0530 0.9862
0.1779 3.4762 -0.0530 0.9862
0.0766 3.4936 -0.0532 0.9861
0.0256 3.5040 -0.0534 0.9861
-0.1292 3.5361 -0.0539 0.9859
-5.1716 64.2118 -0.9816 0.7728
-7.9902 64.0012 -0.9828 0.7726
-1.0286 6.6517 -0.1026 0.9734
-1.2408 5.7682 -0.0899 0.9767
-1.2988 5.2825 -0.0829 0.9785
-1.3765 4.2366 -0.0679 0.9823
-1.4494 4.2484 -0.0684 0.9822
-1.3374 3.7404 -0.0605 0.9842
-1.3612 3.6384 -0.0592 0.9846
-1.4022 3.5873 -0.0587 0.9847
-1.4908 3.5082 -0.0581 0.9849
-1.5204 3.3059 -0.0554 0.9855
-1.5600 3.0343 -0.0520 0.9864
-1.5721 2.9511 -0.0510 0.9867
-1.5838 2.8711 -0.0500 0.9870
-1.7040 2.7921 -0.0498 0.9870
-1.8295 2.8097 -0.0511 0.9867
-1.8947 2.8188 -0.0518 0.9865
-1.9616 2.8282 -0.0524 0.9863
-2.1737 2.8580 -0.0547 0.9857
-2.4054 2.8905 -0.0573 0.9851
-2.4877 2.9020 -0.0582 0.9848
-2.7493 2.9363 -0.0613 0.9840
-3.0562 2.9900 -0.0652 0.9830
-3.5272 3.0687 -0.0712 0.9815
-51.9853 40.1417 -1.0008 0.7689
-52.5768 39.3858 -1.0010 0.7689
-53.1571 38.6208 -1.0012 0.7689
-53.7260 37.8473 -1.0014 0.7688
-0.8553 0.5840 -0.0158 0.9959
-0.8088 0.5018 -0.0145 0.9962
-0.8017 0.4655 -0.0141 0.9963
-0.7982 0.4480 -0.0139 0.9963
-0.7851 0.3821 -0.0133 0.9965
-0.7819 0.3666 -0.0132 0.9966
-0.7780 0.3509 -0.0130 0.9966
-0.7741 0.3357 -0.0129 0.9966
-0.7666 0.3061 -0.0126 0.9967
-0.7630 0.2918 -0.0124 0.9967
-0.7594 0.2778 -0.0123 0.9968
-0.7559 0.2641 -0.0122 0.9968
-0.7524 0.2505 -0.0121 0.9968
-0.7490 0.2373 -0.0120 0.9969
-0.7424 0.2116 -0.0118 0.9969
-0.7312 0.1406 -0.0113 0.9970
-0.7250 0.1067 -0.0112 0.9971
-0.7188 0.0737 -0.0110 0.9971
-0.7107 0.0312 -0.0108 0.9972
-0.7087 0.0207 -0.0108 0.9972
-0.6742 0.0000 -0.0177 0.9973
-0.6775 -0.0198 -0.0178 0.9973
-0.6794 -0.0298 -0.0179 0.9973
-0.6849 -0.0602 -0.0181 0.9973
-0.6886 -0.0808 -0.0183 0.9972
-0.6904 -0.0913 -0.0183 0.9972
-0.6922 -0.1019 -0.0184 0.9972
-0.6941 -0.1125 -0.0185 0.9972
-0.6959 -0.1232 -0.0186 0.9972
-0.6996 -0.1451 -0.0188 0.9971
-0.7071 -0.1904 -0.0193 0.9971
-0.7088 -0.2020 -0.0194 0.9971
-0.7146 -0.2264 -0.0197 0.9970
-0.7175 -0.2389 -0.0199 0.9970
-0.7205 -0.2517 -0.0201 0.9970
-0.7236 -0.2646 -0.0203 0.9969
-0.7266 -0.2779 -0.0205 0.9969
-0.7297 -0.2914 -0.0207 0.9969
-0.7329 -0.3051 -0.0209 0.9968
-0.7426 -0.3481 -0.0216 0.9967
-0.7542 -0.4089 -0.0226 0.9966
-0.7597 -0.4411 -0.0231 0.9965
-0.7683 -0.4923 -0.0240 0.9964
-0.7743 -0.5287 -0.0247 0.9963
-0.8870 -0.6444 -0.0289 0.9956
-3.6844 -2.9320 -0.1240 0.9813
-3.4293 -2.8118 -0.1167 0.9824
-3.3935 -2.8663 -0.1169 0.9824
-3.4952 -3.0409 -0.1220 0.9816
-11.3064 -10.4323 -0.4050 0.9403
-11.1192 -10.5646 -0.4038 0.9405
-9.3170 -9.3852 -0.3481 0.9485
-8.0202 -9.3556 -0.3244 0.9519
-7.8109 -9.3856 -0.3214 0.9523
-8.7236 -10.7996 -0.3655 0.9460
-8.6599 -11.0471 -0.3695 0.9454
-8.6372 -11.3561 -0.3756 0.9445
-21.0666 -29.4457 -0.9531 0.8651
-20.4129 -29.4315 -0.9429 0.8665
-19.7731 -29.4177 -0.9331 0.8678
-19.1461 -29.4041 -0.9237 0.8690
-5.8342 -9.2529 -0.2880 0.9572
-5.7646 -9.4457 -0.2913 0.9567
-1.1274 -2.4515 -0.0710 0.9893
-1.0882 -2.4604 -0.0708 0.9893
-1.0105 -2.4781 -0.0705 0.9893
-0.9720 -2.4869 -0.0703 0.9894
-0.8574 -2.5132 -0.0699 0.9894
-3.0817 -9.9784 -0.2749 0.9591
-2.8448 -10.2661 -0.2804 0.9583
-2.6662 -10.1984 -0.2775 0.9587
-2.0162 -8.1999 -0.2223 0.9668
-1.8671 -8.1024 -0.2189 0.9673
-0.6407 -7.9552 -0.2101 0.9686
-0.5237 -7.9524 -0.2098 0.9686
-0.4069 -7.9497 -0.2095 0.9687
-0.2904 -7.9474 -0.2094 0.9687
-0.0581 -7.9480 -0.2092 0.9687
0.1742 -7.9483 -0.2093 0.9687
0.6405 -7.9528 -0.2100 0.9686
0.8751 -7.9529 -0.2106 0.9685
1.1112 -7.9531 -0.2114 0.9684
1.2304 -7.9564 -0.2119 0.9683
1.8431 -7.9982 -0.2161 0.9677
1.9725 -8.0220 -0.2175 0.9675
2.1117 -8.0774 -0.2198 0.9671
3.6317 -13.1055 -0.3580 0.9470
10.9237 -35.3699 -0.9745 0.8623
4.2181 -12.9820 -0.3593 0.9468
11.9475 -35.0208 -0.9741 0.8624
13.4623 -34.4422 -0.9735 0.8625
13.9613 -34.2350 -0.9733 0.8625
14.4571 -34.0203 -0.9731 0.8625
15.9245 -33.3341 -0.9725 0.8626
18.2975 -32.0518 -0.9716 0.8627
19.2189 -31.4914 -0.9712 0.8628
20.1235 -30.9050 -0.9708 0.8628
22.3059 -29.3275 -0.9700 0.8629
23.5575 -28.3073 -0.9695 0.8630
25.1545 -26.8654 -0.9688 0.8631
25.9205 -26.1106 -0.9685 0.8631
26.6643 -25.3343 -0.9682 0.8631
16.7654 -12.9457 -0.5576 0.9187
29.4040 -22.0268 -0.9671 0.8633
18.0300 -12.3110 -0.5747 0.9163
30.6250 -20.2612 -0.9667 0.8634
31.1966 -19.3532 -0.9664 0.8634
32.0042 -17.9616 -0.9661 0.8634
32.2598 -17.4903 -0.9660 0.8634
32.5086 -17.0154 -0.9659 0.8634
32.7504 -16.5368 -0.9658 0.8635
22.5089 -9.3717 -0.6418 0.9070
22.4672 -8.9714 -0.6368 0.9077
22.5184 -8.2375 -0.6312 0.9085
27.7342 -7.9039 -0.7592 0.8910
35.9394 -9.6768 -0.9798 0.8616
30.9171 -7.8420 -0.8396 0.8802
33.9794 -8.0921 -0.9195 0.8696
13.2610 -2.7513 -0.3565 0.9473
36.5410 -7.0259 -0.9795 0.8617
