ply
format ascii 1.0
element vertex 1596
property float32 x
property float32 y
property float32 z
property float32 I
end_header
-0.5162 0.3202 -0.0701 0.9976
-0.5159 0.3097 -0.0695 0.9976
-0.5160 0.2995 -0.0689 0.9976
-0.5159 0.2896 -0.0683 0.9976
-0.5158 0.2797 -0.0678 0.9976
-0.5142 0.2141 -0.0643 0.9978
-0.5138 0.2052 -0.0639 0.9978
-0.5134 0.1963 -0.0635 0.9978
-0.5130 0.1877 -0.0631 0.9978
-0.5128 0.1791 -0.0627 0.9978
-0.5125 0.1707 -0.0624 0.9978
-0.5119 0.1540 -0.0617 0.9978
-0.5102 0.1215 -0.0606 0.9979
-0.5098 0.1136 -0.0603 0.9979
-0.5095 0.1057 -0.0601 0.9979
-0.5078 0.0747 -0.0593 0.9979
-0.5073 0.0671 -0.0591 0.9979
-0.5067 0.0595 -0.0589 0.9979
-0.5055 0.0445 -0.0586 0.9980
-0.5049 0.0370 -0.0585 0.9980
-0.5035 0.0221 -0.0582 0.9980
-0.5020 0.0073 -0.0580 0.9980
-0.4854 0.0000 -0.0615 0.9980
-0.4862 -0.0071 -0.0616 0.9980
-0.4869 -0.0142 -0.0617 0.9980
-0.4883 -0.0286 -0.0620 0.9980
-0.4895 -0.0430 -0.0623 0.9980
-0.4911 -0.0650 -0.0628 0.9980
-0.4923 -0.0872 -0.0634 0.9980
-0.4929 -0.1023 -0.0638 0.9980
-0.4936 -0.1252 -0.0645 0.9979
-0.4944 -0.1487 -0.0654 0.9979
-0.4947 -0.1568 -0.0658 0.9979
-0.4951 -0.1730 -0.0664 0.9979
-0.4951 -0.1811 -0.0668 0.9979
-0.4954 -0.1978 -0.0676 0.9979
-0.4960 -0.2150 -0.0685 0.9978
-0.4961 -0.2237 -0.0690 0.9978
-0.4963 -0.2326 -0.0695 0.9978
-0.4964 -0.2506 -0.0705 0.9978
-0.4964 -0.2598 -0.0710 0.9977
-0.4963 -0.2785 -0.0721 0.9977
-0.4962 -0.2880 -0.0727 0.9977
-0.4958 -0.3075 -0.0739 0.9977
-0.4955 -0.3175 -0.0746 0.9976
-0.4951 -0.3276 -0.0752 0.9976
-0.4952 -0.3381 -0.0760 0.9976
-0.4950 -0.3708 -0.0784 0.9975
-0.4944 -0.4054 -0.0810 0.9974
-0.4938 -0.4296 -0.0829 0.9974
-0.4923 -0.4677 -0.0861 0.9973
-0.4917 -0.4810 -0.0872 0.9972
-0.4910 -0.4946 -0.0883 0.9972
-0.4902 -0.5084 -0.0895 0.9972
-0.4894 -0.5226 -0.0907 0.9971
-0.4866 -0.5511 -0.0932 0.9970
-1.8107 -2.2416 -0.3652 0.9884
-1.7740 -2.2631 -0.3644 0.9885
-1.7690 -2.3258 -0.3703 0.9883
-1.7477 -2.3689 -0.3730 0.9882
-1.7261 -2.4126 -0.3759 0.9881
-1.7953 -2.5885 -0.3992 0.9874
-1.6756 -2.6575 -0.3981 0.9874
-1.6358 -2.6804 -0.3979 0.9874
-1.6277 -2.7569 -0.4057 0.9872
-1.5844 -2.7755 -0.4050 0.9872
-1.5280 -2.7698 -0.4009 0.9873
-1.3679 -2.9743 -0.4149 0.9869
-2.3169 -7.5020 -0.9950 0.9688
-2.2070 -7.5346 -0.9949 0.9688
-1.9857 -7.5953 -0.9948 0.9688
-1.8744 -7.6232 -0.9948 0.9688
-1.7627 -7.6493 -0.9948 0.9688
-1.5383 -7.6969 -0.9947 0.9688
-1.3127 -7.7379 -0.9946 0.9689
-1.1994 -7.7559 -0.9945 0.9689
-0.9722 -7.7869 -0.9944 0.9689
-0.7442 -7.8113 -0.9944 0.9689
-0.6299 -7.8210 -0.9943 0.9689
-0.5156 -7.8290 -0.9943 0.9689
-0.4011 -7.8353 -0.9942 0.9689
-0.2865 -7.8399 -0.9942 0.9689
-0.1720 -7.8430 -0.9941 0.9689
0.0573 -7.8439 -0.9940 0.9689
0.1719 -7.8419 -0.9940 0.9689
0.1862 -2.8268 -0.3590 0.9886
0.2284 -2.8348 -0.3604 0.9886
0.2413 -2.5323 -0.3224 0.9898
0.3979 -2.5729 -0.3299 0.9896
0.4381 -2.5824 -0.3319 0.9895
0.4787 -2.5915 -0.3340 0.9894
0.4940 -2.4713 -0.3194 0.9899
0.5729 -2.3296 -0.3040 0.9904
0.6131 -2.3450 -0.3072 0.9903
0.6542 -2.3608 -0.3104 0.9902
0.6963 -2.3769 -0.3139 0.9901
0.7296 -2.3625 -0.3133 0.9901
0.8050 -2.3599 -0.3160 0.9900
0.7890 -2.1087 -0.2853 0.9910
0.8461 -2.1646 -0.2945 0.9907
0.9249 -2.1764 -0.2997 0.9905
0.9597 -2.1695 -0.3006 0.9905
1.0028 -2.0989 -0.2948 0.9907
1.1571 -2.2505 -0.3207 0.9898
1.2825 -2.4072 -0.3456 0.9891
1.4082 -2.4666 -0.3599 0.9886
1.4425 -2.4431 -0.3595 0.9886
1.4768 -2.4197 -0.3592 0.9886
1.5352 -2.3575 -0.3565 0.9887
4.4626 -6.4341 -0.9923 0.9689
4.5559 -6.3680 -0.9922 0.9689
4.6483 -6.3005 -0.9922 0.9689
5.0949 -5.9434 -0.9920 0.9689
5.3499 -5.7138 -0.9919 0.9689
3.0137 -2.8635 -0.5268 0.9834
3.0747 -2.8371 -0.5302 0.9833
3.1633 -2.8343 -0.5382 0.9830
3.1278 -2.7212 -0.5254 0.9834
3.1555 -2.6654 -0.5234 0.9835
6.0513 -4.9615 -0.9916 0.9689
6.2623 -4.6912 -0.9916 0.9689
6.3301 -4.5991 -0.9915 0.9689
6.3964 -4.5059 -0.9915 0.9689
6.6480 -4.1242 -0.9914 0.9689
6.7074 -4.0265 -0.9914 0.9689
6.7654 -3.9280 -0.9914 0.9690
6.8219 -3.8286 -0.9913 0.9690
6.8770 -3.7285 -0.9913 0.9690
6.8243 -3.5719 -0.9761 0.9694
6.8686 -3.4682 -0.9751 0.9695
7.0136 -3.1637 -0.9750 0.9695
7.0589 -3.0608 -0.9750 0.9695
7.1859 -2.7484 -0.9750 0.9695
7.2252 -2.6430 -0.9749 0.9695
7.2991 -2.4307 -0.9749 0.9695
7.3668 -2.2163 -0.9749 0.9695
7.4642 -1.8932 -0.9758 0.9694
7.6795 -1.4766 -0.9910 0.9690
7.7002 -1.3641 -0.9910 0.9690
7.7192 -1.2515 -0.9910 0.9690
7.7524 -1.0254 -0.9910 0.9690
7.7665 -0.9120 -0.9910 0.9690
7.7989 -0.5708 -0.9909 0.9690
7.8064 -0.4568 -0.9909 0.9690
7.8197 0.0000 -0.9909 0.9690
7.8189 0.1143 -0.9909 0.9690
7.8163 0.2285 -0.9909 0.9690
7.8064 0.4568 -0.9909 0.9690
7.7789 0.7984 -0.9910 0.9690
7.7665 0.9121 -0.9910 0.9690
7.7524 1.0254 -0.9910 0.9690
7.7366 1.1386 -0.9910 0.9690
7.7192 1.2516 -0.9910 0.9690
7.7002 1.3642 -0.9910 0.9690
7.6571 1.5887 -0.9910 0.9690
7.6332 1.7004 -0.9910 0.9690
7.6076 1.8118 -0.9910 0.9690
7.5804 1.9228 -0.9910 0.9690
7.5516 2.0333 -0.9910 0.9690
7.5212 2.1434 -0.9911 0.9690
7.4891 2.2532 -0.9911 0.9690
7.4555 2.3624 -0.9911 0.9690
7.4203 2.4711 -0.9911 0.9690
7.2638 2.9005 -0.9912 0.9690
7.1762 3.1116 -0.9912 0.9690
7.0824 3.3201 -0.9912 0.9690
6.9827 3.5258 -0.9913 0.9690
6.9305 3.6275 -0.9913 0.9690
6.8769 3.7285 -0.9913 0.9690
6.5872 4.2211 -0.9914 0.9689
6.4614 4.4119 -0.9915 0.9689
6.3301 4.5991 -0.9915 0.9689
5.9417 4.8716 -0.9737 0.9695
5.7971 5.0434 -0.9737 0.9695
5.7230 5.1277 -0.9738 0.9695
5.3343 5.5327 -0.9739 0.9695
5.1707 5.6865 -0.9740 0.9695
5.0872 5.7617 -0.9740 0.9695
2.6080 3.3270 -0.5357 0.9831
2.5301 3.3266 -0.5296 0.9833
2.3166 3.3402 -0.5151 0.9837
2.1880 3.3602 -0.5081 0.9840
2.1252 3.3705 -0.5049 0.9841
2.0629 3.3802 -0.5018 0.9842
2.0013 3.3898 -0.4988 0.9843
1.9403 3.3989 -0.4960 0.9843
1.7615 3.4261 -0.4882 0.9846
1.7037 3.4362 -0.4860 0.9847
1.6463 3.4463 -0.4840 0.9847
1.5927 3.4633 -0.4831 0.9847
1.5394 3.4803 -0.4823 0.9848
1.3822 3.5364 -0.4812 0.9848
1.3171 3.6836 -0.4957 0.9844
1.2907 3.7835 -0.5066 0.9840
1.2989 4.2057 -0.5578 0.9824
1.6485 7.6638 -0.9934 0.9689
1.5364 7.6875 -0.9934 0.9689
1.4240 7.7094 -0.9935 0.9689
1.3112 7.7297 -0.9935 0.9689
1.1982 7.7484 -0.9936 0.9689
0.8577 7.7946 -0.9937 0.9689
0.3006 3.7329 -0.4746 0.9850
0.2251 3.4184 -0.4341 0.9863
0.1246 3.4109 -0.4325 0.9863
-0.0201 2.7471 -0.3481 0.9890
-0.0604 2.7522 -0.3488 0.9890
-0.1414 2.7623 -0.3505 0.9889
-0.2646 2.7774 -0.3536 0.9888
-0.3062 2.7826 -0.3547 0.9888
-0.4329 2.7990 -0.3589 0.9886
-0.4758 2.8046 -0.3605 0.9886
-0.6514 2.8270 -0.3676 0.9884
-0.6965 2.8326 -0.3697 0.9883
-0.7421 2.8384 -0.3718 0.9882
-0.8347 2.8499 -0.3763 0.9881
-0.8820 2.8557 -0.3787 0.9880
-0.9298 2.8616 -0.3813 0.9879
-1.0277 2.8743 -0.3868 0.9878
-1.0786 2.8830 -0.3901 0.9877
-1.1304 2.8920 -0.3935 0.9876
-1.1833 2.9016 -0.3971 0.9874
-1.2372 2.9115 -0.4009 0.9873
-1.4057 2.9425 -0.4133 0.9869
-1.5242 2.9645 -0.4224 0.9866
-1.7125 2.9997 -0.4377 0.9862
-1.9871 3.0517 -0.4615 0.9854
-2.0607 3.0658 -0.4681 0.9852
-2.1364 3.0803 -0.4750 0.9850
-4.7578 6.2555 -0.9960 0.9688
-4.8489 6.1855 -0.9960 0.9688
-0.5821 0.6994 -0.1153 0.9963
-0.4977 0.5806 -0.0969 0.9969
-0.4866 0.5511 -0.0932 0.9970
-0.4894 0.5227 -0.0907 0.9971
-0.4917 0.4810 -0.0872 0.9972
-0.4938 0.4296 -0.0829 0.9974
-0.4946 0.3937 -0.0801 0.9975
-0.4950 0.3708 -0.0784 0.9975
-0.4951 0.3597 -0.0775 0.9975
-0.4952 0.3489 -0.0768 0.9976
-0.4952 0.3276 -0.0752 0.9976
-0.4955 0.3175 -0.0746 0.9976
-0.4958 0.3076 -0.0739 0.9977
-0.4960 0.2977 -0.0733 0.9977
-0.4962 0.2881 -0.0727 0.9977
-0.4964 0.2691 -0.0716 0.9977
-0.4964 0.2598 -0.0710 0.9977
-0.4963 0.2326 -0.0695 0.9978
-0.4961 0.2237 -0.0690 0.9978
-0.4957 0.2064 -0.0680 0.9978
-0.4952 0.1894 -0.0672 0.9979
-0.4952 0.1811 -0.0668 0.9979
-0.4950 0.1730 -0.0664 0.9979
-0.4949 0.1648 -0.0661 0.9979
-0.4942 0.1408 -0.0651 0.9979
-0.4939 0.1330 -0.0648 0.9979
-0.4936 0.1252 -0.0645 0.9979
-0.4934 0.1175 -0.0643 0.9980
-0.4932 0.1098 -0.0640 0.9980
-0.4911 0.0649 -0.0628 0.9980
-0.4895 0.0430 -0.0623 0.9980
-0.4889 0.0358 -0.0621 0.9980
-0.4883 0.0286 -0.0620 0.9980
-0.4862 0.0071 -0.0616 0.9980
-0.4714 -0.0069 -0.0651 0.9981
-0.4720 -0.0138 -0.0652 0.9981
-0.4749 -0.0487 -0.0659 0.9981
-0.4754 -0.0558 -0.0660 0.9981
-0.4762 -0.0701 -0.0664 0.9981
-0.4771 -0.0917 -0.0670 0.9980
-0.4776 -0.1064 -0.0675 0.9980
-0.4777 -0.1137 -0.0678 0.9980
-0.4780 -0.1362 -0.0686 0.9980
-0.4783 -0.1516 -0.0692 0.9980
-0.4784 -0.1671 -0.0699 0.9980
-0.4787 -0.2159 -0.0725 0.9979
-0.4787 -0.2330 -0.0735 0.9979
-0.4783 -0.2593 -0.0751 0.9978
-0.4781 -0.2683 -0.0756 0.9978
-0.4778 -0.2774 -0.0762 0.9978
-0.4775 -0.2866 -0.0769 0.9978
-0.4771 -0.2959 -0.0775 0.9977
-0.4767 -0.3054 -0.0781 0.9977
-0.4762 -0.3150 -0.0788 0.9977
-0.4751 -0.3346 -0.0802 0.9977
-0.4738 -0.3659 -0.0826 0.9976
-0.4719 -0.4105 -0.0863 0.9975
-0.4712 -0.4221 -0.0873 0.9974
-0.4697 -0.4462 -0.0894 0.9974
-0.4688 -0.4586 -0.0905 0.9974
-0.4668 -0.4841 -0.0928 0.9973
-0.4657 -0.4973 -0.0940 0.9973
-0.4618 -0.5386 -0.0979 0.9971
-0.4734 -0.5860 -0.1040 0.9970
-1.6179 -2.1271 -0.3688 0.9893
-1.5819 -2.1442 -0.3677 0.9893
-1.6867 -2.5095 -0.4173 0.9879
-1.7042 -2.6172 -0.4310 0.9875
-1.6605 -2.6336 -0.4296 0.9875
-1.4647 -2.4809 -0.3976 0.9884
-1.4988 -2.6254 -0.4172 0.9879
-1.4668 -2.6589 -0.4191 0.9878
-1.4918 -2.8002 -0.4378 0.9873
-1.4460 -2.8125 -0.4364 0.9873
-1.3702 -2.9795 -0.4526 0.9868
-1.3154 -2.9738 -0.4487 0.9870
-2.8205 -6.6371 -0.9952 0.9713
-2.5266 -6.7535 -0.9951 0.9713
-2.4276 -6.7894 -0.9950 0.9713
-2.2280 -6.8569 -0.9949 0.9713
-2.1275 -6.8885 -0.9949 0.9713
-2.0265 -6.9185 -0.9949 0.9713
-1.9251 -6.9471 -0.9948 0.9713
-1.8233 -6.9742 -0.9948 0.9713
-1.4126 -7.0677 -0.9946 0.9713
-1.3091 -7.0873 -0.9946 0.9713
-1.1014 -7.1219 -0.9945 0.9713
-0.9971 -7.1370 -0.9945 0.9713
-0.8927 -7.1504 -0.9944 0.9713
-0.7881 -7.1624 -0.9944 0.9713
-0.6834 -7.1729 -0.9943 0.9713
-0.4734 -7.1891 -0.9942 0.9713
-0.3683 -7.1950 -0.9942 0.9713
-0.1579 -7.2021 -0.9941 0.9713
0.3681 -7.1929 -0.9939 0.9713
0.3362 -2.4057 -0.3352 0.9902
0.3734 -2.4139 -0.3371 0.9902
0.4109 -2.4220 -0.3390 0.9901
0.4488 -2.4296 -0.3410 0.9901
0.4871 -2.4369 -0.3430 0.9900
0.4990 -2.3193 -0.3274 0.9905
0.5616 -2.2837 -0.3245 0.9905
0.6022 -2.3032 -0.3285 0.9904
0.6438 -2.3229 -0.3326 0.9903
0.6863 -2.3430 -0.3369 0.9902
0.7747 -2.3841 -0.3459 0.9899
0.7124 -2.0880 -0.3045 0.9911
0.7658 -2.1416 -0.3139 0.9909
0.8550 -2.0963 -0.3124 0.9909
0.9363 -2.2030 -0.3303 0.9904
0.9568 -2.1629 -0.3264 0.9905
1.0272 -2.0717 -0.3191 0.9907
1.2618 -2.3686 -0.3704 0.9892
1.3168 -2.3868 -0.3762 0.9891
1.4073 -2.4651 -0.3917 0.9886
1.4561 -2.4661 -0.3952 0.9885
1.4964 -2.3730 -0.3871 0.9887
1.5975 -2.3766 -0.3952 0.9885
4.2691 -5.7866 -0.9924 0.9714
4.4361 -5.6590 -0.9923 0.9714
4.5182 -5.5934 -0.9923 0.9714
4.6794 -5.4587 -0.9922 0.9714
4.8366 -5.3192 -0.9921 0.9714
4.9897 -5.1754 -0.9921 0.9714
2.9219 -2.9434 -0.5723 0.9834
3.0138 -2.8634 -0.5737 0.9834
5.7518 -4.3088 -0.9918 0.9714
5.8140 -4.2241 -0.9917 0.9714
5.8750 -4.1386 -0.9917 0.9714
5.9347 -4.0523 -0.9917 0.9714
5.9931 -3.9650 -0.9917 0.9714
6.1061 -3.7880 -0.9916 0.9714
6.1635 -3.4591 -0.9754 0.9719
6.3088 -3.1855 -0.9753 0.9719
6.3546 -3.0930 -0.9753 0.9719
6.3990 -2.9997 -0.9753 0.9719
6.4420 -2.9059 -0.9753 0.9719
6.5239 -2.7163 -0.9752 0.9719
6.7043 -2.2326 -0.9751 0.9719
6.7665 -2.0357 -0.9751 0.9719
6.8339 -1.8400 -0.9767 0.9718
6.9877 -1.6641 -0.9913 0.9714
7.0113 -1.5618 -0.9913 0.9714
7.0538 -1.3563 -0.9912 0.9714
7.0903 -1.1495 -0.9912 0.9714
7.1207 -0.9419 -0.9912 0.9714
7.1337 -0.8377 -0.9912 0.9714
7.1757 -0.3148 -0.9912 0.9714
7.1795 -0.2099 -0.9912 0.9714
7.1757 0.3148 -0.9912 0.9714
7.1452 0.7334 -0.9912 0.9714
7.1337 0.8378 -0.9912 0.9714
7.1207 0.9419 -0.9912 0.9714
7.0903 1.1496 -0.9912 0.9714
7.0113 1.5618 -0.9913 0.9714
6.9878 1.6641 -0.9913 0.9714
6.9363 1.8677 -0.9913 0.9714
6.8789 2.0695 -0.9913 0.9714
6.7819 2.3691 -0.9914 0.9714
6.7099 2.5664 -0.9914 0.9714
6.6718 2.6641 -0.9914 0.9714
6.6323 2.7614 -0.9914 0.9714
6.5913 2.8580 -0.9914 0.9714
6.5053 3.0496 -0.9915 0.9714
6.4136 3.2385 -0.9915 0.9714
6.3657 3.3318 -0.9915 0.9714
6.2659 3.5166 -0.9916 0.9714
6.2140 3.6079 -0.9916 0.9714
6.1607 3.6984 -0.9916 0.9714
6.0503 3.8769 -0.9916 0.9714
5.9932 3.9651 -0.9917 0.9714
5.9347 4.0523 -0.9917 0.9714
5.7518 4.3088 -0.9918 0.9714
5.6238 4.4753 -0.9918 0.9714
5.5580 4.5571 -0.9918 0.9714
5.4909 4.6379 -0.9919 0.9714
5.4227 4.7178 -0.9919 0.9714
4.9729 5.0092 -0.9741 0.9719
4.8993 5.0815 -0.9741 0.9719
4.8246 5.1527 -0.9741 0.9719
4.7490 5.2228 -0.9742 0.9719
4.6723 5.2918 -0.9742 0.9719
2.6976 3.3395 -0.5924 0.9828
2.4537 3.3260 -0.5704 0.9834
2.3828 3.3306 -0.5651 0.9836
2.3165 3.3400 -0.5609 0.9837
2.1252 3.3705 -0.5499 0.9840
1.9403 3.3989 -0.5401 0.9843
1.8798 3.4077 -0.5371 0.9844
1.8202 3.4166 -0.5342 0.9845
1.7611 3.4255 -0.5315 0.9846
1.7034 3.4357 -0.5292 0.9846
1.6463 3.4461 -0.5270 0.9847
1.5930 3.4638 -0.5261 0.9847
1.5399 3.4815 -0.5253 0.9847
1.4334 3.5148 -0.5238 0.9848
1.3508 3.6109 -0.5320 0.9846
1.2996 3.8096 -0.5555 0.9839
1.2989 4.2059 -0.6075 0.9824
1.4102 4.8146 -0.6923 0.9799
1.8450 6.6582 -0.9534 0.9725
1.7436 6.6695 -0.9513 0.9725
1.6165 7.0148 -0.9934 0.9714
1.5139 7.0380 -0.9935 0.9713
1.2041 7.0985 -0.9936 0.9713
1.1004 7.1156 -0.9936 0.9713
0.9963 7.1312 -0.9937 0.9713
0.8920 7.1453 -0.9937 0.9713
0.7876 7.1579 -0.9937 0.9713
0.3011 3.7390 -0.5177 0.9850
0.0682 3.1145 -0.4299 0.9875
-0.0200 2.7348 -0.3774 0.9890
-0.1408 2.7499 -0.3800 0.9889
-0.1814 2.7553 -0.3811 0.9889
-0.2224 2.7607 -0.3822 0.9889
-0.8359 2.8538 -0.4104 0.9881
-0.9326 2.8702 -0.4165 0.9879
-1.0835 2.8961 -0.4267 0.9876
-1.1356 2.9053 -0.4305 0.9875
-1.1888 2.9152 -0.4345 0.9874
-1.2431 2.9252 -0.4386 0.9872
-1.3549 2.9460 -0.4475 0.9870
-1.6566 3.0029 -0.4733 0.9862
-1.7213 3.0152 -0.4791 0.9861
-1.8560 3.0411 -0.4916 0.9857
-1.9260 3.0546 -0.4983 0.9855
-4.2838 5.8065 -0.9958 0.9713
-4.3684 5.7435 -0.9958 0.9713
-0.5517 0.7037 -0.1234 0.9964
-0.4734 0.5861 -0.1040 0.9970
-0.4603 0.5530 -0.0993 0.9971
-0.4618 0.5387 -0.0979 0.9971
-0.4668 0.4842 -0.0928 0.9973
-0.4688 0.4586 -0.0905 0.9974
-0.4705 0.4341 -0.0883 0.9974
-0.4712 0.4222 -0.0873 0.9974
-0.4719 0.4105 -0.0863 0.9975
-0.4734 0.3767 -0.0835 0.9976
-0.4742 0.3552 -0.0818 0.9976
-0.4762 0.3151 -0.0788 0.9977
-0.4771 0.2959 -0.0775 0.9977
-0.4775 0.2866 -0.0769 0.9978
-0.4778 0.2774 -0.0762 0.9978
-0.4781 0.2683 -0.0756 0.9978
-0.4783 0.2593 -0.0751 0.9978
-0.4786 0.2416 -0.0740 0.9978
-0.4786 0.2330 -0.0735 0.9979
-0.4787 0.2159 -0.0725 0.9979
-0.4784 0.1910 -0.0711 0.9979
-0.4784 0.1750 -0.0703 0.9979
-0.4780 0.1362 -0.0686 0.9980
-0.4780 0.1287 -0.0683 0.9980
-0.4778 0.1137 -0.0678 0.9980
-0.4774 0.0991 -0.0673 0.9980
-0.4769 0.0845 -0.0668 0.9980
-0.4765 0.0773 -0.0666 0.9981
-0.4758 0.0629 -0.0662 0.9981
-0.4754 0.0558 -0.0660 0.9981
-0.4739 0.0347 -0.0656 0.9981
-0.4727 0.0207 -0.0653 0.9981
-0.4567 0.0000 -0.0682 0.9982
-0.4574 -0.0067 -0.0683 0.9982
-0.4580 -0.0134 -0.0684 0.9981
-0.4586 -0.0201 -0.0685 0.9981
-0.4592 -0.0269 -0.0687 0.9981
-0.4596 -0.0336 -0.0688 0.9981
-0.4601 -0.0404 -0.0690 0.9981
-0.4614 -0.0610 -0.0695 0.9981
-0.4617 -0.0679 -0.0697 0.9981
-0.4625 -0.0889 -0.0703 0.9981
-0.4627 -0.0960 -0.0706 0.9981
-0.4629 -0.1031 -0.0708 0.9981
-0.4630 -0.1174 -0.0713 0.9981
-0.4630 -0.1393 -0.0722 0.9980
-0.4629 -0.1466 -0.0725 0.9980
-0.4629 -0.1541 -0.0728 0.9980
-0.4628 -0.1693 -0.0736 0.9980
-0.4627 -0.1770 -0.0740 0.9980
-0.4624 -0.1925 -0.0748 0.9980
-0.4623 -0.2086 -0.0757 0.9980
-0.4622 -0.2167 -0.0762 0.9979
-0.4621 -0.2249 -0.0767 0.9979
-0.4598 -0.2852 -0.0808 0.9978
-0.4592 -0.2943 -0.0814 0.9978
-0.4586 -0.3034 -0.0821 0.9978
-0.4579 -0.3127 -0.0828 0.9978
-0.4572 -0.3221 -0.0835 0.9977
-0.4564 -0.3316 -0.0842 0.9977
-0.4547 -0.3511 -0.0858 0.9977
-0.4517 -0.3930 -0.0894 0.9976
-0.4509 -0.4039 -0.0904 0.9976
-0.4500 -0.4151 -0.0914 0.9975
-0.4479 -0.4381 -0.0935 0.9975
-0.4467 -0.4499 -0.0947 0.9974
-0.4455 -0.4620 -0.0958 0.9974
-0.4441 -0.4743 -0.0970 0.9974
-0.4396 -0.5127 -0.1008 0.9973
-0.4391 -0.5275 -0.1025 0.9972
-0.4379 -0.5586 -0.1060 0.9971
-1.5181 -2.2586 -0.4063 0.9891
-1.4823 -2.2764 -0.4056 0.9891
-1.4703 -2.7598 -0.4669 0.9874
-1.3974 -2.7180 -0.4563 0.9877
-1.4056 -2.8350 -0.4725 0.9873
-1.3441 -2.8135 -0.4656 0.9875
-1.3726 -2.9846 -0.4905 0.9868
-1.3176 -2.9789 -0.4863 0.9869
-2.5166 -6.1710 -0.9951 0.9734
-2.4261 -6.2069 -0.9950 0.9734
-2.0590 -6.3371 -0.9949 0.9734
-1.7792 -6.4205 -0.9948 0.9734
-1.4959 -6.4915 -0.9947 0.9734
-1.4009 -6.5124 -0.9946 0.9734
-1.3055 -6.5320 -0.9946 0.9734
-1.2099 -6.5501 -0.9945 0.9734
-0.7284 -6.6197 -0.9943 0.9734
-0.2432 -6.6539 -0.9942 0.9734
-0.1460 -6.6565 -0.9941 0.9734
0.3403 -6.6481 -0.9939 0.9734
0.2096 -2.6023 -0.3898 0.9895
0.3258 -2.6093 -0.3926 0.9894
0.3517 -2.5169 -0.3794 0.9898
0.4041 -2.6124 -0.3947 0.9894
0.4215 -2.4842 -0.3762 0.9899
0.4758 -2.5756 -0.3911 0.9895
0.4582 -2.2924 -0.3491 0.9906
0.5060 -2.1955 -0.3364 0.9909
0.5443 -2.2134 -0.3403 0.9908
0.6235 -2.2497 -0.3486 0.9906
0.6891 -2.1207 -0.3329 0.9910
0.7423 -2.1756 -0.3432 0.9907
0.8488 -2.1715 -0.3481 0.9906
0.8433 -2.0677 -0.3334 0.9910
0.9666 -2.1851 -0.3568 0.9904
1.0098 -2.1136 -0.3498 0.9906
1.0514 -2.0449 -0.3433 0.9907
1.2728 -2.3072 -0.3934 0.9894
1.3867 -2.3486 -0.4072 0.9890
1.4168 -2.3213 -0.4061 0.9891
1.4854 -2.2811 -0.4064 0.9891
3.8678 -5.4062 -0.9925 0.9735
4.0239 -5.2906 -0.9925 0.9735
4.1006 -5.2310 -0.9924 0.9735
4.1765 -5.1704 -0.9924 0.9735
4.2515 -5.1087 -0.9924 0.9735
4.3255 -5.0459 -0.9923 0.9735
3.0138 -2.8635 -0.6207 0.9833
3.0747 -2.8370 -0.6247 0.9832
3.1365 -2.8103 -0.6288 0.9831
5.0758 -4.2873 -0.9920 0.9735
5.1378 -4.2125 -0.9920 0.9735
5.1987 -4.1369 -0.9920 0.9735
5.3171 -3.9831 -0.9919 0.9735
5.3746 -3.9048 -0.9919 0.9735
5.4309 -3.8259 -0.9919 0.9735
5.5016 -3.5254 -0.9756 0.9739
5.5524 -3.4445 -0.9756 0.9739
5.6021 -3.3630 -0.9756 0.9739
5.6505 -3.2807 -0.9756 0.9739
5.7437 -3.1141 -0.9755 0.9739
5.8744 -2.8592 -0.9755 0.9739
5.9552 -2.6862 -0.9754 0.9739
5.9937 -2.5989 -0.9754 0.9739
6.1349 -2.2442 -0.9754 0.9739
6.1670 -2.1543 -0.9754 0.9739
6.2272 -1.9731 -0.9753 0.9739
6.4122 -1.7265 -0.9915 0.9735
6.4598 -1.5384 -0.9915 0.9735
6.4815 -1.4438 -0.9915 0.9735
6.5019 -1.3489 -0.9915 0.9735
6.5209 -1.2538 -0.9915 0.9735
6.5384 -1.1584 -0.9915 0.9735
6.5546 -1.0627 -0.9914 0.9735
6.5828 -0.8707 -0.9914 0.9735
6.6223 -0.4846 -0.9914 0.9735
6.6287 -0.3879 -0.9914 0.9735
6.6336 -0.2909 -0.9914 0.9735
6.6371 -0.1940 -0.9914 0.9735
6.6393 -0.0970 -0.9914 0.9735
6.6336 0.2910 -0.9914 0.9735
6.6286 0.3879 -0.9914 0.9735
6.6145 0.5814 -0.9914 0.9735
6.5948 0.7745 -0.9914 0.9735
6.5828 0.8707 -0.9914 0.9735
6.5546 1.0627 -0.9914 0.9735
6.5208 1.2538 -0.9915 0.9735
6.4815 1.4438 -0.9915 0.9735
6.4598 1.5384 -0.9915 0.9735
6.3007 2.0982 -0.9915 0.9735
6.2694 2.1901 -0.9916 0.9735
6.1677 2.4629 -0.9916 0.9735
6.1311 2.5527 -0.9916 0.9735
6.0137 2.8191 -0.9917 0.9735
5.9719 2.9067 -0.9917 0.9735
5.8846 3.0801 -0.9917 0.9735
5.8391 3.1658 -0.9917 0.9735
5.7443 3.3352 -0.9918 0.9735
5.5930 3.5839 -0.9918 0.9735
5.5401 3.6654 -0.9918 0.9735
5.4862 3.7460 -0.9919 0.9735
5.4309 3.8259 -0.9919 0.9735
5.2584 4.0605 -0.9920 0.9735
5.1986 4.1370 -0.9920 0.9735
5.0758 4.2873 -0.9920 0.9735
5.0127 4.3611 -0.9921 0.9735
4.9486 4.4340 -0.9921 0.9735
4.8834 4.5059 -0.9921 0.9735
4.8172 4.5770 -0.9921 0.9735
4.7499 4.6470 -0.9922 0.9735
4.6124 4.7841 -0.9922 0.9735
4.3899 4.8279 -0.9743 0.9740
4.3190 4.8916 -0.9743 0.9740
2.8715 3.5550 -0.6823 0.9817
2.4542 3.3266 -0.6172 0.9834
2.3824 3.3300 -0.6113 0.9836
2.1880 3.3603 -0.5987 0.9839
2.1250 3.3702 -0.5949 0.9840
2.0010 3.3891 -0.5876 0.9842
1.8799 3.4077 -0.5811 0.9844
1.8202 3.4167 -0.5780 0.9845
1.7031 3.4351 -0.5725 0.9846
1.6465 3.4466 -0.5703 0.9847
1.4870 3.4993 -0.5677 0.9847
1.3557 3.6239 -0.5777 0.9845
1.3253 3.7067 -0.5878 0.9842
1.2973 3.8029 -0.5999 0.9839
1.2989 4.2060 -0.6573 0.9824
1.6828 6.4368 -0.9934 0.9735
1.5886 6.4610 -0.9934 0.9734
1.4941 6.4838 -0.9935 0.9734
1.3041 6.5252 -0.9935 0.9734
1.1130 6.5610 -0.9936 0.9734
1.0171 6.5768 -0.9937 0.9734
0.1747 3.4129 -0.5102 0.9863
0.1223 3.3473 -0.5001 0.9865
0.0670 3.0574 -0.4566 0.9877
-0.0200 2.7319 -0.4079 0.9890
-0.0600 2.7382 -0.4089 0.9890
-0.1816 2.7574 -0.4126 0.9889
-0.3056 2.7774 -0.4172 0.9888
-0.3476 2.7842 -0.4189 0.9887
-0.5195 2.8125 -0.4270 0.9885
-0.5636 2.8198 -0.4293 0.9884
-0.6082 2.8273 -0.4318 0.9884
-0.6989 2.8425 -0.4371 0.9882
-0.7921 2.8583 -0.4428 0.9881
-0.8396 2.8664 -0.4460 0.9880
-0.8878 2.8746 -0.4492 0.9879
-0.9865 2.8916 -0.4562 0.9877
-1.0371 2.9004 -0.4599 0.9876
-1.2490 2.9391 -0.4768 0.9872
-1.4788 2.9826 -0.4971 0.9866
-1.6016 3.0062 -0.5086 0.9863
-1.6652 3.0184 -0.5147 0.9862
-1.7973 3.0441 -0.5278 0.9858
-1.8660 3.0575 -0.5348 0.9856
-1.9366 3.0712 -0.5421 0.9854
-2.0838 3.1002 -0.5577 0.9850
-2.1608 3.1154 -0.5661 0.9848
-3.8799 5.4231 -0.9956 0.9734
-0.5187 0.7030 -0.1304 0.9965
-0.4613 0.6065 -0.1138 0.9969
-0.4379 0.5586 -0.1060 0.9971
-0.4396 0.5127 -0.1008 0.9973
-0.4455 0.4620 -0.0958 0.9974
-0.4499 0.4152 -0.0914 0.9975
-0.4509 0.4040 -0.0904 0.9976
-0.4532 0.3716 -0.0875 0.9976
-0.4539 0.3612 -0.0866 0.9977
-0.4580 0.3127 -0.0828 0.9978
-0.4586 0.3034 -0.0821 0.9978
-0.4597 0.2852 -0.0808 0.9978
-0.4602 0.2763 -0.0801 0.9978
-0.4607 0.2675 -0.0795 0.9978
-0.4611 0.2588 -0.0789 0.9979
-0.4614 0.2502 -0.0784 0.9979
-0.4621 0.2249 -0.0767 0.9979
-0.4623 0.2167 -0.0762 0.9979
-0.4627 0.1770 -0.0740 0.9980
-0.4628 0.1693 -0.0736 0.9980
-0.4629 0.1617 -0.0732 0.9980
-0.4629 0.1541 -0.0728 0.9980
-0.4629 0.1467 -0.0725 0.9980
-0.4630 0.1393 -0.0722 0.9980
-0.4631 0.1320 -0.0719 0.9981
-0.4631 0.1246 -0.0716 0.9981
-0.4627 0.0960 -0.0706 0.9981
-0.4618 0.0679 -0.0697 0.9981
-0.4614 0.0610 -0.0695 0.9981
-0.4610 0.0541 -0.0693 0.9981
-0.4602 0.0405 -0.0690 0.9981
-0.4586 0.0201 -0.0685 0.9981
-0.4435 0.0000 -0.0712 0.9982
-0.4441 -0.0065 -0.0714 0.9982
-0.4447 -0.0130 -0.0715 0.9982
-0.4458 -0.0261 -0.0717 0.9982
-0.4471 -0.0459 -0.0722 0.9982
-0.4475 -0.0526 -0.0724 0.9982
-0.4489 -0.0931 -0.0736 0.9981
-0.4490 -0.1000 -0.0739 0.9981
-0.4490 -0.1139 -0.0744 0.9981
-0.4490 -0.1280 -0.0750 0.9981
-0.4485 -0.1493 -0.0759 0.9981
-0.4483 -0.1566 -0.0763 0.9981
-0.4481 -0.1639 -0.0766 0.9981
-0.4474 -0.1863 -0.0779 0.9980
-0.4472 -0.1939 -0.0783 0.9980
-0.4469 -0.2095 -0.0793 0.9980
-0.4466 -0.2173 -0.0798 0.9980
-0.4464 -0.2254 -0.0803 0.9980
-0.4460 -0.2334 -0.0809 0.9980
-0.4456 -0.2416 -0.0814 0.9979
-0.4452 -0.2498 -0.0820 0.9979
-0.4447 -0.2582 -0.0826 0.9979
-0.4436 -0.2752 -0.0839 0.9979
-0.4429 -0.2838 -0.0845 0.9979
-0.4414 -0.3014 -0.0859 0.9978
-0.4377 -0.3380 -0.0888 0.9978
-0.4366 -0.3475 -0.0896 0.9977
-0.4311 -0.3977 -0.0942 0.9976
-0.4299 -0.4084 -0.0953 0.9976
-0.4287 -0.4193 -0.0963 0.9976
-0.4255 -0.4679 -0.1016 0.9974
-0.4249 -0.4812 -0.1031 0.9974
-0.4220 -0.5382 -0.1099 0.9972
-0.4211 -0.5536 -0.1117 0.9972
-0.4267 -0.5783 -0.1155 0.9971
-1.6001 -2.3070 -0.4511 0.9887
-1.4891 -2.3617 -0.4485 0.9888
-1.5395 -2.6076 -0.4865 0.9878
-1.4591 -2.5559 -0.4728 0.9881
-1.4874 -2.6963 -0.4947 0.9876
-1.4154 -2.6568 -0.4836 0.9879
-1.4520 -2.8242 -0.5102 0.9872
-2.2546 -5.7680 -0.9950 0.9752
-1.9135 -5.8891 -0.9948 0.9752
-1.8272 -5.9162 -0.9948 0.9752
-1.7405 -5.9421 -0.9948 0.9752
-1.3902 -6.0328 -0.9946 0.9752
-1.3019 -6.0522 -0.9946 0.9752
-1.2133 -6.0704 -0.9945 0.9752
-0.9460 -6.1171 -0.9944 0.9752
-0.4067 -6.1751 -0.9942 0.9752
-0.3164 -6.1802 -0.9942 0.9752
-0.2260 -6.1839 -0.9941 0.9752
-0.1356 -6.1863 -0.9941 0.9752
0.1356 -6.1856 -0.9940 0.9752
0.2259 -6.1827 -0.9940 0.9752
0.1848 -2.8052 -0.4517 0.9887
0.2171 -2.6946 -0.4343 0.9891
0.3422 -2.7406 -0.4437 0.9889
0.3851 -2.7557 -0.4470 0.9888
0.3982 -2.5749 -0.4186 0.9895
0.4275 -2.5198 -0.4106 0.9897
0.4536 -2.4555 -0.4012 0.9899
0.4785 -2.3939 -0.3922 0.9902
0.5024 -2.1800 -0.3594 0.9910
0.5387 -2.1908 -0.3625 0.9909
0.6043 -2.1807 -0.3636 0.9909
0.6438 -2.1978 -0.3679 0.9908
0.6655 -2.1547 -0.3623 0.9909
0.8302 -2.2189 -0.3806 0.9904
0.8394 -2.1473 -0.3704 0.9907
0.9397 -2.2111 -0.3860 0.9903
0.9743 -2.1182 -0.3746 0.9906
0.9339 -1.9547 -0.3480 0.9913
1.0551 -2.0520 -0.3707 0.9907
1.3207 -2.3134 -0.4280 0.9893
1.3452 -2.2784 -0.4251 0.9893
1.3619 -2.1598 -0.4102 0.9897
1.2529 -1.8639 -0.3608 0.9909
1.5973 -2.3028 -0.4502 0.9887
3.5950 -5.0249 -0.9926 0.9753
3.6679 -4.9717 -0.9926 0.9753
3.7401 -4.9174 -0.9926 0.9753
3.8114 -4.8621 -0.9925 0.9753
3.9517 -4.7484 -0.9925 0.9753
4.0205 -4.6901 -0.9925 0.9753
4.2218 -4.5090 -0.9924 0.9753
4.2871 -4.4467 -0.9923 0.9753
2.9359 -2.9573 -0.6695 0.9833
3.0138 -2.8635 -0.6679 0.9833
3.0747 -2.8371 -0.6721 0.9832
3.2364 -2.6536 -0.6724 0.9832
4.8322 -3.8453 -0.9921 0.9753
4.8877 -3.7742 -0.9921 0.9753
4.8665 -3.6455 -0.9769 0.9757
4.9656 -3.4980 -0.9758 0.9757
5.0162 -3.4250 -0.9758 0.9757
5.2523 -3.0495 -0.9757 0.9757
5.2962 -2.9723 -0.9757 0.9757
5.3389 -2.8946 -0.9757 0.9757
5.4211 -2.7372 -0.9757 0.9757
5.4603 -2.6577 -0.9756 0.9757
5.4985 -2.5776 -0.9756 0.9757
5.5355 -2.4970 -0.9756 0.9757
5.5713 -2.4157 -0.9756 0.9757
5.6394 -2.2518 -0.9756 0.9757
5.7026 -2.0861 -0.9755 0.9757
5.9604 -1.6049 -0.9917 0.9753
5.9831 -1.5176 -0.9917 0.9753
6.0046 -1.4300 -0.9917 0.9753
6.0248 -1.3421 -0.9917 0.9753
6.0437 -1.2539 -0.9916 0.9753
6.0613 -1.1655 -0.9916 0.9753
6.0777 -1.0767 -0.9916 0.9753
6.1189 -0.8094 -0.9916 0.9753
6.1300 -0.7199 -0.9916 0.9753
6.1400 -0.6302 -0.9916 0.9753
6.1557 -0.4505 -0.9916 0.9753
6.1662 -0.2705 -0.9916 0.9753
6.1695 -0.1804 -0.9916 0.9753
6.1715 -0.0902 -0.9916 0.9753
6.1721 0.0000 -0.9916 0.9753
6.1714 0.0902 -0.9916 0.9753
6.1662 0.2705 -0.9916 0.9753
6.1399 0.6302 -0.9916 0.9753
6.1190 0.8094 -0.9916 0.9753
6.0613 1.1655 -0.9916 0.9753
6.0248 1.3421 -0.9917 0.9753
6.0046 1.4300 -0.9917 0.9753
5.9831 1.5176 -0.9917 0.9753
5.9363 1.6918 -0.9917 0.9753
5.8276 2.0357 -0.9917 0.9753
5.7658 2.2052 -0.9918 0.9753
5.7330 2.2893 -0.9918 0.9753
5.6275 2.5385 -0.9918 0.9753
5.5511 2.7019 -0.9918 0.9753
5.4276 2.9427 -0.9919 0.9753
5.3841 3.0217 -0.9919 0.9753
5.3395 3.1001 -0.9919 0.9753
5.1496 3.4070 -0.9920 0.9753
5.0481 3.5561 -0.9920 0.9753
4.8877 3.7742 -0.9921 0.9753
4.5391 4.1883 -0.9922 0.9753
4.4775 4.2542 -0.9923 0.9753
4.2872 4.4467 -0.9923 0.9753
4.2218 4.5090 -0.9924 0.9753
4.1556 4.5703 -0.9924 0.9753
4.0885 4.6307 -0.9924 0.9753
4.0205 4.6900 -0.9925 0.9753
3.9516 4.7484 -0.9925 0.9753
2.8777 3.5626 -0.7358 0.9816
2.4568 3.3302 -0.6649 0.9834
2.3822 3.3298 -0.6578 0.9835
2.3166 3.3401 -0.6531 0.9837
2.2519 3.3504 -0.6485 0.9838
2.1880 3.3604 -0.6442 0.9839
2.1248 3.3700 -0.6400 0.9840
2.0623 3.3793 -0.6360 0.9841
2.0008 3.3889 -0.6323 0.9842
1.9402 3.3986 -0.6287 0.9843
1.7028 3.4345 -0.6159 0.9846
1.6468 3.4471 -0.6138 0.9846
1.5404 3.4826 -0.6118 0.9847
1.4874 3.5002 -0.6110 0.9847
1.4343 3.5171 -0.6102 0.9847
1.3913 3.5595 -0.6140 0.9846
1.2950 3.7961 -0.6444 0.9839
1.7380 5.9338 -0.9934 0.9753
1.6512 5.9588 -0.9934 0.9753
1.4765 6.0049 -0.9935 0.9753
1.2120 6.0645 -0.9936 0.9753
1.1233 6.0818 -0.9936 0.9753
1.0344 6.0977 -0.9936 0.9753
0.9452 6.1124 -0.9937 0.9753
0.7662 6.1379 -0.9938 0.9753
0.3005 3.7306 -0.6013 0.9850
0.0658 3.0022 -0.4824 0.9879
0.0206 2.8258 -0.4540 0.9886
-0.0603 2.7495 -0.4418 0.9889
-0.1007 2.7559 -0.4430 0.9889
-0.1414 2.7623 -0.4444 0.9889
-0.2236 2.7755 -0.4473 0.9888
-0.3069 2.7890 -0.4508 0.9887
-0.4779 2.8171 -0.4591 0.9885
-0.5660 2.8318 -0.4640 0.9884
-0.6561 2.8471 -0.4694 0.9882
-0.7485 2.8628 -0.4754 0.9881
-0.7956 2.8709 -0.4786 0.9880
-0.8433 2.8791 -0.4820 0.9879
-0.8918 2.8875 -0.4855 0.9878
-0.9410 2.8961 -0.4892 0.9877
-1.0418 2.9137 -0.4971 0.9875
-1.1463 2.9326 -0.5058 0.9873
-1.2550 2.9532 -0.5155 0.9871
-1.3110 2.9638 -0.5207 0.9870
-1.4265 2.9861 -0.5317 0.9867
-1.4862 2.9977 -0.5375 0.9865
-1.6098 3.0217 -0.5501 0.9862
-1.6739 3.0343 -0.5567 0.9861
-3.1497 5.3348 -0.9953 0.9752
-3.2275 5.2884 -0.9953 0.9752
-3.3045 5.2409 -0.9954 0.9752
-3.4564 5.1424 -0.9954 0.9752
-3.5313 5.0914 -0.9955 0.9752
-0.4648 0.6497 -0.1283 0.9968
-0.4228 0.5234 -0.1081 0.9973
-0.4243 0.4949 -0.1047 0.9974
-0.4249 0.4812 -0.1031 0.9974
-0.4255 0.4679 -0.1016 0.9974
-0.4287 0.4194 -0.0963 0.9976
-0.4322 0.3872 -0.0932 0.9977
-0.4343 0.3668 -0.0913 0.9977
-0.4355 0.3570 -0.0905 0.9977
-0.4377 0.3380 -0.0888 0.9978
-0.4388 0.3287 -0.0881 0.9978
-0.4397 0.3195 -0.0873 0.9978
-0.4422 0.2925 -0.0852 0.9979
-0.4429 0.2838 -0.0845 0.9979
-0.4447 0.2582 -0.0826 0.9979
-0.4452 0.2498 -0.0820 0.9979
-0.4456 0.2416 -0.0814 0.9979
-0.4466 0.2174 -0.0798 0.9980
-0.4471 0.2016 -0.0788 0.9980
-0.4472 0.1939 -0.0783 0.9980
-0.4479 0.1713 -0.0770 0.9981
-0.4489 0.1280 -0.0750 0.9981
-0.4490 0.1070 -0.0742 0.9981
-0.4487 0.0863 -0.0734 0.9982
-0.4478 0.0592 -0.0726 0.9982
-0.4475 0.0526 -0.0724 0.9982
-0.4467 0.0393 -0.0720 0.9982
-0.4462 0.0327 -0.0719 0.9982
-0.4458 0.0261 -0.0717 0.9982
-0.4447 0.0130 -0.0715 0.9982
-0.4310 0.0000 -0.0741 0.9983
-0.4316 -0.0063 -0.0743 0.9982
-0.4321 -0.0126 -0.0744 0.9982
-0.4327 -0.0190 -0.0745 0.9982
-0.4331 -0.0253 -0.0746 0.9982
-0.4340 -0.0381 -0.0749 0.9982
-0.4347 -0.0510 -0.0753 0.9982
-0.4356 -0.0771 -0.0761 0.9982
-0.4357 -0.0837 -0.0763 0.9982
-0.4358 -0.0904 -0.0766 0.9982
-0.4358 -0.1037 -0.0771 0.9982
-0.4358 -0.1105 -0.0774 0.9982
-0.4357 -0.1241 -0.0779 0.9982
-0.4355 -0.1310 -0.0782 0.9982
-0.4353 -0.1379 -0.0786 0.9981
-0.4348 -0.1518 -0.0792 0.9981
-0.4345 -0.1589 -0.0796 0.9981
-0.4337 -0.1732 -0.0803 0.9981
-0.4324 -0.2027 -0.0822 0.9981
-0.4321 -0.2103 -0.0827 0.9981
-0.4313 -0.2257 -0.0838 0.9980
-0.4298 -0.2495 -0.0855 0.9980
-0.4291 -0.2576 -0.0861 0.9980
-0.4284 -0.2658 -0.0867 0.9980
-0.4277 -0.2740 -0.0874 0.9979
-0.4251 -0.2995 -0.0895 0.9979
-0.4219 -0.3258 -0.0917 0.9978
-0.4207 -0.3348 -0.0925 0.9978
-0.4195 -0.3439 -0.0933 0.9978
-0.4156 -0.3724 -0.0960 0.9977
-0.4139 -0.4049 -0.0996 0.9977
-0.4081 -0.5052 -0.1117 0.9974
-0.4071 -0.5193 -0.1135 0.9973
-0.4059 -0.5337 -0.1154 0.9973
-0.4048 -0.5486 -0.1173 0.9972
-0.4035 -0.5639 -0.1193 0.9972
-0.4236 -0.6107 -0.1279 0.9970
-0.4671 -0.6949 -0.1441 0.9966
-1.5722 -2.4145 -0.4957 0.9884
-1.5343 -2.4334 -0.4949 0.9884
-1.4966 -2.4523 -0.4943 0.9884
-1.4592 -2.4715 -0.4938 0.9884
-1.4740 -2.7668 -0.5394 0.9874
-1.3871 -2.9037 -0.5536 0.9870
-1.3250 -2.8810 -0.5456 0.9872
-1.3221 -2.9891 -0.5623 0.9868
-2.1052 -5.3859 -0.9949 0.9768
-2.0262 -5.4159 -0.9949 0.9768
-1.9468 -5.4448 -0.9948 0.9768
-1.7868 -5.4990 -0.9948 0.9768
-1.7062 -5.5244 -0.9947 0.9768
-1.6252 -5.5485 -0.9947 0.9768
-1.5439 -5.5715 -0.9947 0.9768
-1.4623 -5.5933 -0.9946 0.9768
-1.3804 -5.6139 -0.9946 0.9768
-1.2157 -5.6514 -0.9945 0.9768
-0.8834 -5.7120 -0.9944 0.9768
-0.7160 -5.7350 -0.9943 0.9768
-0.4639 -5.7603 -0.9942 0.9768
-0.3797 -5.7662 -0.9942 0.9768
-0.2111 -5.7745 -0.9941 0.9768
-0.1267 -5.7768 -0.9941 0.9768
-0.0422 -5.7778 -0.9941 0.9768
0.0422 -5.7776 -0.9940 0.9768
0.1266 -5.7762 -0.9940 0.9768
0.2110 -5.7735 -0.9940 0.9768
0.2482 -2.6054 -0.4503 0.9894
0.4703 -2.5459 -0.4454 0.9895
0.5545 -2.4062 -0.4248 0.9900
0.5932 -2.4124 -0.4274 0.9900
0.7053 -2.1705 -0.3927 0.9908
0.8300 -2.1234 -0.3922 0.9908
0.8825 -2.1638 -0.4020 0.9906
0.9277 -2.0971 -0.3945 0.9907
0.9500 -2.0655 -0.3912 0.9908
1.0588 -2.0592 -0.3984 0.9906
1.1729 -2.2015 -0.4292 0.9899
1.1495 -1.8833 -0.3796 0.9911
1.2018 -1.9058 -0.3876 0.9909
1.2565 -1.9295 -0.3961 0.9907
1.5666 -2.2586 -0.4729 0.9889
3.3574 -4.6928 -0.9927 0.9769
3.5595 -4.5408 -0.9926 0.9769
3.6254 -4.4881 -0.9926 0.9769
3.6905 -4.4346 -0.9926 0.9769
3.8810 -4.2682 -0.9925 0.9769
4.0038 -4.1529 -0.9925 0.9769
2.9808 -2.9162 -0.7174 0.9832
3.0747 -2.8371 -0.7198 0.9832
4.4062 -3.7217 -0.9923 0.9769
4.4437 -3.5362 -0.9770 0.9772
4.5894 -3.3344 -0.9760 0.9772
4.6847 -3.1988 -0.9760 0.9772
4.8632 -2.9194 -0.9759 0.9772
4.9053 -2.8480 -0.9759 0.9772
4.9462 -2.7760 -0.9758 0.9772
5.0629 -2.5564 -0.9758 0.9772
5.0997 -2.4821 -0.9758 0.9772
5.1353 -2.4073 -0.9758 0.9772
5.2033 -2.2562 -0.9757 0.9772
5.2970 -2.0259 -0.9757 0.9772
5.3592 -1.8721 -0.9767 0.9772
5.4699 -1.8216 -0.9919 0.9769
5.5206 -1.6609 -0.9919 0.9769
5.5443 -1.5801 -0.9918 0.9769
5.5667 -1.4989 -0.9918 0.9769
5.5879 -1.4173 -0.9918 0.9769
5.6080 -1.3356 -0.9918 0.9769
5.6269 -1.2534 -0.9918 0.9769
5.6446 -1.1711 -0.9918 0.9769
5.7148 -0.7559 -0.9918 0.9769
5.7253 -0.6723 -0.9918 0.9769
5.7345 -0.5886 -0.9918 0.9769
5.7424 -0.5048 -0.9918 0.9769
5.7547 -0.3367 -0.9918 0.9769
5.7621 -0.1684 -0.9918 0.9769
5.7639 -0.0842 -0.9918 0.9769
5.7639 0.0843 -0.9918 0.9769
5.7621 0.1685 -0.9918 0.9769
5.7590 0.2526 -0.9918 0.9769
5.7547 0.3368 -0.9918 0.9769
5.7345 0.5886 -0.9918 0.9769
5.7148 0.7559 -0.9918 0.9769
5.7032 0.8393 -0.9918 0.9769
5.6446 1.1711 -0.9918 0.9769
5.6269 1.2535 -0.9918 0.9769
5.6080 1.3355 -0.9918 0.9769
5.5880 1.4173 -0.9918 0.9769
5.5667 1.4989 -0.9918 0.9769
5.5443 1.5801 -0.9918 0.9769
5.5206 1.6609 -0.9919 0.9769
5.4958 1.7414 -0.9919 0.9769
5.4698 1.8216 -0.9919 0.9769
5.3543 2.1381 -0.9919 0.9769
5.2557 2.3708 -0.9920 0.9769
5.2206 2.4473 -0.9920 0.9769
5.1470 2.5989 -0.9920 0.9769
5.0691 2.7483 -0.9920 0.9769
4.9868 2.8953 -0.9921 0.9769
4.9439 2.9679 -0.9921 0.9769
4.8553 3.1112 -0.9921 0.9769
4.8094 3.1819 -0.9921 0.9769
4.7625 3.2519 -0.9922 0.9769
4.6157 3.4577 -0.9922 0.9769
4.5648 3.5248 -0.9922 0.9769
4.5129 3.5912 -0.9923 0.9769
4.4062 3.7217 -0.9923 0.9769
4.3515 3.7858 -0.9923 0.9769
4.2392 3.9115 -0.9924 0.9769
4.1817 3.9732 -0.9924 0.9769
4.0640 4.0938 -0.9924 0.9769
4.0038 4.1528 -0.9925 0.9769
3.8809 4.2683 -0.9925 0.9769
3.6904 4.4346 -0.9926 0.9769
2.7352 3.5962 -0.7773 0.9818
2.7212 3.6885 -0.7886 0.9816
2.4217 3.3848 -0.7160 0.9832
2.3498 3.3880 -0.7094 0.9834
2.2794 3.3913 -0.7030 0.9836
2.2115 3.3964 -0.6973 0.9837
2.1451 3.4021 -0.6919 0.9838
2.0796 3.4075 -0.6868 0.9839
2.0148 3.4125 -0.6818 0.9840
1.9507 3.4171 -0.6770 0.9842
1.7636 3.4303 -0.6636 0.9845
1.7030 3.4348 -0.6596 0.9846
1.5937 3.4654 -0.6562 0.9846
1.5406 3.4832 -0.6553 0.9847
1.3337 3.7302 -0.6815 0.9841
1.2380 3.8103 -0.6893 0.9839
1.2990 4.2062 -0.7574 0.9823
1.3788 5.6077 -0.9935 0.9768
1.2967 5.6274 -0.9935 0.9768
1.0490 5.6794 -0.9936 0.9768
0.9659 5.6943 -0.9937 0.9768
0.5478 5.7506 -0.9938 0.9768
0.2999 3.7241 -0.6428 0.9850
0.1832 3.5801 -0.6167 0.9856
-0.0202 2.7545 -0.4739 0.9889
-0.1831 2.7805 -0.4794 0.9888
-0.2245 2.7872 -0.4811 0.9887
-0.2662 2.7940 -0.4829 0.9887
-0.3933 2.8148 -0.4890 0.9885
-0.5240 2.8367 -0.4963 0.9884
-0.5684 2.8441 -0.4990 0.9883
-0.8471 2.8920 -0.5185 0.9878
-1.2058 2.9568 -0.5494 0.9871
-1.2611 2.9675 -0.5547 0.9870
-1.3174 2.9784 -0.5603 0.9869
-1.8343 3.9885 -0.7553 0.9823
-1.9663 3.9660 -0.7616 0.9822
-2.1335 4.0047 -0.7807 0.9818
-2.8679 5.0236 -0.9952 0.9768
-2.9411 4.9813 -0.9952 0.9768
-3.0136 4.9379 -0.9953 0.9768
-3.0855 4.8935 -0.9953 0.9768
-0.4671 0.6950 -0.1441 0.9966
-0.4236 0.6107 -0.1279 0.9970
-0.4034 0.5639 -0.1193 0.9972
-0.4048 0.5486 -0.1173 0.9972
-0.4081 0.5052 -0.1117 0.9974
-0.4091 0.4915 -0.1100 0.9974
-0.4100 0.4782 -0.1084 0.9974
-0.4115 0.4527 -0.1052 0.9975
-0.4122 0.4403 -0.1038 0.9976
-0.4139 0.4049 -0.0996 0.9977
-0.4144 0.3937 -0.0983 0.9977
-0.4157 0.3724 -0.0960 0.9977
-0.4207 0.3348 -0.0925 0.9978
-0.4241 0.3082 -0.0902 0.9979
-0.4251 0.2995 -0.0895 0.9979
-0.4260 0.2909 -0.0887 0.9979
-0.4269 0.2824 -0.0881 0.9979
-0.4277 0.2741 -0.0874 0.9979
-0.4284 0.2658 -0.0867 0.9980
-0.4291 0.2576 -0.0861 0.9980
-0.4298 0.2495 -0.0855 0.9980
-0.4309 0.2336 -0.0843 0.9980
-0.4313 0.2258 -0.0838 0.9980
-0.4321 0.2104 -0.0827 0.9981
-0.4330 0.1877 -0.0812 0.9981
-0.4337 0.1732 -0.0803 0.9981
-0.4348 0.1519 -0.0792 0.9981
-0.4351 0.1449 -0.0789 0.9981
-0.4355 0.1311 -0.0782 0.9982
-0.4356 0.1241 -0.0779 0.9982
-0.4358 0.1173 -0.0776 0.9982
-0.4358 0.1106 -0.0774 0.9982
-0.4359 0.1038 -0.0771 0.9982
-0.4358 0.0904 -0.0766 0.9982
-0.4357 0.0838 -0.0763 0.9982
-0.4354 0.0706 -0.0759 0.9982
-0.4352 0.0640 -0.0757 0.9982
-0.4350 0.0575 -0.0755 0.9982
-0.4340 0.0382 -0.0749 0.9982
-0.4336 0.0317 -0.0748 0.9982
-0.4331 0.0254 -0.0746 0.9982
-0.4321 0.0127 -0.0744 0.9982
-0.4191 0.0000 -0.0769 0.9983
-0.4196 -0.0061 -0.0770 0.9983
-0.4202 -0.0123 -0.0771 0.9983
-0.4228 -0.0559 -0.0782 0.9983
-0.4234 -0.0814 -0.0791 0.9982
-0.4234 -0.0878 -0.0793 0.9982
-0.4234 -0.0943 -0.0796 0.9982
-0.4234 -0.1008 -0.0799 0.9982
-0.4233 -0.1073 -0.0801 0.9982
-0.4231 -0.1205 -0.0807 0.9982
-0.4226 -0.1339 -0.0813 0.9982
-0.4197 -0.1820 -0.0839 0.9981
-0.4188 -0.1963 -0.0849 0.9981
-0.4184 -0.2036 -0.0854 0.9981
-0.4180 -0.2110 -0.0859 0.9981
-0.4175 -0.2185 -0.0865 0.9981
-0.4143 -0.2570 -0.0894 0.9980
-0.4134 -0.2649 -0.0901 0.9980
-0.4126 -0.2729 -0.0908 0.9980
-0.4086 -0.3155 -0.0947 0.9979
-0.4080 -0.3246 -0.0957 0.9979
-0.4066 -0.3434 -0.0977 0.9978
-0.4051 -0.3629 -0.0998 0.9978
-0.4042 -0.3729 -0.1009 0.9978
-0.4027 -0.3826 -0.1019 0.9977
-0.4015 -0.3927 -0.1030 0.9977
-0.3985 -0.4382 -0.1087 0.9976
-0.3975 -0.4502 -0.1102 0.9976
-0.3966 -0.4626 -0.1118 0.9975
-0.3955 -0.4752 -0.1134 0.9975
-0.3944 -0.4882 -0.1151 0.9975
-0.3931 -0.5015 -0.1169 0.9974
-0.3919 -0.5152 -0.1188 0.9974
-0.3890 -0.5437 -0.1227 0.9973
-0.3971 -0.5907 -0.1306 0.9971
-0.4218 -0.6478 -0.1418 0.9969
-0.4679 -0.7421 -0.1610 0.9964
-1.5581 -2.5531 -0.5488 0.9879
-1.5500 -2.6253 -0.5594 0.9877
-1.4952 -2.7104 -0.5680 0.9875
-1.4546 -2.7303 -0.5676 0.9875
-1.4754 -2.9759 -0.6094 0.9866
-1.4099 -2.9512 -0.6001 0.9868
-1.2700 -2.9886 -0.5958 0.9869
-2.0476 -5.0209 -0.9949 0.9782
-1.9739 -5.0501 -0.9948 0.9782
-1.8999 -5.0782 -0.9948 0.9782
-1.8254 -5.1053 -0.9948 0.9782
-1.7506 -5.1313 -0.9948 0.9782
-1.2943 -5.2639 -0.9946 0.9782
-1.1399 -5.2991 -0.9945 0.9782
-0.5139 -5.3945 -0.9943 0.9782
-0.4350 -5.4013 -0.9942 0.9782
-0.3561 -5.4069 -0.9942 0.9782
-0.2770 -5.4114 -0.9942 0.9782
-0.1979 -5.4147 -0.9941 0.9782
0.0396 -5.4177 -0.9940 0.9782
0.1187 -5.4163 -0.9940 0.9782
0.1979 -5.4138 -0.9940 0.9782
0.3559 -5.4054 -0.9939 0.9782
0.2139 -2.6552 -0.4888 0.9892
0.2991 -2.7177 -0.5017 0.9889
0.3607 -2.5811 -0.4782 0.9895
0.4304 -2.5367 -0.4721 0.9896
0.4667 -2.5264 -0.4714 0.9896
0.5255 -2.4429 -0.4585 0.9899
0.5644 -2.4488 -0.4611 0.9898
0.6323 -2.4184 -0.4586 0.9899
0.7548 -2.3230 -0.4482 0.9901
0.8082 -2.3691 -0.4593 0.9899
0.6989 -1.9545 -0.3809 0.9916
0.8209 -2.1000 -0.4137 0.9909
0.9126 -2.1474 -0.4281 0.9906
0.9772 -2.2091 -0.4432 0.9902
0.9480 -1.9843 -0.4035 0.9911
1.0195 -2.0561 -0.4211 0.9907
1.0040 -1.8844 -0.3918 0.9914
1.0509 -1.9049 -0.3992 0.9912
1.1511 -1.9495 -0.4154 0.9908
1.2046 -1.9737 -0.4243 0.9906
1.2607 -1.9992 -0.4337 0.9904
1.3195 -2.0263 -0.4437 0.9902
3.1484 -4.4008 -0.9928 0.9782
3.2123 -4.3541 -0.9928 0.9782
3.2755 -4.3066 -0.9928 0.9782
3.3998 -4.2089 -0.9927 0.9782
3.5212 -4.1075 -0.9927 0.9782
3.6395 -4.0027 -0.9926 0.9782
3.7547 -3.8945 -0.9926 0.9782
3.8112 -3.8391 -0.9925 0.9782
2.9913 -2.9264 -0.7678 0.9831
3.0270 -2.8760 -0.7661 0.9832
2.9541 -2.6470 -0.7278 0.9840
2.9852 -2.5971 -0.7260 0.9840
4.0688 -3.4367 -0.9772 0.9786
3.2509 -2.6654 -0.7713 0.9830
4.1673 -3.3162 -0.9772 0.9786
4.2109 -3.2516 -0.9761 0.9786
4.3040 -3.1270 -0.9761 0.9786
4.4366 -2.9353 -0.9760 0.9786
4.5204 -2.8043 -0.9760 0.9786
4.5608 -2.7379 -0.9760 0.9786
4.6002 -2.6709 -0.9760 0.9786
4.7825 -2.3278 -0.9759 0.9786
4.8160 -2.2577 -0.9759 0.9786
5.0345 -1.8417 -0.9836 0.9784
5.1774 -1.5577 -0.9920 0.9783
5.1996 -1.4818 -0.9920 0.9783
5.2206 -1.4057 -0.9920 0.9783
5.2771 -1.1755 -0.9920 0.9783
5.2937 -1.0982 -0.9919 0.9783
5.3595 -0.7089 -0.9919 0.9783
5.3693 -0.6305 -0.9919 0.9783
5.3917 -0.3946 -0.9919 0.9783
5.4009 -0.2369 -0.9919 0.9783
5.4055 -0.0790 -0.9919 0.9783
5.4061 0.0000 -0.9919 0.9783
5.4055 0.0790 -0.9919 0.9783
5.4009 0.2369 -0.9919 0.9783
5.3969 0.3159 -0.9919 0.9783
5.3918 0.3946 -0.9919 0.9783
5.3854 0.4734 -0.9919 0.9783
5.3779 0.5520 -0.9919 0.9783
5.3693 0.6306 -0.9919 0.9783
5.3595 0.7089 -0.9919 0.9783
5.3366 0.8652 -0.9919 0.9783
5.3234 0.9431 -0.9919 0.9783
5.2936 1.0983 -0.9919 0.9783
5.2771 1.1755 -0.9920 0.9783
5.2594 1.2525 -0.9920 0.9783
5.2405 1.3293 -0.9920 0.9783
5.1995 1.4818 -0.9920 0.9783
5.1774 1.5577 -0.9920 0.9783
5.1043 1.7831 -0.9920 0.9783
5.0778 1.8575 -0.9920 0.9783
5.0501 1.9315 -0.9920 0.9783
5.0214 2.0052 -0.9921 0.9783
4.9916 2.0783 -0.9921 0.9783
4.9608 2.1511 -0.9921 0.9783
4.9289 2.2233 -0.9921 0.9783
4.8620 2.3665 -0.9921 0.9782
4.8270 2.4373 -0.9921 0.9782
4.7909 2.5077 -0.9921 0.9782
4.7538 2.5774 -0.9922 0.9782
4.7157 2.6466 -0.9922 0.9782
4.6766 2.7153 -0.9922 0.9782
4.5533 2.9177 -0.9922 0.9782
4.5103 2.9840 -0.9923 0.9782
4.4663 3.0496 -0.9923 0.9782
4.4213 3.1146 -0.9923 0.9782
4.3754 3.1790 -0.9923 0.9782
4.3286 3.2426 -0.9923 0.9782
4.2321 3.3679 -0.9924 0.9782
4.1826 3.4294 -0.9924 0.9782
4.1321 3.4902 -0.9924 0.9782
3.8667 3.7830 -0.9925 0.9782
3.8111 3.8391 -0.9925 0.9782
3.6975 3.9490 -0.9926 0.9782
3.6395 4.0027 -0.9926 0.9782
3.5807 4.0556 -0.9926 0.9782
3.4609 4.1587 -0.9927 0.9782
2.7555 3.6230 -0.8351 0.9817
2.7678 3.9907 -0.8911 0.9804
3.0187 4.4911 -0.9929 0.9782
2.8192 4.6195 -0.9929 0.9782
2.6832 4.7001 -0.9930 0.9782
2.6143 4.7389 -0.9930 0.9782
1.6697 3.4952 -0.7107 0.9844
1.6134 3.5081 -0.7085 0.9844
1.4494 3.5542 -0.7042 0.9845
1.4025 3.5882 -0.7069 0.9845
1.3380 3.7421 -0.7291 0.9840
1.2984 3.8062 -0.7379 0.9838
1.2991 4.2064 -0.8077 0.9823
1.4459 5.2181 -0.9935 0.9782
1.2160 5.2770 -0.9936 0.9782
1.1388 5.2943 -0.9936 0.9782
0.8277 5.3525 -0.9937 0.9782
0.5924 5.3841 -0.9938 0.9782
0.5137 5.3924 -0.9939 0.9782
0.2357 3.5802 -0.6583 0.9855
0.0202 2.7597 -0.5064 0.9888
-0.0608 2.7725 -0.5088 0.9888
-0.1426 2.7856 -0.5118 0.9887
-0.2673 2.8059 -0.5171 0.9886
-0.3521 2.8199 -0.5214 0.9885
-0.4821 2.8416 -0.5288 0.9883
-0.6162 2.8644 -0.5376 0.9882
-0.6619 2.8723 -0.5408 0.9881
-0.7082 2.8803 -0.5442 0.9880
-0.7552 2.8884 -0.5478 0.9879
-0.8510 2.9052 -0.5554 0.9878
-0.8999 2.9139 -0.5595 0.9877
-1.6754 5.1562 -0.9947 0.9782
-1.7506 5.1313 -0.9948 0.9782
-1.8999 5.0783 -0.9948 0.9782
-1.7567 4.4945 -0.8854 0.9806
-1.8172 4.1083 -0.8242 0.9819
-1.8336 3.9870 -0.8052 0.9823
-1.9064 3.9906 -0.8114 0.9822
-1.9880 4.0096 -0.8211 0.9820
-2.0716 4.0293 -0.8313 0.9817
-2.7576 4.6705 -0.9952 0.9782
-2.8256 4.6299 -0.9952 0.9782
-0.4219 0.6479 -0.1418 0.9969
-0.3904 0.5292 -0.1207 0.9973
-0.3918 0.5152 -0.1188 0.9974
-0.3931 0.5016 -0.1169 0.9974
-0.3966 0.4626 -0.1118 0.9975
-0.3976 0.4502 -0.1102 0.9976
-0.3993 0.4265 -0.1072 0.9976
-0.4001 0.4150 -0.1058 0.9977
-0.4008 0.4038 -0.1044 0.9977
-0.4027 0.3826 -0.1019 0.9977
-0.4051 0.3629 -0.0998 0.9978
-0.4059 0.3531 -0.0987 0.9978
-0.4073 0.3340 -0.0966 0.9979
-0.4086 0.3155 -0.0947 0.9979
-0.4097 0.2977 -0.0929 0.9979
-0.4106 0.2893 -0.0921 0.9980
-0.4126 0.2730 -0.0908 0.9980
-0.4143 0.2570 -0.0894 0.9980
-0.4150 0.2491 -0.0888 0.9980
-0.4157 0.2414 -0.0882 0.9980
-0.4175 0.2185 -0.0865 0.9981
-0.4185 0.2037 -0.0854 0.9981
-0.4188 0.1964 -0.0849 0.9981
-0.4192 0.1891 -0.0844 0.9981
-0.4197 0.1820 -0.0839 0.9981
-0.4202 0.1750 -0.0835 0.9982
-0.4216 0.1543 -0.0824 0.9982
-0.4232 0.1140 -0.0804 0.9982
-0.4233 0.1074 -0.0801 0.9982
-0.4234 0.1009 -0.0799 0.9982
-0.4234 0.0944 -0.0796 0.9982
-0.4234 0.0879 -0.0793 0.9982
-0.4234 0.0814 -0.0791 0.9982
-0.4228 0.0559 -0.0782 0.9983
-0.4222 0.0433 -0.0779 0.9983
-0.4219 0.0371 -0.0777 0.9983
-0.4202 0.0123 -0.0771 0.9983
-0.4197 0.0062 -0.0770 0.9983
-0.4079 0.0000 -0.0795 0.9983
-0.4084 -0.0059 -0.0796 0.9983
-0.4088 -0.0120 -0.0797 0.9983
-0.4093 -0.0179 -0.0799 0.9983
-0.4101 -0.0300 -0.0802 0.9983
-0.4104 -0.0361 -0.0803 0.9983
-0.4110 -0.0482 -0.0807 0.9983
-0.4114 -0.0605 -0.0811 0.9983
-0.4115 -0.0667 -0.0813 0.9983
-0.4116 -0.0729 -0.0815 0.9983
-0.4117 -0.0791 -0.0817 0.9983
-0.4115 -0.1043 -0.0828 0.9983
-0.4106 -0.1301 -0.0840 0.9982
-0.4103 -0.1366 -0.0843 0.9982
-0.4085 -0.1631 -0.0858 0.9982
-0.4080 -0.1698 -0.0861 0.9982
-0.4067 -0.1834 -0.0870 0.9982
-0.4045 -0.2117 -0.0890 0.9981
-0.4039 -0.2189 -0.0896 0.9981
-0.4034 -0.2264 -0.0902 0.9981
-0.4025 -0.2496 -0.0923 0.9981
-0.4021 -0.2576 -0.0931 0.9981
-0.4017 -0.2657 -0.0939 0.9980
-0.4007 -0.2823 -0.0955 0.9980
-0.4002 -0.2907 -0.0964 0.9980
-0.3996 -0.2993 -0.0973 0.9980
-0.3982 -0.3168 -0.0992 0.9979
-0.3975 -0.3259 -0.1002 0.9979
-0.3967 -0.3350 -0.1012 0.9979
-0.3940 -0.3635 -0.1045 0.9978
-0.3927 -0.3731 -0.1056 0.9978
-0.3910 -0.3825 -0.1066 0.9978
-0.3880 -0.4024 -0.1090 0.9977
-0.3851 -0.4361 -0.1134 0.9976
-0.3786 -0.4978 -0.1219 0.9975
-0.3755 -0.5248 -0.1258 0.9974
-0.3737 -0.5387 -0.1278 0.9973
-0.3723 -0.5718 -0.1330 0.9972
-0.4196 -0.6876 -0.1570 0.9967
-1.4626 -2.6512 -0.5903 0.9877
-1.4743 -2.7673 -0.6113 0.9873
-2.1323 -4.6364 -0.9949 0.9794
-2.0643 -4.6670 -0.9949 0.9794
-1.9958 -4.6965 -0.9949 0.9794
-1.9269 -4.7250 -0.9948 0.9794
-1.7179 -4.8045 -0.9947 0.9794
-1.6475 -4.8290 -0.9947 0.9794
-1.5767 -4.8524 -0.9947 0.9794
-1.5055 -4.8748 -0.9947 0.9794
-1.4341 -4.8961 -0.9946 0.9794
-1.3624 -4.9164 -0.9946 0.9794
-0.9265 -5.0159 -0.9944 0.9794
-0.8531 -5.0288 -0.9944 0.9794
-0.7058 -5.0512 -0.9943 0.9794
-0.5578 -5.0694 -0.9943 0.9794
-0.3351 -5.0885 -0.9942 0.9794
-0.2607 -5.0927 -0.9942 0.9794
-0.0609 -2.7795 -0.5420 0.9887
-0.0202 -2.7648 -0.5390 0.9888
0.1387 -2.7080 -0.5286 0.9890
0.2382 -2.4993 -0.4895 0.9898
0.2839 -2.5799 -0.5060 0.9895
0.3638 -2.6036 -0.5125 0.9893
0.4109 -2.6568 -0.5241 0.9891
0.6268 -2.3977 -0.4832 0.9900
0.6555 -2.3657 -0.4786 0.9900
0.7118 -2.3048 -0.4703 0.9902
0.7557 -2.2150 -0.4563 0.9905
0.8111 -2.2683 -0.4696 0.9902
0.8888 -1.9323 -0.4147 0.9914
1.0026 -1.9500 -0.4275 0.9911
1.0507 -1.9721 -0.4356 0.9909
1.1532 -2.0200 -0.4535 0.9906
1.2081 -2.0460 -0.4632 0.9904
1.3895 -2.1338 -0.4964 0.9897
1.7305 -2.4948 -0.5919 0.9877
2.9633 -4.1420 -0.9929 0.9795
3.1999 -3.9614 -0.9928 0.9795
3.2574 -3.9141 -0.9928 0.9795
3.3141 -3.8661 -0.9927 0.9795
3.5836 -3.5059 -0.9774 0.9798
3.0747 -2.8371 -0.8156 0.9831
3.0083 -2.6173 -0.7774 0.9839
3.2582 -2.6714 -0.8214 0.9830
4.0551 -2.9462 -0.9772 0.9798
4.1351 -2.8235 -0.9762 0.9798
4.2157 -2.7014 -0.9761 0.9798
4.2547 -2.6394 -0.9761 0.9798
4.3298 -2.5139 -0.9761 0.9798
4.4356 -2.3217 -0.9760 0.9798
4.4690 -2.2566 -0.9760 0.9798
4.5015 -2.1910 -0.9760 0.9798
4.6263 -1.9262 -0.9770 0.9798
4.6551 -1.8590 -0.9773 0.9798
4.8283 -1.6079 -0.9921 0.9795
4.9138 -1.3231 -0.9921 0.9795
4.9503 -1.1789 -0.9921 0.9795
5.0446 -0.6673 -0.9920 0.9795
5.0538 -0.5934 -0.9920 0.9795
5.0619 -0.5195 -0.9920 0.9795
5.0863 -0.1487 -0.9920 0.9795
5.0885 0.0000 -0.9920 0.9795
5.0619 0.5196 -0.9920 0.9795
5.0446 0.6673 -0.9920 0.9795
5.0344 0.7409 -0.9921 0.9795
5.0230 0.8144 -0.9921 0.9795
4.9971 0.9609 -0.9921 0.9795
4.9503 1.1789 -0.9921 0.9795
4.9326 1.2511 -0.9921 0.9795
4.7794 1.7484 -0.9922 0.9795
4.6983 1.9562 -0.9922 0.9795
4.6693 2.0247 -0.9922 0.9795
4.6393 2.0927 -0.9922 0.9795
4.6083 2.1603 -0.9922 0.9795
4.5762 2.2274 -0.9922 0.9795
4.5432 2.2941 -0.9922 0.9795
4.5093 2.3602 -0.9923 0.9795
4.4744 2.4259 -0.9923 0.9795
4.4386 2.4911 -0.9923 0.9795
4.3640 2.6198 -0.9923 0.9795
4.2857 2.7462 -0.9923 0.9795
4.2452 2.8086 -0.9924 0.9795
4.2038 2.8704 -0.9924 0.9795
3.9834 3.1699 -0.9925 0.9795
3.9367 3.2278 -0.9925 0.9795
3.8409 3.3416 -0.9925 0.9795
3.6394 3.5605 -0.9926 0.9795
3.4255 3.7674 -0.9927 0.9795
3.3702 3.8171 -0.9927 0.9795
3.3141 3.8661 -0.9927 0.9795
2.8748 3.6673 -0.9085 0.9812
2.7791 4.2682 -0.9929 0.9795
2.7165 4.3084 -0.9930 0.9795
2.6534 4.3478 -0.9930 0.9795
2.5896 4.3862 -0.9930 0.9795
2.5253 4.4236 -0.9930 0.9795
2.3292 4.5304 -0.9931 0.9795
2.2629 4.5641 -0.9932 0.9795
2.0608 4.6593 -0.9932 0.9795
1.9239 4.7178 -0.9933 0.9795
1.2443 3.8296 -0.7850 0.9837
1.2991 4.2065 -0.8583 0.9822
1.4324 4.8905 -0.9935 0.9794
1.3609 4.9111 -0.9935 0.9794
1.2169 4.9490 -0.9936 0.9794
0.8525 5.0254 -0.9937 0.9794
0.7790 5.0375 -0.9937 0.9794
0.7053 5.0484 -0.9938 0.9794
0.6315 5.0584 -0.9938 0.9794
0.4834 5.0750 -0.9939 0.9794
0.2363 3.5887 -0.7011 0.9855
0.0626 2.8575 -0.5572 0.9884
-0.0203 2.7777 -0.5415 0.9887
-0.0611 2.7842 -0.5429 0.9887
-0.1020 2.7908 -0.5444 0.9887
-0.1432 2.7974 -0.5461 0.9886
-0.2264 2.8110 -0.5498 0.9886
-0.3109 2.8250 -0.5541 0.9885
-0.3536 2.8321 -0.5564 0.9884
-0.3967 2.8393 -0.5589 0.9884
