ply
format ascii 1.0
element vertex 1594
property float32 x
property float32 y
property float32 z
property float32 I
end_header
-0.3853 0.3452 -0.1068 0.9979
-0.3872 0.3270 -0.1046 0.9979
-0.3880 0.3182 -0.1036 0.9980
-0.3888 0.3095 -0.1026 0.9980
-0.3896 0.3009 -0.1016 0.9980
-0.3903 0.2924 -0.1007 0.9980
-0.3916 0.2759 -0.0989 0.9980
-0.3921 0.2678 -0.0981 0.9981
-0.3937 0.2443 -0.0956 0.9981
-0.3948 0.2216 -0.0935 0.9982
-0.3953 0.2070 -0.0921 0.9982
-0.3956 0.1998 -0.0915 0.9982
-0.3962 0.1858 -0.0904 0.9982
-0.3967 0.1790 -0.0899 0.9982
-0.3972 0.1723 -0.0894 0.9982
-0.3979 0.1590 -0.0885 0.9983
-0.3983 0.1523 -0.0880 0.9983
-0.3986 0.1458 -0.0876 0.9983
-0.3991 0.1330 -0.0868 0.9983
-0.4000 0.1077 -0.0855 0.9983
-0.4002 0.1016 -0.0853 0.9983
-0.4004 0.0893 -0.0847 0.9983
-0.4005 0.0831 -0.0845 0.9983
-0.4003 0.0589 -0.0836 0.9983
-0.4000 0.0470 -0.0832 0.9984
-0.3998 0.0411 -0.0830 0.9984
-0.3988 0.0234 -0.0825 0.9984
-0.3980 0.0117 -0.0822 0.9984
-0.3976 0.0059 -0.0821 0.9984
-0.3900 0.0001 -0.0850 0.9984
-0.3904 -0.0057 -0.0851 0.9984
-0.3907 -0.0114 -0.0852 0.9984
-0.3913 -0.0229 -0.0855 0.9984
-0.3918 -0.0344 -0.0858 0.9984
-0.3920 -0.0402 -0.0859 0.9984
-0.3921 -0.0460 -0.0861 0.9984
-0.3924 -0.0577 -0.0865 0.9984
-0.3925 -0.0636 -0.0867 0.9984
-0.3926 -0.0695 -0.0869 0.9984
-0.3926 -0.0754 -0.0872 0.9984
-0.3926 -0.0814 -0.0874 0.9984
-0.3926 -0.0874 -0.0877 0.9984
-0.3925 -0.0995 -0.0883 0.9983
-0.3923 -0.1056 -0.0886 0.9983
-0.3922 -0.1117 -0.0889 0.9983
-0.3920 -0.1179 -0.0893 0.9983
-0.3918 -0.1241 -0.0896 0.9983
-0.3916 -0.1304 -0.0900 0.9983
-0.3910 -0.1430 -0.0908 0.9983
-0.3903 -0.1558 -0.0916 0.9983
-0.3895 -0.1688 -0.0926 0.9983
-0.3864 -0.2169 -0.0966 0.9982
-0.3861 -0.2241 -0.0973 0.9982
-0.3856 -0.2315 -0.0981 0.9982
-0.3847 -0.2464 -0.0996 0.9981
-0.3841 -0.2541 -0.1004 0.9981
-0.3835 -0.2618 -0.1013 0.9981
-0.3829 -0.2697 -0.1021 0.9981
-0.3822 -0.2777 -0.1030 0.9981
-0.3807 -0.2939 -0.1049 0.9980
-0.3799 -0.3022 -0.1059 0.9980
-0.3770 -0.3280 -0.1090 0.9980
-0.3760 -0.3369 -0.1101 0.9979
-0.3749 -0.3459 -0.1112 0.9979
-0.3737 -0.3551 -0.1124 0.9979
-0.3722 -0.3641 -0.1136 0.9979
-0.3684 -0.3821 -0.1157 0.9978
-0.3645 -0.4009 -0.1181 0.9978
-0.3608 -0.4209 -0.1209 0.9977
-0.3594 -0.4318 -0.1225 0.9977
-0.3579 -0.4430 -0.1242 0.9977
-0.3563 -0.4545 -0.1259 0.9976
-0.3546 -0.4661 -0.1277 0.9976
-0.3528 -0.4781 -0.1296 0.9976
-0.3509 -0.4904 -0.1315 0.9975
-0.3422 -0.5427 -0.1399 0.9974
-0.3420 -0.5792 -0.1467 0.9972
-0.3770 -0.6832 -0.1702 0.9968
-0.4094 -0.7684 -0.1899 0.9964
-2.0861 -4.0575 -0.9949 0.9815
-2.0266 -4.0874 -0.9949 0.9815
-1.9665 -4.1165 -0.9948 0.9815
-1.2196 -2.7573 -0.6575 0.9877
-1.1875 -2.7943 -0.6621 0.9876
-1.7226 -4.2239 -0.9947 0.9815
-1.6606 -4.2485 -0.9947 0.9815
-1.5357 -4.2950 -0.9947 0.9815
-1.4727 -4.3169 -0.9946 0.9815
-1.3459 -4.3579 -0.9946 0.9815
-1.2821 -4.3770 -0.9946 0.9815
-1.2179 -4.3951 -0.9945 0.9815
-1.0241 -4.4439 -0.9945 0.9815
-0.9590 -4.4583 -0.9944 0.9815
-0.8937 -4.4717 -0.9944 0.9815
-0.7627 -4.4957 -0.9944 0.9815
-0.6309 -4.5158 -0.9943 0.9815
-0.4987 -4.5321 -0.9943 0.9815
-0.4324 -4.5387 -0.9942 0.9815
-0.3661 -4.5445 -0.9942 0.9815
-0.2330 -4.5530 -0.9941 0.9815
-0.0999 -4.5576 -0.9941 0.9815
-0.0333 -4.5584 -0.9941 0.9815
0.0333 -4.5583 -0.9940 0.9815
0.0999 -4.5572 -0.9940 0.9815
0.1665 -4.5552 -0.9940 0.9815
0.2330 -4.5521 -0.9940 0.9815
0.2995 -4.5481 -0.9939 0.9815
0.3659 -4.5431 -0.9939 0.9815
0.5646 -4.5223 -0.9938 0.9815
0.6306 -4.5135 -0.9938 0.9815
0.8277 -4.4812 -0.9937 0.9815
0.9583 -4.4548 -0.9937 0.9815
1.2807 -4.3725 -0.9935 0.9815
1.3444 -4.3532 -0.9935 0.9815
1.5963 -4.2668 -0.9934 0.9815
1.6584 -4.2429 -0.9934 0.9815
1.7816 -4.1924 -0.9933 0.9815
1.9032 -4.1384 -0.9933 0.9815
2.0233 -4.0808 -0.9933 0.9815
2.0826 -4.0507 -0.9932 0.9815
2.1415 -4.0198 -0.9932 0.9815
2.2000 -3.9879 -0.9932 0.9815
2.3725 -3.8874 -0.9931 0.9815
2.4289 -3.8523 -0.9931 0.9815
2.4849 -3.8162 -0.9931 0.9815
2.5404 -3.7795 -0.9930 0.9815
2.5952 -3.7419 -0.9930 0.9815
2.7143 -3.5687 -0.9777 0.9818
2.7662 -3.5286 -0.9777 0.9818
2.8173 -3.4877 -0.9777 0.9818
2.9643 -3.3573 -0.9766 0.9818
3.0129 -3.3136 -0.9766 0.9818
2.3577 -2.5179 -0.7522 0.9860
2.3689 -2.4570 -0.7443 0.9861
2.8635 -2.8013 -0.8735 0.9837
2.3001 -2.1853 -0.6919 0.9871
2.3313 -2.0888 -0.6826 0.9873
3.5836 -2.6845 -0.9764 0.9818
3.6976 -2.5247 -0.9763 0.9818
3.7340 -2.4704 -0.9763 0.9818
3.7697 -2.4155 -0.9763 0.9818
3.8045 -2.3602 -0.9763 0.9818
3.8385 -2.3043 -0.9763 0.9818
3.8717 -2.2479 -0.9763 0.9818
3.9041 -2.1911 -0.9763 0.9818
3.9664 -2.0760 -0.9762 0.9818
4.0575 -1.9021 -0.9772 0.9818
4.1281 -1.7900 -0.9812 0.9817
4.2013 -1.7492 -0.9924 0.9815
4.2263 -1.6876 -0.9924 0.9815
4.2738 -1.5633 -0.9924 0.9815
4.2961 -1.5007 -0.9923 0.9815
4.3381 -1.3745 -0.9923 0.9815
4.3577 -1.3110 -0.9923 0.9815
4.3763 -1.2472 -0.9923 0.9815
4.4108 -1.1187 -0.9923 0.9815
4.4267 -1.0541 -0.9923 0.9815
4.4416 -0.9894 -0.9923 0.9815
4.4917 -0.7282 -0.9923 0.9815
4.5110 -0.5966 -0.9923 0.9815
4.5192 -0.5307 -0.9923 0.9815
4.5328 -0.3984 -0.9923 0.9815
4.5381 -0.3321 -0.9922 0.9815
4.5459 -0.1994 -0.9922 0.9815
4.5483 -0.1329 -0.9922 0.9815
4.5497 0.0665 -0.9922 0.9815
4.5459 0.1995 -0.9922 0.9815
4.5381 0.3322 -0.9922 0.9815
4.4806 0.7938 -0.9923 0.9815
4.4685 0.8592 -0.9923 0.9815
4.4555 0.9245 -0.9923 0.9815
4.4108 1.1188 -0.9923 0.9815
4.3763 1.2473 -0.9923 0.9815
4.3380 1.3746 -0.9923 0.9815
4.2961 1.5009 -0.9923 0.9815
4.2013 1.7493 -0.9924 0.9815
4.1753 1.8105 -0.9924 0.9815
4.1485 1.8713 -0.9924 0.9815
4.1207 1.9317 -0.9924 0.9815
4.0921 1.9918 -0.9924 0.9815
4.0626 2.0514 -0.9924 0.9815
3.9022 2.3426 -0.9925 0.9815
3.7960 2.5115 -0.9925 0.9815
3.7590 2.5667 -0.9926 0.9815
3.7212 2.6214 -0.9926 0.9815
3.6825 2.6755 -0.9926 0.9815
3.6430 2.7291 -0.9926 0.9815
3.6029 2.7820 -0.9926 0.9815
3.5619 2.8345 -0.9926 0.9815
3.3905 3.0379 -0.9927 0.9815
3.3458 3.0872 -0.9927 0.9815
3.3004 3.1358 -0.9927 0.9815
3.2075 3.2311 -0.9928 0.9815
3.1600 3.2776 -0.9928 0.9815
3.1118 3.3235 -0.9928 0.9815
2.9634 3.4569 -0.9929 0.9815
2.9126 3.4999 -0.9929 0.9815
2.8612 3.5421 -0.9929 0.9815
2.8092 3.5836 -0.9929 0.9815
2.7034 3.6643 -0.9930 0.9815
2.5404 3.7796 -0.9930 0.9815
2.4850 3.8163 -0.9931 0.9815
2.3725 3.8875 -0.9931 0.9815
2.3155 3.9219 -0.9931 0.9815
2.2580 3.9554 -0.9932 0.9815
2.2000 3.9880 -0.9932 0.9815
2.1415 4.0198 -0.9932 0.9815
2.0826 4.0507 -0.9932 0.9815
1.9033 4.1384 -0.9933 0.9815
1.8426 4.1659 -0.9933 0.9815
1.7816 4.1925 -0.9933 0.9815
1.4710 4.3119 -0.9935 0.9815
1.2167 4.3909 -0.9936 0.9815
1.0880 4.4248 -0.9936 0.9815
0.6965 4.5038 -0.9938 0.9815
0.6306 4.5136 -0.9938 0.9815
0.5646 4.5225 -0.9938 0.9815
0.4322 4.5373 -0.9939 0.9815
0.2330 4.5522 -0.9940 0.9815
0.0999 4.5573 -0.9940 0.9815
0.0333 4.5584 -0.9940 0.9815
-0.1665 4.5559 -0.9941 0.9815
-0.2330 4.5530 -0.9941 0.9815
-0.3660 4.5445 -0.9942 0.9815
-0.4324 4.5388 -0.9942 0.9815
-0.6969 4.5063 -0.9943 0.9815
-0.7627 4.4957 -0.9944 0.9815
-1.0241 4.4440 -0.9945 0.9815
-1.0889 4.4287 -0.9945 0.9815
-1.1535 4.4124 -0.9945 0.9815
-1.2821 4.3770 -0.9946 0.9815
-1.3459 4.3580 -0.9946 0.9815
-1.5357 4.2951 -0.9947 0.9815
-1.5983 4.2723 -0.9947 0.9815
-1.6606 4.2486 -0.9947 0.9815
-1.7226 4.2240 -0.9947 0.9815
-1.7842 4.1984 -0.9948 0.9815
-1.9666 4.1166 -0.9948 0.9815
-2.0266 4.0875 -0.9949 0.9815
-2.0861 4.0575 -0.9949 0.9815
-0.4093 0.7684 -0.1898 0.9964
-0.3582 0.6276 -0.1576 0.9970
-0.3397 0.5567 -0.1422 0.9973
-0.3422 0.5428 -0.1399 0.9974
-0.3445 0.5291 -0.1377 0.9974
-0.3468 0.5159 -0.1355 0.9975
-0.3509 0.4905 -0.1315 0.9975
-0.3528 0.4782 -0.1296 0.9976
-0.3546 0.4662 -0.1277 0.9976
-0.3579 0.4431 -0.1242 0.9977
-0.3594 0.4319 -0.1225 0.9977
-0.3624 0.4105 -0.1194 0.9978
-0.3645 0.4009 -0.1181 0.9978
-0.3665 0.3914 -0.1169 0.9978
-0.3749 0.3460 -0.1112 0.9979
-0.3760 0.3370 -0.1101 0.9979
-0.3771 0.3281 -0.1090 0.9980
-0.3780 0.3194 -0.1079 0.9980
-0.3790 0.3108 -0.1069 0.9980
-0.3799 0.3023 -0.1059 0.9980
-0.3807 0.2940 -0.1049 0.9980
-0.3822 0.2777 -0.1030 0.9981
-0.3835 0.2619 -0.1013 0.9981
-0.3841 0.2542 -0.1004 0.9981
-0.3847 0.2465 -0.0996 0.9981
-0.3852 0.2390 -0.0988 0.9981
-0.3856 0.2316 -0.0981 0.9982
-0.3861 0.2241 -0.0973 0.9982
-0.3865 0.2169 -0.0966 0.9982
-0.3868 0.2098 -0.0959 0.9982
-0.3871 0.2027 -0.0953 0.9982
-0.3885 0.1821 -0.0936 0.9982
-0.3890 0.1755 -0.0931 0.9983
-0.3895 0.1689 -0.0926 0.9983
-0.3907 0.1495 -0.0912 0.9983
-0.3913 0.1367 -0.0904 0.9983
-0.3920 0.1180 -0.0893 0.9983
-0.3923 0.1057 -0.0886 0.9983
-0.3925 0.0996 -0.0883 0.9983
-0.3925 0.0935 -0.0880 0.9983
-0.3926 0.0755 -0.0872 0.9984
-0.3926 0.0696 -0.0869 0.9984
-0.3923 0.0520 -0.0863 0.9984
-0.3922 0.0461 -0.0861 0.9984
-0.3916 0.0287 -0.0856 0.9984
-0.3910 0.0172 -0.0853 0.9984
-0.3832 0.0001 -0.0880 0.9984
-0.3838 -0.0112 -0.0882 0.9984
-0.3841 -0.0168 -0.0883 0.9984
-0.3844 -0.0225 -0.0884 0.9984
-0.3846 -0.0281 -0.0886 0.9984
-0.3849 -0.0338 -0.0887 0.9984
-0.3850 -0.0395 -0.0889 0.9984
-0.3852 -0.0452 -0.0891 0.9984
-0.3854 -0.0567 -0.0895 0.9984
-0.3853 -0.0977 -0.0913 0.9984
-0.3848 -0.1157 -0.0923 0.9984
-0.3821 -0.1656 -0.0957 0.9983
-0.3816 -0.1721 -0.0961 0.9983
-0.3795 -0.1916 -0.0977 0.9983
-0.3770 -0.2339 -0.1019 0.9982
-0.3765 -0.2412 -0.1027 0.9982
-0.3759 -0.2486 -0.1035 0.9982
-0.3721 -0.2873 -0.1080 0.9981
-0.3693 -0.3119 -0.1110 0.9980
-0.3683 -0.3204 -0.1121 0.9980
-0.3647 -0.3466 -0.1156 0.9979
-0.3616 -0.3642 -0.1179 0.9979
-0.3596 -0.3729 -0.1190 0.9979
-0.3575 -0.3818 -0.1201 0.9979
-0.3554 -0.3909 -0.1214 0.9978
-0.3534 -0.4002 -0.1226 0.9978
-0.3512 -0.4096 -0.1239 0.9978
-0.3489 -0.4192 -0.1253 0.9978
-0.3471 -0.4296 -0.1269 0.9977
-0.3454 -0.4405 -0.1286 0.9977
-0.3436 -0.4517 -0.1304 0.9977
-0.3417 -0.4630 -0.1322 0.9976
-0.3397 -0.4747 -0.1341 0.9976
-0.3376 -0.4867 -0.1361 0.9976
-0.3354 -0.4989 -0.1381 0.9975
-0.3331 -0.5114 -0.1402 0.9975
-0.3306 -0.5243 -0.1424 0.9975
-0.3253 -0.5510 -0.1470 0.9974
-0.3225 -0.5649 -0.1494 0.9973
-1.8669 -3.9078 -0.9948 0.9824
-1.8095 -3.9345 -0.9948 0.9824
-1.1875 -2.7943 -0.6974 0.9876
-1.5764 -4.0332 -0.9947 0.9824
-1.4579 -4.0773 -0.9946 0.9824
-1.3380 -4.1180 -0.9946 0.9824
-1.2171 -4.1551 -0.9945 0.9824
-0.8485 -4.2450 -0.9944 0.9824
-0.5990 -4.2870 -0.9943 0.9824
-0.5362 -4.2952 -0.9943 0.9824
-0.3475 -4.3142 -0.9942 0.9824
-0.2213 -4.3223 -0.9941 0.9824
-0.0948 -4.3267 -0.9941 0.9824
0.0316 -4.3274 -0.9940 0.9824
0.0949 -4.3263 -0.9940 0.9824
0.4103 -4.3073 -0.9939 0.9824
0.4732 -4.3008 -0.9939 0.9824
0.5360 -4.2933 -0.9938 0.9824
0.5987 -4.2849 -0.9938 0.9824
0.6612 -4.2756 -0.9938 0.9824
0.7236 -4.2654 -0.9938 0.9824
0.7858 -4.2543 -0.9937 0.9824
0.9097 -4.2293 -0.9937 0.9824
0.9714 -4.2154 -0.9937 0.9824
1.0329 -4.2007 -0.9936 0.9824
1.0941 -4.1850 -0.9936 0.9824
1.2159 -4.1511 -0.9936 0.9824
1.3965 -4.0935 -0.9935 0.9824
1.5154 -4.0507 -0.9935 0.9824
1.6331 -4.0045 -0.9934 0.9824
1.6914 -3.9802 -0.9934 0.9824
1.7493 -3.9549 -0.9934 0.9824
1.8640 -3.9020 -0.9933 0.9824
1.9772 -3.8456 -0.9933 0.9824
2.0887 -3.7860 -0.9932 0.9824
2.1437 -3.7550 -0.9932 0.9824
2.2524 -3.6906 -0.9932 0.9824
2.2706 -3.6012 -0.9779 0.9827
2.4744 -3.4586 -0.9768 0.9827
2.5743 -3.3847 -0.9768 0.9827
2.6235 -3.3466 -0.9768 0.9827
2.8143 -3.1874 -0.9767 0.9827
2.3669 -2.5279 -0.7955 0.9859
2.3741 -2.4624 -0.7857 0.9861
2.4198 -2.4375 -0.7890 0.9860
2.8635 -2.8014 -0.9202 0.9837
2.3004 -2.1856 -0.7289 0.9871
2.3015 -2.1236 -0.7193 0.9872
2.3338 -2.0911 -0.7198 0.9872
3.0710 -2.5938 -0.9234 0.9836
3.1667 -2.5964 -0.9407 0.9833
3.4022 -2.5486 -0.9765 0.9827
3.4752 -2.4480 -0.9764 0.9827
3.5451 -2.3454 -0.9764 0.9827
3.5790 -2.2933 -0.9764 0.9827
3.6121 -2.2407 -0.9764 0.9827
3.6443 -2.1877 -0.9764 0.9827
3.6759 -2.1342 -0.9764 0.9827
3.7366 -2.0258 -0.9763 0.9827
3.8523 -1.8059 -0.9773 0.9827
3.9330 -1.7741 -0.9911 0.9824
3.9641 -1.7188 -0.9925 0.9824
4.0126 -1.6022 -0.9925 0.9824
4.0788 -1.4248 -0.9924 0.9824
4.1187 -1.3050 -0.9924 0.9824
4.1372 -1.2446 -0.9924 0.9824
4.2169 -0.9393 -0.9924 0.9824
4.2425 -0.8157 -0.9924 0.9824
4.2540 -0.7536 -0.9924 0.9824
4.2829 -0.5665 -0.9924 0.9824
4.2906 -0.5038 -0.9923 0.9824
4.2976 -0.4411 -0.9923 0.9824
4.3086 -0.3153 -0.9923 0.9824
4.3160 -0.1893 -0.9923 0.9824
4.3196 -0.0631 -0.9923 0.9824
4.3201 0.0000 -0.9923 0.9824
4.3197 0.0632 -0.9923 0.9824
4.3160 0.1894 -0.9923 0.9824
4.3086 0.3154 -0.9923 0.9824
4.3035 0.3783 -0.9923 0.9824
4.2976 0.4412 -0.9923 0.9824
4.2829 0.5665 -0.9924 0.9824
4.2741 0.6290 -0.9924 0.9824
4.2302 0.8777 -0.9924 0.9824
4.2169 0.9394 -0.9924 0.9824
4.2028 1.0009 -0.9924 0.9824
4.1373 1.2448 -0.9924 0.9824
4.1187 1.3051 -0.9924 0.9824
4.0992 1.3652 -0.9924 0.9824
4.0788 1.4249 -0.9924 0.9824
4.0355 1.5435 -0.9924 0.9824
4.0126 1.6023 -0.9925 0.9824
3.9888 1.6608 -0.9925 0.9824
3.9641 1.7189 -0.9925 0.9824
3.8571 1.9477 -0.9925 0.9824
3.8283 2.0037 -0.9925 0.9824
3.7682 2.1148 -0.9926 0.9824
3.7049 2.2241 -0.9926 0.9824
3.6721 2.2780 -0.9926 0.9824
3.5329 2.4888 -0.9926 0.9824
3.4588 2.5910 -0.9927 0.9824
3.4206 2.6414 -0.9927 0.9824
3.2189 2.8842 -0.9928 0.9824
3.1765 2.9309 -0.9928 0.9824
3.1334 2.9771 -0.9928 0.9824
3.0452 3.0675 -0.9928 0.9824
2.7652 3.3228 -0.9930 0.9824
2.7164 3.3628 -0.9930 0.9824
2.6670 3.4023 -0.9930 0.9824
2.6171 3.4409 -0.9930 0.9824
2.5666 3.4789 -0.9930 0.9824
2.5155 3.5161 -0.9931 0.9824
2.4639 3.5525 -0.9931 0.9824
2.3592 3.6231 -0.9931 0.9824
2.3060 3.6573 -0.9931 0.9824
2.2524 3.6907 -0.9932 0.9824
2.1983 3.7234 -0.9932 0.9824
2.1437 3.7552 -0.9932 0.9824
2.0331 3.8163 -0.9932 0.9824
1.9771 3.8457 -0.9933 0.9824
1.9208 3.8743 -0.9933 0.9824
1.8641 3.9020 -0.9933 0.9824
1.7493 3.9550 -0.9934 0.9824
1.3965 4.0936 -0.9935 0.9824
1.2764 4.1329 -0.9935 0.9824
1.1551 4.1685 -0.9936 0.9824
1.0941 4.1851 -0.9936 0.9824
0.9714 4.2155 -0.9937 0.9824
0.8478 4.2423 -0.9937 0.9824
0.7236 4.2655 -0.9938 0.9824
0.6612 4.2757 -0.9938 0.9824
0.4732 4.3009 -0.9939 0.9824
0.4103 4.3074 -0.9939 0.9824
0.3473 4.3131 -0.9939 0.9824
0.2843 4.3178 -0.9939 0.9824
0.2212 4.3216 -0.9940 0.9824
0.0948 4.3264 -0.9940 0.9824
-0.1580 4.3251 -0.9941 0.9824
-0.2212 4.3224 -0.9941 0.9824
-0.5990 4.2871 -0.9943 0.9824
-0.7240 4.2679 -0.9943 0.9824
-1.0951 4.1887 -0.9945 0.9824
-1.1562 4.1724 -0.9945 0.9824
-1.2777 4.1371 -0.9946 0.9824
-1.8095 3.9346 -0.9948 0.9824
-1.9238 3.8802 -0.9948 0.9824
-0.3673 0.7145 -0.1845 0.9967
-0.3492 0.6555 -0.1706 0.9970
-0.3253 0.5510 -0.1470 0.9974
-0.3280 0.5375 -0.1446 0.9974
-0.3354 0.4990 -0.1381 0.9975
-0.3396 0.4748 -0.1341 0.9976
-0.3471 0.4297 -0.1269 0.9977
-0.3489 0.4193 -0.1253 0.9978
-0.3512 0.4096 -0.1239 0.9978
-0.3596 0.3729 -0.1190 0.9979
-0.3648 0.3466 -0.1156 0.9979
-0.3683 0.3204 -0.1121 0.9980
-0.3693 0.3120 -0.1110 0.9980
-0.3713 0.2955 -0.1090 0.9981
-0.3730 0.2794 -0.1070 0.9981
-0.3738 0.2716 -0.1061 0.9981
-0.3770 0.2339 -0.1019 0.9982
-0.3780 0.2195 -0.1004 0.9982
-0.3792 0.1985 -0.0983 0.9982
-0.3796 0.1917 -0.0977 0.9983
-0.3803 0.1851 -0.0972 0.9983
-0.3821 0.1657 -0.0957 0.9983
-0.3825 0.1593 -0.0952 0.9983
-0.3829 0.1530 -0.0947 0.9983
-0.3837 0.1404 -0.0938 0.9983
-0.3843 0.1280 -0.0930 0.9983
-0.3852 0.1037 -0.0916 0.9984
-0.3855 0.0859 -0.0907 0.9984
-0.3856 0.0800 -0.0904 0.9984
-0.3853 0.0510 -0.0893 0.9984
-0.3852 0.0453 -0.0891 0.9984
-0.3850 0.0396 -0.0889 0.9984
-0.3846 0.0282 -0.0886 0.9984
-0.3839 0.0112 -0.0882 0.9984
-0.3835 0.0056 -0.0881 0.9984
-0.3765 0.0000 -0.0909 0.9985
-0.3777 -0.0220 -0.0913 0.9984
-0.3786 -0.0557 -0.0924 0.9984
-0.3787 -0.0671 -0.0928 0.9984
-0.3782 -0.1018 -0.0946 0.9984
-0.3776 -0.1196 -0.0956 0.9984
-0.3770 -0.1316 -0.0964 0.9984
-0.3762 -0.1438 -0.0972 0.9983
-0.3758 -0.1500 -0.0977 0.9983
-0.3754 -0.1562 -0.0982 0.9983
-0.3749 -0.1625 -0.0986 0.9983
-0.3743 -0.1688 -0.0991 0.9983
-0.3738 -0.1752 -0.0997 0.9983
-0.3722 -0.1879 -0.1007 0.9983
-0.3712 -0.2012 -0.1019 0.9983
-0.3707 -0.2080 -0.1026 0.9983
-0.3691 -0.2290 -0.1049 0.9982
-0.3672 -0.2507 -0.1073 0.9982
-0.3656 -0.2657 -0.1091 0.9981
-0.3648 -0.2732 -0.1100 0.9981
-0.3630 -0.2888 -0.1120 0.9981
-0.3548 -0.3471 -0.1198 0.9980
-0.3511 -0.3641 -0.1221 0.9979
-0.3468 -0.3814 -0.1244 0.9979
-0.3424 -0.3995 -0.1270 0.9978
-0.3377 -0.4180 -0.1297 0.9978
-0.3312 -0.4489 -0.1347 0.9977
-0.3291 -0.4600 -0.1365 0.9977
-0.3270 -0.4713 -0.1385 0.9976
-0.3246 -0.4829 -0.1405 0.9976
-0.3197 -0.5070 -0.1447 0.9975
-0.3171 -0.5195 -0.1469 0.9975
-0.3083 -0.5588 -0.1541 0.9974
-0.3106 -0.5829 -0.1594 0.9973
-0.3387 -0.6832 -0.1841 0.9969
-0.3561 -0.7453 -0.1994 0.9966
-1.2196 -2.7573 -0.7278 0.9877
-1.1875 -2.7944 -0.7329 0.9876
-1.5560 -3.8154 -0.9947 0.9832
-1.5000 -3.8376 -0.9947 0.9832
-1.4438 -3.8591 -0.9946 0.9832
-1.3303 -3.8994 -0.9946 0.9832
-1.2157 -3.9364 -0.9945 0.9832
-1.1581 -3.9537 -0.9945 0.9832
-1.1001 -3.9701 -0.9945 0.9832
-0.9836 -4.0004 -0.9944 0.9832
-0.9251 -4.0142 -0.9944 0.9832
-0.7482 -4.0506 -0.9944 0.9832
-0.6889 -4.0609 -0.9943 0.9832
-0.5699 -4.0792 -0.9943 0.9832
-0.4505 -4.0939 -0.9942 0.9832
-0.3906 -4.0999 -0.9942 0.9832
-0.0903 -4.1170 -0.9941 0.9832
0.0301 -4.1177 -0.9940 0.9832
0.2105 -4.1121 -0.9940 0.9832
0.3305 -4.1041 -0.9939 0.9832
0.5100 -4.0853 -0.9939 0.9832
0.6885 -4.0587 -0.9938 0.9832
0.7477 -4.0482 -0.9938 0.9832
0.8657 -4.0244 -0.9937 0.9832
0.9244 -4.0112 -0.9937 0.9832
1.0992 -3.9666 -0.9936 0.9832
1.2146 -3.9326 -0.9936 0.9832
1.2718 -3.9143 -0.9936 0.9832
1.3857 -3.8753 -0.9935 0.9832
1.6095 -3.7874 -0.9934 0.9832
1.6646 -3.7634 -0.9934 0.9832
1.7738 -3.7130 -0.9934 0.9832
1.8278 -3.6866 -0.9933 0.9832
1.9050 -3.5758 -0.9781 0.9835
1.9570 -3.5475 -0.9780 0.9835
2.0087 -3.5185 -0.9780 0.9835
2.0598 -3.4886 -0.9780 0.9835
2.1083 -3.4546 -0.9770 0.9835
1.7897 -2.8384 -0.8100 0.9863
1.8435 -2.8311 -0.8156 0.9862
1.9593 -2.8249 -0.8299 0.9860
2.4965 -3.1846 -0.9768 0.9835
2.5884 -3.1102 -0.9768 0.9835
2.6335 -3.0720 -0.9768 0.9835
2.3771 -2.5387 -0.8396 0.9858
2.8921 -2.8293 -0.9767 0.9835
2.3008 -2.1860 -0.7661 0.9870
2.3035 -2.1255 -0.7566 0.9872
3.0004 -2.6103 -0.9600 0.9838
3.1284 -2.5650 -0.9766 0.9835
3.1655 -2.5189 -0.9766 0.9835
3.2376 -2.4253 -0.9765 0.9835
3.2727 -2.3777 -0.9765 0.9835
3.3407 -2.2809 -0.9765 0.9835
3.4058 -2.1823 -0.9765 0.9835
3.4680 -2.0818 -0.9764 0.9835
3.4980 -2.0309 -0.9764 0.9835
3.5273 -1.9796 -0.9764 0.9835
3.5594 -1.9298 -0.9774 0.9835
3.7723 -1.6357 -0.9926 0.9832
3.7958 -1.5803 -0.9925 0.9832
3.8185 -1.5247 -0.9925 0.9832
3.8403 -1.4688 -0.9925 0.9832
3.8613 -1.4125 -0.9925 0.9832
3.9194 -1.2419 -0.9925 0.9832
3.9371 -1.1845 -0.9925 0.9832
3.9539 -1.1268 -0.9925 0.9832
3.9700 -1.0689 -0.9925 0.9832
3.9851 -1.0108 -0.9925 0.9832
3.9995 -0.9524 -0.9925 0.9832
4.0255 -0.8352 -0.9925 0.9832
4.0482 -0.7171 -0.9924 0.9832
4.0582 -0.6579 -0.9924 0.9832
4.0757 -0.5391 -0.9924 0.9832
4.0831 -0.4795 -0.9924 0.9832
4.1072 -0.1801 -0.9924 0.9832
4.1094 -0.1201 -0.9924 0.9832
4.1107 -0.0600 -0.9924 0.9832
4.1112 0.0000 -0.9924 0.9832
4.1107 0.0602 -0.9924 0.9832
4.1002 0.3001 -0.9924 0.9832
4.0953 0.3600 -0.9924 0.9832
4.0831 0.4795 -0.9924 0.9832
4.0757 0.5391 -0.9924 0.9832
4.0674 0.5987 -0.9924 0.9832
4.0582 0.6580 -0.9924 0.9832
4.0482 0.7173 -0.9924 0.9832
4.0373 0.7763 -0.9924 0.9832
4.0129 0.8939 -0.9925 0.9832
3.9700 1.0690 -0.9925 0.9832
3.9540 1.1269 -0.9925 0.9832
3.9371 1.1845 -0.9925 0.9832
3.9194 1.2420 -0.9925 0.9832
3.8815 1.3560 -0.9925 0.9832
3.8613 1.4125 -0.9925 0.9832
3.8403 1.4688 -0.9925 0.9832
3.7958 1.5804 -0.9925 0.9832
3.7230 1.7453 -0.9926 0.9832
3.6971 1.7995 -0.9926 0.9832
3.6705 1.8534 -0.9926 0.9832
3.6431 1.9069 -0.9926 0.9832
3.6149 1.9599 -0.9926 0.9832
3.5561 2.0647 -0.9926 0.9832
3.4944 2.1678 -0.9927 0.9832
3.4624 2.2187 -0.9927 0.9832
3.4296 2.2691 -0.9927 0.9832
3.3961 2.3190 -0.9927 0.9832
3.3619 2.3684 -0.9927 0.9832
3.3270 2.4173 -0.9927 0.9832
3.2914 2.4657 -0.9927 0.9832
3.1803 2.6077 -0.9928 0.9832
3.0632 2.7446 -0.9928 0.9832
2.9817 2.8330 -0.9929 0.9832
2.9401 2.8764 -0.9929 0.9832
2.7672 3.0434 -0.9930 0.9832
2.6313 3.1620 -0.9930 0.9832
2.3938 3.3459 -0.9931 0.9832
2.2449 3.4478 -0.9932 0.9832
2.1944 3.4803 -0.9932 0.9832
2.1433 3.5121 -0.9932 0.9832
2.0918 3.5430 -0.9932 0.9832
1.9875 3.6029 -0.9933 0.9832
1.9347 3.6315 -0.9933 0.9832
1.7738 3.7131 -0.9934 0.9832
1.7194 3.7387 -0.9934 0.9832
1.5540 3.8107 -0.9934 0.9832
1.3856 3.8754 -0.9935 0.9832
1.3289 3.8953 -0.9935 0.9832
1.2719 3.9145 -0.9936 0.9832
1.1570 3.9501 -0.9936 0.9832
1.0411 3.9824 -0.9936 0.9832
0.9244 4.0113 -0.9937 0.9832
0.8656 4.0245 -0.9937 0.9832
0.7477 4.0482 -0.9938 0.9832
0.6886 4.0588 -0.9938 0.9832
0.5697 4.0774 -0.9938 0.9832
0.3305 4.1041 -0.9939 0.9832
0.1504 4.1150 -0.9940 0.9832
0.0902 4.1168 -0.9940 0.9832
0.0301 4.1178 -0.9940 0.9832
-0.0301 4.1179 -0.9941 0.9832
-0.1504 4.1155 -0.9941 0.9832
-0.3306 4.1052 -0.9942 0.9832
-0.4505 4.0940 -0.9942 0.9832
-0.5102 4.0871 -0.9943 0.9832
-0.5699 4.0793 -0.9943 0.9832
-0.6889 4.0611 -0.9943 0.9832
-0.8073 4.0394 -0.9944 0.9832
-0.9836 4.0004 -0.9944 0.9832
-1.1002 3.9702 -0.9945 0.9832
-1.1581 3.9537 -0.9945 0.9832
-1.5560 3.8155 -0.9947 0.9832
-1.6116 3.7924 -0.9947 0.9832
-1.6669 3.7685 -0.9947 0.9832
-1.7218 3.7439 -0.9947 0.9832
-0.3387 0.6832 -0.1841 0.9969
-0.3237 0.6296 -0.1709 0.9971
-0.3105 0.5829 -0.1594 0.9973
-0.3113 0.5455 -0.1516 0.9974
-0.3143 0.5323 -0.1492 0.9975
-0.3171 0.5195 -0.1469 0.9975
-0.3197 0.5071 -0.1447 0.9975
-0.3246 0.4830 -0.1405 0.9976
-0.3270 0.4714 -0.1385 0.9976
-0.3291 0.4601 -0.1365 0.9977
-0.3332 0.4380 -0.1329 0.9977
-0.3352 0.4277 -0.1312 0.9978
-0.3377 0.4181 -0.1297 0.9978
-0.3424 0.3995 -0.1270 0.9978
-0.3468 0.3815 -0.1244 0.9979
-0.3490 0.3728 -0.1233 0.9979
-0.3511 0.3642 -0.1221 0.9979
-0.3548 0.3471 -0.1198 0.9980
-0.3574 0.3298 -0.1174 0.9980
-0.3587 0.3214 -0.1163 0.9980
-0.3598 0.3131 -0.1151 0.9980
-0.3620 0.2968 -0.1130 0.9981
-0.3630 0.2889 -0.1120 0.9981
-0.3639 0.2810 -0.1110 0.9981
-0.3648 0.2733 -0.1100 0.9981
-0.3664 0.2581 -0.1082 0.9982
-0.3679 0.2434 -0.1065 0.9982
-0.3707 0.2081 -0.1026 0.9983
-0.3722 0.1880 -0.1007 0.9983
-0.3730 0.1816 -0.1002 0.9983
-0.3744 0.1689 -0.0991 0.9983
-0.3754 0.1563 -0.0982 0.9983
-0.3758 0.1501 -0.0977 0.9983
-0.3762 0.1439 -0.0972 0.9983
-0.3766 0.1378 -0.0968 0.9984
-0.3770 0.1317 -0.0964 0.9984
-0.3773 0.1257 -0.0960 0.9984
-0.3780 0.1078 -0.0949 0.9984
-0.3782 0.1019 -0.0946 0.9984
-0.3785 0.0902 -0.0939 0.9984
-0.3787 0.0786 -0.0934 0.9984
-0.3787 0.0729 -0.0931 0.9984
-0.3787 0.0671 -0.0928 0.9984
-0.3787 0.0614 -0.0926 0.9984
-0.3786 0.0558 -0.0924 0.9984
-0.3786 0.0501 -0.0922 0.9984
-0.3780 0.0277 -0.0915 0.9984
-0.3777 0.0221 -0.0913 0.9984
-0.3775 0.0166 -0.0912 0.9984
-0.3704 -0.0054 -0.0938 0.9985
-0.3710 -0.0162 -0.0940 0.9985
-0.3712 -0.0217 -0.0941 0.9985
-0.3714 -0.0271 -0.0943 0.9985
-0.3716 -0.0326 -0.0944 0.9985
-0.3720 -0.0491 -0.0950 0.9985
-0.3721 -0.0715 -0.0959 0.9984
-0.3720 -0.0771 -0.0962 0.9984
-0.3719 -0.0828 -0.0965 0.9984
-0.3717 -0.0942 -0.0971 0.9984
-0.3713 -0.1057 -0.0977 0.9984
-0.3711 -0.1116 -0.0981 0.9984
-0.3705 -0.1233 -0.0989 0.9984
-0.3701 -0.1293 -0.0993 0.9984
-0.3689 -0.1473 -0.1006 0.9984
-0.3668 -0.1719 -0.1025 0.9983
-0.3660 -0.1781 -0.1031 0.9983
-0.3627 -0.2105 -0.1062 0.9983
-0.3621 -0.2174 -0.1069 0.9983
-0.3609 -0.2312 -0.1085 0.9982
-0.3595 -0.2454 -0.1102 0.9982
-0.3587 -0.2526 -0.1111 0.9982
-0.3570 -0.2674 -0.1129 0.9982
-0.3560 -0.2748 -0.1139 0.9981
-0.3550 -0.2825 -0.1149 0.9981
-0.3529 -0.2980 -0.1169 0.9981
-0.3505 -0.3141 -0.1191 0.9981
-0.3492 -0.3222 -0.1203 0.9980
-0.3479 -0.3305 -0.1215 0.9980
-0.3465 -0.3390 -0.1227 0.9980
-0.3450 -0.3475 -0.1240 0.9980
-0.3429 -0.3557 -0.1251 0.9980
-0.3408 -0.3640 -0.1262 0.9979
-0.3387 -0.3724 -0.1274 0.9979
-0.3364 -0.3809 -0.1287 0.9979
-0.3293 -0.4077 -0.1327 0.9978
-0.3268 -0.4168 -0.1341 0.9978
-0.3242 -0.4262 -0.1356 0.9978
-0.3169 -0.4569 -0.1408 0.9977
-0.3145 -0.4679 -0.1427 0.9977
-0.3121 -0.4792 -0.1448 0.9976
-0.3095 -0.4907 -0.1469 0.9976
-0.3068 -0.5026 -0.1491 0.9976
-0.3039 -0.5147 -0.1513 0.9975
-0.3009 -0.5271 -0.1537 0.9975
-0.2978 -0.5398 -0.1561 0.9975
-0.2911 -0.5662 -0.1612 0.9974
-0.3001 -0.6053 -0.1711 0.9972
-0.3125 -0.6541 -0.1835 0.9970
-0.3267 -0.7102 -0.1979 0.9968
-0.3430 -0.7754 -0.2147 0.9965
-1.4084 -3.6032 -0.9794 0.9842
-1.3555 -3.6233 -0.9794 0.9842
-1.3227 -3.6993 -0.9946 0.9839
-1.0490 -3.7856 -0.9945 0.9839
-0.9936 -3.8004 -0.9945 0.9839
-0.8821 -3.8277 -0.9944 0.9839
-0.7134 -3.8624 -0.9943 0.9839
-0.5435 -3.8896 -0.9943 0.9839
-0.4296 -3.9037 -0.9942 0.9839
-0.3725 -3.9095 -0.9942 0.9839
-0.2581 -3.9186 -0.9942 0.9839
-0.0861 -3.9258 -0.9941 0.9839
0.0861 -3.9255 -0.9940 0.9839
0.1434 -3.9238 -0.9940 0.9839
0.3152 -3.9134 -0.9939 0.9839
0.4863 -3.8956 -0.9939 0.9839
0.5999 -3.8795 -0.9938 0.9839
0.6566 -3.8702 -0.9938 0.9839
1.1033 -3.7666 -0.9936 0.9839
1.3540 -3.6193 -0.9783 0.9842
1.5630 -3.5337 -0.9782 0.9842
1.6184 -2.8350 -0.8264 0.9866
1.8411 -2.8274 -0.8542 0.9862
1.8992 -2.8254 -0.8619 0.9861
1.9557 -2.8197 -0.8687 0.9859
1.8619 -2.6024 -0.8101 0.9869
1.9095 -2.5881 -0.8142 0.9868
2.4247 -3.0017 -0.9769 0.9842
2.4682 -2.9659 -0.9768 0.9842
2.5538 -2.8924 -0.9768 0.9842
2.2923 -2.5209 -0.8626 0.9860
2.3143 -2.4717 -0.8572 0.9861
2.3669 -2.4550 -0.8633 0.9860
2.7970 -2.6574 -0.9767 0.9842
2.3066 -2.1282 -0.7945 0.9871
2.3402 -2.0968 -0.7954 0.9871
2.9472 -2.4893 -0.9766 0.9842
2.9832 -2.4459 -0.9766 0.9842
3.0874 -2.3128 -0.9766 0.9842
3.1208 -2.2674 -0.9766 0.9842
3.1536 -2.2215 -0.9766 0.9842
3.1857 -2.1752 -0.9765 0.9842
3.2779 -2.0334 -0.9765 0.9842
3.3392 -1.9387 -0.9775 0.9842
3.3671 -1.8896 -0.9775 0.9842
3.4319 -1.7962 -0.9806 0.9841
3.5002 -1.7673 -0.9927 0.9840
3.5256 -1.7160 -0.9927 0.9840
3.5503 -1.6643 -0.9926 0.9840
3.5973 -1.5598 -0.9926 0.9840
3.6414 -1.4540 -0.9926 0.9840
3.6622 -1.4006 -0.9926 0.9840
3.7199 -1.2388 -0.9926 0.9840
3.7706 -1.0745 -0.9926 0.9840
3.7859 -1.0193 -0.9925 0.9840
3.8140 -0.9083 -0.9925 0.9840
3.8501 -0.7402 -0.9925 0.9840
3.8867 -0.5141 -0.9925 0.9840
3.8938 -0.4572 -0.9925 0.9840
3.9000 -0.4002 -0.9925 0.9840
3.9054 -0.3432 -0.9925 0.9840
3.9138 -0.2290 -0.9925 0.9840
3.9167 -0.1718 -0.9925 0.9840
3.9204 0.0000 -0.9925 0.9840
3.9188 0.1146 -0.9925 0.9840
3.9100 0.2862 -0.9925 0.9840
3.8937 0.4573 -0.9925 0.9840
3.8866 0.5141 -0.9925 0.9840
3.8604 0.6840 -0.9925 0.9840
3.8501 0.7403 -0.9925 0.9840
3.8389 0.7965 -0.9925 0.9840
3.8140 0.9083 -0.9925 0.9840
3.7706 1.0746 -0.9926 0.9840
3.7376 1.1843 -0.9926 0.9840
3.7199 1.2389 -0.9926 0.9840
3.6621 1.4007 -0.9926 0.9840
3.6413 1.4541 -0.9926 0.9840
3.5257 1.7161 -0.9927 0.9840
3.5002 1.7674 -0.9927 0.9840
3.4741 1.8184 -0.9927 0.9840
3.4195 1.9192 -0.9927 0.9840
3.3323 2.0673 -0.9927 0.9839
3.3017 2.1157 -0.9927 0.9839
3.2705 2.1637 -0.9928 0.9839
3.2060 2.2585 -0.9928 0.9839
3.1727 2.3051 -0.9928 0.9839
3.1387 2.3513 -0.9928 0.9839
3.1041 2.3970 -0.9928 0.9839
3.0688 2.4421 -0.9928 0.9839
2.9589 2.5743 -0.9929 0.9839
2.9210 2.6173 -0.9929 0.9839
2.8434 2.7016 -0.9929 0.9839
2.7633 2.7837 -0.9930 0.9839
2.6388 2.9022 -0.9930 0.9839
2.5092 3.0152 -0.9931 0.9839
2.4649 3.0516 -0.9931 0.9839
2.4201 3.0873 -0.9931 0.9839
2.2826 3.1906 -0.9931 0.9839
2.2358 3.2237 -0.9932 0.9839
2.1885 3.2561 -0.9932 0.9839
2.0926 3.3187 -0.9932 0.9839
1.9948 3.3786 -0.9933 0.9839
1.7430 3.5155 -0.9934 0.9839
1.5873 3.5888 -0.9934 0.9839
1.5348 3.6117 -0.9934 0.9839
1.4819 3.6338 -0.9935 0.9839
1.4287 3.6552 -0.9935 0.9839
1.2128 3.7327 -0.9936 0.9839
0.9928 3.7975 -0.9937 0.9839
0.8814 3.8250 -0.9937 0.9839
0.8255 3.8376 -0.9937 0.9839
0.7693 3.8493 -0.9938 0.9839
0.7130 3.8603 -0.9938 0.9839
0.6566 3.8704 -0.9938 0.9839
0.5999 3.8796 -0.9938 0.9839
0.5432 3.8880 -0.9938 0.9839
0.4863 3.8957 -0.9939 0.9839
0.3152 3.9135 -0.9939 0.9839
0.2007 3.9212 -0.9940 0.9839
0.0861 3.9256 -0.9940 0.9839
-0.0287 3.9266 -0.9941 0.9839
-0.0861 3.9259 -0.9941 0.9839
-0.2008 3.9218 -0.9941 0.9839
-0.3153 3.9145 -0.9942 0.9839
-0.4295 3.9038 -0.9942 0.9839
-0.4865 3.8972 -0.9943 0.9839
-0.7134 3.8625 -0.9943 0.9839
-0.7698 3.8517 -0.9944 0.9839
-0.8821 3.8278 -0.9944 0.9839
-0.9379 3.8145 -0.9944 0.9839
-0.9936 3.8005 -0.9945 0.9839
-1.0490 3.7857 -0.9945 0.9839
-1.1042 3.7700 -0.9945 0.9839
-1.2140 3.7363 -0.9945 0.9839
-1.4303 3.6594 -0.9946 0.9839
-0.3430 0.7754 -0.2146 0.9965
-0.3266 0.7103 -0.1979 0.9968
-0.2911 0.5662 -0.1612 0.9974
-0.2946 0.5529 -0.1586 0.9974
-0.3009 0.5272 -0.1537 0.9975
-0.3039 0.5148 -0.1513 0.9975
-0.3068 0.5027 -0.1491 0.9976
-0.3095 0.4908 -0.1469 0.9976
-0.3121 0.4793 -0.1448 0.9976
-0.3146 0.4680 -0.1427 0.9977
-0.3192 0.4461 -0.1389 0.9977
-0.3242 0.4262 -0.1356 0.9978
-0.3268 0.4170 -0.1341 0.9978
-0.3293 0.4077 -0.1327 0.9978
-0.3341 0.3898 -0.1299 0.9979
-0.3364 0.3810 -0.1287 0.9979
-0.3408 0.3641 -0.1262 0.9979
-0.3429 0.3557 -0.1251 0.9980
-0.3450 0.3476 -0.1240 0.9980
-0.3479 0.3306 -0.1215 0.9980
-0.3492 0.3223 -0.1203 0.9980
-0.3505 0.3141 -0.1191 0.9981
-0.3517 0.3061 -0.1180 0.9981
-0.3529 0.2981 -0.1169 0.9981
-0.3540 0.2903 -0.1159 0.9981
-0.3550 0.2825 -0.1149 0.9981
-0.3560 0.2749 -0.1139 0.9981
-0.3570 0.2674 -0.1129 0.9982
-0.3578 0.2600 -0.1120 0.9982
-0.3587 0.2527 -0.1111 0.9982
-0.3609 0.2312 -0.1085 0.9982
-0.3622 0.2174 -0.1069 0.9983
-0.3628 0.2106 -0.1062 0.9983
-0.3652 0.1844 -0.1036 0.9983
-0.3660 0.1782 -0.1031 0.9983
-0.3668 0.1720 -0.1025 0.9983
-0.3674 0.1658 -0.1020 0.9983
-0.3679 0.1596 -0.1015 0.9983
-0.3684 0.1534 -0.1010 0.9984
-0.3689 0.1473 -0.1006 0.9984
-0.3697 0.1353 -0.0997 0.9984
-0.3701 0.1294 -0.0993 0.9984
-0.3708 0.1175 -0.0985 0.9984
-0.3713 0.1058 -0.0977 0.9984
-0.3715 0.1001 -0.0974 0.9984
-0.3717 0.0943 -0.0971 0.9984
-0.3720 0.0829 -0.0965 0.9984
-0.3721 0.0716 -0.0959 0.9984
-0.3721 0.0659 -0.0957 0.9984
-0.3721 0.0604 -0.0954 0.9984
-0.3720 0.0492 -0.0950 0.9985
-0.3718 0.0382 -0.0946 0.9985
-0.3712 0.0218 -0.0941 0.9985
-0.3710 0.0163 -0.0940 0.9985
-0.3704 0.0055 -0.0938 0.9985
-0.3638 0.0000 -0.0964 0.9985
-0.3651 -0.0267 -0.0970 0.9985
-0.3656 -0.0702 -0.0987 0.9985
-0.3656 -0.0758 -0.0989 0.9985
-0.3652 -0.0926 -0.0998 0.9984
-0.3650 -0.0983 -0.1002 0.9984
-0.3648 -0.1039 -0.1005 0.9984
-0.3642 -0.1154 -0.1012 0.9984
-0.3639 -0.1211 -0.1016 0.9984
-0.3631 -0.1328 -0.1025 0.9984
-0.3627 -0.1387 -0.1029 0.9984
-0.3622 -0.1446 -0.1034 0.9984
-0.3617 -0.1505 -0.1038 0.9984
-0.3612 -0.1566 -0.1043 0.9984
-0.3600 -0.1688 -0.1054 0.9984
-0.3592 -0.1748 -0.1059 0.9983
-0.3583 -0.1809 -0.1064 0.9983
-0.3566 -0.1933 -0.1075 0.9983
-0.3555 -0.2064 -0.1089 0.9983
-0.3543 -0.2198 -0.1105 0.9983
-0.3536 -0.2265 -0.1113 0.9983
-0.3512 -0.2473 -0.1138 0.9982
-0.3463 -0.2839 -0.1187 0.9981
-0.3452 -0.2915 -0.1197 0.9981
-0.3439 -0.2992 -0.1208 0.9981
-0.3414 -0.3149 -0.1231 0.9981
-0.3370 -0.3395 -0.1268 0.9980
-0.3352 -0.3476 -0.1280 0.9980
-0.3330 -0.3556 -0.1291 0.9980
-0.3261 -0.3804 -0.1328 0.9979
-0.3237 -0.3889 -0.1341 0.9979
-0.3187 -0.4066 -0.1369 0.9979
-0.3134 -0.4247 -0.1399 0.9978
-0.3105 -0.4340 -0.1414 0.9978
-0.3050 -0.4537 -0.1449 0.9977
-0.3024 -0.4645 -0.1469 0.9977
-0.2941 -0.4981 -0.1533 0.9976
-0.2880 -0.5219 -0.1580 0.9975
-0.2846 -0.5343 -0.1604 0.9975
-0.2776 -0.5598 -0.1656 0.9974
-0.2884 -0.6271 -0.1829 0.9971
-0.3130 -0.7364 -0.2120 0.9967
-1.3942 -3.4188 -0.9784 0.9848
-1.1921 -3.4941 -0.9783 0.9848
-0.9868 -3.5612 -0.9792 0.9848
-0.9347 -3.5751 -0.9792 0.9848
-0.7771 -3.6124 -0.9791 0.9848
-0.7242 -3.6233 -0.9791 0.9848
-0.6276 -3.6995 -0.9943 0.9846
-0.5734 -3.7081 -0.9943 0.9846
-0.4648 -3.7232 -0.9942 0.9846
-0.3012 -3.7397 -0.9942 0.9846
-0.1918 -3.7467 -0.9941 0.9846
-0.0822 -3.7506 -0.9941 0.9846
0.0822 -3.7504 -0.9940 0.9846
0.3557 -3.7339 -0.9939 0.9846
0.4102 -3.7282 -0.9939 0.9846
0.5731 -3.7065 -0.9938 0.9846
0.6272 -3.6977 -0.9938 0.9846
0.6812 -3.6880 -0.9938 0.9846
0.7766 -3.6101 -0.9785 0.9848
0.9340 -3.5724 -0.9784 0.9848
0.9860 -3.5583 -0.9784 0.9848
1.0896 -3.5278 -0.9784 0.9848
1.1410 -3.5114 -0.9784 0.9848
1.1909 -3.4907 -0.9773 0.9849
1.2418 -3.4729 -0.9773 0.9849
1.3427 -3.4350 -0.9773 0.9849
1.3927 -3.4149 -0.9773 0.9849
1.4424 -3.3942 -0.9772 0.9849
1.4918 -3.3727 -0.9772 0.9849
1.5409 -3.3504 -0.9772 0.9849
1.5896 -3.3275 -0.9772 0.9849
1.6380 -3.3039 -0.9772 0.9849
1.6861 -3.2795 -0.9771 0.9849
1.5399 -2.7914 -0.8448 0.9869
1.5557 -2.6350 -0.8109 0.9874
1.5929 -2.6100 -0.8103 0.9874
1.6369 -2.5961 -0.8133 0.9874
1.6871 -2.5911 -0.8193 0.9873
1.8512 -2.5875 -0.8431 0.9869
2.3166 -2.8679 -0.9769 0.9849
2.3582 -2.8336 -0.9769 0.9849
2.2499 -2.4745 -0.8862 0.9863
2.2842 -2.4395 -0.8856 0.9863
2.3464 -2.4336 -0.8958 0.9861
2.2776 -2.2282 -0.8443 0.9869
2.3048 -2.1899 -0.8425 0.9869
2.3344 -2.1540 -0.8417 0.9869
2.7808 -2.4193 -0.9767 0.9849
2.8158 -2.3784 -0.9767 0.9849
2.8840 -2.2950 -0.9767 0.9849
2.9498 -2.2097 -0.9766 0.9849
2.9817 -2.1663 -0.9766 0.9849
3.0130 -2.1225 -0.9766 0.9849
3.0437 -2.0782 -0.9766 0.9849
3.1031 -1.9883 -0.9766 0.9849
3.1317 -1.9428 -0.9766 0.9849
3.1903 -1.8523 -0.9775 0.9849
3.2182 -1.8061 -0.9779 0.9848
3.3192 -1.7373 -0.9927 0.9846
3.3921 -1.5901 -0.9927 0.9846
3.4370 -1.4903 -0.9927 0.9846
3.4584 -1.4399 -0.9927 0.9846
3.4790 -1.3892 -0.9927 0.9846
3.4990 -1.3382 -0.9927 0.9846
3.5181 -1.2869 -0.9927 0.9846
3.5365 -1.2354 -0.9926 0.9846
3.5542 -1.1836 -0.9926 0.9846
3.5872 -1.0792 -0.9926 0.9846
3.6026 -1.0266 -0.9926 0.9846
3.6171 -0.9739 -0.9926 0.9846
3.6310 -0.9209 -0.9926 0.9846
3.6440 -0.8678 -0.9926 0.9846
3.6563 -0.8144 -0.9926 0.9846
3.6678 -0.7609 -0.9926 0.9846
3.6785 -0.7072 -0.9926 0.9846
3.6976 -0.5995 -0.9926 0.9846
3.7059 -0.5454 -0.9926 0.9846
3.7135 -0.4912 -0.9926 0.9846
3.7203 -0.4368 -0.9926 0.9846
3.7262 -0.3824 -0.9926 0.9846
3.7358 -0.2734 -0.9926 0.9846
3.7394 -0.2188 -0.9926 0.9846
3.7422 -0.1641 -0.9926 0.9846
3.7454 -0.0547 -0.9926 0.9846
3.7454 0.0548 -0.9926 0.9846
3.7422 0.1642 -0.9926 0.9846
3.7358 0.2734 -0.9926 0.9846
3.7314 0.3280 -0.9926 0.9846
3.7262 0.3825 -0.9926 0.9846
3.7059 0.5454 -0.9926 0.9846
3.6678 0.7610 -0.9926 0.9846
3.6563 0.8145 -0.9926 0.9846
3.6310 0.9210 -0.9926 0.9846
3.6171 0.9740 -0.9926 0.9846
3.6026 1.0267 -0.9926 0.9846
3.5872 1.0792 -0.9926 0.9846
3.5542 1.1837 -0.9926 0.9846
3.5181 1.2870 -0.9927 0.9846
3.4990 1.3383 -0.9927 0.9846
3.4790 1.3893 -0.9927 0.9846
3.4371 1.4904 -0.9927 0.9846
3.3921 1.5902 -0.9927 0.9846
3.3442 1.6887 -0.9927 0.9846
3.2935 1.7857 -0.9927 0.9846
3.2400 1.8812 -0.9928 0.9846
3.2122 1.9284 -0.9928 0.9846
3.1838 1.9752 -0.9928 0.9846
3.0631 2.1578 -0.9928 0.9846
2.9988 2.2465 -0.9929 0.9846
2.9319 2.3332 -0.9929 0.9846
2.8626 2.4179 -0.9929 0.9846
2.7908 2.5006 -0.9929 0.9846
2.7167 2.5812 -0.9930 0.9846
2.6787 2.6206 -0.9930 0.9846
2.5212 2.7728 -0.9931 0.9846
2.4804 2.8094 -0.9931 0.9846
2.4392 2.8454 -0.9931 0.9846
2.3551 2.9155 -0.9931 0.9846
2.2689 2.9832 -0.9932 0.9846
2.2252 3.0161 -0.9932 0.9846
2.1809 3.0484 -0.9932 0.9846
2.0909 3.1109 -0.9932 0.9846
1.9993 3.1708 -0.9933 0.9846
1.8585 3.2555 -0.9933 0.9846
1.8107 3.2824 -0.9933 0.9846
1.7141 3.3341 -0.9934 0.9846
1.5665 3.4062 -0.9934 0.9846
1.4663 3.4506 -0.9935 0.9846
1.2624 3.5307 -0.9936 0.9846
1.1587 3.5662 -0.9936 0.9846
1.0014 3.6137 -0.9937 0.9846
0.9485 3.6281 -0.9937 0.9846
0.7350 3.6776 -0.9938 0.9846
0.6812 3.6880 -0.9938 0.9846
0.6273 3.6977 -0.9938 0.9846
0.5190 3.7146 -0.9939 0.9846
0.4646 3.7219 -0.9939 0.9846
0.3557 3.7341 -0.9939 0.9846
0.1370 3.7487 -0.9940 0.9846
0.0822 3.7504 -0.9940 0.9846
0.0274 3.7513 -0.9940 0.9846
-0.3012 3.7398 -0.9942 0.9846
-0.3558 3.7351 -0.9942 0.9846
-0.4648 3.7233 -0.9942 0.9846
-0.5192 3.7161 -0.9943 0.9846
-0.5735 3.7082 -0.9943 0.9846
-0.6816 3.6901 -0.9943 0.9846
-0.8427 3.6569 -0.9944 0.9846
-0.8960 3.6443 -0.9944 0.9846
-0.9492 3.6308 -0.9944 0.9846
-1.0022 3.6167 -0.9945 0.9846
-1.0549 3.6017 -0.9945 0.9846
-1.1075 3.5859 -0.9945 0.9846
-1.1598 3.5695 -0.9945 0.9846
-1.2636 3.5342 -0.9946 0.9846
-1.3152 3.5155 -0.9946 0.9846
-0.2911 0.5100 -0.1556 0.9976
-0.2941 0.4982 -0.1533 0.9976
-0.3050 0.4537 -0.1449 0.9977
-0.3106 0.4341 -0.1414 0.9978
-0.3134 0.4248 -0.1399 0.9978
-0.3161 0.4156 -0.1384 0.9978
-0.3213 0.3977 -0.1355 0.9979
-0.3237 0.3891 -0.1341 0.9979
-0.3285 0.3721 -0.1315 0.9979
-0.3330 0.3557 -0.1291 0.9980
-0.3352 0.3477 -0.1280 0.9980
-0.3370 0.3395 -0.1268 0.9980
-0.3414 0.3150 -0.1231 0.9981
-0.3427 0.3071 -0.1219 0.9981
-0.3451 0.2916 -0.1197 0.9981
-0.3463 0.2839 -0.1187 0.9981
-0.3512 0.2474 -0.1138 0.9982
-0.3520 0.2404 -0.1130 0.9982
-0.3536 0.2266 -0.1113 0.9983
-0.3600 0.1688 -0.1054 0.9984
-0.3612 0.1566 -0.1043 0.9984
-0.3617 0.1506 -0.1038 0.9984
-0.3639 0.1212 -0.1016 0.9984
-0.3652 0.0927 -0.0998 0.9984
-0.3654 0.0815 -0.0992 0.9985
-0.3656 0.0759 -0.0989 0.9985
-0.3656 0.0704 -0.0987 0.9985
-0.3657 0.0593 -0.0982 0.9985
-0.3657 0.0538 -0.0979 0.9985
-0.3656 0.0484 -0.0977 0.9985
-0.3651 0.0267 -0.0970 0.9985
-0.3644 0.0107 -0.0966 0.9985
-0.3642 0.0054 -0.0965 0.9985
-0.3578 0.0000 -0.0990 0.9985
-0.3581 -0.0052 -0.0991 0.9985
-0.3583 -0.0104 -0.0993 0.9985
-0.3586 -0.0157 -0.0994 0.9985
-0.3588 -0.0210 -0.0995 0.9985
-0.3591 -0.0316 -0.0998 0.9985
-0.3594 -0.0421 -0.1002 0.9985
-0.3595 -0.0582 -0.1008 0.9985
-0.3590 -0.0855 -0.1022 0.9985
-0.3588 -0.0909 -0.1025 0.9985
-0.3587 -0.0965 -0.1028 0.9985
-0.3584 -0.1021 -0.1032 0.9985
-0.3578 -0.1133 -0.1039 0.9984
-0.3575 -0.1190 -0.1043 0.9984
-0.3571 -0.1247 -0.1047 0.9984
-0.3557 -0.1420 -0.1061 0.9984
-0.3552 -0.1479 -0.1065 0.9984
-0.3534 -0.1656 -0.1081 0.9984
-0.3526 -0.1716 -0.1086 0.9984
-0.3508 -0.1836 -0.1096 0.9984
-0.3485 -0.2023 -0.1116 0.9983
-0.3457 -0.2287 -0.1148 0.9983
-0.3421 -0.2562 -0.1183 0.9982
-0.3411 -0.2633 -0.1193 0.9982
-0.3389 -0.2778 -0.1213 0.9982
-0.3365 -0.2927 -0.1235 0.9982
-0.3352 -0.3003 -0.1246 0.9981
-0.3338 -0.3080 -0.1258 0.9981
-0.3324 -0.3158 -0.1269 0.9981
-0.3309 -0.3237 -0.1282 0.9981
-0.3294 -0.3317 -0.1294 0.9981
-0.3277 -0.3398 -0.1307 0.9980
-0.3255 -0.3476 -0.1319 0.9980
-0.3210 -0.3635 -0.1343 0.9980
-0.3186 -0.3716 -0.1355 0.9980
-0.3136 -0.3882 -0.1382 0.9979
-0.3084 -0.4054 -0.1410 0.9979
-0.2999 -0.4323 -0.1457 0.9978
-0.2968 -0.4416 -0.1473 0.9978
-0.2937 -0.4509 -0.1490 0.9978
-0.2907 -0.4610 -0.1509 0.9977
-0.2879 -0.4716 -0.1530 0.9977
-0.2850 -0.4826 -0.1552 0.9977
-0.2787 -0.5051 -0.1597 0.9976
-0.2753 -0.5168 -0.1621 0.9976
-0.2718 -0.5287 -0.1646 0.9975
-0.2682 -0.5409 -0.1672 0.9975
-0.2644 -0.5534 -0.1698 0.9975
-0.2604 -0.5662 -0.1726 0.9974
-0.2754 -0.6479 -0.1949 0.9971
-0.2857 -0.7005 -0.2095 0.9969
-1.2863 -3.2909 -0.9783 0.9854
-1.0918 -3.3602 -0.9783 0.9854
-1.0426 -3.3757 -0.9782 0.9854
-0.9435 -3.4046 -0.9782 0.9854
-0.8936 -3.4180 -0.9782 0.9854
-0.7933 -3.4425 -0.9781 0.9854
-0.7429 -3.4536 -0.9781 0.9854
-0.5399 -3.4909 -0.9780 0.9854
-0.4888 -3.4983 -0.9780 0.9854
-0.3867 -3.5145 -0.9790 0.9854
-0.3353 -3.5197 -0.9790 0.9854
-0.1808 -3.5308 -0.9789 0.9854
-0.1291 -3.5330 -0.9789 0.9854
0.0258 -3.5350 -0.9788 0.9854
0.0775 -3.5342 -0.9788 0.9854
0.1291 -3.5326 -0.9788 0.9854
0.2323 -3.5271 -0.9787 0.9854
0.2838 -3.5234 -0.9787 0.9854
0.3866 -3.5134 -0.9787 0.9854
0.4379 -3.5073 -0.9786 0.9854
0.4891 -3.5005 -0.9786 0.9854
0.6920 -3.4621 -0.9775 0.9855
0.9428 -3.4020 -0.9774 0.9855
1.0417 -3.3729 -0.9774 0.9855
1.0908 -3.3572 -0.9774 0.9855
1.2369 -3.3060 -0.9773 0.9855
1.5214 -3.1846 -0.9772 0.9855
1.6594 -3.1147 -0.9772 0.9855
1.5399 -2.7914 -0.8827 0.9869
1.5827 -2.5933 -0.8412 0.9875
1.6345 -2.5922 -0.8485 0.9874
1.8512 -2.5875 -0.8809 0.9869
1.9080 -2.5863 -0.8899 0.9867
2.2963 -2.6787 -0.9769 0.9855
2.2140 -2.2964 -0.8832 0.9868
2.2446 -2.1959 -0.8694 0.9871
2.2780 -2.1643 -0.8700 0.9870
2.3481 -2.1039 -0.8730 0.9870
2.6950 -2.2763 -0.9767 0.9855
2.7921 -2.1559 -0.9767 0.9855
2.8232 -2.1149 -0.9767 0.9855
2.9418 -1.9462 -0.9766 0.9855
3.0004 -1.8613 -0.9776 0.9855
3.0810 -1.7888 -0.9864 0.9853
3.1269 -1.7548 -0.9928 0.9852
3.2240 -1.5691 -0.9928 0.9852
3.2465 -1.5219 -0.9928 0.9852
3.3100 -1.3781 -0.9927 0.9852
3.3298 -1.3296 -0.9927 0.9852
3.3848 -1.1824 -0.9927 0.9852
3.4333 -1.0329 -0.9927 0.9852
3.4620 -0.9321 -0.9927 0.9852
3.4877 -0.8305 -0.9927 0.9852
3.4994 -0.7795 -0.9927 0.9852
3.5104 -0.7283 -0.9927 0.9852
3.5389 -0.5737 -0.9926 0.9852
3.5470 -0.5220 -0.9926 0.9852
3.5816 -0.1571 -0.9926 0.9852
3.5836 -0.1047 -0.9926 0.9852
3.5847 0.0524 -0.9926 0.9852
3.5836 0.1048 -0.9926 0.9852
3.5713 0.3139 -0.9926 0.9852
3.5607 0.4182 -0.9926 0.9852
3.5542 0.4702 -0.9926 0.9852
3.5469 0.5220 -0.9926 0.9852
3.5389 0.5738 -0.9926 0.9852
3.5207 0.6770 -0.9927 0.9852
3.5104 0.7284 -0.9927 0.9852
3.4877 0.8306 -0.9927 0.9852
3.4620 0.9322 -0.9927 0.9852
3.4179 1.0830 -0.9927 0.9852
3.4017 1.1329 -0.9927 0.9852
3.3848 1.1824 -0.9927 0.9852
3.3672 1.2318 -0.9927 0.9852
3.3488 1.2809 -0.9927 0.9852
3.3298 1.3297 -0.9927 0.9852
3.3101 1.3782 -0.9927 0.9852
3.2240 1.5692 -0.9928 0.9852
3.2008 1.6162 -0.9928 0.9852
3.1768 1.6628 -0.9928 0.9852
3.1522 1.7091 -0.9928 0.9852
3.1270 1.7550 -0.9928 0.9852
3.1010 1.8005 -0.9928 0.9852
3.0744 1.8456 -0.9928 0.9852
3.0192 1.9347 -0.9929 0.9852
2.9316 2.0652 -0.9929 0.9852
2.9012 2.1079 -0.9929 0.9852
2.8701 2.1501 -0.9929 0.9852
2.8384 2.1918 -0.9929 0.9852
2.8062 2.2331 -0.9929 0.9852
2.7732 2.2739 -0.9930 0.9852
2.6711 2.3933 -0.9930 0.9852
2.6358 2.4321 -0.9930 0.9852
2.6001 2.4704 -0.9930 0.9852
2.4894 2.5821 -0.9931 0.9852
2.4514 2.6182 -0.9931 0.9852
2.3740 2.6888 -0.9931 0.9852
2.2945 2.7571 -0.9931 0.9852
2.2130 2.8230 -0.9932 0.9852
2.1715 2.8552 -0.9932 0.9852
2.1296 2.8866 -0.9932 0.9852
2.0872 2.9175 -0.9932 0.9852
2.0445 2.9477 -0.9932 0.9852
1.9575 3.0063 -0.9933 0.9852
1.9134 3.0347 -0.9933 0.9852
1.8240 3.0894 -0.9933 0.9852
1.7787 3.1158 -0.9933 0.9852
1.6405 3.1909 -0.9934 0.9852
1.5938 3.2146 -0.9934 0.9852
1.4034 3.3025 -0.9935 0.9852
1.1587 3.3964 -0.9936 0.9852
1.1089 3.4130 -0.9936 0.9852
1.0088 3.4441 -0.9937 0.9852
0.9584 3.4586 -0.9937 0.9852
0.8059 3.4974 -0.9937 0.9852
0.7034 3.5196 -0.9938 0.9852
0.6519 3.5296 -0.9938 0.9852
0.5486 3.5473 -0.9938 0.9852
0.3404 3.5736 -0.9939 0.9852
0.2359 3.5822 -0.9940 0.9852
0.1835 3.5853 -0.9940 0.9852
0.0262 3.5902 -0.9940 0.9852
-0.0262 3.5902 -0.9941 0.9852
-0.1311 3.5881 -0.9941 0.9852
-0.1835 3.5859 -0.9941 0.9852
-0.2359 3.5829 -0.9942 0.9852
-0.2883 3.5791 -0.9942 0.9852
-0.3405 3.5746 -0.9942 0.9852
-0.3927 3.5693 -0.9942 0.9852
-0.4449 3.5633 -0.9942 0.9852
-0.6523 3.5315 -0.9943 0.9852
-0.7552 3.5111 -0.9944 0.9852
-0.8065 3.4997 -0.9944 0.9852
-0.9591 3.4612 -0.9944 0.9852
-1.0096 3.4469 -0.9945 0.9852
-1.1099 3.4161 -0.9945 0.9852
-1.1598 3.3996 -0.9945 0.9852
-1.2587 3.3644 -0.9946 0.9852
-0.2857 0.7006 -0.2095 0.9969
-0.2754 0.6480 -0.1949 0.9971
-0.2662 0.6018 -0.1822 0.9973
-0.2604 0.5663 -0.1726 0.9974
-0.2644 0.5535 -0.1698 0.9975
-0.2753 0.5168 -0.1621 0.9976
-0.2819 0.4938 -0.1574 0.9976
-0.2879 0.4717 -0.1530 0.9977
-0.2907 0.4611 -0.1509 0.9977
-0.2999 0.4324 -0.1457 0.9978
-0.3056 0.4143 -0.1425 0.9979
-0.3210 0.3636 -0.1343 0.9980
-0.3255 0.3477 -0.1319 0.9980
-0.3293 0.3318 -0.1294 0.9981
-0.3338 0.3080 -0.1258 0.9981
-0.3352 0.3004 -0.1246 0.9981
-0.3377 0.2853 -0.1224 0.9982
-0.3400 0.2706 -0.1203 0.9982
-0.3411 0.2634 -0.1193 0.9982
-0.3440 0.2424 -0.1165 0.9983
-0.3457 0.2287 -0.1148 0.9983
-0.3472 0.2154 -0.1131 0.9983
-0.3479 0.2089 -0.1123 0.9983
-0.3508 0.1837 -0.1096 0.9984
-0.3534 0.1657 -0.1081 0.9984
-0.3552 0.1479 -0.1065 0.9984
-0.3571 0.1248 -0.1047 0.9984
-0.3584 0.1022 -0.1032 0.9985
-0.3589 0.0911 -0.1025 0.9985
-0.3592 0.0800 -0.1019 0.9985
-0.3593 0.0746 -0.1016 0.9985
-0.3595 0.0637 -0.1011 0.9985
-0.3594 0.0476 -0.1004 0.9985
-0.3591 0.0316 -0.0998 0.9985
-0.3590 0.0263 -0.0997 0.9985
-0.3588 0.0211 -0.0995 0.9985
-0.3586 0.0158 -0.0994 0.9985
-0.3580 0.0053 -0.0991 0.9985
-0.3518 0.0000 -0.1016 0.9985
-0.3524 -0.0102 -0.1018 0.9985
-0.3526 -0.0154 -0.1019 0.9985
-0.3528 -0.0206 -0.1021 0.9985
-0.3530 -0.0258 -0.1022 0.9985
-0.3531 -0.0310 -0.1024 0.9985
-0.3533 -0.0414 -0.1028 0.9985
-0.3534 -0.0520 -0.1032 0.9985
-0.3534 -0.0572 -0.1034 0.9985
-0.3534 -0.0625 -0.1037 0.9985
-0.3533 -0.0679 -0.1039 0.9985
-0.3529 -0.0840 -0.1048 0.9985
-0.3527 -0.0895 -0.1051 0.9985
-0.3525 -0.0948 -0.1054 0.9985
-0.3512 -0.1170 -0.1069 0.9985
-0.3508 -0.1225 -0.1073 0.9985
-0.3504 -0.1281 -0.1078 0.9984
-0.3494 -0.1395 -0.1087 0.9984
-0.3489 -0.1452 -0.1092 0.9984
-0.3477 -0.1568 -0.1102 0.9984
-0.3471 -0.1627 -0.1107 0.9984
-0.3444 -0.1802 -0.1123 0.9984
-0.3417 -0.1984 -0.1141 0.9984
-0.3411 -0.2047 -0.1149 0.9983
-0.3379 -0.2307 -0.1182 0.9983
-0.3370 -0.2374 -0.1191 0.9983
-0.3340 -0.2579 -0.1219 0.9982
-0.3329 -0.2649 -0.1229 0.9982
-0.3317 -0.2720 -0.1239 0.9982
-0.3305 -0.2791 -0.1250 0.9982
-0.3279 -0.2938 -0.1272 0.9982
-0.3265 -0.3012 -0.1283 0.9982
-0.3251 -0.3088 -0.1295 0.9981
-0.3236 -0.3165 -0.1307 0.9981
-0.3220 -0.3243 -0.1320 0.9981
-0.3203 -0.3322 -0.1333 0.9981
-0.3183 -0.3398 -0.1345 0.9981
-0.3113 -0.3631 -0.1382 0.9980
-0.3088 -0.3710 -0.1394 0.9980
-0.2894 -0.4305 -0.1498 0.9978
-0.2862 -0.4395 -0.1515 0.9978
-0.2830 -0.4487 -0.1532 0.9978
-0.2762 -0.4678 -0.1569 0.9977
-0.2731 -0.4784 -0.1591 0.9977
-0.2699 -0.4893 -0.1614 0.9977
-0.2665 -0.5003 -0.1637 0.9976
-0.2594 -0.5232 -0.1687 0.9976
-0.2475 -0.5594 -0.1767 0.9975
-0.2457 -0.5781 -0.1814 0.9974
-1.1868 -3.1721 -0.9783 0.9860
-1.1403 -3.1891 -0.9783 0.9860
-1.0935 -3.2054 -0.9783 0.9860
-1.0466 -3.2209 -0.9782 0.9860
-0.9520 -3.2500 -0.9782 0.9860
-0.7604 -3.2998 -0.9781 0.9860
-0.7121 -3.3105 -0.9781 0.9860
-0.6150 -3.3298 -0.9781 0.9860
-0.5175 -3.3462 -0.9780 0.9860
-0.4685 -3.3533 -0.9780 0.9860
-0.4194 -3.3597 -0.9780 0.9860
-0.2718 -3.3747 -0.9779 0.9860
-0.1730 -3.3810 -0.9779 0.9860
-0.1237 -3.3831 -0.9779 0.9860
0.0247 -3.3851 -0.9778 0.9860
0.0742 -3.3843 -0.9778 0.9860
0.1730 -3.3805 -0.9777 0.9860
0.2224 -3.3776 -0.9777 0.9860
0.2717 -3.3739 -0.9777 0.9860
0.3702 -3.3644 -0.9777 0.9860
0.6633 -3.3186 -0.9776 0.9860
0.7117 -3.3086 -0.9775 0.9860
0.9512 -3.2475 -0.9774 0.9860
0.9985 -3.2332 -0.9774 0.9860
1.0926 -3.2025 -0.9774 0.9860
1.2318 -3.1513 -0.9773 0.9860
1.5400 -2.7915 -0.9209 0.9868
1.5378 -2.6937 -0.8960 0.9872
1.5827 -2.5933 -0.8776 0.9874
1.7408 -2.5899 -0.9014 0.9871
1.8512 -2.5875 -0.9190 0.9868
2.0477 -2.6922 -0.9770 0.9860
2.1635 -2.5998 -0.9770 0.9860
2.2013 -2.5678 -0.9769 0.9860
2.2803 -2.4354 -0.9637 0.9862
2.1899 -2.2713 -0.9113 0.9869
2.2001 -2.2162 -0.9020 0.9871
2.2685 -2.1554 -0.9039 0.9871
2.3046 -2.1265 -0.9058 0.9870
2.3426 -2.0989 -0.9085 0.9870
2.6150 -2.1441 -0.9768 0.9860
2.7357 -1.9875 -0.9767 0.9860
2.8230 -1.8676 -0.9777 0.9860
2.8499 -1.8261 -0.9777 0.9860
2.8938 -1.7951 -0.9836 0.9859
2.9471 -1.7692 -0.9929 0.9858
2.9726 -1.7259 -0.9929 0.9858
3.0218 -1.6382 -0.9929 0.9858
3.0454 -1.5939 -0.9928 0.9858
3.0683 -1.5493 -0.9928 0.9858
3.0906 -1.5042 -0.9928 0.9858
3.1534 -1.3673 -0.9928 0.9858
3.1920 -1.2746 -0.9928 0.9858
3.2447 -1.1334 -0.9928 0.9858
3.2609 -1.0859 -0.9928 0.9858
3.2764 -1.0381 -0.9928 0.9858
3.2912 -0.9902 -0.9927 0.9858
3.3546 -0.7472 -0.9927 0.9858
3.3652 -0.6982 -0.9927 0.9858
3.3750 -0.6489 -0.9927 0.9858
3.3841 -0.5995 -0.9927 0.9858
3.3925 -0.5500 -0.9927 0.9858
3.4002 -0.5004 -0.9927 0.9858
3.4071 -0.4506 -0.9927 0.9858
3.4133 -0.4007 -0.9927 0.9858
3.4188 -0.3509 -0.9927 0.9858
3.4276 -0.2508 -0.9927 0.9858
3.4309 -0.2007 -0.9927 0.9858
3.4334 -0.1505 -0.9927 0.9858
3.4364 -0.0502 -0.9927 0.9858
3.4364 0.0503 -0.9927 0.9858
3.4353 0.1005 -0.9927 0.9858
3.4334 0.1506 -0.9927 0.9858
3.4309 0.2008 -0.9927 0.9858
3.4133 0.4009 -0.9927 0.9858
3.4001 0.5004 -0.9927 0.9858
3.3925 0.5501 -0.9927 0.9858
3.3546 0.7473 -0.9927 0.9858
3.3314 0.8450 -0.9927 0.9858
3.3053 0.9420 -0.9927 0.9858
3.2912 0.9902 -0.9927 0.9858
3.2609 1.0859 -0.9928 0.9858
3.2447 1.1335 -0.9928 0.9858
3.1920 1.2746 -0.9928 0.9858
3.1731 1.3211 -0.9928 0.9858
3.1331 1.4133 -0.9928 0.9858
3.1122 1.4590 -0.9928 0.9858
3.0454 1.5940 -0.9928 0.9858
2.9727 1.7260 -0.9929 0.9858
2.9210 1.8121 -0.9929 0.9858
2.8669 1.8967 -0.9929 0.9858
2.8103 1.9798 -0.9929 0.9858
2.7513 2.0611 -0.9930 0.9858
2.6584 2.1797 -0.9930 0.9858
2.6263 2.2184 -0.9930 0.9858
2.4924 2.3681 -0.9931 0.9858
2.3864 2.4752 -0.9931 0.9858
2.2378 2.6105 -0.9932 0.9858
2.1995 2.6430 -0.9932 0.9858
2.0009 2.7967 -0.9933 0.9858
