ply
format ascii 1.0
element vertex 1584
property float32 x
property float32 y
property float32 z
property float32 I
end_header
10.6771 -2.5428 1.6699 0.9566
10.4144 -2.3200 1.6233 0.9577
10.8861 -2.0932 1.6866 0.9561
11.3258 -1.8363 1.7457 0.9546
11.1308 -1.6382 1.7117 0.9555
11.5036 -1.5216 1.7654 0.9541
15.8484 -1.8611 2.4278 0.9375
19.0859 -1.9591 2.9190 0.9253
21.3636 -1.5637 3.2590 0.9170
22.3437 -1.3075 3.4052 0.9134
20.1661 10.1825 3.4371 0.9126
15.9098 8.9290 2.7757 0.9288
15.2750 8.8687 2.6873 0.9310
14.8994 9.2430 2.6676 0.9315
14.2383 9.7220 2.6231 0.9326
13.8402 9.7497 2.5757 0.9338
14.1452 10.2771 2.6601 0.9317
10.3561 9.0098 2.0884 0.9460
-1.7817 9.6461 1.4924 0.9611
-2.0385 9.4765 1.4748 0.9615
-2.3191 9.4318 1.4777 0.9615
-2.4529 9.3826 1.4755 0.9615
-2.5864 9.3336 1.4736 0.9616
-2.7196 9.2848 1.4720 0.9616
-2.8526 9.2363 1.4707 0.9616
-2.9854 9.1880 1.4698 0.9617
-3.2508 9.0920 1.4690 0.9617
-3.5436 9.0661 1.4810 0.9614
-7.2144 10.0839 1.8864 0.9511
-7.1758 8.8834 1.7374 0.9548
-8.2362 9.3284 1.8933 0.9509
-12.1041 10.8453 2.4726 0.9364
-11.6704 9.5687 2.2961 0.9408
-12.3628 9.5462 2.3764 0.9388
-12.3557 9.2557 2.3488 0.9394
-12.1909 8.5879 2.2688 0.9414
-13.1578 8.9842 2.4240 0.9376
-13.3640 8.8415 2.4379 0.9372
-17.3140 11.0945 3.1286 0.9202
-17.1653 10.6487 3.0733 0.9215
-17.6259 9.5562 3.0504 0.9221
-18.6536 8.7444 3.1344 0.9200
-18.5984 8.3893 3.1042 0.9208
-1.5187 0.5555 0.2460 0.9935
-1.5131 0.5286 0.2438 0.9935
-1.4638 0.4171 0.2316 0.9939
-1.4466 0.3895 0.2279 0.9940
-1.4248 0.2739 0.2207 0.9941
-1.4227 0.2520 0.2198 0.9942
-1.4207 0.2303 0.2190 0.9942
-1.4131 0.1659 0.2165 0.9943
-1.4080 0.1237 0.2150 0.9943
-1.4036 0.0821 0.2139 0.9943
-1.3988 0.0204 0.2128 0.9944
-1.3527 0.0000 0.1905 0.9946
-1.3535 -0.0198 0.1906 0.9945
-1.3551 -0.0396 0.1909 0.9945
-1.3569 -0.0595 0.1913 0.9945
-1.3587 -0.0795 0.1917 0.9945
-1.3607 -0.0996 0.1921 0.9945
-1.3629 -0.1198 0.1927 0.9945
-1.3651 -0.1401 0.1932 0.9945
-1.3675 -0.1606 0.1939 0.9945
-1.3727 -0.2020 0.1954 0.9944
-1.3749 -0.2229 0.1961 0.9944
-1.3766 -0.2439 0.1969 0.9944
-1.3929 -0.3751 0.2031 0.9942
-1.4006 -0.3992 0.2051 0.9941
-1.4410 -0.5034 0.2149 0.9939
-1.4506 -0.5548 0.2187 0.9937
-70.6460 -29.4138 10.7765 0.7341
-67.6871 -29.3496 10.3894 0.7423
-64.9329 -29.2898 10.0313 0.7500
-59.9547 -29.1816 9.3900 0.7639
-23.8512 -12.4839 3.7911 0.8970
-19.8229 -11.1252 3.2011 0.9123
-18.4411 -12.5918 3.1446 0.9137
-18.3723 -12.9423 3.1648 0.9132
-18.8834 -13.7196 3.2870 0.9100
-37.9500 -28.4287 6.6775 0.8257
-14.0612 -11.5290 2.5606 0.9292
-13.9814 -11.8094 2.5773 0.9287
-13.6850 -12.2618 2.5876 0.9285
-15.9375 -17.5280 3.3362 0.9087
-16.0252 -18.1502 3.4097 0.9068
-9.6875 -11.6407 2.1327 0.9407
-9.7521 -12.0728 2.1855 0.9392
-9.1945 -12.4627 2.1810 0.9394
-8.9009 -12.4411 2.1542 0.9401
-8.6139 -12.4196 2.1285 0.9408
-9.1247 -13.5754 2.3034 0.9361
-8.8682 -13.6194 2.2887 0.9365
-8.2639 -13.1062 2.1819 0.9393
-16.7092 -29.2694 4.7462 0.8727
-16.6879 -30.2504 4.8652 0.8697
-16.0057 -32.2828 5.0743 0.8645
-15.5329 -32.5144 5.0744 0.8645
-15.0567 -32.7391 5.0746 0.8645
-5.1417 -12.0993 1.8513 0.9483
-4.9701 -12.1873 1.8535 0.9482
-4.7981 -12.2757 1.8561 0.9482
-4.5344 -12.6819 1.8966 0.9470
-3.9163 -12.6809 1.8690 0.9478
-0.6353 -2.7568 0.3984 0.9886
-0.5939 -2.7613 0.3977 0.9887
-14.5417 -72.7583 10.4487 0.7410
-14.3361 -77.6143 11.1148 0.7270
-14.2926 -84.2535 12.0344 0.7081
-13.8303 -89.4341 12.7441 0.6938
-13.6511 -97.7078 13.8932 0.6713
21.6881 -82.9582 12.0751 0.7073
22.8184 -82.3452 12.0331 0.7081
25.4141 -82.2889 12.1283 0.7062
33.4865 -82.1136 12.4881 0.6989
34.8816 -82.0833 12.5597 0.6975
37.7216 -82.0216 12.7135 0.6944
39.1685 -81.9902 12.7960 0.6928
40.6346 -81.9584 12.8823 0.6911
45.1588 -81.8601 13.1656 0.6855
46.7125 -81.8263 13.2685 0.6834
51.5278 -81.7217 13.6050 0.6769
9.0208 -13.8539 2.3281 0.9354
9.3604 -13.9261 2.3629 0.9345
9.5365 -12.9262 2.2621 0.9372
9.5516 -12.5584 2.2219 0.9383
9.8244 -11.8053 2.1628 0.9398
10.5644 -11.9653 2.2478 0.9376
14.0642 -12.9771 2.6949 0.9256
14.6514 -12.0129 2.6681 0.9263
15.2717 -12.1527 2.7484 0.9242
2.9722 -2.2266 0.5230 0.9851
2.9509 -2.1440 0.5136 0.9854
2.9649 -2.0887 0.5107 0.9855
2.9962 -2.0459 0.5109 0.9855
3.0461 -2.0153 0.5143 0.9854
3.1500 -2.0185 0.5269 0.9850
20.3676 -12.6354 3.3753 0.9077
10.5480 -3.1735 1.5512 0.9565
10.6656 -3.0396 1.5618 0.9562
10.7410 -2.7245 1.5605 0.9562
10.5190 -2.3432 1.5176 0.9574
10.9314 -2.1019 1.5676 0.9560
10.9347 -1.7729 1.5600 0.9562
21.7853 -1.5945 3.0761 0.9155
27.2123 8.6225 4.0199 0.8911
26.1089 9.9858 3.9365 0.8932
20.4108 8.8502 3.1329 0.9141
20.1581 9.0929 3.1142 0.9145
19.8034 9.2834 3.0800 0.9154
19.9327 9.7018 3.1218 0.9143
16.1135 9.0433 2.6021 0.9281
15.1541 9.0971 2.4890 0.9311
15.1542 9.4011 2.5114 0.9305
14.3814 9.5146 2.4283 0.9327
14.2576 10.0437 2.4560 0.9320
14.3303 10.7349 2.5215 0.9302
8.9189 9.8090 1.8670 0.9479
-1.6368 9.6484 1.3781 0.9612
-1.7716 9.5913 1.3735 0.9614
-1.8463 9.2379 1.3266 0.9627
-2.0392 9.4801 1.3656 0.9616
-2.3067 9.3813 1.3605 0.9617
-2.4398 9.3323 1.3584 0.9618
-2.8374 9.1870 1.3541 0.9619
-3.5434 9.0654 1.3707 0.9614
-7.2987 10.2016 1.7665 0.9506
-6.9680 9.1614 1.6209 0.9546
-8.4390 9.5580 1.7956 0.9498
-11.6621 10.1459 2.1768 0.9395
-12.0300 9.8635 2.1907 0.9391
-12.0980 9.6271 2.1773 0.9395
-12.4025 9.5769 2.2067 0.9387
-12.2946 9.2100 2.1633 0.9398
-8.0222 5.8285 1.3964 0.9607
-8.0920 5.3536 1.3664 0.9616
-8.1590 4.8979 1.3401 0.9623
-8.2880 4.0340 1.2981 0.9635
-8.3710 3.4853 1.2769 0.9640
-8.3918 3.3509 1.2725 0.9642
-1.4506 0.5548 0.2187 0.9937
-1.4324 0.4538 0.2116 0.9939
-1.4205 0.4273 0.2089 0.9940
-1.4006 0.3991 0.2051 0.9941
-1.3871 0.3518 0.2015 0.9942
-1.3847 0.3298 0.2005 0.9943
-1.3804 0.2864 0.1985 0.9943
-1.3766 0.2438 0.1969 0.9944
-1.3749 0.2229 0.1961 0.9944
-1.3700 0.1812 0.1946 0.9944
-1.3675 0.1605 0.1939 0.9945
-1.3607 0.0996 0.1921 0.9945
-1.3587 0.0795 0.1917 0.9945
-1.3551 0.0396 0.1909 0.9945
-1.3535 0.0198 0.1906 0.9945
-1.3125 -0.0384 0.1701 0.9947
-1.3143 -0.0577 0.1704 0.9947
-1.3204 -0.1161 0.1717 0.9947
-1.3226 -0.1358 0.1722 0.9947
-1.3295 -0.1957 0.1741 0.9946
-1.3334 -0.2362 0.1754 0.9946
-1.3351 -0.2567 0.1761 0.9945
-1.3368 -0.2773 0.1769 0.9945
-1.3427 -0.3406 0.1794 0.9944
-1.3449 -0.3622 0.1804 0.9944
-1.3486 -0.3844 0.1817 0.9944
-1.3608 -0.4094 0.1841 0.9943
-1.3684 -0.4336 0.1859 0.9942
-1.3719 -0.4569 0.1873 0.9942
-1.3756 -0.4805 0.1888 0.9941
-1.3796 -0.5047 0.1903 0.9941
-30.2056 -12.5763 4.2384 0.8764
-64.7627 -29.2130 9.2033 0.7508
-61.7464 -28.9455 8.8338 0.7595
-59.3632 -28.8938 8.5524 0.7662
-23.9416 -12.9804 3.5279 0.8960
-20.0329 -11.2430 2.9758 0.9115
-19.0810 -11.4545 2.8829 0.9141
-18.5185 -11.4882 2.8230 0.9159
-18.7681 -12.0263 2.8875 0.9140
-18.2325 -12.0626 2.8319 0.9156
-18.8900 -13.7244 3.0247 0.9101
-37.9501 -28.4287 6.1424 0.8259
-14.1263 -11.5823 2.3664 0.9290
-14.0465 -11.8644 2.3818 0.9285
-13.7447 -12.3153 2.3906 0.9283
-11.1925 -10.3273 1.9728 0.9404
-11.0059 -10.4570 1.9666 0.9406
-10.5551 -10.9479 1.9700 0.9405
-16.8669 -18.0141 3.1968 0.9053
-9.6983 -12.0063 1.9993 0.9396
-9.1750 -12.0632 1.9633 0.9407
-9.2818 -12.5810 2.0253 0.9389
-9.0276 -13.4309 2.0963 0.9368
-8.9832 -13.7961 2.1326 0.9358
-18.4384 -29.2428 4.4782 0.8698
-16.7090 -29.2692 4.3658 0.8729
-17.3981 -35.0912 5.0737 0.8539
-16.3666 -35.5874 5.0741 0.8539
-15.8456 -35.8242 5.0743 0.8539
-4.9527 -12.6712 1.7623 0.9466
-3.8972 -12.6189 1.7108 0.9481
-3.2497 -12.4302 1.6643 0.9495
-3.0416 -12.3699 1.6501 0.9499
-0.6353 -2.7569 0.3665 0.9887
-0.5940 -2.7613 0.3659 0.9887
-14.5414 -72.7568 9.6113 0.7414
-13.8299 -89.4318 11.7226 0.6942
-13.6507 -97.7051 12.7796 0.6717
21.6885 -82.9597 11.1077 0.7076
28.1416 -82.4897 11.2904 0.7036
39.1685 -81.9902 11.7706 0.6932
45.1588 -81.8601 12.1106 0.6859
46.7124 -81.8264 12.2053 0.6838
48.2910 -81.7921 12.3042 0.6817
6.7830 -11.1144 1.6867 0.9488
6.7750 -10.7450 1.6455 0.9501
9.7298 -14.0286 2.2116 0.9335
9.5758 -13.3846 2.1319 0.9358
10.2129 -12.2721 2.0682 0.9376
10.4239 -12.1598 2.0747 0.9374
14.9510 -14.6268 2.7094 0.9191
14.2336 -13.1334 2.5088 0.9249
14.2304 -12.7505 2.4751 0.9258
14.7565 -12.0991 2.4719 0.9259
14.6988 -11.6968 2.4334 0.9270
15.8871 -12.2675 2.6001 0.9222
2.9773 -2.2304 0.4819 0.9851
2.9571 -2.1484 0.4735 0.9854
2.9715 -2.0933 0.4708 0.9854
3.0032 -2.0506 0.4711 0.9854
3.0538 -2.0204 0.4743 0.9853
19.8699 -12.3266 3.0290 0.9100
87.6785 -44.2718 12.7236 0.6729
86.6193 -40.6055 12.3923 0.6799
86.5858 -39.0570 12.3046 0.6817
10.7092 -3.5664 1.4622 0.9555
10.5763 -3.1820 1.4307 0.9564
10.6253 -2.3670 1.4101 0.9570
10.9769 -2.1106 1.4480 0.9559
10.9862 -1.9464 1.4453 0.9560
10.9623 -1.7774 1.4386 0.9562
11.4765 -1.6890 1.5027 0.9543
11.4215 -1.5108 1.4924 0.9546
18.6395 -2.1889 2.4311 0.9271
21.6790 -1.9055 2.8191 0.9160
27.3033 8.6514 3.7102 0.8909
27.0544 9.0095 3.6938 0.8914
22.0903 8.4488 3.0637 0.9090
21.7827 8.6981 3.0384 0.9097
20.3527 8.4739 2.8559 0.9149
20.3337 8.8168 2.8710 0.9145
20.1370 10.1678 2.9222 0.9130
20.0243 10.4809 2.9278 0.9129
20.8381 11.2977 3.0706 0.9088
15.6085 9.3699 2.3583 0.9292
14.9381 9.8829 2.3202 0.9303
14.5414 9.9290 2.2809 0.9314
14.0287 10.1925 2.2463 0.9324
8.9080 9.7970 1.7153 0.9480
-1.7616 9.5373 1.2564 0.9616
-1.8687 9.3497 1.2351 0.9623
-2.2944 9.3315 1.2448 0.9620
-7.1764 9.7271 1.5659 0.9524
-7.3023 9.3154 1.5333 0.9534
-12.2506 10.9765 2.1308 0.9358
-12.1775 10.5944 2.0909 0.9370
-11.8832 10.0371 2.0150 0.9392
-12.1484 9.6673 2.0112 0.9393
-12.4424 9.6077 2.0364 0.9386
-8.0191 5.8261 1.2840 0.9608
-8.0659 5.5074 1.2652 0.9614
-8.0888 5.3515 1.2564 0.9616
-8.1115 5.1977 1.2480 0.9619
-8.2588 4.1701 1.1985 0.9634
-8.2812 4.0307 1.1931 0.9635
-8.3429 3.6175 1.1780 0.9640
-8.3611 3.4812 1.1732 0.9641
-1.3881 0.5543 0.1936 0.9940
-1.3719 0.4568 0.1873 0.9942
-1.3683 0.4336 0.1859 0.9942
-1.3608 0.4094 0.1841 0.9943
-1.3486 0.3843 0.1817 0.9944
-1.3449 0.3621 0.1804 0.9944
-1.3386 0.2982 0.1777 0.9945
-1.3226 0.1357 0.1722 0.9947
-1.3182 0.0964 0.1712 0.9947
-1.3162 0.0770 0.1708 0.9947
-1.3125 0.0384 0.1701 0.9947
-1.3109 0.0191 0.1698 0.9947
-1.2648 -0.0185 0.1496 0.9949
-1.2713 -0.0558 0.1505 0.9949
-1.2749 -0.0933 0.1512 0.9949
-1.2833 -0.1698 0.1531 0.9948
-1.2857 -0.1892 0.1537 0.9948
-1.2882 -0.2089 0.1544 0.9948
-1.2900 -0.2286 0.1550 0.9947
-1.2918 -0.2484 0.1556 0.9947
-1.2976 -0.3090 0.1578 0.9946
-1.3022 -0.3507 0.1595 0.9946
-1.3046 -0.3718 0.1605 0.9946
-1.3072 -0.3933 0.1615 0.9945
-1.3161 -0.4598 0.1649 0.9944
-1.3194 -0.4827 0.1662 0.9944
-1.3229 -0.5060 0.1675 0.9943
-1.3266 -0.5298 0.1690 0.9943
-64.2923 -29.0008 8.3429 0.7527
-25.1391 -12.2359 3.3072 0.8935
-24.4946 -12.3681 3.2458 0.8954
-24.2559 -12.6957 3.2384 0.8956
-20.2467 -11.3630 2.7463 0.9107
-19.2242 -11.5404 2.6523 0.9136
-18.7981 -12.0456 2.6409 0.9140
-18.5924 -12.6950 2.6630 0.9133
-19.0392 -13.4122 2.7548 0.9105
-39.1651 -28.4551 5.7264 0.8228
-36.7836 -28.4034 5.4972 0.8293
-14.1918 -11.6361 2.1708 0.9287
-14.1121 -11.9198 2.1851 0.9283
-11.0439 -10.4930 1.8020 0.9405
-10.7226 -10.4902 1.7744 0.9414
-10.4915 -10.5684 1.7615 0.9418
-10.6005 -10.9950 1.8066 0.9403
-16.8692 -18.0166 2.9195 0.9054
-15.9480 -17.5395 2.8041 0.9089
-16.0344 -18.1607 2.8657 0.9070
-9.4416 -11.6886 1.7773 0.9413
-9.3887 -11.9769 1.8001 0.9405
-9.3344 -12.2727 1.8239 0.9398
-9.1365 -12.7705 1.8574 0.9387
-8.9763 -13.3547 1.9034 0.9372
-8.8628 -13.6112 1.9213 0.9367
-18.4384 -29.2428 4.0893 0.8700
-16.6876 -30.2499 4.0865 0.8701
-19.6092 -38.1402 5.0729 0.8414
-18.4880 -38.7002 5.0733 0.8413
-4.9482 -12.6597 1.6078 0.9467
-4.7361 -12.6593 1.5988 0.9470
-4.1944 -12.2948 1.5366 0.9490
-3.6526 -12.4703 1.5371 0.9490
-3.2282 -12.3482 1.5097 0.9499
-14.4905 -58.9330 7.1787 0.7831
-14.2252 -71.1751 8.5856 0.7465
-14.3362 -77.6144 9.3361 0.7277
-14.2920 -84.2494 10.1080 0.7088
-13.8296 -89.4296 10.7042 0.6945
-13.6503 -97.7023 11.6692 0.6721
21.9219 -89.1564 10.8602 0.6909
24.1694 -82.5160 10.1707 0.7073
25.4755 -82.4876 10.2120 0.7063
26.7925 -82.4590 10.2558 0.7052
30.7423 -82.1732 10.3780 0.7023
33.5917 -82.3714 10.5226 0.6989
34.9911 -82.3410 10.5829 0.6974
36.2929 -82.0526 10.6128 0.6967
40.7622 -82.2156 10.8547 0.6910
43.6287 -81.8933 10.9759 0.6882
46.8591 -82.0832 11.1802 0.6834
48.4426 -82.0488 11.2707 0.6813
49.9559 -81.8559 11.3433 0.6796
6.7594 -10.3809 1.4653 0.9513
9.5889 -14.2662 2.0333 0.9331
9.9251 -13.0495 1.9393 0.9361
10.3857 -12.1152 1.8876 0.9377
14.4067 -13.2930 2.3187 0.9241
14.6220 -13.1014 2.3223 0.9240
14.4987 -12.6139 2.2732 0.9255
15.8286 -12.2225 2.3656 0.9226
2.9825 -2.2343 0.4408 0.9851
2.9781 -2.0980 0.4309 0.9854
3.0103 -2.0555 0.4312 0.9854
3.0616 -2.0256 0.4342 0.9853
19.4560 -12.4672 2.7334 0.9111
19.7847 -12.2737 2.7540 0.9105
23.9372 -12.5290 3.1959 0.8969
24.8078 -12.0747 3.2636 0.8948
29.9005 -12.9651 3.8550 0.8770
10.9457 -3.6452 1.3647 0.9546
10.2774 -3.0921 1.2695 0.9577
10.6144 -2.6923 1.2953 0.9569
10.7336 -2.3911 1.3008 0.9567
11.0227 -2.1195 1.3277 0.9558
11.0140 -1.9513 1.3231 0.9559
10.9899 -1.7818 1.3169 0.9561
15.4237 -2.0402 1.8403 0.9393
18.5672 -2.1804 2.2114 0.9275
18.8704 -1.9370 2.2439 0.9264
27.3947 8.6803 3.3992 0.8907
27.1446 9.0396 3.3842 0.8912
20.2892 8.4475 2.5997 0.9153
20.1660 10.1824 2.6722 0.9130
20.1478 10.5455 2.6899 0.9125
16.2323 9.7444 2.2395 0.9266
15.4413 9.5792 2.1494 0.9294
15.2595 9.7780 2.1438 0.9296
14.8314 9.8123 2.1036 0.9309
14.4394 9.8593 2.0682 0.9320
14.3006 10.0741 2.0692 0.9320
14.8962 10.8227 2.1780 0.9285
-1.7518 9.4840 1.1408 0.9619
-2.1502 9.3309 1.1327 0.9622
-7.2506 9.8278 1.4446 0.9520
-12.3248 11.0430 1.9575 0.9355
-11.9210 10.0690 1.8458 0.9391
-8.0159 5.8238 1.1720 0.9609
-8.0628 5.5053 1.1548 0.9614
-8.0857 5.3495 1.1468 0.9617
-8.1083 5.1957 1.1391 0.9620
-8.1523 4.8939 1.1247 0.9624
-8.1918 4.5974 1.1112 0.9629
-8.2744 4.0273 1.0885 0.9636
-8.2963 3.8891 1.0838 0.9638
-1.3305 0.5539 0.1705 0.9942
-1.3194 0.4826 0.1662 0.9944
-1.3161 0.4597 0.1649 0.9944
-1.3130 0.4372 0.1637 0.9944
-1.3047 0.3718 0.1605 0.9946
-1.2976 0.3090 0.1578 0.9946
-1.2956 0.2886 0.1570 0.9947
-1.2936 0.2684 0.1563 0.9947
-1.2917 0.2484 0.1556 0.9947
-1.2900 0.2285 0.1550 0.9947
-1.2857 0.1892 0.1537 0.9948
-1.2834 0.1697 0.1531 0.9948
-1.2811 0.1504 0.1526 0.9948
-1.2789 0.1312 0.1521 0.9948
-1.2768 0.1122 0.1516 0.9949
-1.2749 0.0933 0.1512 0.9949
-1.2730 0.0745 0.1508 0.9949
-1.2713 0.0557 0.1505 0.9949
-1.2210 -0.0179 0.1307 0.9951
-1.2281 -0.0539 0.1316 0.9951
-1.2380 -0.1271 0.1332 0.9950
-1.2465 -0.2021 0.1352 0.9949
-1.2482 -0.2212 0.1357 0.9949
-1.2513 -0.2596 0.1368 0.9949
-1.2530 -0.2791 0.1374 0.9948
-1.2548 -0.2988 0.1381 0.9948
-1.2567 -0.3187 0.1388 0.9948
-1.2609 -0.3593 0.1404 0.9947
-1.2631 -0.3800 0.1412 0.9947
-1.2692 -0.4227 0.1432 0.9946
-1.2737 -0.4659 0.1452 0.9946
-1.2761 -0.4880 0.1463 0.9945
-1.2785 -0.5105 0.1474 0.9945
-1.2812 -0.5334 0.1486 0.9944
-30.1193 -14.1193 3.5615 0.8747
-23.4014 -11.8161 2.8068 0.8999
-55.0231 -28.7995 6.6492 0.7789
-23.5273 -12.7557 2.8654 0.8979
-20.4646 -11.4853 2.5125 0.9099
-20.3415 -11.8103 2.5183 0.9097
-19.3861 -11.6377 2.4209 0.9131
-19.7810 -12.2714 2.4923 0.9106
-39.1651 -28.4551 5.1831 0.8230
-37.0251 -29.4634 5.0661 0.8267
-14.5863 -11.9596 2.0195 0.9269
-14.1037 -12.2702 2.0015 0.9276
-10.3800 -10.7663 1.6012 0.9416
-10.5103 -11.2252 1.6464 0.9400
-16.0699 -18.2009 2.5995 0.9069
-15.7171 -18.3345 2.5855 0.9074
-30.2834 -36.3894 5.0687 0.8266
-9.4385 -11.6846 1.6082 0.9414
-9.2566 -12.5468 1.6693 0.9392
-9.0372 -13.0298 1.6977 0.9382
-8.9257 -13.2795 1.7131 0.9377
-8.8124 -13.5338 1.7291 0.9371
-8.6970 -13.7932 1.7458 0.9365
-17.8387 -29.2298 3.6663 0.8713
-21.0443 -42.4453 5.0723 0.8265
-19.7969 -43.0462 5.0728 0.8265
-18.5325 -43.6105 5.0733 0.8264
-17.8941 -43.8788 5.0735 0.8264
-4.5283 -12.6648 1.4400 0.9473
-4.2137 -12.3512 1.3972 0.9489
-4.0655 -12.5123 1.4086 0.9485
-3.4158 -12.3268 1.3695 0.9498
-14.5605 -55.6947 6.1634 0.7933
-14.4903 -58.9320 6.4975 0.7834
-0.6353 -2.7569 0.3029 0.9887
-14.2249 -71.1737 7.7709 0.7468
-14.1117 -76.3991 8.3180 0.7316
-13.8293 -89.4274 9.6884 0.6949
21.6893 -82.9629 9.1810 0.7082
22.8184 -82.3453 9.1485 0.7091
24.1111 -82.3172 9.1836 0.7082
25.3770 -82.1685 9.2074 0.7075
26.6889 -82.1400 9.2469 0.7065
28.0124 -82.1113 9.2888 0.7054
32.1071 -82.1436 9.4427 0.7013
33.5674 -82.3119 9.5174 0.6993
39.1685 -81.9902 9.7286 0.6938
40.7328 -82.1563 9.8178 0.6915
42.2227 -82.1239 9.8867 0.6897
43.6287 -81.8933 9.9346 0.6885
46.8252 -82.0240 10.1121 0.6839
48.4076 -81.9896 10.1940 0.6818
50.0161 -81.9547 10.2795 0.6796
6.7298 -10.6733 1.3509 0.9505
10.0115 -12.3940 1.7058 0.9379
10.2448 -12.3105 1.7147 0.9376
14.2119 -13.5031 2.0989 0.9242
14.5835 -13.4562 2.1245 0.9233
15.0580 -13.1004 2.1369 0.9228
14.6071 -12.3379 2.0471 0.9260
2.9884 -2.2387 0.3998 0.9851
2.9696 -2.1575 0.3930 0.9853
3.0034 -2.0507 0.3894 0.9855
19.6987 -12.2204 2.4819 0.9110
20.8770 -12.1213 2.5846 0.9075
25.0304 -11.7339 2.9597 0.8948
25.2100 -10.9312 2.9419 0.8954
6.4993 -2.7061 0.7538 0.9721
35.3637 -12.9364 4.0316 0.8594
10.8569 -3.4402 1.2194 0.9552
10.3069 -3.1009 1.1524 0.9576
10.7065 -2.7157 1.1826 0.9565
10.7892 -2.5695 1.1875 0.9564
10.8618 -2.2536 1.1877 0.9564
10.8980 -2.0955 1.1882 0.9563
11.0419 -1.9563 1.2006 0.9559
11.3951 -1.6771 1.2332 0.9547
21.5199 -1.8916 2.3129 0.9168
22.2920 -1.3045 2.3908 0.9141
27.7400 8.3457 3.1015 0.8900
27.2351 9.0697 3.0734 0.8909
26.2539 9.6039 2.9930 0.8936
21.9653 8.7710 2.5323 0.9092
20.2263 8.4213 2.3457 0.9156
20.4940 8.8863 2.3916 0.9141
20.0497 9.3989 2.3708 0.9148
20.4454 9.9513 2.4345 0.9126
20.2725 10.6107 2.4498 0.9121
16.7034 9.3744 2.0508 0.9258
16.5736 9.6226 2.0519 0.9258
15.8327 9.8220 1.9948 0.9278
8.8155 9.9845 1.4260 0.9478
-1.8222 9.8652 1.0741 0.9604
-7.3304 9.9359 1.3220 0.9515
-12.9353 10.9257 1.8128 0.9342
-8.1145 6.6531 1.1235 0.9587
-8.1510 6.2940 1.1026 0.9594
-7.9887 5.9844 1.0687 0.9606
-8.0127 5.8215 1.0604 0.9609
-8.1052 5.1937 1.0307 0.9620
-8.2055 4.4487 0.9993 0.9631
-8.2250 4.3050 0.9939 0.9633
-8.2453 4.1633 0.9889 0.9635
-8.2676 4.0241 0.9845 0.9637
-8.2895 3.8859 0.9802 0.9638
-1.2692 0.4227 0.1432 0.9946
-1.2631 0.3800 0.1412 0.9947
-1.2609 0.3593 0.1404 0.9947
-1.2567 0.3187 0.1388 0.9948
-1.2548 0.2988 0.1381 0.9948
-1.2530 0.2791 0.1374 0.9948
-1.2513 0.2596 0.1368 0.9949
-1.2497 0.2403 0.1363 0.9949
-1.2380 0.1270 0.1332 0.9950
-1.2362 0.1086 0.1329 0.9950
-1.2344 0.0903 0.1325 0.9950
-1.2281 0.0538 0.1316 0.9951
-1.1772 0.0000 0.1129 0.9953
-1.1804 -0.0173 0.1132 0.9953
-1.1903 -0.0697 0.1143 0.9952
-1.1974 -0.1053 0.1152 0.9952
-1.1998 -0.1232 0.1156 0.9952
-1.2016 -0.1411 0.1160 0.9952
-1.2054 -0.1774 0.1168 0.9951
-1.2075 -0.1958 0.1173 0.9951
-1.2104 -0.2328 0.1182 0.9951
-1.2132 -0.2703 0.1192 0.9950
-1.2148 -0.2893 0.1197 0.9950
-1.2182 -0.3280 0.1209 0.9949
-1.2200 -0.3477 0.1216 0.9949
-1.2219 -0.3677 0.1223 0.9949
-1.2241 -0.3879 0.1231 0.9949
-1.2331 -0.4511 0.1259 0.9947
-1.2351 -0.4724 0.1268 0.9947
-1.2372 -0.4941 0.1277 0.9947
-1.2442 -0.5612 0.1309 0.9945
-23.6727 -11.9532 2.5424 0.8989
-21.1923 -12.7220 2.3697 0.9054
-18.9986 -12.1740 2.1632 0.9133
-19.0481 -13.0062 2.2112 0.9115
-42.2455 -29.7598 4.9541 0.8125
-40.9213 -29.7311 4.8492 0.8161
-14.6512 -12.0128 1.8164 0.9267
-11.0842 -9.6433 1.4085 0.9427
-10.7640 -9.9320 1.4041 0.9428
-10.7246 -10.1896 1.4182 0.9423
-10.5250 -10.6022 1.4322 0.9417
-16.2366 -18.3897 2.3518 0.9061
-15.9077 -18.5568 2.3432 0.9065
-33.2151 -41.1195 5.0676 0.8086
-32.6122 -41.6023 5.0678 0.8086
-9.3192 -12.2528 1.4758 0.9400
-9.2058 -12.4779 1.4866 0.9396
-8.9872 -12.9577 1.5118 0.9386
-8.7627 -13.4574 1.5396 0.9375
-17.8387 -29.2298 3.2829 0.8714
-17.2501 -29.2170 3.2528 0.8725
-21.8318 -47.4708 5.0092 0.8106
-21.0565 -47.6052 4.9904 0.8113
-19.3992 -47.5693 4.9251 0.8135
-17.1038 -45.7177 4.6796 0.8219
-4.2330 -12.4079 1.2569 0.9487
-4.0382 -12.4282 1.2528 0.9488
-3.8192 -12.3663 1.2408 0.9493
-0.6353 -2.7569 0.2712 0.9887
-0.5940 -2.7614 0.2708 0.9887
-14.1114 -76.3974 7.4481 0.7318
-13.8289 -89.4251 8.6751 0.6952
21.6897 -82.9645 8.2211 0.7085
26.7280 -82.2604 8.2921 0.7064
37.7216 -82.0216 8.6551 0.6957
39.1686 -81.9902 8.7113 0.6941
40.6347 -81.9583 8.7700 0.6924
42.1210 -81.9261 8.8315 0.6906
43.6287 -81.8933 8.8958 0.6888
48.2910 -81.7921 9.1061 0.6827
49.8957 -81.7572 9.1824 0.6805
9.4273 -14.4783 1.6563 0.9329
15.0621 -14.3109 1.9919 0.9199
15.1338 -13.9639 1.9741 0.9206
14.6491 -13.1257 1.8857 0.9240
15.2238 -13.2447 1.9345 0.9221
3.0237 -2.2652 0.3622 0.9849
2.9395 -2.0707 0.3447 0.9857
2.9730 -1.9670 0.3418 0.9858
3.0282 -1.9404 0.3448 0.9857
20.3939 -12.2427 2.2804 0.9088
23.8027 -12.9051 2.5958 0.8969
24.1885 -12.6605 2.6174 0.8961
25.2372 -12.2837 2.6909 0.8933
24.7948 -11.6234 2.6253 0.8958
29.3833 -12.7408 3.0704 0.8792
6.4993 -2.7061 0.6749 0.9721
31.1892 -12.4543 3.2197 0.8738
35.8113 -13.1001 3.6557 0.8579
35.4967 -12.4001 3.6047 0.8598
10.9617 -3.4734 1.1024 0.9548
10.3364 -3.1098 1.0348 0.9576
10.4746 -2.4945 1.0323 0.9577
10.8730 -2.4221 1.0679 0.9562
10.9095 -2.2635 1.0682 0.9562
10.9459 -2.1047 1.0686 0.9562
11.0699 -1.9612 1.0778 0.9558
11.6093 -1.7086 1.1250 0.9539
15.5551 -2.0575 1.5042 0.9389
15.5519 -1.8263 1.5012 0.9390
19.3393 -1.6999 1.8612 0.9250
22.3170 -1.6334 2.1452 0.9140
66.7462 8.8286 6.4547 0.7630
35.6849 9.0512 3.5294 0.8625
27.8334 8.3738 2.7865 0.8898
27.5787 8.7386 2.7735 0.8903
27.3261 9.1000 2.7612 0.8907
26.1318 9.5592 2.6676 0.8942
26.2634 10.0449 2.6957 0.8932
26.4332 10.5551 2.7287 0.8919
20.4296 8.8584 2.1348 0.9144
20.0394 9.7537 2.1367 0.9143
17.1112 10.6152 1.9305 0.9223
15.7432 10.0880 1.7926 0.9276
-8.0161 7.3964 1.0457 0.9571
-8.0233 7.1889 1.0328 0.9576
-8.0462 7.0001 1.0225 0.9580
-8.0902 6.6332 1.0030 0.9588
-8.1394 6.2850 0.9859 0.9595
-8.0095 5.8193 0.9491 0.9610
-8.0565 5.5010 0.9352 0.9616
-8.1205 5.0376 0.9161 0.9623
-8.1407 4.8869 0.9103 0.9626
-8.1998 4.4456 0.8942 0.9632
-8.2192 4.3020 0.8894 0.9634
-8.2389 4.1600 0.8848 0.9636
-8.2608 4.0208 0.8808 0.9638
-8.2818 3.8823 0.8769 0.9639
-1.2418 0.5384 0.1298 0.9946
-1.2395 0.5160 0.1287 0.9946
-1.2351 0.4723 0.1268 0.9947
-1.2331 0.4510 0.1259 0.9947
-1.2300 0.4296 0.1249 0.9948
-1.2270 0.4086 0.1240 0.9948
-1.2241 0.3879 0.1231 0.9949
-1.2182 0.3280 0.1209 0.9949
-1.2164 0.3085 0.1203 0.9950
-1.2148 0.2893 0.1197 0.9950
-1.2132 0.2702 0.1192 0.9950
-1.2104 0.2327 0.1182 0.9951
-1.2091 0.2142 0.1177 0.9951
-1.2074 0.1958 0.1173 0.9951
-1.2054 0.1774 0.1168 0.9951
-1.2035 0.1592 0.1164 0.9951
-1.2016 0.1411 0.1160 0.9952
-1.1938 0.0874 0.1148 0.9952
-1.1903 0.0696 0.1143 0.9952
-1.1869 0.0521 0.1139 0.9952
-1.1395 -0.0000 0.0965 0.9954
-1.1424 -0.0167 0.0968 0.9954
-1.1485 -0.0504 0.0974 0.9954
-1.1516 -0.0674 0.0977 0.9954
-1.1548 -0.0845 0.0981 0.9954
-1.1582 -0.1018 0.0985 0.9953
-1.1616 -0.1193 0.0989 0.9953
-1.1709 -0.1898 0.1005 0.9952
-1.1725 -0.2077 0.1009 0.9952
-1.1748 -0.2437 0.1016 0.9952
-1.1761 -0.2620 0.1021 0.9952
-1.1802 -0.3178 0.1035 0.9951
-1.1818 -0.3368 0.1041 0.9951
-1.1876 -0.3955 0.1060 0.9950
-1.1957 -0.4573 0.1084 0.9949
-1.1986 -0.4786 0.1093 0.9948
-1.2024 -0.5214 0.1110 0.9948
-24.1727 -12.6522 2.3109 0.8963
-23.1650 -13.0009 2.2499 0.8989
-51.6070 -29.9631 5.0543 0.7870
-18.8577 -12.0837 1.8970 0.9140
-42.2454 -29.7598 4.3768 0.8127
-40.9213 -29.7311 4.2841 0.8162
-38.4330 -29.6770 4.1127 0.8229
-10.7332 -9.9035 1.2369 0.9431
-10.7042 -10.1703 1.2506 0.9424
-10.4958 -10.2683 1.2436 0.9428
-10.4202 -10.4966 1.2527 0.9424
-10.2787 -10.6612 1.2543 0.9423
-10.4569 -11.5005 1.3165 0.9395
-38.2574 -45.9711 5.0656 0.7866
-37.5836 -46.5277 5.0658 0.7865
-9.1556 -12.4099 1.3062 0.9400
-9.0470 -12.6454 1.3169 0.9395
-8.9378 -12.8866 1.3283 0.9390
-32.1599 -47.8464 4.8828 0.7934
-31.1403 -47.8242 4.8336 0.7953
-18.4384 -29.2428 2.9280 0.8704
-17.8387 -29.2298 2.9003 0.8716
-17.2501 -29.2170 2.8737 0.8727
-16.6872 -30.2491 2.9260 0.8705
-23.6303 -47.6611 4.5057 0.8077
-22.7598 -47.6422 4.4720 0.8090
-21.9021 -47.6236 4.4397 0.8102
-17.8761 -45.7345 4.1590 0.8211
-16.3514 -45.7320 4.1135 0.8229
-16.2581 -50.0372 4.4561 0.8096
-16.2053 -52.4713 4.6513 0.8022
-15.9986 -57.7346 5.0743 0.7862
21.8149 -88.7214 7.7383 0.6930
21.6901 -82.9660 7.2632 0.7088
22.8184 -82.3453 7.2373 0.7096
26.7280 -82.2604 7.3258 0.7067
30.7423 -82.1732 7.4310 0.7031
36.2930 -82.0527 7.5991 0.6976
37.7216 -82.0216 7.6465 0.6960
39.1685 -81.9902 7.6961 0.6944
42.1210 -81.9261 7.8023 0.6909
43.6287 -81.8933 7.8591 0.6890
45.1588 -81.8601 7.9184 0.6871
6.7295 -10.6728 1.0686 0.9506
15.1023 -13.9350 1.7405 0.9208
15.0083 -13.4475 1.7068 0.9223
15.0288 -13.0750 1.6872 0.9231
14.9419 -12.6207 1.6566 0.9245
15.1201 -12.3972 1.6561 0.9245
15.1540 -12.0591 1.6403 0.9252
2.9122 -2.0516 0.3017 0.9858
2.9234 -1.9962 0.2998 0.9859
2.9998 -1.9223 0.3018 0.9858
3.0896 -1.9167 0.3079 0.9855
3.2187 -1.9322 0.3180 0.9850
23.9268 -12.9723 2.3052 0.8965
24.3156 -12.7270 2.3245 0.8957
25.4004 -11.9073 2.3760 0.8935
30.7753 -12.2890 2.8067 0.8754
30.2777 -11.5803 2.7456 0.8780
35.0134 -12.8083 3.1577 0.8610
34.4758 -12.0435 3.0931 0.8636
10.3661 -3.1187 0.9169 0.9575
10.5181 -2.9976 0.9263 0.9570
10.6733 -2.8739 0.9362 0.9566
10.8318 -2.7475 0.9465 0.9561
10.9209 -2.4328 0.9476 0.9561
10.9575 -2.2734 0.9478 0.9561
11.0733 -1.7954 0.9501 0.9560
11.9034 -1.7519 1.0191 0.9528
15.5180 -1.8223 1.3234 0.9392
18.6980 -1.9192 1.5920 0.9273
21.4752 -1.8877 1.8259 0.9171
21.8346 -1.5981 1.8543 0.9159
22.1414 -1.2956 1.8785 0.9148
34.8515 8.8398 3.0453 0.8656
34.3575 9.2509 3.0136 0.8669
34.5128 9.8358 3.0396 0.8658
34.5749 10.4020 3.0581 0.8651
34.4345 10.9109 3.0594 0.8650
25.8660 9.0358 2.3206 0.8958
26.6418 9.7459 2.4027 0.8924
25.4096 10.1463 2.3174 0.8960
20.1021 8.3696 1.8443 0.9163
20.3657 8.8307 1.8801 0.9147
20.5799 9.2831 1.9122 0.9134
17.1855 9.6449 1.6691 0.9239
17.0502 9.8993 1.6699 0.9239
16.8660 10.1247 1.6661 0.9241
8.7643 9.9265 1.1216 0.9482
2.9730 7.9468 0.7186 0.9665
2.9011 8.1138 0.7298 0.9660
-1.8095 9.7967 0.8438 0.9608
-7.9790 7.8060 0.9454 0.9562
-7.9915 7.5929 0.9337 0.9567
-7.9990 7.3806 0.9218 0.9572
-8.0084 7.1755 0.9107 0.9578
-8.0536 6.8024 0.8929 0.9586
-8.0764 6.6220 0.8846 0.9589
-8.1281 6.2762 0.8698 0.9596
-7.9824 5.9797 0.8447 0.9608
-8.0525 5.4983 0.8259 0.9616
-8.0736 5.3413 0.8199 0.9619
-8.0943 5.1866 0.8142 0.9621
-8.1147 5.0341 0.8088 0.9624
-8.1349 4.8834 0.8036 0.9626
-8.1548 4.7347 0.7987 0.9629
-8.1746 4.5877 0.7940 0.9631
-8.1941 4.4425 0.7895 0.9633
-1.2297 0.5764 0.1150 0.9946
-1.1986 0.4786 0.1093 0.9948
-1.1957 0.4573 0.1084 0.9949
-1.1902 0.4157 0.1068 0.9950
-1.1852 0.3755 0.1053 0.9950
-1.1834 0.3560 0.1047 0.9951
-1.1802 0.3177 0.1035 0.9951
-1.1787 0.2989 0.1030 0.9951
-1.1748 0.2437 0.1016 0.9952
-1.1737 0.2256 0.1012 0.9952
-1.1709 0.1898 0.1005 0.9952
-1.1548 0.0845 0.0981 0.9954
-1.1516 0.0673 0.0977 0.9954
-1.1484 0.0504 0.0974 0.9954
-1.1454 0.0334 0.0971 0.9954
-1.1068 -0.0162 0.0814 0.9956
-1.1097 -0.0325 0.0816 0.9956
-1.1215 -0.0986 0.0828 0.9955
-1.1312 -0.1496 0.0839 0.9954
-1.1346 -0.1670 0.0843 0.9954
-1.1365 -0.1843 0.0847 0.9954
-1.1382 -0.2017 0.0850 0.9954
-1.1391 -0.2190 0.0853 0.9954
-1.1401 -0.2366 0.0856 0.9953
-1.1435 -0.2900 0.0868 0.9953
-1.1473 -0.3452 0.0881 0.9952
-1.1488 -0.3640 0.0886 0.9952
-1.1530 -0.4028 0.0898 0.9951
-1.1554 -0.4227 0.0905 0.9951
-1.1604 -0.4634 0.0919 0.9950
-1.1690 -0.5480 0.0950 0.9948
-1.4718 -0.7704 0.1222 0.9934
-1.4753 -0.7999 0.1234 0.9933
-23.2352 -13.0402 1.9596 0.8986
-51.6070 -29.9631 4.3889 0.7871
-49.8493 -29.9250 4.2761 0.7920
-48.1794 -29.8887 4.1699 0.7966
-43.6284 -29.7899 3.8854 0.8091
-42.2455 -29.7598 3.8005 0.8128
-40.9213 -29.7311 3.7201 0.8164
-39.6518 -29.7035 3.6438 0.8198
-11.4313 -9.3727 1.0872 0.9424
-11.3066 -9.5501 1.0885 0.9424
-11.1055 -9.6618 1.0826 0.9427
-10.6103 -10.0811 1.0764 0.9430
-10.3807 -10.4569 1.0837 0.9426
-10.3151 -10.6990 1.0930 0.9421
-10.1883 -10.8814 1.0963 0.9420
-39.6385 -46.2395 4.4793 0.7833
-37.5995 -47.9645 4.4823 0.7831
-32.1599 -47.8464 4.2400 0.7936
-31.1403 -47.8242 4.1972 0.7954
-18.4384 -29.2428 2.5425 0.8705
-16.6870 -30.2489 2.5408 0.8706
-24.5142 -47.6803 3.9431 0.8065
-21.9021 -47.6236 3.8552 0.8104
-21.0565 -47.6052 3.8284 0.8116
-20.2224 -47.5871 3.8028 0.8127
-17.8761 -45.7345 3.6114 0.8212
-16.3064 -47.7980 3.7143 0.8166
-16.2579 -50.0365 3.8694 0.8098
-16.2051 -52.4707 4.0389 0.8023
-16.1474 -55.1284 4.2249 0.7942
-0.6353 -2.7570 0.2081 0.9887
-0.5940 -2.7615 0.2077 0.9887
-13.9803 -82.4119 6.1477 0.7152
-13.8282 -89.4206 6.6548 0.6956
21.6906 -82.9676 6.3071 0.7090
22.8184 -82.3453 6.2845 0.7098
24.1869 -82.5756 6.3283 0.7081
25.4939 -82.5473 6.3540 0.7072
28.1416 -82.4897 6.4102 0.7050
32.1071 -82.1436 6.4865 0.7021
33.5917 -82.3714 6.5425 0.6999
36.2929 -82.0527 6.5987 0.6978
37.7216 -82.0216 6.6398 0.6962
39.1686 -81.9902 6.6829 0.6946
42.2533 -82.1833 6.7964 0.6903
43.6287 -81.8934 6.8244 0.6892
45.1588 -81.8601 6.8759 0.6873
46.7125 -81.8264 6.9296 0.6853
6.7293 -10.6726 0.9279 0.9507
53.1888 -81.6857 7.1690 0.6764
10.0367 -12.8035 1.1965 0.9368
2.9188 -2.1206 0.2653 0.9856
2.9026 -2.0448 0.2611 0.9859
2.9156 -1.9908 0.2597 0.9859
2.9445 -1.9481 0.2597 0.9859
3.1896 -1.9148 0.2736 0.9852
24.5750 -13.3238 2.0560 0.8939
24.7953 -12.5200 2.0429 0.8946
25.0432 -11.7398 2.0342 0.8950
6.4994 -2.7061 0.5178 0.9722
30.3771 -12.1300 2.4057 0.8771
31.7112 -12.1285 2.4970 0.8727
34.6920 -12.1190 2.7027 0.8630
10.3959 -3.1277 0.7984 0.9574
10.5487 -3.0064 0.8067 0.9570
10.6539 -2.5373 0.8055 0.9570
10.9690 -2.4435 0.8265 0.9559
11.0426 -2.1233 0.8270 0.9559
15.4122 -2.0386 1.1434 0.9396
18.6486 -2.1900 1.3810 0.9275
18.7785 -1.9275 1.3884 0.9271
21.7449 -1.5916 1.6035 0.9163
87.2936 -2.5519 6.4229 0.7045
95.8109 -1.4002 7.0473 0.6809
51.3528 9.8738 3.8460 0.8108
50.8936 10.5589 3.8228 0.8118
35.4763 8.4486 2.6821 0.8639
34.5032 9.8330 2.6386 0.8660
34.2090 10.2920 2.6274 0.8665
34.6295 10.9727 2.6717 0.8644
25.7681 9.0016 2.0075 0.8963
26.3774 9.6491 2.0657 0.8935
17.5561 9.5183 1.4688 0.9230
17.0029 9.8719 1.4460 0.9242
14.9712 9.9048 1.3202 0.9305
8.7599 9.9215 0.9734 0.9483
3.1987 7.8435 0.6230 0.9666
2.9414 7.8622 0.6174 0.9669
-3.5419 9.0617 0.7156 0.9617
-7.6967 7.3128 0.7808 0.9583
-7.9937 7.1623 0.7894 0.9579
-8.0908 6.4384 0.7605 0.9594
-8.1169 6.2676 0.7542 0.9597
-7.9792 5.9773 0.7332 0.9608
-8.0253 5.6534 0.7220 0.9614
-8.1089 5.0305 0.7018 0.9624
-8.1291 4.8800 0.6973 0.9627
-8.1689 4.5846 0.6889 0.9631
-1.4718 0.7703 0.1222 0.9934
-1.4717 0.7431 0.1213 0.9934
-1.1672 0.5265 0.0942 0.9949
-1.1655 0.5054 0.0934 0.9949
-1.1603 0.4633 0.0919 0.9950
-1.1578 0.4428 0.0912 0.9950
-1.1554 0.4226 0.0905 0.9951
-1.1530 0.4027 0.0898 0.9951
-1.1474 0.3452 0.0881 0.9952
-1.1447 0.3082 0.0872 0.9953
-1.1434 0.2900 0.0868 0.9953
-1.1411 0.2541 0.0860 0.9953
-1.1381 0.2016 0.0850 0.9954
-1.1365 0.1843 0.0847 0.9954
-1.1215 0.0986 0.0828 0.9955
-1.1125 0.0488 0.0819 0.9955
-1.1096 0.0324 0.0816 0.9956
-1.1068 0.0162 0.0814 0.9956
-1.0599 -0.0776 0.0663 0.9957
-1.0661 -0.0937 0.0668 0.9957
-1.0930 -0.1609 0.0690 0.9956
-1.1057 -0.1959 0.0701 0.9955
-1.1065 -0.2128 0.0703 0.9955
-1.1092 -0.2642 0.0712 0.9954
-1.1112 -0.2993 0.0718 0.9954
-1.1135 -0.3350 0.0726 0.9954
-1.1147 -0.3532 0.0730 0.9953
-1.1181 -0.3906 0.0739 0.9953
-1.1202 -0.4098 0.0744 0.9952
-1.1314 -0.5104 0.0775 0.9950
-1.1337 -0.5315 0.0781 0.9950
-1.1716 -0.5703 0.0813 0.9948
-1.2578 -0.6351 0.0879 0.9944
-1.4422 -0.7549 0.1016 0.9935
-1.4447 -0.8108 0.1034 0.9934
-49.8494 -29.9250 3.6289 0.7921
-43.6284 -29.7899 3.2972 0.8092
-42.2455 -29.7598 3.2253 0.8129
-39.6518 -29.7035 3.0922 0.8199
-38.4330 -29.6770 3.0307 0.8232
-11.1636 -9.4293 0.9120 0.9431
-10.6655 -9.8411 0.9058 0.9435
-10.6224 -10.0926 0.9145 0.9430
-10.4864 -10.2591 0.9156 0.9429
-10.3304 -10.4062 0.9152 0.9429
-10.1297 -10.8187 0.9250 0.9423
-9.8335 -10.8148 0.9123 0.9431
-39.6383 -46.2392 3.8012 0.7834
-39.6088 -47.5950 3.8647 0.7802
-37.5995 -47.9645 3.8038 0.7833
-34.2638 -47.8920 3.6754 0.7898
-33.2007 -47.8690 3.6360 0.7918
-31.1402 -47.8242 3.5619 0.7956
-17.8387 -29.2298 2.1373 0.8718
-17.2501 -29.2170 2.1177 0.8729
-16.7082 -29.2677 2.1034 0.8737
-24.5142 -47.6803 3.3462 0.8066
-22.6868 -47.4894 3.2849 0.8098
-19.3369 -47.4166 3.1961 0.8145
-17.1038 -45.7177 3.0466 0.8223
-4.3662 -12.7983 0.8440 0.9472
-16.2576 -50.0359 3.2837 0.8099
-16.2048 -52.4699 3.4275 0.8024
-16.0839 -58.0424 3.7592 0.7855
-0.5940 -2.7615 0.1763 0.9887
-15.6449 -78.2785 4.9823 0.7262
-13.9799 -82.4098 5.2170 0.7153
-13.8279 -89.4183 5.6473 0.6958
21.6910 -82.9691 5.3525 0.7091
24.1694 -82.5160 5.3665 0.7085
28.1212 -82.4302 5.4359 0.7054
29.4269 -82.3018 5.4553 0.7045
30.7423 -82.1732 5.4759 0.7035
34.9658 -82.2816 5.5800 0.6989
36.2929 -82.0527 5.5998 0.6980
40.7328 -82.1563 5.7233 0.6925
42.2228 -82.1239 5.7635 0.6907
43.6287 -81.8933 5.7914 0.6894
45.1588 -81.8601 5.8351 0.6875
53.1888 -81.6857 6.0839 0.6766
2.9037 -2.0455 0.2217 0.9859
2.9168 -1.9917 0.2204 0.9859
2.9458 -1.9489 0.2205 0.9859
2.9910 -1.9166 0.2217 0.9859
24.8019 -12.9815 1.7472 0.8939
25.1687 -11.7986 1.7349 0.8946
25.2973 -11.4111 1.7321 0.8947
6.4995 -2.7061 0.4394 0.9722
31.2066 -12.4612 2.0973 0.8740
34.7135 -13.2768 2.3197 0.8616
34.8168 -12.7364 2.3139 0.8619
35.8183 -11.9281 2.3563 0.8596
10.4259 -3.1367 0.6795 0.9573
11.0176 -2.4543 0.7045 0.9558
11.0914 -2.1327 0.7049 0.9557
11.0988 -1.9664 0.7035 0.9558
11.6271 -1.8852 0.7352 0.9539
15.2052 -2.2377 0.9592 0.9403
15.2550 -2.0179 0.9604 0.9402
18.9689 -1.9470 1.1901 0.9264
22.0918 -1.6170 1.3825 0.9151
86.7069 -2.5347 5.4140 0.7063
95.5472 -1.3963 5.9641 0.6818
51.0437 9.0431 3.2354 0.8124
49.8831 9.5912 3.1704 0.8158
45.7483 9.4914 2.9161 0.8292
45.3289 10.0974 2.8985 0.8302
35.4400 8.4399 2.2738 0.8642
34.7563 9.9052 2.2557 0.8652
12.0729 4.2174 0.7982 0.9500
27.0432 9.8927 1.7973 0.8910
20.9768 9.8335 1.4460 0.9113
17.3255 9.3933 1.2301 0.9241
17.0776 9.5844 1.2223 0.9245
16.5170 9.9152 1.2024 0.9257
16.3110 10.1187 1.1980 0.9260
14.9337 9.8800 1.1176 0.9308
3.1793 7.7960 0.5255 0.9668
3.0438 7.7873 0.5218 0.9670
2.9283 7.8273 0.5216 0.9671
2.8297 7.9142 0.5246 0.9669
-3.5417 9.0610 0.6072 0.9618
-7.3941 9.4323 0.7480 0.9531
-7.9293 7.7573 0.6923 0.9565
-7.9790 7.1492 0.6687 0.9580
-8.0031 6.9626 0.6621 0.9584
-8.0249 6.7782 0.6556 0.9588
-8.0493 6.5996 0.6497 0.9591
-8.0207 5.6502 0.6123 0.9614
-8.0638 5.3349 0.6035 0.9620
-8.1058 5.0285 0.5954 0.9625
-1.4422 0.7548 0.1016 0.9935
-1.2577 0.6350 0.0879 0.9944
-1.1716 0.5702 0.0813 0.9948
-1.1337 0.5314 0.0781 0.9950
-1.1314 0.5103 0.0775 0.9950
-1.1244 0.4490 0.0756 0.9952
-1.1222 0.4292 0.0750 0.9952
-1.1202 0.4097 0.0744 0.9952
-1.1181 0.3905 0.0739 0.9953
-1.1135 0.3350 0.0726 0.9954
-1.1113 0.2992 0.0718 0.9954
-1.1093 0.2641 0.0712 0.9954
-1.1083 0.2468 0.0709 0.9955
-1.1074 0.2297 0.0706 0.9955
-1.1003 0.1784 0.0696 0.9955
-1.0792 0.1267 0.0678 0.9957
-0.9723 -0.0142 0.0499 0.9961
-0.9803 -0.0430 0.0503 0.9961
-0.9898 -0.0725 0.0509 0.9960
-0.9951 -0.0875 0.0512 0.9960
-1.0006 -0.1027 0.0516 0.9960
-1.0121 -0.1339 0.0524 0.9959
-1.0242 -0.1661 0.0532 0.9959
-1.0305 -0.1826 0.0537 0.9958
-1.0361 -0.1993 0.0541 0.9958
-1.0384 -0.2155 0.0544 0.9958
-1.0431 -0.2484 0.0550 0.9957
-1.0457 -0.2653 0.0553 0.9957
-1.0569 -0.3349 0.0569 0.9956
-1.0767 -0.4300 0.0595 0.9954
-1.0786 -0.4491 0.0599 0.9953
-1.0804 -0.4685 0.0604 0.9953
-1.0845 -0.5084 0.0614 0.9952
-1.1839 -0.5978 0.0680 0.9947
-1.4171 -0.8228 0.0841 0.9935
-1.4186 -0.8516 0.0849 0.9934
-1.4486 -0.8987 0.0874 0.9932
-45.6123 -30.1768 2.8055 0.8033
-43.6285 -29.7899 2.7099 0.8093
-40.9213 -29.7311 2.5947 0.8166
-11.0234 -9.5904 0.7495 0.9432
-10.8766 -9.7455 0.7491 0.9432
-10.8634 -10.0237 0.7582 0.9425
-10.5788 -10.0512 0.7485 0.9432
-10.4942 -10.2667 0.7531 0.9429
-10.3616 -10.4375 0.7544 0.9428
-10.2472 -10.6285 0.7573 0.9426
-9.8623 -10.5331 0.7402 0.9438
-39.6665 -44.9266 3.0743 0.7866
-39.6380 -46.2389 3.1241 0.7835
-37.5995 -47.9645 3.1263 0.7834
-35.3504 -47.9157 3.0544 0.7878
-34.2638 -47.8920 3.0207 0.7899
-33.1120 -47.7411 2.9803 0.7924
-31.0571 -47.6965 2.9196 0.7962
-16.7080 -29.2675 1.7287 0.8737
-21.9021 -47.6236 2.6889 0.8106
-19.3992 -47.5693 2.6352 0.8140
-16.1469 -55.1268 2.9466 0.7945
-16.0140 -61.2543 3.2477 0.7760
-0.6354 -2.7570 0.1451 0.9887
-0.5940 -2.7616 0.1449 0.9887
-15.5199 -84.0232 4.3830 0.7102
-13.6481 -97.6865 5.0597 0.6736
22.8184 -82.3453 4.3832 0.7102
24.1111 -82.3172 4.4000 0.7092
26.7280 -82.2604 4.4368 0.7072
28.0535 -82.2316 4.4569 0.7061
30.7423 -82.1732 4.5005 0.7037
32.1071 -82.1436 4.5241 0.7024
33.4866 -82.1136 4.5489 0.7010
42.0594 -81.8062 4.7185 0.6918
43.6287 -81.8934 4.7598 0.6896
48.2204 -81.6724 4.8652 0.6839
49.9559 -81.8560 4.9191 0.6811
53.1888 -81.6857 5.0002 0.6768
10.0276 -12.7920 0.8338 0.9370
3.0029 -1.9242 0.1829 0.9858
3.0878 -1.9155 0.1864 0.9856
3.2062 -1.9247 0.1918 0.9851
24.9430 -12.5946 1.4334 0.8941
25.1654 -12.2487 1.4357 0.8940
86.6231 -40.6073 4.9075 0.6817
6.4996 -2.7062 0.3612 0.9722
31.0247 -12.3885 1.7136 0.8748
35.1935 -13.4604 1.9328 0.8599
35.1659 -12.8641 1.9208 0.8607
35.2080 -12.2992 1.9131 0.8612
40.5339 -12.8437 2.1811 0.8434
10.6102 -3.0239 0.5659 0.9568
10.7677 -2.8993 0.5720 0.9563
10.8389 -2.5813 0.5715 0.9564
11.0664 -2.4652 0.5816 0.9556
11.1036 -2.3038 0.5817 0.9556
11.1407 -2.1421 0.5819 0.9556
11.1827 -1.9812 0.5826 0.9555
11.7848 -1.9107 0.6124 0.9533
25.6047 -1.8741 1.3169 0.9023
30.4515 -1.7819 1.5647 0.8850
87.1961 -1.2743 4.4733 0.7052
67.4427 8.9207 3.4897 0.7615
50.5316 9.7159 2.6396 0.8138
35.4039 8.4313 1.8669 0.8644
35.1832 9.4732 1.8691 0.8642
34.7332 9.8986 1.8526 0.8653
35.0637 10.5491 1.8783 0.8636
12.3799 4.1227 0.6693 0.9491
11.7385 4.2941 0.6412 0.9512
11.9188 5.3763 0.6707 0.9490
11.9652 5.6090 0.6779 0.9484
17.4093 9.4387 1.0158 0.9237
17.0607 9.5749 1.0036 0.9246
16.5922 9.6335 0.9842 0.9260
16.0934 9.9837 0.9715 0.9270
14.9329 9.8795 0.9185 0.9308
16.9383 11.5656 1.0521 0.9211
3.3589 7.9041 0.4406 0.9662
3.0409 7.7798 0.4285 0.9671
2.9255 7.8198 0.4283 0.9671
-1.7977 9.7325 0.5077 0.9611
-3.5414 9.0604 0.4990 0.9618
-7.4131 9.4567 0.6164 0.9530
-5.5645 5.1343 0.3884 0.9701
-5.6154 4.8853 0.3818 0.9706
-5.6716 4.5132 0.3718 0.9714
-5.6886 4.3926 0.3687 0.9716
-5.7536 4.3101 0.3688 0.9716
-5.8045 4.2172 0.3680 0.9717
-5.8392 4.1134 0.3664 0.9718
-5.8737 4.0106 0.3648 0.9719
-6.0716 4.0169 0.3734 0.9713
-1.4171 0.8228 0.0841 0.9935
-1.4204 0.7434 0.0822 0.9936
-1.0845 0.5084 0.0614 0.9952
-1.0804 0.4684 0.0604 0.9953
-1.0750 0.4111 0.0590 0.9954
-1.0733 0.3927 0.0586 0.9954
-1.0704 0.3739 0.0582 0.9955
-1.0569 0.3349 0.0569 0.9956
-1.0432 0.2484 0.0550 0.9957
-1.0384 0.2154 0.0544 0.9958
-1.0361 0.1992 0.0541 0.9958
-1.0305 0.1825 0.0537 0.9958
-1.0063 0.1181 0.0520 0.9960
-0.9951 0.0874 0.0512 0.9960
-0.9845 0.0576 0.0506 0.9961
-0.9115 0.0000 0.0366 0.9964
-0.9149 -0.0134 0.0368 0.9963
-0.9379 -0.0963 0.0379 0.9962
-0.9427 -0.1107 0.0381 0.9962
-0.9477 -0.1254 0.0384 0.9962
-0.9580 -0.1553 0.0390 0.9961
-0.9634 -0.1707 0.0393 0.9961
-0.9747 -0.2171 0.0401 0.9960
-0.9766 -0.2326 0.0404 0.9960
-0.9807 -0.2641 0.0408 0.9959
-0.9829 -0.2801 0.0411 0.9959
-0.9851 -0.2964 0.0413 0.9959
-0.9874 -0.3129 0.0416 0.9959
-0.9938 -0.3310 0.0421 0.9958
-1.0015 -0.3498 0.0426 0.9958
-1.0158 -0.3885 0.0437 0.9957
-1.0216 -0.4080 0.0442 0.9956
-1.0243 -0.4441 0.0449 0.9955
-1.0258 -0.4627 0.0452 0.9955
-1.0288 -0.5008 0.0460 0.9954
-1.0322 -0.5403 0.0468 0.9953
-1.2466 -0.6759 0.0570 0.9943
-1.4130 -0.7930 0.0651 0.9935
-1.4123 -0.8201 0.0656 0.9935
-47.1454 -30.2101 2.2505 0.7992
-42.2455 -29.7598 2.0769 0.8131
-40.9213 -29.7311 2.0330 0.8167
-12.4082 -9.8741 0.6373 0.9385
-10.7555 -9.3573 0.5730 0.9445
-10.7060 -9.8784 0.5855 0.9434
-10.3241 -10.3998 0.5890 0.9430
-39.6662 -44.9263 2.4088 0.7867
-6.6808 -8.2707 0.4273 0.9583
-5.9026 -8.2504 0.4077 0.9602
-5.5976 -8.3280 0.4033 0.9606
-5.4067 -8.5748 0.4074 0.9602
-17.2501 -29.2170 1.3637 0.8730
-16.7079 -29.2672 1.3545 0.8738
-16.6866 -30.2480 1.3884 0.8708
-24.4355 -47.5273 2.1479 0.8074
-23.6303 -47.6612 2.1381 0.8082
-21.9021 -47.6236 2.1068 0.8107
-4.7396 -11.1531 0.4871 0.9526
-4.8261 -11.8343 0.5137 0.9501
-17.8761 -45.7345 1.9736 0.8215
-17.1038 -45.7178 1.9619 0.8225
-16.2572 -50.0345 2.1145 0.8101
-16.6132 -53.7924 2.2628 0.7982
-16.1467 -55.1260 2.3087 0.7946
-16.0834 -58.0407 2.4207 0.7858
-16.3386 -66.4488 2.7503 0.7604
-0.5940 -2.7616 0.1135 0.9888
-15.6443 -78.2753 3.2082 0.7265
-15.3760 -90.6395 3.6950 0.6921
-15.2087 -98.3475 3.9997 0.6714
22.8184 -82.3453 3.4343 0.7103
28.0535 -82.2316 3.4921 0.7062
29.3914 -82.2025 3.5087 0.7051
30.7423 -82.1732 3.5263 0.7038
33.4866 -82.1136 3.5642 0.7012
37.7217 -82.0217 3.6285 0.6967
40.6347 -81.9584 3.6767 0.6934
42.1210 -81.9261 3.7025 0.6916
45.1588 -81.8602 3.7575 0.6878
46.7125 -81.8264 3.7869 0.6858
48.2910 -81.7921 3.8176 0.6837
49.8956 -81.7573 3.8496 0.6815
2.9021 -2.1085 0.1442 0.9857
2.9389 -2.0067 0.1430 0.9859
2.9776 -1.9700 0.1435 0.9858
3.0303 -1.9418 0.1447 0.9857
3.1333 -1.9438 0.1482 0.9853
3.2567 -1.9550 0.1527 0.9849
87.8701 -45.9920 3.9862 0.6723
86.9608 -42.3264 3.8871 0.6790
86.8929 -39.1955 3.8312 0.6828
30.1062 -13.0543 1.3189 0.8769
6.4997 -2.7062 0.2830 0.9722
10.7995 -2.9079 0.4495 0.9562
10.9337 -2.6039 0.4517 0.9560
11.1157 -2.4762 0.4577 0.9554
11.1530 -2.3140 0.4578 0.9554
11.1885 -2.1513 0.4579 0.9554
18.7024 -1.9197 0.7556 0.9275
21.7751 -1.9140 0.8786 0.9162
25.8840 -1.8945 1.0431 0.9013
86.8852 -2.5399 3.4936 0.7061
60.2527 8.8673 2.4478 0.7836
50.5152 9.7128 2.0675 0.8139
44.8505 9.3052 1.8410 0.8325
45.2483 10.0795 1.8632 0.8306
12.7878 4.0520 0.5391 0.9477
11.7362 4.4887 0.5050 0.9509
11.8095 5.1206 0.5173 0.9498
11.8506 5.3455 0.5225 0.9493
11.8960 5.5766 0.5280 0.9488
11.9899 6.0541 0.5398 0.9476
16.7612 9.4068 0.7725 0.9259
16.6419 9.6623 0.7734 0.9259
16.0869 9.9797 0.7609 0.9270
14.9617 9.8986 0.7210 0.9307
15.9404 11.2292 0.7837 0.9249
3.3589 7.9041 0.3452 0.9662
3.0409 7.7798 0.3357 0.9671
2.9255 7.8198 0.3356 0.9671
2.7552 8.0761 0.3430 0.9664
-3.5412 9.0598 0.3910 0.9618
-7.4263 9.4735 0.4838 0.9530
-5.4728 5.5128 0.3122 0.9694
-5.4939 5.3748 0.3089 0.9697
-5.5108 5.2359 0.3055 0.9700
-5.5505 4.9733 0.2995 0.9706
-5.5759 4.8510 0.2970 0.9708
-5.5964 4.7270 0.2944 0.9711
-5.6146 4.6035 0.2918 0.9714
-5.6321 4.4818 0.2893 0.9716
-5.6693 4.2469 0.2847 0.9720
-5.7368 4.0412 0.2820 0.9723
-5.8316 3.8581 0.2810 0.9724
-6.0530 3.8787 0.2889 0.9716
-1.4127 0.8480 0.0662 0.9934
-1.4130 0.7930 0.0651 0.9935
-1.2465 0.6758 0.0570 0.9943
-1.0322 0.5402 0.0468 0.9953
-1.0305 0.5203 0.0464 0.9954
-1.0288 0.5007 0.0460 0.9954
-1.0273 0.4815 0.0456 0.9955
-1.0229 0.4259 0.0445 0.9956
-0.9938 0.3309 0.0421 0.9958
-0.9874 0.3128 0.0416 0.9959
-0.9807 0.2640 0.0408 0.9959
-0.9766 0.2326 0.0404 0.9960
-0.9747 0.2171 0.0401 0.9960
-0.9634 0.1707 0.0393 0.9961
-0.9580 0.1553 0.0390 0.9961
-0.9528 0.1402 0.0387 0.9962
-0.9477 0.1254 0.0384 0.9962
-0.9378 0.0962 0.0379 0.9962
-0.9292 0.0680 0.0374 0.9963
-0.9255 0.0541 0.0373 0.9963
-0.9184 0.0268 0.0369 0.9963
-0.9149 0.0134 0.0368 0.9963
-0.8702 -0.0382 0.0253 0.9965
-0.8734 -0.0511 0.0255 0.9965
-0.8766 -0.0641 0.0256 0.9965
-0.8832 -0.0907 0.0258 0.9965
-0.8868 -0.1041 0.0260 0.9964
-0.9045 -0.1603 0.0267 0.9963
-0.9093 -0.1748 0.0269 0.9963
-0.9167 -0.2042 0.0273 0.9962
-0.9182 -0.2187 0.0275 0.9962
-0.9197 -0.2333 0.0276 0.9962
-0.9214 -0.2481 0.0278 0.9962
-0.9230 -0.2631 0.0279 0.9962
-0.9338 -0.3110 0.0286 0.9961
-0.9470 -0.3464 0.0293 0.9960
-0.9597 -0.3832 0.0301 0.9959
-0.9657 -0.4021 0.0304 0.9958
-0.9719 -0.4214 0.0308 0.9958
-0.9748 -0.4397 0.0311 0.9957
-0.9769 -0.4755 0.0316 0.9957
-1.4147 -0.8214 0.0476 0.9935
-1.4230 -0.8828 0.0487 0.9933
-47.1454 -30.2101 1.6293 0.7993
-45.6123 -30.1768 1.5913 0.8034
-39.6518 -29.7035 1.4416 0.8202
-12.7706 -9.8611 0.4695 0.9375
-12.3098 -9.7957 0.4577 0.9390
-11.4606 -9.3968 0.4312 0.9424
-10.7734 -9.3729 0.4155 0.9445
-10.4083 -9.8892 0.4177 0.9442
-10.3374 -10.1133 0.4208 0.9438
-9.9964 -10.3684 0.4191 0.9440
-9.9013 -10.5747 0.4215 0.9437
-9.7082 -10.6770 0.4199 0.9439
-7.2620 -8.2250 0.3193 0.9570
-7.0457 -8.2191 0.3150 0.9576
-6.8343 -8.2123 0.3109 0.9581
-6.6312 -8.2092 0.3071 0.9586
-6.2361 -8.1991 0.2997 0.9596
-5.4904 -8.1685 0.2864 0.9614
-5.1483 -8.1650 0.2809 0.9621
-4.9842 -8.1669 0.2784 0.9624
-4.9209 -8.3346 0.2816 0.9620
-4.9111 -8.9024 0.2958 0.9601
-25.3443 -47.5724 1.5684 0.8060
-23.6303 -47.6612 1.5479 0.8083
-5.0982 -11.0855 0.3550 0.9523
-4.7434 -11.1621 0.3529 0.9526
-4.7391 -11.6207 0.3652 0.9510
-16.1465 -55.1253 1.6714 0.7946
-16.0832 -58.0399 1.7524 0.7858
-16.3383 -66.4477 1.9910 0.7605
-0.6354 -2.7570 0.0823 0.9887
-0.5940 -2.7616 0.0822 0.9888
-15.3756 -90.6374 2.6749 0.6922
-15.2083 -98.3452 2.8955 0.6715
24.1112 -82.3173 2.4958 0.7095
28.0535 -82.2316 2.5281 0.7063
29.3914 -82.2026 2.5401 0.7052
30.7423 -82.1732 2.5528 0.7039
32.1071 -82.1436 2.5662 0.7026
33.4866 -82.1136 2.5803 0.7013
36.2930 -82.0527 2.6106 0.6983
39.1686 -81.9903 2.6439 0.6952
40.6347 -81.9584 2.6617 0.6935
42.1211 -81.9261 2.6804 0.6917
45.1588 -81.8602 2.7203 0.6879
48.2910 -81.7921 2.7637 0.6838
49.8957 -81.7573 2.7869 0.6816
6.7292 -10.6724 0.3671 0.9508
53.1888 -81.6858 2.8363 0.6770
15.1512 -12.7974 0.5771 0.9237
2.8929 -2.1019 0.1040 0.9858
2.9933 -1.9804 0.1044 0.9857
3.0454 -1.9514 0.1052 0.9856
3.1462 -1.9518 0.1077 0.9853
87.8705 -45.9922 2.8858 0.6724
17.6531 -8.9137 0.5754 0.9239
17.6108 -8.5718 0.5699 0.9246
17.8507 -8.3681 0.5736 0.9241
86.5903 -39.0589 2.7640 0.6838
35.2342 -12.8891 1.0916 0.8606
11.2397 -1.9913 0.3321 0.9553
15.2010 -2.4646 0.4481 0.9402
15.3143 -2.2538 0.4504 0.9399
15.7229 -2.0797 0.4615 0.9385
18.6232 -2.1870 0.5456 0.9277
18.8820 -1.9381 0.5523 0.9269
25.8779 -1.8941 0.7550 0.9014
29.0394 -1.6993 0.8464 0.8901
29.8285 -1.3084 0.8688 0.8874
45.8824 -1.3413 1.3356 0.8322
89.0150 9.1367 2.6037 0.6990
83.1664 9.7663 2.4365 0.7153
65.7825 8.7011 1.9307 0.7668
65.0715 9.5765 1.9138 0.7686
27.6202 4.4781 0.8142 0.8941
28.1211 5.8343 0.8357 0.8914
28.2763 6.2988 0.8429 0.8905
45.2119 10.7671 1.3523 0.8303
12.2648 4.0844 0.3761 0.9496
11.8785 4.1495 0.3661 0.9509
11.7826 5.1090 0.3737 0.9499
11.8330 5.5471 0.3803 0.9490
11.9195 6.0185 0.3885 0.9480
16.4086 9.5269 0.5521 0.9269
16.1857 9.7164 0.5493 0.9272
16.1035 9.9900 0.5514 0.9270
15.9376 10.2126 0.5508 0.9270
15.7615 10.4277 0.5499 0.9272
8.8277 9.9983 0.3881 0.9480
2.9256 7.8199 0.2429 0.9671
-1.7932 9.7079 0.2873 0.9613
-3.5409 9.0592 0.2830 0.9618
-7.4498 9.5034 0.3514 0.9528
-5.3927 5.7595 0.2296 0.9689
-5.4476 5.4875 0.2250 0.9695
-5.4689 5.3504 0.2226 0.9698
-5.5116 4.9384 0.2153 0.9708
-5.5366 4.8168 0.2135 0.9711
-5.5563 4.6931 0.2116 0.9713
-5.6314 4.2185 0.2047 0.9722
-5.6499 4.1049 0.2032 0.9724
-5.6962 3.8893 0.2007 0.9728
-5.7214 3.7852 0.1996 0.9729
-5.8181 3.7282 0.2011 0.9727
-1.1000 0.6173 0.0367 0.9950
-0.9792 0.5125 0.0322 0.9956
-0.9769 0.4754 0.0316 0.9957
-0.9758 0.4574 0.0314 0.9957
-0.9748 0.4397 0.0311 0.9957
-0.9719 0.4214 0.0308 0.9958
-0.9470 0.3464 0.0293 0.9960
-0.9338 0.3109 0.0286 0.9961
-0.9275 0.2939 0.0283 0.9961
-0.9247 0.2782 0.0281 0.9961
-0.9230 0.2630 0.0279 0.9962
-0.9214 0.2480 0.0278 0.9962
-0.9166 0.2042 0.0273 0.9962
-0.9140 0.1896 0.0272 0.9963
-0.9092 0.1748 0.0269 0.9963
-0.9045 0.1602 0.0267 0.9963
-0.8910 0.1178 0.0262 0.9964
-0.8832 0.0906 0.0258 0.9965
-0.8798 0.0773 0.0257 0.9965
-0.8766 0.0641 0.0256 0.9965
-0.8670 0.0254 0.0252 0.9965
-0.8640 0.0126 0.0251 0.9965
-0.8157 0.0000 0.0147 0.9967
-0.8184 -0.0120 0.0147 0.9967
-0.8239 -0.0362 0.0149 0.9967
-0.8325 -0.0732 0.0151 0.9967
-0.8414 -0.1113 0.0153 0.9966
-0.8525 -0.1510 0.0156 0.9965
-0.8606 -0.1786 0.0158 0.9965
-0.8663 -0.2063 0.0160 0.9964
-0.8675 -0.2200 0.0161 0.9964
-0.8714 -0.2622 0.0164 0.9964
-0.8753 -0.2774 0.0165 0.9963
-0.8807 -0.2933 0.0167 0.9963
-0.8862 -0.3096 0.0169 0.9963
-0.8977 -0.3434 0.0173 0.9962
-0.9037 -0.3609 0.0175 0.9961
-0.9141 -0.3964 0.0179 0.9960
-0.9194 -0.4148 0.0182 0.9960
-0.9299 -0.4527 0.0186 0.9959
-0.9313 -0.4875 0.0189 0.9958
-0.9329 -0.5236 0.0193 0.9957
-0.9337 -0.5421 0.0194 0.9957
-48.5240 -30.1025 1.0284 0.7958
