ply
format ascii 1.0
element vertex 1597
property float32 x
property float32 y
property float32 z
property float32 I
end_header
-0.4679 -0.4712 -0.0916 0.9973
-0.4668 -0.4842 -0.0928 0.9973
-0.4645 -0.5108 -0.0953 0.9972
-1.4271 -2.0577 -0.3456 0.9899
-1.3779 -2.0501 -0.3409 0.9901
-1.3573 -2.0845 -0.3433 0.9900
-1.2465 -1.9770 -0.3225 0.9906
-1.3065 -2.1408 -0.3461 0.9899
-1.2807 -2.1691 -0.3476 0.9899
-1.1925 -2.0889 -0.3319 0.9903
-1.2284 -2.2267 -0.3509 0.9898
-1.1481 -2.3156 -0.3567 0.9896
-1.0852 -2.2716 -0.3474 0.9899
-1.0445 -2.4579 -0.3685 0.9893
-0.9824 -2.4089 -0.3590 0.9896
-0.9318 -2.3839 -0.3532 0.9897
-0.9001 -2.5175 -0.3690 0.9893
-0.7989 -2.4589 -0.3568 0.9896
-0.7457 -2.4146 -0.3488 0.9898
-0.6949 -2.3724 -0.3412 0.9901
-0.6447 -2.6221 -0.3726 0.9892
-0.5545 -2.5781 -0.3639 0.9894
-0.5054 -2.5292 -0.3559 0.9896
-0.4886 -2.8804 -0.4032 0.9883
-0.7881 -7.1624 -0.9944 0.9713
-0.6833 -7.1729 -0.9943 0.9713
-0.5784 -7.1818 -0.9943 0.9713
-0.4734 -7.1892 -0.9942 0.9713
-0.0526 -7.2034 -0.9941 0.9713
0.3682 -7.1929 -0.9939 0.9713
0.4732 -7.1864 -0.9939 0.9713
0.6829 -7.1690 -0.9938 0.9713
0.9963 -7.1312 -0.9937 0.9713
1.1004 -7.1156 -0.9936 0.9713
1.3077 -7.0799 -0.9935 0.9713
1.5139 -7.0380 -0.9935 0.9713
1.9221 -6.9364 -0.9933 0.9714
2.0232 -6.9073 -0.9933 0.9714
0.9000 -2.9142 -0.4209 0.9878
0.8752 -2.6935 -0.3908 0.9886
0.9393 -2.6270 -0.3850 0.9888
1.0459 -2.7958 -0.4119 0.9880
1.1531 -2.8277 -0.4214 0.9877
3.0062 -6.5366 -0.9929 0.9714
3.3824 -6.3489 -0.9927 0.9714
3.4746 -6.2985 -0.9927 0.9714
3.6569 -6.1939 -0.9926 0.9714
3.7469 -6.1396 -0.9926 0.9714
3.9244 -6.0270 -0.9925 0.9714
4.0119 -5.9688 -0.9925 0.9714
4.0986 -5.9094 -0.9924 0.9714
4.4362 -5.6591 -0.9923 0.9714
4.7586 -5.3896 -0.9922 0.9714
4.8367 -5.3193 -0.9921 0.9714
4.9137 -5.2479 -0.9921 0.9714
4.9897 -5.1754 -0.9921 0.9714
5.0646 -5.1018 -0.9921 0.9714
5.1385 -5.0271 -0.9920 0.9714
5.2829 -4.8745 -0.9920 0.9714
5.4910 -4.6380 -0.9919 0.9714
5.7519 -4.3088 -0.9918 0.9714
5.8141 -4.2242 -0.9918 0.9714
5.9347 -4.0523 -0.9917 0.9714
5.9932 -3.9651 -0.9917 0.9714
6.1063 -3.7881 -0.9916 0.9714
6.1188 -3.5526 -0.9764 0.9718
6.2618 -3.2775 -0.9753 0.9719
6.4837 -2.8114 -0.9752 0.9719
6.5629 -2.6207 -0.9752 0.9719
6.6712 -2.3305 -0.9752 0.9719
6.7044 -2.2327 -0.9752 0.9719
6.7363 -2.1345 -0.9751 0.9719
6.8025 -1.9386 -0.9761 0.9718
6.9629 -1.7661 -0.9913 0.9714
6.9878 -1.6641 -0.9913 0.9714
7.0113 -1.5618 -0.9913 0.9714
7.0333 -1.4592 -0.9913 0.9714
7.0904 -1.1496 -0.9912 0.9714
7.1064 -1.0459 -0.9912 0.9714
7.1338 -0.8377 -0.9912 0.9714
7.1552 -0.6289 -0.9912 0.9714
7.1705 -0.4196 -0.9912 0.9714
7.1759 -0.3148 -0.9912 0.9714
7.1819 0.1050 -0.9912 0.9714
7.1797 0.2099 -0.9912 0.9714
7.1758 0.3147 -0.9912 0.9714
7.1705 0.4196 -0.9912 0.9714
7.1552 0.6289 -0.9912 0.9714
7.1453 0.7334 -0.9912 0.9714
7.1208 0.9419 -0.9912 0.9714
7.1064 1.0458 -0.9912 0.9714
7.0729 1.2531 -0.9913 0.9714
7.0539 1.3562 -0.9913 0.9714
7.0333 1.4592 -0.9913 0.9714
7.0113 1.5618 -0.9913 0.9714
6.9629 1.7661 -0.9913 0.9714
6.9085 1.9688 -0.9913 0.9714
6.8481 2.1699 -0.9913 0.9714
6.6719 2.6642 -0.9914 0.9714
6.6324 2.7614 -0.9914 0.9714
6.5915 2.8581 -0.9914 0.9714
6.5491 2.9541 -0.9915 0.9714
6.5053 3.0496 -0.9915 0.9714
6.4602 3.1444 -0.9915 0.9714
6.4137 3.2385 -0.9915 0.9714
6.3658 3.3319 -0.9915 0.9714
6.3166 3.4247 -0.9916 0.9714
6.2660 3.5166 -0.9916 0.9714
6.1608 3.6984 -0.9916 0.9714
6.0504 3.8770 -0.9917 0.9714
5.9348 4.0523 -0.9917 0.9714
5.8751 4.1387 -0.9917 0.9714
5.8141 4.2242 -0.9918 0.9714
5.7519 4.3088 -0.9918 0.9714
5.6885 4.3925 -0.9918 0.9714
5.5580 4.5571 -0.9919 0.9714
5.4910 4.6380 -0.9919 0.9714
5.4228 4.7178 -0.9919 0.9714
5.3534 4.7967 -0.9919 0.9714
4.8994 5.0815 -0.9741 0.9719
4.8247 5.1527 -0.9741 0.9719
4.7491 5.2228 -0.9742 0.9719
4.6724 5.2918 -0.9742 0.9719
4.5947 5.3597 -0.9742 0.9719
4.5161 5.4264 -0.9743 0.9719
4.1919 5.6817 -0.9744 0.9719
3.9393 5.8605 -0.9745 0.9719
3.8534 5.9177 -0.9745 0.9719
3.5908 6.0815 -0.9746 0.9719
3.4118 6.1843 -0.9747 0.9719
3.3212 6.2337 -0.9747 0.9719
3.0451 6.3740 -0.9748 0.9719
2.8578 6.4607 -0.9749 0.9719
2.7632 6.5020 -0.9750 0.9719
2.6680 6.5420 -0.9750 0.9719
2.5722 6.5805 -0.9750 0.9719
2.4759 6.6177 -0.9751 0.9719
2.3790 6.6534 -0.9751 0.9719
2.2816 6.6877 -0.9751 0.9719
2.1837 6.7206 -0.9752 0.9719
2.0854 6.7520 -0.9752 0.9719
1.9866 6.7821 -0.9753 0.9719
1.8206 6.9641 -0.9933 0.9714
1.7188 6.9902 -0.9934 0.9714
1.6165 7.0149 -0.9934 0.9714
0.6504 3.5211 -0.4941 0.9856
0.5173 3.3456 -0.4672 0.9864
0.4645 3.3245 -0.4632 0.9865
0.4151 3.3246 -0.4624 0.9866
0.3658 3.3246 -0.4616 0.9866
0.3167 3.3248 -0.4609 0.9866
0.2678 3.3248 -0.4603 0.9866
0.2190 3.3256 -0.4599 0.9866
0.1706 3.3320 -0.4604 0.9866
0.1220 3.3385 -0.4610 0.9866
0.0245 3.3521 -0.4626 0.9866
-0.0246 3.3600 -0.4637 0.9865
-0.0738 3.3682 -0.4649 0.9865
-0.1234 3.3763 -0.4662 0.9865
-0.1732 3.3838 -0.4676 0.9864
-0.2233 3.3916 -0.4691 0.9864
-0.5855 3.4517 -0.4831 0.9860
-0.7542 3.5059 -0.4949 0.9856
-0.8121 3.5242 -0.4991 0.9855
-0.9392 3.8195 -0.5428 0.9842
-1.6790 6.4223 -0.9161 0.9736
-1.7876 6.4507 -0.9237 0.9733
-1.8980 6.4801 -0.9318 0.9731
-2.1274 6.8884 -0.9949 0.9713
-2.4276 6.7895 -0.9950 0.9713
-2.7231 6.6773 -0.9951 0.9713
-1.8461 4.1737 -0.6298 0.9817
-1.8850 3.9458 -0.6035 0.9825
-1.9630 3.5584 -0.5608 0.9837
-2.0388 3.5713 -0.5675 0.9835
-2.0154 3.4136 -0.5470 0.9841
-2.0737 3.3979 -0.5493 0.9841
-2.0879 3.3113 -0.5402 0.9843
-2.1016 3.2276 -0.5315 0.9846
-2.1149 3.1465 -0.5232 0.9848
-2.1402 2.9914 -0.5076 0.9853
-2.1713 2.8548 -0.4950 0.9856
-0.4735 0.5862 -0.1040 0.9970
-0.4603 0.5530 -0.0993 0.9971
-0.4657 0.4974 -0.0940 0.9973
-0.4688 0.4586 -0.0905 0.9974
-0.4724 0.3991 -0.0853 0.9975
-0.4729 0.3878 -0.0844 0.9975
-0.4734 0.3767 -0.0835 0.9976
-0.4738 0.3659 -0.0826 0.9976
-0.4746 0.3448 -0.0809 0.9976
-0.4751 0.3347 -0.0802 0.9977
-0.4757 0.3248 -0.0795 0.9977
-0.4762 0.3151 -0.0788 0.9977
-0.4767 0.3055 -0.0781 0.9977
-0.4775 0.2866 -0.0769 0.9978
-0.4781 0.2683 -0.0757 0.9978
-0.4783 0.2593 -0.0751 0.9978
-0.4785 0.2504 -0.0745 0.9978
-0.4786 0.2416 -0.0740 0.9978
-0.4787 0.2330 -0.0735 0.9979
-0.4784 0.1830 -0.0707 0.9979
-0.4784 0.1671 -0.0699 0.9980
-0.4780 0.1362 -0.0686 0.9980
-0.4765 0.0773 -0.0666 0.9981
-0.4762 0.0701 -0.0664 0.9981
-0.4754 0.0558 -0.0660 0.9981
-0.4733 0.0277 -0.0654 0.9981
-0.4727 0.0207 -0.0653 0.9981
-0.4714 0.0069 -0.0651 0.9981
-0.4574 -0.0067 -0.0683 0.9982
-0.4586 -0.0201 -0.0685 0.9981
-0.4606 -0.0473 -0.0691 0.9981
-0.4617 -0.0680 -0.0697 0.9981
-0.4620 -0.0749 -0.0699 0.9981
-0.4623 -0.0819 -0.0701 0.9981
-0.4629 -0.1031 -0.0708 0.9981
-0.4630 -0.1174 -0.0713 0.9981
-0.4631 -0.1246 -0.0716 0.9981
-0.4630 -0.1393 -0.0722 0.9980
-0.4628 -0.1617 -0.0732 0.9980
-0.4628 -0.1693 -0.0736 0.9980
-0.4627 -0.1770 -0.0740 0.9980
-0.4626 -0.1847 -0.0744 0.9980
-0.4624 -0.1925 -0.0748 0.9980
-0.4624 -0.2005 -0.0752 0.9980
-0.4621 -0.2249 -0.0767 0.9979
-0.4617 -0.2416 -0.0778 0.9979
-0.4607 -0.2675 -0.0795 0.9978
-0.4603 -0.2763 -0.0801 0.9978
-0.4598 -0.2852 -0.0808 0.9978
-0.4592 -0.2943 -0.0814 0.9978
-0.4586 -0.3034 -0.0821 0.9978
-0.4556 -0.3413 -0.0850 0.9977
-0.4539 -0.3612 -0.0866 0.9977
-0.4532 -0.3716 -0.0875 0.9976
-0.4525 -0.3822 -0.0884 0.9976
-0.4517 -0.3930 -0.0894 0.9976
-0.4509 -0.4040 -0.0904 0.9976
-0.4500 -0.4152 -0.0914 0.9975
-0.4490 -0.4266 -0.0925 0.9975
-0.4467 -0.4500 -0.0947 0.9974
-0.4427 -0.4869 -0.0983 0.9973
-0.4412 -0.4997 -0.0995 0.9973
-0.4396 -0.5127 -0.1008 0.9973
-0.4385 -0.5429 -0.1042 0.9972
-0.4379 -0.5587 -0.1060 0.9971
-0.5186 -0.7029 -0.1304 0.9965
-1.5029 -2.1007 -0.3857 0.9896
-1.4281 -2.0591 -0.3742 0.9899
-1.2750 -1.9582 -0.3489 0.9906
-1.2497 -1.9820 -0.3499 0.9906
-1.2243 -2.0061 -0.3509 0.9905
-1.1729 -2.0546 -0.3532 0.9905
-1.1470 -2.0792 -0.3546 0.9904
-1.1208 -2.1039 -0.3559 0.9904
-1.1299 -2.3653 -0.3914 0.9895
-0.9897 -2.3289 -0.3778 0.9898
-0.9305 -2.3807 -0.3817 0.9897
-0.8931 -2.3873 -0.3806 0.9897
-0.8409 -2.4650 -0.3889 0.9895
-0.8017 -2.4675 -0.3874 0.9896
-0.6948 -2.3721 -0.3691 0.9901
-0.6585 -2.3766 -0.3682 0.9901
-0.6928 -2.6502 -0.4090 0.9890
-0.6397 -2.6019 -0.4001 0.9892
-0.5850 -2.5388 -0.3890 0.9895
-0.5332 -2.4787 -0.3786 0.9898
-0.5119 -2.5616 -0.3901 0.9895
-0.4693 -2.5408 -0.3858 0.9896
-0.8251 -6.6086 -0.9944 0.9734
-0.7284 -6.6197 -0.9943 0.9734
-0.6316 -6.6294 -0.9943 0.9734
-0.5346 -6.6377 -0.9943 0.9734
-0.3404 -6.6499 -0.9942 0.9734
-0.1460 -6.6565 -0.9941 0.9734
-0.0487 -6.6577 -0.9941 0.9734
0.1459 -6.6557 -0.9940 0.9734
0.2431 -6.6526 -0.9940 0.9734
0.3403 -6.6481 -0.9939 0.9734
0.4374 -6.6422 -0.9939 0.9734
0.6312 -6.6261 -0.9938 0.9734
0.8245 -6.6043 -0.9937 0.9734
0.9209 -6.5912 -0.9937 0.9734
1.3993 -6.5052 -0.9935 0.9734
0.6785 -2.9445 -0.4512 0.9879
0.7134 -2.9016 -0.4461 0.9880
1.8700 -6.3845 -0.9933 0.9735
0.8993 -2.9117 -0.4550 0.9878
0.8754 -2.6942 -0.4230 0.9886
0.9162 -2.6857 -0.4237 0.9886
0.9415 -2.6333 -0.4176 0.9888
2.6902 -6.0821 -0.9930 0.9735
2.8666 -6.0005 -0.9929 0.9735
3.0405 -5.9138 -0.9929 0.9735
3.2118 -5.8220 -0.9928 0.9735
3.2964 -5.7743 -0.9928 0.9735
3.3803 -5.7253 -0.9927 0.9735
3.4635 -5.6751 -0.9927 0.9735
3.5459 -5.6237 -0.9927 0.9735
3.7085 -5.5174 -0.9926 0.9735
3.7886 -5.4624 -0.9926 0.9735
4.1765 -5.1705 -0.9924 0.9735
4.2515 -5.1087 -0.9924 0.9735
4.3256 -5.0459 -0.9923 0.9735
4.3987 -4.9821 -0.9923 0.9735
4.4709 -4.9171 -0.9923 0.9735
4.5421 -4.8511 -0.9923 0.9735
4.6817 -4.7161 -0.9922 0.9735
4.7500 -4.6470 -0.9922 0.9735
4.8172 -4.5770 -0.9921 0.9735
5.0759 -4.2873 -0.9920 0.9735
5.1379 -4.2126 -0.9920 0.9735
5.3172 -3.9831 -0.9920 0.9735
5.3746 -3.9049 -0.9919 0.9735
5.4310 -3.8259 -0.9919 0.9735
5.4553 -3.6092 -0.9767 0.9739
5.6021 -3.3630 -0.9756 0.9739
5.6978 -3.1978 -0.9756 0.9739
5.7438 -3.1141 -0.9755 0.9739
5.9155 -2.7730 -0.9755 0.9739
5.9938 -2.5989 -0.9754 0.9739
6.1671 -2.1544 -0.9754 0.9739
6.1978 -2.0639 -0.9754 0.9739
6.3546 -1.8110 -0.9866 0.9736
6.4816 -1.4439 -0.9915 0.9735
6.5020 -1.3490 -0.9915 0.9735
6.5829 -0.8707 -0.9914 0.9735
6.5949 -0.7745 -0.9914 0.9735
6.6055 -0.6780 -0.9914 0.9735
6.6146 -0.5814 -0.9914 0.9735
6.6287 -0.3879 -0.9914 0.9735
6.6372 -0.1940 -0.9914 0.9735
6.6394 -0.0970 -0.9914 0.9735
6.6401 0.0000 -0.9914 0.9735
6.6337 0.2910 -0.9914 0.9735
6.6287 0.3879 -0.9914 0.9735
6.6054 0.6780 -0.9914 0.9735
6.5385 1.1584 -0.9915 0.9735
6.5020 1.3490 -0.9915 0.9735
6.4123 1.7265 -0.9915 0.9735
6.3592 1.9132 -0.9915 0.9735
6.3307 2.0059 -0.9915 0.9735
6.3007 2.0983 -0.9916 0.9735
6.2369 2.2815 -0.9916 0.9735
6.2030 2.3725 -0.9916 0.9735
6.1312 2.5527 -0.9916 0.9735
6.0934 2.6421 -0.9916 0.9735
6.0542 2.7309 -0.9917 0.9735
5.9290 2.9937 -0.9917 0.9735
5.8847 3.0801 -0.9917 0.9735
5.7924 3.2509 -0.9918 0.9735
5.6952 3.4189 -0.9918 0.9735
5.6447 3.5018 -0.9918 0.9735
5.5931 3.5840 -0.9918 0.9735
5.5402 3.6654 -0.9919 0.9735
5.4862 3.7460 -0.9919 0.9735
5.4310 3.8259 -0.9919 0.9735
5.3171 3.9831 -0.9919 0.9735
5.2585 4.0605 -0.9920 0.9735
5.1378 4.2126 -0.9920 0.9735
4.7500 4.6470 -0.9922 0.9735
4.6817 4.7161 -0.9922 0.9735
4.6124 4.7841 -0.9922 0.9735
4.5421 4.8511 -0.9923 0.9735
4.2473 4.9544 -0.9744 0.9740
4.0264 5.1362 -0.9745 0.9740
3.7200 5.3633 -0.9746 0.9739
3.5619 5.4701 -0.9746 0.9739
3.4817 5.5217 -0.9747 0.9739
3.3191 5.6215 -0.9747 0.9739
3.2367 5.6695 -0.9748 0.9739
3.0699 5.7621 -0.9748 0.9739
2.9854 5.8065 -0.9749 0.9739
2.7284 5.9324 -0.9750 0.9739
2.6415 5.9719 -0.9750 0.9739
2.5541 6.0100 -0.9750 0.9739
2.4661 6.0469 -0.9751 0.9739
2.2885 6.1168 -0.9751 0.9739
2.1990 6.1498 -0.9752 0.9739
2.0185 6.2119 -0.9752 0.9739
1.9630 6.3562 -0.9933 0.9735
1.8700 6.3845 -0.9933 0.9735
1.6828 6.4369 -0.9934 0.9735
1.5887 6.4611 -0.9934 0.9734
0.7125 3.5648 -0.5428 0.9854
0.5803 3.4211 -0.5181 0.9861
0.5186 3.3537 -0.5067 0.9864
0.4152 3.3257 -0.5004 0.9865
0.3168 3.3259 -0.4988 0.9866
0.2189 3.3250 -0.4975 0.9866
0.1220 3.3379 -0.4987 0.9866
0.0733 3.3445 -0.4995 0.9866
-0.1732 3.3835 -0.5058 0.9864
-0.2233 3.3915 -0.5075 0.9863
-0.3756 3.4139 -0.5128 0.9862
-0.4272 3.4217 -0.5148 0.9862
-0.5319 3.4396 -0.5197 0.9860
-0.6974 3.4892 -0.5313 0.9857
-0.8125 3.5255 -0.5402 0.9855
-0.9364 3.8084 -0.5856 0.9843
-1.7792 6.4205 -0.9948 0.9734
-1.8729 6.3941 -0.9948 0.9734
-2.0590 6.3371 -0.9949 0.9734
-2.1515 6.3065 -0.9949 0.9734
-2.2435 6.2746 -0.9949 0.9734
-2.3351 6.2414 -0.9950 0.9734
-2.4261 6.2069 -0.9950 0.9734
-1.8840 3.9437 -0.6526 0.9825
-1.8992 3.8306 -0.6384 0.9829
-1.9261 3.6154 -0.6116 0.9836
-2.0449 3.5820 -0.6158 0.9835
-2.2028 3.6095 -0.6314 0.9830
-2.2848 3.6237 -0.6396 0.9828
-2.1084 3.1369 -0.5643 0.9848
-2.1213 3.0586 -0.5558 0.9851
-0.5188 0.7032 -0.1305 0.9965
-0.4385 0.5429 -0.1042 0.9972
-0.4391 0.5276 -0.1025 0.9972
-0.4427 0.4869 -0.0983 0.9973
-0.4442 0.4743 -0.0970 0.9974
-0.4455 0.4620 -0.0958 0.9974
-0.4467 0.4500 -0.0947 0.9974
-0.4479 0.4382 -0.0935 0.9975
-0.4517 0.3930 -0.0894 0.9976
-0.4525 0.3822 -0.0884 0.9976
-0.4533 0.3716 -0.0875 0.9976
-0.4539 0.3612 -0.0866 0.9977
-0.4547 0.3511 -0.0858 0.9977
-0.4564 0.3316 -0.0842 0.9977
-0.4586 0.3034 -0.0821 0.9978
-0.4592 0.2942 -0.0814 0.9978
-0.4597 0.2852 -0.0808 0.9978
-0.4607 0.2675 -0.0795 0.9978
-0.4611 0.2587 -0.0789 0.9979
-0.4623 0.2167 -0.0762 0.9979
-0.4624 0.2005 -0.0752 0.9980
-0.4625 0.1847 -0.0744 0.9980
-0.4628 0.1693 -0.0736 0.9980
-0.4629 0.1541 -0.0728 0.9980
-0.4629 0.1466 -0.0725 0.9980
-0.4630 0.1393 -0.0722 0.9980
-0.4631 0.1247 -0.0716 0.9981
-0.4630 0.1175 -0.0713 0.9981
-0.4630 0.1102 -0.0711 0.9981
-0.4629 0.1031 -0.0708 0.9981
-0.4621 0.0749 -0.0699 0.9981
-0.4617 0.0679 -0.0697 0.9981
-0.4610 0.0541 -0.0693 0.9981
-0.4606 0.0473 -0.0691 0.9981
-0.4602 0.0404 -0.0690 0.9981
-0.4591 0.0269 -0.0687 0.9981
-0.4580 0.0134 -0.0684 0.9981
-0.4447 -0.0130 -0.0715 0.9982
-0.4453 -0.0195 -0.0716 0.9982
-0.4471 -0.0459 -0.0722 0.9982
-0.4481 -0.0660 -0.0728 0.9982
-0.4484 -0.0727 -0.0730 0.9982
-0.4486 -0.0795 -0.0732 0.9982
-0.4489 -0.0931 -0.0736 0.9981
-0.4490 -0.1139 -0.0744 0.9981
-0.4488 -0.1350 -0.0753 0.9981
-0.4477 -0.1787 -0.0774 0.9980
-0.4471 -0.2016 -0.0788 0.9980
-0.4463 -0.2254 -0.0803 0.9980
-0.4456 -0.2416 -0.0814 0.9979
-0.4447 -0.2582 -0.0826 0.9979
-0.4414 -0.3014 -0.0859 0.9978
-0.4397 -0.3195 -0.0873 0.9978
-0.4377 -0.3380 -0.0888 0.9978
-0.4354 -0.3570 -0.0905 0.9977
-0.4342 -0.3668 -0.0913 0.9977
-0.4322 -0.3872 -0.0932 0.9977
-0.4299 -0.4084 -0.0953 0.9976
-0.4287 -0.4193 -0.0963 0.9976
-0.4264 -0.4423 -0.0987 0.9975
-0.4260 -0.4549 -0.1001 0.9975
-0.4255 -0.4679 -0.1016 0.9974
-0.4249 -0.4812 -0.1031 0.9974
-0.4242 -0.4949 -0.1047 0.9974
-0.4228 -0.5234 -0.1081 0.9973
-0.4211 -0.5536 -0.1117 0.9972
-1.3035 -1.9394 -0.3754 0.9906
-1.2529 -1.9871 -0.3774 0.9905
-1.2018 -2.0355 -0.3798 0.9905
-1.1760 -2.0600 -0.3811 0.9904
-1.1500 -2.0846 -0.3825 0.9904
-1.0708 -2.1598 -0.3873 0.9903
-1.0440 -2.1854 -0.3891 0.9902
-1.0169 -2.2112 -0.3910 0.9902
-0.9408 -2.3070 -0.4003 0.9900
-0.8928 -2.3866 -0.4094 0.9897
-0.8372 -2.4541 -0.4166 0.9896
-0.7402 -2.3968 -0.4030 0.9899
-0.6114 -2.4867 -0.4114 0.9897
-0.5598 -2.4294 -0.4005 0.9900
-0.5566 -2.5879 -0.4253 0.9893
-0.4702 -2.5455 -0.4159 0.9896
-0.9460 -6.1171 -0.9944 0.9752
-0.8565 -6.1301 -0.9944 0.9752
-0.4968 -6.1687 -0.9943 0.9752
-0.3163 -6.1802 -0.9942 0.9752
-0.2260 -6.1839 -0.9942 0.9752
-0.1356 -6.1863 -0.9941 0.9752
0.0452 -6.1872 -0.9940 0.9752
0.3162 -6.1786 -0.9939 0.9752
0.6765 -6.1487 -0.9938 0.9753
0.7663 -6.1379 -0.9938 0.9753
1.0344 -6.0978 -0.9937 0.9753
1.2121 -6.0645 -0.9936 0.9753
0.6806 -2.9538 -0.4870 0.9878
0.8346 -2.8492 -0.4770 0.9880
0.8991 -2.9114 -0.4895 0.9877
0.9185 -2.6922 -0.4570 0.9885
0.9438 -2.6397 -0.4504 0.9887
1.0444 -2.7916 -0.4788 0.9880
2.2505 -5.7577 -0.9932 0.9753
1.1610 -2.8469 -0.4939 0.9876
2.4176 -5.6891 -0.9931 0.9753
2.5004 -5.6530 -0.9931 0.9753
2.5826 -5.6157 -0.9930 0.9753
2.6643 -5.5772 -0.9930 0.9753
2.7454 -5.5374 -0.9930 0.9753
2.8260 -5.4966 -0.9929 0.9753
3.1418 -5.3214 -0.9928 0.9753
3.2958 -5.2270 -0.9928 0.9753
3.4469 -5.1282 -0.9927 0.9753
3.5950 -5.0250 -0.9926 0.9753
3.7401 -4.9175 -0.9926 0.9753
3.8820 -4.8059 -0.9925 0.9753
3.9517 -4.7485 -0.9925 0.9753
4.0206 -4.6900 -0.9925 0.9753
4.0885 -4.6307 -0.9924 0.9753
4.1556 -4.5704 -0.9924 0.9753
4.2872 -4.4467 -0.9924 0.9753
4.4151 -4.3194 -0.9923 0.9753
4.4776 -4.2543 -0.9923 0.9753
4.5998 -4.1214 -0.9922 0.9753
4.7756 -3.9156 -0.9922 0.9753
4.8878 -3.7743 -0.9921 0.9753
4.9192 -3.5740 -0.9769 0.9757
4.9657 -3.4981 -0.9758 0.9757
5.0162 -3.4251 -0.9758 0.9757
5.1611 -3.2018 -0.9758 0.9757
5.2523 -3.0495 -0.9757 0.9757
5.2962 -2.9724 -0.9757 0.9757
5.3806 -2.8162 -0.9757 0.9757
5.4604 -2.6577 -0.9757 0.9757
5.4986 -2.5777 -0.9756 0.9757
5.5714 -2.4158 -0.9756 0.9757
5.6060 -2.3341 -0.9756 0.9757
5.6394 -2.2520 -0.9756 0.9757
5.6717 -2.1692 -0.9756 0.9757
5.7325 -2.0025 -0.9755 0.9757
5.7944 -1.8360 -0.9765 0.9757
5.9604 -1.6049 -0.9917 0.9753
5.9832 -1.5176 -0.9917 0.9753
6.0249 -1.3421 -0.9917 0.9753
6.0438 -1.2539 -0.9917 0.9753
6.0778 -1.0768 -0.9916 0.9753
6.1066 -0.8987 -0.9916 0.9753
6.1400 -0.6302 -0.9916 0.9753
6.1486 -0.5405 -0.9916 0.9753
6.1716 -0.0902 -0.9916 0.9753
6.1722 0.0000 -0.9916 0.9753
6.1663 0.2705 -0.9916 0.9753
6.1558 0.4505 -0.9916 0.9753
6.1486 0.5404 -0.9916 0.9753
6.1400 0.6302 -0.9916 0.9753
6.1066 0.8987 -0.9916 0.9753
6.0778 1.0768 -0.9916 0.9753
6.0249 1.3421 -0.9917 0.9753
6.0047 1.4300 -0.9917 0.9753
5.9604 1.6049 -0.9917 0.9753
5.9364 1.6918 -0.9917 0.9753
5.9111 1.7784 -0.9917 0.9753
5.7659 2.2052 -0.9918 0.9753
5.7331 2.2893 -0.9918 0.9753
5.6991 2.3729 -0.9918 0.9753
5.6639 2.4559 -0.9918 0.9753
5.6275 2.5384 -0.9918 0.9753
5.5511 2.7019 -0.9919 0.9753
5.5111 2.7827 -0.9919 0.9753
5.3395 3.1001 -0.9919 0.9753
5.2937 3.1779 -0.9920 0.9753
5.1988 3.3313 -0.9920 0.9753
5.1497 3.4070 -0.9920 0.9753
5.0995 3.4820 -0.9920 0.9753
5.0481 3.5562 -0.9921 0.9753
4.9423 3.7023 -0.9921 0.9753
4.8322 3.8453 -0.9921 0.9753
4.6594 4.0537 -0.9922 0.9753
4.5998 4.1214 -0.9922 0.9753
4.5392 4.1883 -0.9923 0.9753
4.4776 4.2543 -0.9923 0.9753
4.4151 4.3193 -0.9923 0.9753
4.3516 4.3835 -0.9923 0.9753
4.2872 4.4467 -0.9924 0.9753
4.2219 4.5090 -0.9924 0.9753
4.0885 4.6307 -0.9924 0.9753
3.9517 4.7485 -0.9925 0.9753
3.8115 4.8622 -0.9925 0.9753
3.6016 4.8816 -0.9746 0.9757
3.5300 4.9338 -0.9746 0.9757
3.3845 5.0352 -0.9747 0.9757
3.0850 5.2249 -0.9748 0.9757
3.0084 5.2695 -0.9749 0.9757
2.9312 5.3131 -0.9749 0.9757
2.8533 5.3555 -0.9749 0.9757
2.7748 5.3969 -0.9749 0.9757
2.6958 5.4370 -0.9750 0.9757
2.4551 5.5504 -0.9751 0.9757
2.2098 5.6533 -0.9752 0.9757
2.0438 5.7158 -0.9752 0.9757
1.9105 5.8802 -0.9933 0.9753
1.7380 5.9338 -0.9934 0.9753
1.3887 6.0261 -0.9935 0.9753
0.5832 3.4377 -0.5602 0.9860
0.5199 3.3619 -0.5465 0.9863
0.3660 3.3269 -0.5377 0.9865
0.3169 3.3266 -0.5369 0.9866
0.2678 3.3257 -0.5360 0.9866
0.2190 3.3250 -0.5353 0.9866
0.1220 3.3373 -0.5365 0.9866
0.0733 3.3446 -0.5375 0.9865
-0.0246 3.3602 -0.5398 0.9865
-0.1732 3.3832 -0.5442 0.9864
-0.2233 3.3912 -0.5460 0.9863
-0.2738 3.3990 -0.5478 0.9863
-0.3245 3.4063 -0.5497 0.9862
-0.4272 3.4217 -0.5540 0.9861
-0.4792 3.4299 -0.5564 0.9861
-0.5318 3.4391 -0.5591 0.9860
-0.6412 3.4715 -0.5672 0.9858
-0.6976 3.4903 -0.5718 0.9857
-0.7547 3.5086 -0.5766 0.9856
-0.8151 3.5373 -0.5832 0.9854
-0.9346 3.8012 -0.6289 0.9843
-1.5660 5.9900 -0.9947 0.9752
-1.6534 5.9666 -0.9947 0.9752
-1.7405 5.9421 -0.9947 0.9752
-1.8272 5.9162 -0.9948 0.9752
-1.9135 5.8891 -0.9948 0.9752
-1.9994 5.8607 -0.9949 0.9752
-2.3387 5.7347 -0.9950 0.9752
-1.9126 3.7201 -0.6720 0.9832
-1.9258 3.6149 -0.6580 0.9835
-2.0510 3.5926 -0.6646 0.9834
-2.1293 3.6064 -0.6728 0.9832
-2.2096 3.6205 -0.6814 0.9830
-3.3808 5.1921 -0.9954 0.9752
-3.4564 5.1423 -0.9954 0.9752
-3.5313 5.0915 -0.9955 0.9752
-0.4268 0.5784 -0.1155 0.9971
-0.4228 0.5234 -0.1081 0.9973
-0.4255 0.4679 -0.1016 0.9974
-0.4260 0.4549 -0.1001 0.9975
-0.4273 0.4305 -0.0974 0.9975
-0.4287 0.4194 -0.0963 0.9976
-0.4299 0.4085 -0.0953 0.9976
-0.4322 0.3872 -0.0932 0.9977
-0.4332 0.3769 -0.0922 0.9977
-0.4342 0.3668 -0.0913 0.9977
-0.4367 0.3475 -0.0896 0.9977
-0.4377 0.3380 -0.0888 0.9978
-0.4406 0.3104 -0.0866 0.9978
-0.4414 0.3014 -0.0859 0.9978
-0.4436 0.2752 -0.0839 0.9979
-0.4442 0.2666 -0.0832 0.9979
-0.4447 0.2582 -0.0826 0.9979
-0.4452 0.2498 -0.0820 0.9979
-0.4460 0.2335 -0.0809 0.9980
-0.4463 0.2254 -0.0803 0.9980
-0.4471 0.2016 -0.0788 0.9980
-0.4481 0.1639 -0.0766 0.9981
-0.4485 0.1494 -0.0759 0.9981
-0.4489 0.1350 -0.0753 0.9981
-0.4490 0.1280 -0.0750 0.9981
-0.4490 0.1070 -0.0742 0.9981
-0.4490 0.1000 -0.0739 0.9981
-0.4481 0.0660 -0.0728 0.9982
-0.4453 0.0195 -0.0716 0.9982
-0.4447 0.0130 -0.0715 0.9982
-0.4441 0.0065 -0.0714 0.9982
-0.4310 0.0000 -0.0741 0.9983
-0.4316 -0.0063 -0.0743 0.9982
-0.4326 -0.0190 -0.0745 0.9982
-0.4331 -0.0254 -0.0746 0.9982
-0.4340 -0.0381 -0.0749 0.9982
-0.4347 -0.0510 -0.0753 0.9982
-0.4350 -0.0576 -0.0755 0.9982
-0.4352 -0.0641 -0.0757 0.9982
-0.4354 -0.0706 -0.0759 0.9982
-0.4357 -0.0837 -0.0763 0.9982
-0.4359 -0.1037 -0.0771 0.9982
-0.4357 -0.1241 -0.0779 0.9982
-0.4351 -0.1448 -0.0789 0.9981
-0.4348 -0.1518 -0.0792 0.9981
-0.4344 -0.1589 -0.0796 0.9981
-0.4330 -0.1877 -0.0812 0.9981
-0.4327 -0.1952 -0.0817 0.9981
-0.4321 -0.2103 -0.0827 0.9981
-0.4317 -0.2180 -0.0832 0.9980
-0.4313 -0.2257 -0.0838 0.9980
-0.4297 -0.2495 -0.0855 0.9980
-0.4291 -0.2576 -0.0861 0.9980
-0.4284 -0.2658 -0.0867 0.9980
-0.4269 -0.2824 -0.0881 0.9979
-0.4251 -0.2995 -0.0895 0.9979
-0.4241 -0.3081 -0.0902 0.9979
-0.4207 -0.3348 -0.0925 0.9978
-0.4195 -0.3439 -0.0933 0.9978
-0.4134 -0.4164 -0.1010 0.9976
-0.4128 -0.4282 -0.1023 0.9976
-0.4122 -0.4402 -0.1038 0.9976
-0.4108 -0.4652 -0.1068 0.9975
-0.4081 -0.5052 -0.1117 0.9974
-0.4071 -0.5193 -0.1135 0.9973
-0.4060 -0.5337 -0.1154 0.9973
-0.4048 -0.5486 -0.1173 0.9972
-0.4035 -0.5639 -0.1193 0.9972
-1.2816 -1.9684 -0.4041 0.9905
-1.2562 -1.9923 -0.4052 0.9905
-1.2306 -2.0165 -0.4065 0.9905
-1.0998 -1.8628 -0.3722 0.9913
-1.0270 -1.8617 -0.3658 0.9914
-0.9917 -1.8615 -0.3629 0.9915
-0.9230 -1.8617 -0.3575 0.9916
-1.0197 -2.2172 -0.4199 0.9901
-0.9922 -2.2434 -0.4220 0.9901
-0.9081 -2.3233 -0.4292 0.9899
-0.7511 -2.1007 -0.3838 0.9910
-0.7688 -2.3664 -0.4281 0.9900
-0.6798 -2.4533 -0.4380 0.9897
-0.6346 -2.4275 -0.4317 0.9899
-0.5854 -2.3810 -0.4218 0.9901
-0.5577 -2.5928 -0.4563 0.9893
-0.4710 -2.5503 -0.4462 0.9895
-0.9667 -5.6987 -0.9944 0.9768
-0.8833 -5.7120 -0.9944 0.9768
-0.7160 -5.7350 -0.9943 0.9768
-0.6321 -5.7447 -0.9943 0.9768
-0.5481 -5.7531 -0.9943 0.9768
-0.4639 -5.7603 -0.9942 0.9768
-0.3797 -5.7663 -0.9942 0.9768
-0.2954 -5.7710 -0.9942 0.9768
-0.2111 -5.7745 -0.9941 0.9768
-0.1267 -5.7768 -0.9941 0.9768
-0.0422 -5.7778 -0.9941 0.9768
0.2110 -5.7736 -0.9940 0.9768
0.2953 -5.7696 -0.9939 0.9768
0.4638 -5.7582 -0.9939 0.9768
0.7156 -5.7318 -0.9938 0.9768
0.7992 -5.7205 -0.9937 0.9768
0.9660 -5.6944 -0.9937 0.9768
1.0491 -5.6794 -0.9936 0.9768
1.1319 -5.6633 -0.9936 0.9768
0.8346 -2.8492 -0.5108 0.9880
0.8990 -2.9110 -0.5242 0.9877
0.8759 -2.6957 -0.4876 0.9886
0.9207 -2.6988 -0.4906 0.9885
0.9461 -2.6461 -0.4835 0.9887
1.0436 -2.7895 -0.5124 0.9880
2.1017 -5.3769 -0.9932 0.9768
2.2578 -5.3129 -0.9932 0.9768
2.3350 -5.2792 -0.9931 0.9768
2.5639 -5.1713 -0.9930 0.9768
2.7137 -5.0938 -0.9930 0.9768
2.8613 -5.0121 -0.9929 0.9768
3.0779 -4.8814 -0.9928 0.9768
3.1488 -4.8359 -0.9928 0.9769
3.3574 -4.6928 -0.9927 0.9769
3.4255 -4.6431 -0.9927 0.9769
3.5595 -4.5409 -0.9926 0.9769
3.6905 -4.4346 -0.9926 0.9769
3.7548 -4.3802 -0.9926 0.9769
3.8183 -4.3246 -0.9925 0.9769
3.8810 -4.2683 -0.9925 0.9769
4.1817 -3.9731 -0.9924 0.9769
4.2958 -3.8491 -0.9924 0.9769
4.4062 -3.7218 -0.9923 0.9769
4.3917 -3.6009 -0.9771 0.9772
4.4437 -3.5362 -0.9771 0.9772
4.4902 -3.4673 -0.9760 0.9772
4.5404 -3.4012 -0.9760 0.9772
4.5895 -3.3345 -0.9760 0.9772
4.6376 -3.2670 -0.9760 0.9772
4.6848 -3.1988 -0.9760 0.9772
4.7761 -3.0604 -0.9759 0.9772
4.8202 -2.9903 -0.9759 0.9772
4.8633 -2.9195 -0.9759 0.9772
4.9463 -2.7760 -0.9759 0.9772
4.9863 -2.7034 -0.9758 0.9772
5.0252 -2.6302 -0.9758 0.9772
5.0997 -2.4822 -0.9758 0.9772
5.2034 -2.2562 -0.9758 0.9772
5.4500 -1.8149 -0.9883 0.9770
5.4959 -1.7415 -0.9919 0.9769
5.5444 -1.5801 -0.9919 0.9769
5.5668 -1.4989 -0.9919 0.9769
5.6081 -1.3356 -0.9918 0.9769
5.6447 -1.1711 -0.9918 0.9769
5.6611 -1.0885 -0.9918 0.9769
5.6764 -1.0057 -0.9918 0.9769
5.7033 -0.8393 -0.9918 0.9769
5.7254 -0.6723 -0.9918 0.9769
5.7345 -0.5886 -0.9918 0.9769
5.7492 -0.4208 -0.9918 0.9769
5.7548 -0.3367 -0.9918 0.9769
5.7639 -0.0842 -0.9918 0.9769
5.7646 0.0000 -0.9918 0.9769
5.7621 0.1684 -0.9918 0.9769
5.7548 0.3368 -0.9918 0.9769
5.7492 0.4208 -0.9918 0.9769
5.7149 0.7559 -0.9918 0.9769
5.7033 0.8394 -0.9918 0.9769
5.6904 0.9226 -0.9918 0.9769
5.6611 1.0885 -0.9918 0.9769
5.6447 1.1711 -0.9918 0.9769
5.5880 1.4174 -0.9918 0.9769
5.4428 1.9013 -0.9919 0.9769
5.4145 1.9807 -0.9919 0.9769
5.3850 2.0596 -0.9919 0.9769
5.3544 2.1380 -0.9919 0.9769
5.3227 2.2161 -0.9919 0.9769
5.2206 2.4473 -0.9920 0.9769
4.9868 2.8953 -0.9921 0.9769
4.7626 3.2519 -0.9922 0.9769
4.7146 3.3212 -0.9922 0.9769
4.6657 3.3898 -0.9922 0.9769
4.5648 3.5249 -0.9922 0.9769
4.3515 3.7858 -0.9923 0.9769
4.2958 3.8491 -0.9924 0.9769
4.2392 3.9115 -0.9924 0.9769
4.1817 3.9731 -0.9924 0.9769
4.1233 4.0339 -0.9924 0.9769
3.6905 4.4346 -0.9926 0.9769
3.6254 4.4882 -0.9926 0.9769
3.2886 4.7415 -0.9928 0.9769
3.2190 4.7892 -0.9928 0.9769
3.1488 4.8359 -0.9928 0.9769
2.9519 4.8367 -0.9749 0.9773
2.8810 4.8795 -0.9749 0.9773
2.4431 5.1139 -0.9751 0.9773
2.3682 5.1492 -0.9751 0.9773
2.2928 5.1834 -0.9751 0.9773
2.0636 5.2793 -0.9752 0.9773
1.9863 5.3091 -0.9753 0.9773
1.8642 5.4643 -0.9933 0.9768
1.6231 5.5413 -0.9934 0.9768
1.4606 5.5867 -0.9935 0.9768
1.3788 5.6077 -0.9935 0.9768
1.2968 5.6274 -0.9935 0.9768
0.5860 3.4544 -0.6028 0.9859
0.2190 3.3255 -0.5734 0.9866
0.0733 3.3447 -0.5756 0.9865
-0.0739 3.3682 -0.5796 0.9864
-0.1234 3.3756 -0.5811 0.9864
-0.2233 3.3909 -0.5847 0.9863
-0.2738 3.3990 -0.5867 0.9863
-0.3246 3.4063 -0.5887 0.9862
-0.3756 3.4140 -0.5909 0.9862
-0.4272 3.4218 -0.5933 0.9861
-0.5859 3.4536 -0.6027 0.9859
-0.6413 3.4721 -0.6075 0.9858
-0.6977 3.4910 -0.6125 0.9857
-0.9340 3.7985 -0.6730 0.9842
-1.5439 5.5714 -0.9947 0.9768
-1.6252 5.5485 -0.9947 0.9768
-1.8670 5.4725 -0.9948 0.9768
-1.8436 4.1681 -0.7841 0.9817
-1.8976 3.8273 -0.7350 0.9828
-2.0595 3.6076 -0.7147 0.9833
-2.2256 3.6468 -0.7350 0.9828
-2.3124 3.6674 -0.7459 0.9826
-3.1567 4.8480 -0.9953 0.9768
-0.4672 0.6951 -0.1441 0.9966
-0.4237 0.6109 -0.1279 0.9970
-0.4035 0.5639 -0.1193 0.9972
-0.4059 0.5337 -0.1154 0.9973
-0.4081 0.5052 -0.1117 0.9974
-0.4091 0.4915 -0.1100 0.9974
-0.4099 0.4782 -0.1084 0.9974
-0.4115 0.4526 -0.1052 0.9975
-0.4129 0.4282 -0.1023 0.9976
-0.4134 0.4164 -0.1010 0.9976
-0.4157 0.3724 -0.0960 0.9977
-0.4181 0.3532 -0.0942 0.9978
-0.4207 0.3348 -0.0925 0.9978
-0.4231 0.3169 -0.0909 0.9979
-0.4251 0.2995 -0.0895 0.9979
-0.4260 0.2909 -0.0888 0.9979
-0.4277 0.2741 -0.0874 0.9979
-0.4284 0.2658 -0.0867 0.9980
-0.4291 0.2576 -0.0861 0.9980
-0.4298 0.2495 -0.0855 0.9980
-0.4303 0.2416 -0.0849 0.9980
-0.4309 0.2336 -0.0843 0.9980
-0.4313 0.2258 -0.0838 0.9980
-0.4327 0.1952 -0.0817 0.9981
-0.4330 0.1877 -0.0812 0.9981
-0.4334 0.1804 -0.0808 0.9981
-0.4337 0.1732 -0.0803 0.9981
-0.4341 0.1660 -0.0799 0.9981
-0.4344 0.1589 -0.0796 0.9981
-0.4351 0.1449 -0.0789 0.9981
-0.4353 0.1379 -0.0786 0.9981
-0.4355 0.1310 -0.0782 0.9982
-0.4357 0.0838 -0.0763 0.9982
-0.4354 0.0706 -0.0759 0.9982
-0.4336 0.0317 -0.0748 0.9982
-0.4326 0.0190 -0.0745 0.9982
-0.4197 -0.0061 -0.0770 0.9983
-0.4206 -0.0184 -0.0773 0.9983
-0.4211 -0.0246 -0.0774 0.9983
-0.4219 -0.0371 -0.0777 0.9983
-0.4225 -0.0496 -0.0781 0.9983
-0.4233 -0.1073 -0.0801 0.9982
-0.4231 -0.1206 -0.0807 0.9982
-0.4229 -0.1272 -0.0810 0.9982
-0.4212 -0.1611 -0.0827 0.9982
-0.4197 -0.1820 -0.0839 0.9981
-0.4192 -0.1891 -0.0844 0.9981
-0.4184 -0.2037 -0.0854 0.9981
-0.4170 -0.2261 -0.0870 0.9981
-0.4164 -0.2337 -0.0876 0.9981
-0.4142 -0.2570 -0.0894 0.9980
-0.4097 -0.2977 -0.0929 0.9979
-0.4092 -0.3065 -0.0938 0.9979
-0.4086 -0.3155 -0.0947 0.9979
-0.4066 -0.3434 -0.0977 0.9978
-0.4059 -0.3530 -0.0987 0.9978
-0.4051 -0.3629 -0.0998 0.9978
-0.4042 -0.3729 -0.1009 0.9978
-0.4014 -0.3927 -0.1030 0.9977
-0.4001 -0.4150 -0.1058 0.9977
-0.3993 -0.4264 -0.1072 0.9976
-0.3955 -0.4752 -0.1134 0.9975
-0.3919 -0.5152 -0.1188 0.9974
-0.3905 -0.5292 -0.1207 0.9973
-0.3890 -0.5437 -0.1227 0.9973
-0.3874 -0.5585 -0.1247 0.9972
-0.4219 -0.6478 -0.1418 0.9969
-1.1002 -1.9272 -0.4072 0.9910
-1.0626 -1.9262 -0.4036 0.9911
-1.0257 -1.9254 -0.4003 0.9912
-0.9896 -1.9249 -0.3971 0.9912
-0.9542 -1.9246 -0.3941 0.9913
-0.8851 -1.9247 -0.3887 0.9914
-0.9960 -2.2518 -0.4518 0.9900
-0.9630 -2.2660 -0.4517 0.9900
-0.7147 -2.4402 -0.4665 0.9897
-0.6100 -2.3334 -0.4425 0.9902
-0.5148 -2.5762 -0.4820 0.9894
-0.9065 -5.3435 -0.9944 0.9782
-0.8283 -5.3561 -0.9944 0.9782
-0.7499 -5.3674 -0.9944 0.9782
-0.2770 -5.4114 -0.9942 0.9782
-0.1979 -5.4147 -0.9941 0.9782
-0.1188 -5.4168 -0.9941 0.9782
-0.0396 -5.4179 -0.9941 0.9782
0.1187 -5.4163 -0.9940 0.9782
0.1979 -5.4138 -0.9940 0.9782
0.3560 -5.4054 -0.9939 0.9782
0.4349 -5.3995 -0.9939 0.9782
0.5924 -5.3841 -0.9938 0.9782
0.6710 -5.3747 -0.9938 0.9782
0.8277 -5.3525 -0.9937 0.9782
0.9837 -5.3257 -0.9937 0.9782
1.0614 -5.3106 -0.9936 0.9782
1.2160 -5.2770 -0.9936 0.9782
0.7187 -2.9232 -0.5523 0.9878
0.7540 -2.8841 -0.5470 0.9879
0.7943 -2.8666 -0.5458 0.9880
0.8746 -2.8318 -0.5438 0.9880
0.9230 -2.7055 -0.5245 0.9884
1.1689 -2.8664 -0.5680 0.9875
2.1172 -4.9821 -0.9932 0.9782
2.1896 -4.9505 -0.9932 0.9782
2.4043 -4.8494 -0.9931 0.9782
2.6143 -4.7390 -0.9930 0.9782
2.6832 -4.7002 -0.9930 0.9782
2.7515 -4.6603 -0.9930 0.9782
2.8863 -4.5777 -0.9929 0.9782
3.0839 -4.4464 -0.9928 0.9782
3.2124 -4.3542 -0.9928 0.9782
3.2756 -4.3067 -0.9928 0.9782
3.3380 -4.2583 -0.9927 0.9782
3.3998 -4.2089 -0.9927 0.9782
3.4609 -4.1587 -0.9927 0.9782
3.5212 -4.1076 -0.9927 0.9782
3.5807 -4.0556 -0.9926 0.9782
3.9146 -3.6120 -0.9773 0.9786
3.9669 -3.5543 -0.9772 0.9786
4.1143 -3.3734 -0.9762 0.9786
4.2110 -3.2516 -0.9761 0.9786
4.3492 -3.0638 -0.9761 0.9786
4.3934 -2.9998 -0.9761 0.9786
4.4367 -2.9353 -0.9761 0.9786
4.5608 -2.7379 -0.9760 0.9786
4.6388 -2.6034 -0.9760 0.9786
4.7481 -2.3975 -0.9759 0.9786
4.7826 -2.3278 -0.9759 0.9786
4.8161 -2.2577 -0.9759 0.9786
4.8485 -2.1870 -0.9759 0.9786
4.9101 -2.0444 -0.9759 0.9786
4.9394 -1.9724 -0.9759 0.9786
5.1044 -1.7831 -0.9920 0.9783
5.1298 -1.7083 -0.9920 0.9783
5.2206 -1.4057 -0.9920 0.9783
5.2594 -1.2525 -0.9920 0.9783
5.2771 -1.1755 -0.9920 0.9783
5.2937 -1.0983 -0.9920 0.9783
5.3091 -1.0208 -0.9920 0.9783
5.3235 -0.9431 -0.9919 0.9783
5.3367 -0.8652 -0.9919 0.9783
5.3596 -0.7089 -0.9919 0.9783
5.3694 -0.6305 -0.9919 0.9783
5.3780 -0.5520 -0.9919 0.9783
5.3855 -0.4734 -0.9919 0.9783
5.3970 -0.3158 -0.9919 0.9783
5.4010 -0.2369 -0.9919 0.9783
5.4039 -0.1580 -0.9919 0.9783
5.4056 -0.0790 -0.9919 0.9783
5.4039 0.1580 -0.9919 0.9783
5.3855 0.4734 -0.9919 0.9783
5.3780 0.5520 -0.9919 0.9783
5.3596 0.7089 -0.9919 0.9783
5.3487 0.7871 -0.9919 0.9783
5.3367 0.8653 -0.9919 0.9783
5.2937 1.0983 -0.9920 0.9783
5.2771 1.1755 -0.9920 0.9783
5.2594 1.2525 -0.9920 0.9783
5.2406 1.3292 -0.9920 0.9783
5.2207 1.4057 -0.9920 0.9783
5.1775 1.5577 -0.9920 0.9783
5.1542 1.6332 -0.9920 0.9783
5.0502 1.9315 -0.9921 0.9783
4.9609 2.1511 -0.9921 0.9783
4.8620 2.3664 -0.9921 0.9782
4.7910 2.5076 -0.9922 0.9782
4.7539 2.5774 -0.9922 0.9782
4.6767 2.7153 -0.9922 0.9782
4.6365 2.7834 -0.9922 0.9782
4.5955 2.8509 -0.9922 0.9782
4.5534 2.9178 -0.9923 0.9782
4.4663 3.0497 -0.9923 0.9782
4.3755 3.1790 -0.9923 0.9782
4.2322 3.3679 -0.9924 0.9782
4.1827 3.4294 -0.9924 0.9782
4.1322 3.4902 -0.9924 0.9782
4.0286 3.6097 -0.9925 0.9782
3.9755 3.6682 -0.9925 0.9782
3.9216 3.7260 -0.9925 0.9782
3.8668 3.7830 -0.9925 0.9782
3.8112 3.8392 -0.9925 0.9782
3.7548 3.8945 -0.9926 0.9782
3.6975 3.9490 -0.9926 0.9782
3.5807 4.0556 -0.9926 0.9782
3.4609 4.1587 -0.9927 0.9782
3.3380 4.2582 -0.9927 0.9782
3.2756 4.3067 -0.9928 0.9782
3.1485 4.4008 -0.9928 0.9782
3.0839 4.4464 -0.9928 0.9782
3.0187 4.4911 -0.9929 0.9782
2.8192 4.6195 -0.9929 0.9782
2.5449 4.7768 -0.9930 0.9782
2.4043 4.8494 -0.9931 0.9782
2.3333 4.8841 -0.9931 0.9782
2.2208 4.8286 -0.9752 0.9786
2.0789 4.8917 -0.9752 0.9786
1.8970 5.0705 -0.9933 0.9782
1.8228 5.0979 -0.9933 0.9782
1.7481 5.1241 -0.9934 0.9782
1.3696 5.2388 -0.9935 0.9782
0.7083 3.5440 -0.6631 0.9854
0.6561 3.5520 -0.6627 0.9854
0.4651 3.3290 -0.6167 0.9864
0.4156 3.3290 -0.6155 0.9864
0.3170 3.3276 -0.6133 0.9865
0.2679 3.3268 -0.6124 0.9865
0.1220 3.3371 -0.6127 0.9865
0.0733 3.3448 -0.6138 0.9865
-0.0246 3.3602 -0.6165 0.9864
-0.1234 3.3753 -0.6197 0.9864
-0.1731 3.3827 -0.6215 0.9863
-0.2233 3.3906 -0.6235 0.9863
-0.2738 3.3987 -0.6256 0.9862
-0.3245 3.4064 -0.6278 0.9862
-0.3757 3.4141 -0.6302 0.9861
-0.4272 3.4219 -0.6327 0.9861
-0.5860 3.4542 -0.6428 0.9859
-0.6415 3.4727 -0.6479 0.9857
-0.9359 3.8062 -0.7192 0.9842
-1.6753 5.1562 -0.9947 0.9782
-1.7506 5.1313 -0.9948 0.9782
-1.8999 5.0782 -0.9948 0.9782
-1.9739 5.0501 -0.9948 0.9782
-1.8214 4.2861 -0.8545 0.9812
-1.8426 4.1658 -0.8358 0.9816
-1.8804 3.9362 -0.8004 0.9824
-1.8966 3.8252 -0.7834 0.9828
-1.9112 3.7174 -0.7669 0.9831
-2.0025 3.6300 -0.7606 0.9833
-2.1666 3.6696 -0.7819 0.9828
-0.4680 0.7423 -0.1610 0.9964
-0.3971 0.5908 -0.1306 0.9971
-0.3931 0.5015 -0.1169 0.9974
-0.3944 0.4882 -0.1151 0.9975
-0.3955 0.4752 -0.1134 0.9975
-0.3965 0.4626 -0.1118 0.9975
-0.3985 0.4382 -0.1087 0.9976
-0.3993 0.4264 -0.1072 0.9976
-0.4001 0.4149 -0.1058 0.9977
-0.4008 0.4038 -0.1044 0.9977
-0.4014 0.3927 -0.1030 0.9977
-0.4027 0.3826 -0.1019 0.9977
-0.4051 0.3629 -0.0998 0.9978
-0.4059 0.3531 -0.0987 0.9978
-0.4066 0.3434 -0.0977 0.9978
-0.4086 0.3155 -0.0947 0.9979
-0.4097 0.2977 -0.0929 0.9979
-0.4106 0.2892 -0.0921 0.9980
-0.4126 0.2729 -0.0908 0.9980
-0.4143 0.2570 -0.0894 0.9980
-0.4164 0.2337 -0.0876 0.9981
-0.4185 0.2037 -0.0854 0.9981
-0.4192 0.1891 -0.0844 0.9981
-0.4207 0.1680 -0.0831 0.9982
-0.4223 0.1406 -0.0817 0.9982
-0.4226 0.1339 -0.0813 0.9982
-0.4229 0.1272 -0.0810 0.9982
-0.4230 0.1206 -0.0807 0.9982
-0.4233 0.1074 -0.0801 0.9982
-0.4234 0.1009 -0.0799 0.9982
-0.4235 0.0943 -0.0796 0.9982
-0.4234 0.0879 -0.0793 0.9982
-0.4234 0.0814 -0.0791 0.9982
-0.4233 0.0750 -0.0789 0.9983
-0.4215 0.0309 -0.0775 0.9983
-0.4211 0.0246 -0.0774 0.9983
-0.4078 0.0000 -0.0795 0.9983
-0.4088 -0.0120 -0.0797 0.9983
-0.4093 -0.0180 -0.0799 0.9983
-0.4104 -0.0361 -0.0803 0.9983
-0.4112 -0.0544 -0.0809 0.9983
-0.4114 -0.0605 -0.0811 0.9983
-0.4115 -0.0667 -0.0813 0.9983
-0.4117 -0.0792 -0.0817 0.9983
-0.4117 -0.0854 -0.0820 0.9983
-0.4116 -0.0980 -0.0825 0.9983
-0.4115 -0.1044 -0.0828 0.9983
-0.4111 -0.1172 -0.0833 0.9983
-0.4103 -0.1366 -0.0843 0.9982
-0.4095 -0.1498 -0.0850 0.9982
-0.4085 -0.1631 -0.0858 0.9982
-0.4080 -0.1698 -0.0861 0.9982
-0.4051 -0.2045 -0.0885 0.9982
-0.4034 -0.2264 -0.0902 0.9981
-0.4031 -0.2341 -0.0909 0.9981
-0.4029 -0.2418 -0.0916 0.9981
-0.4025 -0.2497 -0.0923 0.9981
-0.3995 -0.2993 -0.0973 0.9980
-0.3967 -0.3351 -0.1012 0.9979
-0.3949 -0.3539 -0.1034 0.9978
-0.3910 -0.3825 -0.1066 0.9978
-0.3893 -0.3922 -0.1077 0.9978
-0.3880 -0.4025 -0.1090 0.9977
-0.3871 -0.4134 -0.1104 0.9977
-0.3861 -0.4246 -0.1119 0.9977
-0.3839 -0.4479 -0.1150 0.9976
-0.3815 -0.4722 -0.1183 0.9975
-0.3786 -0.4979 -0.1219 0.9975
-0.3771 -0.5111 -0.1238 0.9974
-0.3754 -0.5248 -0.1258 0.9974
-0.3719 -0.5532 -0.1300 0.9973
-0.3917 -0.6211 -0.1432 0.9970
-0.4197 -0.6877 -0.1570 0.9967
-1.1803 -1.9992 -0.4526 0.9906
-1.1008 -1.9956 -0.4443 0.9908
-1.0624 -1.9942 -0.4405 0.9908
-1.0247 -1.9931 -0.4369 0.9909
-0.9514 -1.9917 -0.4303 0.9910
-0.9158 -1.9914 -0.4273 0.9911
-0.8808 -1.9914 -0.4245 0.9912
-0.8783 -2.1537 -0.4535 0.9906
-0.8528 -2.1820 -0.4567 0.9905
-0.8011 -2.2406 -0.4639 0.9903
-0.6481 -2.4793 -0.4996 0.9896
-0.5158 -2.5811 -0.5132 0.9893
-0.4728 -2.5598 -0.5075 0.9894
-0.7795 -5.0406 -0.9944 0.9794
-0.7058 -5.0513 -0.9943 0.9794
-0.6318 -5.0609 -0.9943 0.9794
-0.2607 -5.0928 -0.9942 0.9794
-0.1118 -5.0979 -0.9941 0.9794
0.0372 -5.0988 -0.9940 0.9794
0.1117 -5.0975 -0.9940 0.9794
0.3350 -5.0872 -0.9939 0.9794
0.4092 -5.0816 -0.9939 0.9794
0.4835 -5.0749 -0.9939 0.9794
0.6315 -5.0584 -0.9938 0.9794
0.7053 -5.0484 -0.9938 0.9794
0.8525 -5.0254 -0.9937 0.9794
0.9258 -5.0123 -0.9937 0.9794
0.9989 -4.9980 -0.9937 0.9794
1.0718 -4.9828 -0.9936 0.9794
1.1444 -4.9664 -0.9936 0.9794
0.7211 -2.9326 -0.5887 0.9878
0.7540 -2.8840 -0.5811 0.9879
0.8763 -2.6971 -0.5529 0.9885
1.0420 -2.7852 -0.5798 0.9880
1.8549 -4.7455 -0.9933 0.9794
1.9926 -4.6891 -0.9933 0.9795
2.0608 -4.6593 -0.9932 0.9795
2.1287 -4.6286 -0.9932 0.9795
2.1960 -4.5968 -0.9932 0.9795
2.2629 -4.5642 -0.9932 0.9795
2.3951 -4.4958 -0.9931 0.9795
2.4605 -4.4603 -0.9931 0.9795
2.5254 -4.4237 -0.9931 0.9795
2.5897 -4.3862 -0.9930 0.9795
2.6534 -4.3478 -0.9930 0.9795
2.8412 -4.2270 -0.9929 0.9795
2.9633 -4.1420 -0.9929 0.9795
3.0235 -4.0982 -0.9929 0.9795
3.1418 -4.0079 -0.9928 0.9795
3.1999 -3.9614 -0.9928 0.9795
3.2573 -3.9142 -0.9928 0.9795
3.3141 -3.8661 -0.9927 0.9795
3.3702 -3.8171 -0.9927 0.9795
3.4802 -3.7168 -0.9927 0.9795
3.4798 -3.6093 -0.9774 0.9798
3.5800 -3.5024 -0.9764 0.9798
3.6307 -3.4497 -0.9764 0.9798
3.6807 -3.3962 -0.9764 0.9798
3.7782 -3.2870 -0.9763 0.9798
3.8257 -3.2314 -0.9763 0.9798
4.0935 -2.8837 -0.9762 0.9798
4.1352 -2.8236 -0.9762 0.9798
4.1759 -2.7627 -0.9762 0.9798
4.2158 -2.7014 -0.9761 0.9798
4.2547 -2.6395 -0.9761 0.9798
4.3299 -2.5140 -0.9761 0.9798
4.3661 -2.4504 -0.9761 0.9798
4.4014 -2.3863 -0.9761 0.9798
4.4691 -2.2566 -0.9760 0.9798
4.5015 -2.1910 -0.9760 0.9798
4.5330 -2.1250 -0.9760 0.9798
4.5635 -2.0585 -0.9760 0.9798
4.6263 -1.9262 -0.9770 0.9798
4.8044 -1.6783 -0.9922 0.9795
4.8513 -1.5372 -0.9921 0.9795
4.8940 -1.3948 -0.9921 0.9795
4.9327 -1.2511 -0.9921 0.9795
4.9670 -1.1065 -0.9921 0.9795
4.9972 -0.9609 -0.9921 0.9795
5.0231 -0.8144 -0.9921 0.9795
5.0344 -0.7409 -0.9921 0.9795
5.0447 -0.6673 -0.9921 0.9795
5.0690 -0.4456 -0.9920 0.9795
5.0750 -0.3715 -0.9920 0.9795
5.0799 -0.2972 -0.9920 0.9795
5.0864 -0.1487 -0.9920 0.9795
5.0880 0.0744 -0.9920 0.9795
5.0837 0.2230 -0.9920 0.9795
5.0799 0.2973 -0.9920 0.9795
5.0750 0.3714 -0.9920 0.9795
5.0620 0.5196 -0.9921 0.9795
5.0539 0.5935 -0.9921 0.9795
5.0344 0.7409 -0.9921 0.9795
5.0231 0.8145 -0.9921 0.9795
5.0106 0.8877 -0.9921 0.9795
4.9671 1.1065 -0.9921 0.9795
4.9504 1.1789 -0.9921 0.9795
4.9327 1.2512 -0.9921 0.9795
4.8941 1.3948 -0.9921 0.9795
4.7264 1.8873 -0.9922 0.9795
4.6984 1.9562 -0.9922 0.9795
4.6694 2.0246 -0.9922 0.9795
4.6393 2.0927 -0.9922 0.9795
4.5763 2.2274 -0.9922 0.9795
4.5433 2.2941 -0.9923 0.9795
4.5094 2.3602 -0.9923 0.9795
4.4745 2.4259 -0.9923 0.9795
4.4386 2.4911 -0.9923 0.9795
4.3640 2.6198 -0.9923 0.9795
4.2038 2.8704 -0.9924 0.9795
4.1615 2.9316 -0.9924 0.9795
4.1183 2.9921 -0.9924 0.9795
4.0742 3.0520 -0.9924 0.9795
3.9835 3.1699 -0.9925 0.9795
3.9368 3.2278 -0.9925 0.9795
3.8410 3.3416 -0.9925 0.9795
3.7917 3.3975 -0.9926 0.9795
3.6910 3.5070 -0.9926 0.9795
3.4255 3.7674 -0.9927 0.9795
3.3702 3.8171 -0.9927 0.9795
3.2574 3.9141 -0.9928 0.9795
3.1999 3.9614 -0.9928 0.9795
3.1417 4.0079 -0.9928 0.9795
3.0235 4.0981 -0.9929 0.9795
2.9633 4.1419 -0.9929 0.9795
2.7166 4.3084 -0.9930 0.9795
2.5254 4.4237 -0.9931 0.9795
2.4605 4.4602 -0.9931 0.9795
2.2629 4.5641 -0.9932 0.9795
2.1960 4.5968 -0.9932 0.9795
2.1287 4.6286 -0.9932 0.9795
1.9239 4.7177 -0.9933 0.9795
1.8548 4.7455 -0.9933 0.9794
1.7853 4.7722 -0.9934 0.9794
1.7155 4.7980 -0.9934 0.9794
1.5747 4.8463 -0.9934 0.9794
1.4324 4.8905 -0.9935 0.9794
1.2169 4.9491 -0.9936 0.9794
1.1445 4.9664 -0.9936 0.9794
0.7096 3.5507 -0.7059 0.9854
0.6573 3.5587 -0.7055 0.9854
0.5918 3.4885 -0.6898 0.9857
0.5277 3.4123 -0.6732 0.9860
0.4157 3.3297 -0.6542 0.9864
0.3171 3.3281 -0.6518 0.9865
0.2190 3.3265 -0.6499 0.9865
0.1704 3.3295 -0.6500 0.9865
0.1220 3.3372 -0.6510 0.9865
0.0733 3.3448 -0.6523 0.9865
0.0245 3.3525 -0.6536 0.9864
-0.1234 3.3770 -0.6588 0.9863
-0.2237 3.3973 -0.6638 0.9862
-0.3256 3.4178 -0.6693 0.9861
-0.4293 3.4384 -0.6755 0.9860
-0.4820 3.4495 -0.6790 0.9859
-0.5910 3.4836 -0.6889 0.9857
-0.6476 3.5057 -0.6950 0.9856
-0.7059 3.5319 -0.7022 0.9854
-1.3624 4.9164 -0.9946 0.9794
-1.4341 4.8961 -0.9946 0.9794
-1.5055 4.8748 -0.9947 0.9794
-1.5766 4.8524 -0.9947 0.9794
-1.6474 4.8289 -0.9947 0.9794
-1.7879 4.7791 -0.9948 0.9794
-1.8576 4.7525 -0.9948 0.9794
-1.9958 4.6965 -0.9949 0.9794
-1.8416 4.1635 -0.8876 0.9816
-1.8612 4.0470 -0.8684 0.9820
-1.8792 3.9337 -0.8499 0.9824
-1.9106 3.7160 -0.8146 0.9831
-2.0256 3.6719 -0.8176 0.9831
-2.1078 3.6922 -0.8288 0.9828
-0.4197 0.6877 -0.1571 0.9967
-0.3917 0.6212 -0.1432 0.9970
-0.3719 0.5532 -0.1300 0.9973
-0.3755 0.5248 -0.1258 0.9974
-0.3787 0.4978 -0.1219 0.9975
-0.3801 0.4848 -0.1201 0.9975
-0.3815 0.4722 -0.1183 0.9975
-0.3839 0.4479 -0.1150 0.9976
-0.3851 0.4361 -0.1134 0.9976
-0.3861 0.4246 -0.1119 0.9977
-0.3880 0.4024 -0.1090 0.9977
-0.3893 0.3922 -0.1077 0.9978
-0.3940 0.3635 -0.1045 0.9978
-0.3967 0.3350 -0.1012 0.9979
-0.3975 0.3259 -0.1002 0.9979
-0.3982 0.3169 -0.0992 0.9979
-0.4012 0.2739 -0.0947 0.9980
-0.4017 0.2657 -0.0939 0.9980
-0.4025 0.2497 -0.0923 0.9981
-0.4028 0.2418 -0.0916 0.9981
-0.4039 0.2190 -0.0896 0.9981
-0.4051 0.2045 -0.0885 0.9982
-0.4056 0.1974 -0.0879 0.9982
-0.4074 0.1766 -0.0866 0.9982
-0.4095 0.1498 -0.0850 0.9982
-0.4103 0.1366 -0.0843 0.9982
-0.4106 0.1301 -0.0840 0.9982
-0.4109 0.1236 -0.0837 0.9983
-0.4115 0.1044 -0.0828 0.9983
-0.4116 0.0980 -0.0825 0.9983
-0.4117 0.0917 -0.0822 0.9983
-0.4117 0.0854 -0.0820 0.9983
-0.4112 0.0544 -0.0809 0.9983
-0.4110 0.0482 -0.0807 0.9983
-0.4107 0.0421 -0.0805 0.9983
-0.4104 0.0361 -0.0803 0.9983
-0.4097 0.0240 -0.0800 0.9983
-0.4093 0.0180 -0.0799 0.9983
-0.4088 0.0120 -0.0797 0.9983
-0.3976 -0.0058 -0.0821 0.9984
-0.3981 -0.0116 -0.0822 0.9984
-0.3985 -0.0175 -0.0824 0.9984
-0.3992 -0.0292 -0.0827 0.9984
-0.3996 -0.0351 -0.0828 0.9984
-0.4002 -0.0529 -0.0834 0.9984
-0.4005 -0.0649 -0.0838 0.9983
-0.4005 -0.0831 -0.0845 0.9983
-0.4005 -0.0892 -0.0847 0.9983
-0.4004 -0.0954 -0.0850 0.9983
-0.4003 -0.1015 -0.0853 0.9983
-0.4001 -0.1077 -0.0855 0.9983
-0.3998 -0.1140 -0.0858 0.9983
-0.3995 -0.1202 -0.0861 0.9983
-0.3993 -0.1265 -0.0865 0.9983
-0.3986 -0.1458 -0.0876 0.9983
-0.3976 -0.1655 -0.0889 0.9982
-0.3967 -0.1789 -0.0899 0.9982
-0.3953 -0.2069 -0.0921 0.9982
-0.3951 -0.2142 -0.0928 0.9982
-0.3944 -0.2290 -0.0942 0.9981
-0.3937 -0.2442 -0.0957 0.9981
-0.3932 -0.2520 -0.0964 0.9981
-0.3927 -0.2598 -0.0972 0.9981
-0.3916 -0.2759 -0.0989 0.9980
-0.3910 -0.2841 -0.0998 0.9980
-0.3862 -0.3360 -0.1057 0.9979
-0.3853 -0.3452 -0.1068 0.9979
-0.3832 -0.3641 -0.1091 0.9978
-0.3814 -0.3731 -0.1102 0.9978
-0.3778 -0.3918 -0.1124 0.9978
-0.3759 -0.4015 -0.1136 0.9978
-0.3745 -0.4119 -0.1149 0.9977
-0.3646 -0.4941 -0.1268 0.9975
-0.3589 -0.5340 -0.1328 0.9974
-0.3568 -0.5479 -0.1350 0.9973
-0.3546 -0.5623 -0.1373 0.9973
-0.4156 -0.7280 -0.1731 0.9966
-1.1058 -2.0046 -0.4727 0.9907
-1.0927 -2.0510 -0.4799 0.9906
-1.0239 -2.0651 -0.4760 0.9906
-0.9860 -2.0640 -0.4723 0.9907
-0.9488 -2.0631 -0.4689 0.9908
-0.8764 -2.0623 -0.4627 0.9909
-0.8410 -2.0624 -0.4599 0.9909
-0.8068 -2.3649 -0.5160 0.9898
-0.6563 -2.2407 -0.4821 0.9905
-0.6760 -2.4395 -0.5227 0.9897
-0.6440 -2.4633 -0.5257 0.9897
-0.6225 -2.5321 -0.5384 0.9894
-0.5730 -2.4866 -0.5269 0.9896
-0.5255 -2.4432 -0.5160 0.9898
-0.4737 -2.5647 -0.5385 0.9894
-0.7360 -4.7591 -0.9944 0.9805
-0.6663 -4.7692 -0.9943 0.9805
-0.4567 -4.7934 -0.9942 0.9805
-0.3164 -4.8045 -0.9942 0.9805
-0.2461 -4.8084 -0.9942 0.9805
-0.1758 -4.8113 -0.9941 0.9805
0.0352 -4.8140 -0.9940 0.9805
0.1055 -4.8129 -0.9940 0.9805
0.3163 -4.8032 -0.9939 0.9805
0.5264 -4.7844 -0.9939 0.9805
0.5962 -4.7760 -0.9938 0.9805
0.6659 -4.7666 -0.9938 0.9805
0.7355 -4.7563 -0.9938 0.9805
0.8049 -4.7449 -0.9937 0.9805
1.0120 -4.7047 -0.9937 0.9805
1.0806 -4.6893 -0.9936 0.9805
0.7563 -2.8932 -0.6175 0.9879
0.8746 -2.8319 -0.6120 0.9880
0.9276 -2.7191 -0.5932 0.9883
1.0021 -2.8028 -0.6146 0.9879
1.0412 -2.7831 -0.6136 0.9879
1.9459 -4.3994 -0.9933 0.9805
2.0735 -4.3404 -0.9932 0.9805
2.2615 -4.2450 -0.9932 0.9805
2.3233 -4.2114 -0.9931 0.9805
2.3845 -4.1770 -0.9931 0.9805
2.6242 -4.0301 -0.9930 0.9805
2.6827 -3.9913 -0.9930 0.9805
2.7407 -3.9516 -0.9930 0.9805
2.8548 -3.8696 -0.9929 0.9806
3.0215 -3.7405 -0.9929 0.9806
3.0286 -3.6392 -0.9776 0.9808
3.1817 -3.4992 -0.9766 0.9809
3.2325 -3.4522 -0.9765 0.9809
3.2825 -3.4046 -0.9765 0.9809
3.3318 -3.3562 -0.9765 0.9809
3.4283 -3.2573 -0.9765 0.9809
3.4755 -3.2068 -0.9764 0.9809
3.5676 -3.1037 -0.9764 0.9809
3.7425 -2.8899 -0.9763 0.9809
3.8252 -2.7792 -0.9763 0.9809
3.8653 -2.7230 -0.9763 0.9809
3.9047 -2.6662 -0.9763 0.9809
4.0175 -2.4923 -0.9762 0.9809
4.0886 -2.3738 -0.9762 0.9809
4.2200 -2.1309 -0.9761 0.9809
4.2804 -2.0066 -0.9761 0.9809
4.3136 -1.9457 -0.9771 0.9809
4.3415 -1.8825 -0.9771 0.9809
4.4885 -1.7167 -0.9923 0.9806
4.5131 -1.6509 -0.9923 0.9806
4.5593 -1.5184 -0.9923 0.9806
4.6213 -1.3170 -0.9922 0.9806
4.7432 -0.7690 -0.9922 0.9806
4.7539 -0.6996 -0.9922 0.9806
4.7636 -0.6301 -0.9922 0.9806
4.7799 -0.4906 -0.9922 0.9806
4.7922 -0.3508 -0.9922 0.9806
4.7968 -0.2807 -0.9922 0.9806
4.8004 -0.2105 -0.9922 0.9806
4.8029 -0.1404 -0.9922 0.9806
4.8045 -0.0702 -0.9922 0.9806
4.8050 0.0000 -0.9922 0.9806
4.8029 0.1404 -0.9922 0.9806
4.8004 0.2106 -0.9922 0.9806
4.7799 0.4906 -0.9922 0.9806
4.7723 0.5604 -0.9922 0.9806
4.7636 0.6301 -0.9922 0.9806
4.7315 0.8382 -0.9922 0.9806
4.6903 1.0448 -0.9922 0.9806
4.6401 1.2494 -0.9922 0.9806
4.5810 1.4515 -0.9922 0.9806
4.5366 1.5848 -0.9923 0.9806
4.4885 1.7167 -0.9923 0.9806
4.4630 1.7821 -0.9923 0.9806
4.3807 1.9761 -0.9923 0.9806
4.3515 2.0399 -0.9923 0.9806
4.2580 2.2287 -0.9924 0.9806
4.2251 2.2907 -0.9924 0.9806
4.0469 2.5932 -0.9925 0.9806
4.0086 2.6521 -0.9925 0.9806
3.8887 2.8254 -0.9925 0.9806
3.8471 2.8820 -0.9925 0.9806
3.8047 2.9379 -0.9925 0.9806
3.7614 2.9932 -0.9926 0.9806
3.7173 3.0479 -0.9926 0.9806
3.6724 3.1020 -0.9926 0.9806
3.6268 3.1553 -0.9926 0.9806
3.5804 3.2080 -0.9926 0.9806
3.4365 3.3620 -0.9927 0.9806
3.2346 3.5574 -0.9928 0.9806
3.1823 3.6043 -0.9928 0.9806
3.1294 3.6505 -0.9928 0.9806
3.0757 3.6959 -0.9928 0.9806
2.9110 3.8274 -0.9929 0.9806
2.8548 3.8696 -0.9929 0.9806
2.7981 3.9110 -0.9929 0.9806
2.6827 3.9912 -0.9930 0.9805
2.5651 4.0682 -0.9930 0.9805
2.3845 4.1770 -0.9931 0.9805
2.1993 4.2777 -0.9932 0.9805
2.0099 4.3704 -0.9933 0.9805
1.8166 4.4546 -0.9933 0.9805
1.7513 4.4808 -0.9934 0.9805
1.6858 4.5060 -0.9934 0.9805
1.4868 4.5759 -0.9935 0.9805
1.4198 4.5973 -0.9935 0.9805
1.3525 4.6177 -0.9935 0.9805
1.2849 4.6370 -0.9935 0.9805
1.2171 4.6554 -0.9936 0.9805
1.0120 4.7047 -0.9937 0.9805
0.5947 3.5060 -0.7343 0.9856
0.4198 3.3623 -0.6996 0.9863
0.3697 3.3600 -0.6980 0.9863
0.2706 3.3607 -0.6962 0.9863
0.2214 3.3622 -0.6957 0.9863
0.0742 3.3849 -0.6991 0.9863
-0.1253 3.4264 -0.7080 0.9861
-0.2270 3.4471 -0.7133 0.9860
-0.3304 3.4681 -0.7194 0.9859
-0.5267 4.7863 -0.9943 0.9805
-0.6662 4.3082 -0.9001 0.9824
-0.7606 3.8055 -0.8013 0.9843
-0.8825 3.8295 -0.8114 0.9841
-1.2183 4.6600 -0.9945 0.9805
-1.2863 4.6418 -0.9946 0.9805
-1.5554 4.5593 -0.9947 0.9805
-1.7538 4.4870 -0.9948 0.9805
-1.8193 4.4611 -0.9948 0.9805
-1.8843 4.4341 -0.9948 0.9805
-1.8406 4.1612 -0.9395 0.9816
-1.8600 4.0444 -0.9192 0.9820
-0.3851 0.6521 -0.1564 0.9969
-0.3660 0.5996 -0.1451 0.9971
-0.3628 0.5070 -0.1287 0.9975
-0.3646 0.4941 -0.1268 0.9975
-0.3662 0.4815 -0.1249 0.9975
-0.3721 0.4340 -0.1180 0.9977
-0.3733 0.4228 -0.1165 0.9977
-0.3759 0.4015 -0.1136 0.9978
-0.3778 0.3918 -0.1124 0.9978
-0.3796 0.3823 -0.1112 0.9978
-0.3831 0.3640 -0.1091 0.9978
-0.3842 0.3545 -0.1080 0.9979
-0.3853 0.3452 -0.1068 0.9979
-0.3880 0.3181 -0.1036 0.9980
-0.3888 0.3094 -0.1026 0.9980
-0.3896 0.3008 -0.1016 0.9980
-0.3903 0.2924 -0.1007 0.9980
-0.3916 0.2759 -0.0989 0.9980
-0.3927 0.2598 -0.0972 0.9981
-0.3941 0.2366 -0.0949 0.9981
-0.3948 0.2216 -0.0935 0.9982
-0.3951 0.2142 -0.0928 0.9982
-0.3956 0.1997 -0.0915 0.9982
