ply
format ascii 1.0
element vertex 1569
property float32 x
property float32 y
property float32 z
property float32 I
end_header
12.6185 5.9153 0.5601 0.9457
12.7562 6.2088 0.5702 0.9448
17.6750 9.2512 0.8018 0.9232
16.9118 9.8190 0.7860 0.9247
16.5210 9.9177 0.7745 0.9258
16.4065 10.1780 0.7760 0.9256
15.5154 9.9421 0.7406 0.9289
16.6929 11.0439 0.8045 0.9230
16.5140 11.2759 0.8037 0.9231
9.3906 10.0293 0.5522 0.9465
3.4882 7.8862 0.3466 0.9661
-2.8118 9.1042 0.3830 0.9626
-4.8051 5.6053 0.2967 0.9709
-4.9253 4.8185 0.2769 0.9728
-4.9781 4.4604 0.2686 0.9736
-4.9955 4.3461 0.2661 0.9738
-5.0140 4.2351 0.2638 0.9741
-5.0796 3.9223 0.2579 0.9746
-5.2695 3.8285 0.2618 0.9743
-5.4619 3.8477 0.2685 0.9736
-5.7075 3.8971 0.2778 0.9727
-6.0606 4.0097 0.2921 0.9713
-7.4870 4.7975 0.3574 0.9650
-1.4127 0.8480 0.0662 0.9934
-1.4123 0.8200 0.0656 0.9935
-1.4129 0.7930 0.0651 0.9935
-1.2464 0.6757 0.0570 0.9943
-1.0304 0.5203 0.0464 0.9954
-1.0272 0.4815 0.0456 0.9955
-1.0257 0.4627 0.0452 0.9955
-1.0229 0.4259 0.0445 0.9956
-1.0014 0.3498 0.0426 0.9958
-0.9873 0.3129 0.0416 0.9959
-0.9829 0.2801 0.0411 0.9959
-0.9807 0.2640 0.0408 0.9959
-0.9786 0.2482 0.0406 0.9960
-0.9688 0.1863 0.0397 0.9961
-0.9580 0.1553 0.0390 0.9961
-0.9528 0.1402 0.0387 0.9962
-0.9255 0.0541 0.0373 0.9963
-0.9183 0.0268 0.0369 0.9963
-0.8609 0.0000 0.0251 0.9966
-0.8733 -0.0511 0.0255 0.9965
-0.8798 -0.0774 0.0257 0.9965
-0.8999 -0.1459 0.0265 0.9964
-0.9045 -0.1602 0.0267 0.9963
-0.9092 -0.1748 0.0269 0.9963
-0.9140 -0.1896 0.0272 0.9963
-0.9166 -0.2042 0.0273 0.9962
-0.9247 -0.2782 0.0281 0.9961
-0.9275 -0.2939 0.0283 0.9961
-0.9403 -0.3285 0.0290 0.9960
-0.9470 -0.3464 0.0293 0.9960
-0.9539 -0.3648 0.0297 0.9959
-0.9657 -0.4021 0.0304 0.9958
-0.9719 -0.4214 0.0308 0.9958
-0.9747 -0.4397 0.0311 0.9957
-0.9780 -0.4938 0.0319 0.9956
-0.9791 -0.5125 0.0322 0.9956
-47.1677 -30.2244 1.6300 0.7992
-45.6339 -30.1911 1.5921 0.8034
-15.0901 -11.3041 0.5486 0.9273
-10.8101 -9.4048 0.4169 0.9443
-10.0098 -9.5105 0.4018 0.9462
-9.4920 -10.1376 0.4041 0.9459
-9.1329 -10.6539 0.4083 0.9454
-6.6395 -8.2195 0.3074 0.9586
-6.4391 -8.2141 0.3037 0.9591
-6.2430 -8.2082 0.3001 0.9596
-5.8678 -8.2016 0.2934 0.9604
-5.3306 -8.1866 0.2843 0.9617
-4.9858 -8.1696 0.2785 0.9624
-4.8189 -8.1619 0.2758 0.9628
-4.6555 -8.1550 0.2732 0.9631
-4.1910 -8.4530 0.2745 0.9629
-21.9085 -47.6376 1.5257 0.8107
-4.9492 -11.1893 0.3560 0.9522
-4.5235 -11.0922 0.3486 0.9532
-4.1429 -11.0739 0.3440 0.9538
-4.0492 -11.3250 0.3500 0.9530
-3.8571 -11.8711 0.3632 0.9513
-16.0096 -51.8379 1.5786 0.8048
-3.7128 -12.6758 0.3843 0.9485
-15.4172 -58.9716 1.7736 0.7836
-14.8032 -87.2630 2.5753 0.7017
-14.6422 -94.6842 2.7878 0.6815
-1.8296 -13.0957 0.3847 0.9485
0.0201 -2.7568 0.0802 0.9890
22.3963 -85.6669 2.5764 0.7016
22.8223 -82.3593 2.4867 0.7104
25.4185 -82.3030 2.5064 0.7084
28.0583 -82.2456 2.5285 0.7063
30.7475 -82.1872 2.5533 0.7039
39.1753 -82.0043 2.6444 0.6951
46.7205 -81.8404 2.7420 0.6858
51.5367 -81.7359 2.8116 0.6793
15.7156 -12.8854 0.5913 0.9219
3.5406 -1.8532 0.1163 0.9841
3.5588 -1.7970 0.1160 0.9842
3.6124 -1.6935 0.1161 0.9842
3.6363 -1.6403 0.1161 0.9842
7.1463 -2.7332 0.2226 0.9698
41.6007 -12.5158 1.2641 0.8404
11.3080 -3.0447 0.3407 0.9542
11.6515 -2.7748 0.3485 0.9532
11.6108 -2.5864 0.3461 0.9535
11.8122 -2.4507 0.3510 0.9529
11.8518 -2.2788 0.3512 0.9529
11.8913 -2.1067 0.3514 0.9528
12.3586 -2.0037 0.3643 0.9511
19.1394 -2.2476 0.5607 0.9258
19.2393 -1.9748 0.5627 0.9255
26.5457 -1.9429 0.7745 0.8990
29.6747 -1.7364 0.8649 0.8879
30.2203 -1.3256 0.8802 0.8860
30.6110 -0.8949 0.8911 0.8847
87.3158 -1.2760 2.5409 0.7051
66.4275 8.7864 1.9497 0.7648
28.3137 4.5905 0.8346 0.8916
45.8301 10.9143 1.3708 0.8282
13.3684 4.0220 0.4062 0.9457
12.9041 4.0888 0.3939 0.9473
12.3399 4.3107 0.3803 0.9490
12.4142 4.9571 0.3889 0.9479
12.4658 5.4052 0.3953 0.9471
12.5942 6.1300 0.4076 0.9455
12.6435 6.3841 0.4121 0.9449
16.5264 9.9209 0.5609 0.9258
15.5197 9.9448 0.5363 0.9289
16.6078 10.9876 0.5794 0.9234
16.4351 11.2220 0.5791 0.9235
3.8679 7.8012 0.2534 0.9658
3.5916 7.8094 0.2501 0.9662
3.4882 7.8862 0.2509 0.9661
-1.0729 9.7511 0.2854 0.9615
-2.8115 9.1034 0.2772 0.9626
-6.7955 9.4984 0.3398 0.9543
-4.7518 5.7098 0.2161 0.9707
-4.7791 5.5750 0.2137 0.9710
-4.8043 5.4414 0.2112 0.9714
-4.8252 5.3068 0.2087 0.9717
-4.8656 4.9012 0.2010 0.9727
-4.8882 4.7822 0.1990 0.9730
-4.9254 4.5447 0.1950 0.9735
-4.9607 4.3158 0.1913 0.9740
-4.9966 4.0968 0.1880 0.9745
-5.4527 3.7231 0.1921 0.9739
-5.6907 3.7649 0.1985 0.9731
-1.4151 0.8495 0.0480 0.9934
-1.1000 0.6173 0.0367 0.9950
-0.9791 0.5125 0.0322 0.9956
-0.9780 0.4938 0.0319 0.9956
-0.9769 0.4755 0.0316 0.9957
-0.9758 0.4574 0.0314 0.9957
-0.9747 0.4396 0.0311 0.9957
-0.9719 0.4214 0.0308 0.9958
-0.9538 0.3648 0.0297 0.9959
-0.9338 0.3110 0.0286 0.9961
-0.9275 0.2939 0.0283 0.9961
-0.9247 0.2782 0.0281 0.9961
-0.9230 0.2630 0.0279 0.9962
-0.9213 0.2481 0.0278 0.9962
-0.9197 0.2332 0.0276 0.9962
-0.9181 0.2186 0.0275 0.9962
-0.9140 0.1896 0.0272 0.9963
-0.9092 0.1748 0.0269 0.9963
-0.9045 0.1602 0.0267 0.9963
-0.8999 0.1459 0.0265 0.9964
-0.8954 0.1318 0.0263 0.9964
-0.8832 0.0907 0.0258 0.9965
-0.8798 0.0773 0.0257 0.9965
-0.8733 0.0511 0.0255 0.9965
-0.8701 0.0382 0.0253 0.9965
-0.8670 0.0254 0.0252 0.9965
-0.8639 0.0126 0.0251 0.9965
-0.8239 -0.0362 0.0149 0.9967
-0.8267 -0.0484 0.0149 0.9967
-0.8354 -0.0858 0.0151 0.9966
-0.8384 -0.0985 0.0152 0.9966
-0.8485 -0.1376 0.0155 0.9966
-0.8525 -0.1511 0.0156 0.9965
-0.8565 -0.1647 0.0157 0.9965
-0.8606 -0.1786 0.0158 0.9965
-0.8648 -0.1927 0.0160 0.9965
-0.8663 -0.2063 0.0160 0.9964
-0.8675 -0.2200 0.0161 0.9964
-0.8687 -0.2339 0.0162 0.9964
-0.8700 -0.2480 0.0163 0.9964
-0.8807 -0.2933 0.0167 0.9963
-0.8919 -0.3263 0.0171 0.9962
-0.8977 -0.3434 0.0173 0.9962
-0.9037 -0.3608 0.0175 0.9961
-0.9090 -0.3785 0.0177 0.9961
-0.9194 -0.4147 0.0182 0.9960
-0.9247 -0.4335 0.0184 0.9959
-0.9306 -0.4699 0.0188 0.9958
-48.2025 -29.9030 1.0216 0.7970
-15.5085 -10.5893 0.3382 0.9276
-14.9673 -11.2121 0.3368 0.9279
-11.6298 -9.8231 0.2742 0.9409
-11.0980 -9.6553 0.2649 0.9428
-10.2161 -9.4264 0.2503 0.9459
-9.9990 -9.5003 0.2484 0.9463
-9.9378 -9.7224 0.2504 0.9459
-9.7986 -9.8705 0.2505 0.9459
-9.6592 -10.0187 0.2506 0.9458
-9.3002 -10.2283 0.2490 0.9462
-9.2258 -10.4492 0.2510 0.9458
-9.2295 -10.7665 0.2554 0.9448
-6.7957 -8.1659 0.1913 0.9584
-6.5923 -8.1611 0.1889 0.9589
-6.3939 -8.1565 0.1866 0.9594
-6.1994 -8.1509 0.1844 0.9599
-6.0095 -8.1456 0.1823 0.9603
-5.8264 -8.1439 0.1803 0.9607
-5.1195 -8.1194 0.1729 0.9623
-4.9516 -8.1135 0.1712 0.9627
-4.7865 -8.1071 0.1696 0.9630
-4.6256 -8.1027 0.1680 0.9634
-4.0041 -8.0761 0.1623 0.9646
-3.9032 -8.4871 0.1682 0.9633
-3.8926 -8.8005 0.1733 0.9622
-4.4355 -10.8764 0.2115 0.9541
-4.3044 -11.0125 0.2129 0.9538
-4.2067 -11.2443 0.2162 0.9531
-4.0170 -11.2348 0.2149 0.9534
-3.9556 -11.5948 0.2206 0.9522
-15.4841 -55.8778 1.0442 0.7930
-15.5787 -67.6042 1.2494 0.7576
-15.1665 -70.5081 1.2988 0.7494
-15.0613 -75.3581 1.3840 0.7353
-15.0246 -81.3421 1.4897 0.7183
-14.8029 -87.2612 1.5940 0.7018
-1.8294 -13.0943 0.2381 0.9485
22.3967 -85.6686 1.5947 0.7017
28.0583 -82.2456 1.5650 0.7063
30.7476 -82.1872 1.5803 0.7039
34.8875 -82.0974 1.6065 0.6999
36.2992 -82.0667 1.6161 0.6984
37.7281 -82.0357 1.6262 0.6968
39.1753 -82.0043 1.6367 0.6952
40.6417 -81.9724 1.6478 0.6935
42.1282 -81.9401 1.6593 0.6917
43.6362 -81.9074 1.6714 0.6898
46.7205 -81.8404 1.6971 0.6859
48.2993 -81.8061 1.7109 0.6838
49.9042 -81.7713 1.7252 0.6816
3.5434 -1.9211 0.0726 0.9840
3.6087 -1.7565 0.0723 0.9841
3.7696 -1.5695 0.0735 0.9838
23.3693 -8.1636 0.4458 0.9057
11.3415 -3.0538 0.2115 0.9541
11.5122 -2.9200 0.2139 0.9536
11.5115 -2.7414 0.2131 0.9538
11.8504 -2.4586 0.2180 0.9527
11.8718 -2.2827 0.2177 0.9528
15.9914 -2.3534 0.2911 0.9374
16.0201 -2.1190 0.2910 0.9374
19.2850 -1.9795 0.3491 0.9254
26.1070 -1.9108 0.4714 0.9006
29.6359 -1.7341 0.5346 0.8880
61.1189 -0.8932 1.1008 0.7831
90.6005 9.2994 1.6402 0.6946
78.8415 10.4285 1.4323 0.7275
28.5940 4.2082 0.5205 0.8908
28.2038 4.5727 0.5146 0.8920
24.5236 4.3447 0.4485 0.9052
24.3528 4.6824 0.4466 0.9056
20.7341 4.9378 0.3838 0.9183
20.9780 5.3209 0.3898 0.9171
13.3006 4.0016 0.2501 0.9459
12.4269 4.1384 0.2359 0.9489
12.3130 4.3013 0.2349 0.9492
12.3371 4.5131 0.2366 0.9488
12.3616 4.7279 0.2384 0.9484
12.3865 4.9461 0.2402 0.9480
12.4118 5.1677 0.2421 0.9476
12.4636 5.6221 0.2462 0.9468
12.5215 6.0946 0.2508 0.9458
12.6190 6.6048 0.2565 0.9446
17.3867 9.4265 0.3562 0.9239
16.4868 9.8971 0.3463 0.9260
16.6670 10.3396 0.3532 0.9245
3.8678 7.8012 0.1568 0.9658
3.7151 7.7767 0.1552 0.9661
3.5916 7.8095 0.1548 0.9662
3.4882 7.8862 0.1553 0.9661
3.4109 8.0265 0.1571 0.9657
-6.6358 9.5675 0.2097 0.9545
-4.6978 5.8157 0.1346 0.9705
-4.7259 5.6788 0.1331 0.9709
-4.8081 5.1351 0.1267 0.9722
-4.8517 4.7465 0.1222 0.9732
-4.8897 4.5117 0.1198 0.9737
-4.9262 4.2858 0.1176 0.9742
-4.9437 4.1757 0.1165 0.9744
-4.9899 3.9708 0.1148 0.9748
-5.0018 3.8622 0.1138 0.9750
-5.0138 3.7559 0.1128 0.9752
-5.1133 3.6021 0.1126 0.9753
-5.2564 3.5891 0.1146 0.9749
-5.4438 3.6016 0.1176 0.9742
-5.6748 3.6363 0.1214 0.9734
-5.9751 3.7067 0.1266 0.9723
-1.1482 0.6893 0.0241 0.9947
-0.9337 0.5421 0.0194 0.9957
-0.9321 0.5054 0.0191 0.9958
-0.9313 0.4875 0.0189 0.9958
-0.9306 0.4699 0.0188 0.9958
-0.9193 0.4147 0.0182 0.9960
-0.9141 0.3963 0.0179 0.9960
-0.9089 0.3784 0.0177 0.9961
-0.9036 0.3608 0.0175 0.9961
-0.8977 0.3433 0.0173 0.9962
-0.8862 0.3096 0.0169 0.9963
-0.8807 0.2933 0.0167 0.9963
-0.8713 0.2621 0.0164 0.9964
-0.8687 0.2339 0.0162 0.9964
-0.8675 0.2200 0.0161 0.9964
-0.8648 0.1927 0.0160 0.9965
-0.8606 0.1786 0.0158 0.9965
-0.8565 0.1647 0.0157 0.9965
-0.8525 0.1510 0.0156 0.9965
-0.8446 0.1243 0.0154 0.9966
-0.8295 0.0607 0.0150 0.9967
-0.8239 0.0361 0.0149 0.9967
-0.8184 0.0119 0.0147 0.9967
-0.7750 -0.0000 0.0054 0.9969
-0.7774 -0.0114 0.0054 0.9969
-0.7798 -0.0228 0.0054 0.9969
-0.7874 -0.0577 0.0055 0.9968
-0.7925 -0.0814 0.0055 0.9968
-0.7978 -0.1055 0.0056 0.9968
-0.8005 -0.1179 0.0056 0.9968
-0.8032 -0.1302 0.0056 0.9968
-0.8096 -0.1557 0.0057 0.9967
-0.8131 -0.1687 0.0058 0.9967
-0.8167 -0.1820 0.0058 0.9967
-0.8209 -0.2082 0.0059 0.9966
-0.8219 -0.2213 0.0059 0.9966
-0.8242 -0.2480 0.0060 0.9966
-0.8287 -0.2626 0.0060 0.9965
-0.8333 -0.2775 0.0061 0.9965
-0.8380 -0.2928 0.0061 0.9965
-0.8478 -0.3243 0.0063 0.9964
-0.8528 -0.3405 0.0064 0.9963
-0.8628 -0.3741 0.0065 0.9962
-0.8717 -0.4086 0.0067 0.9962
-0.8810 -0.4448 0.0068 0.9961
-0.8859 -0.4637 0.0069 0.9960
-0.8887 -0.4988 0.0071 0.9959
-0.9722 -0.6032 0.0079 0.9954
-45.6338 -30.1911 0.3790 0.8034
-14.9871 -10.8888 0.1283 0.9286
-14.8643 -11.1350 0.1286 0.9284
-14.8037 -11.4311 0.1295 0.9279
-11.0331 -9.5989 0.1013 0.9432
-10.4429 -9.3568 0.0971 0.9455
-10.1705 -9.3843 0.0958 0.9461
-9.9746 -9.4771 0.0953 0.9465
-9.4516 -10.0945 0.0958 0.9462
-9.0946 -10.0021 0.0936 0.9474
-6.9803 -7.9060 0.0730 0.9587
-6.9587 -8.1175 0.0741 0.9581
-6.7487 -8.1094 0.0731 0.9587
-6.5458 -8.1036 0.0721 0.9592
-6.3493 -8.0997 0.0713 0.9597
-5.9681 -8.0895 0.0696 0.9606
-5.6043 -8.0803 0.0681 0.9614
-5.4274 -8.0748 0.0674 0.9618
-5.0834 -8.0622 0.0660 0.9626
-4.9177 -8.0581 0.0654 0.9629
-4.7555 -8.0546 0.0648 0.9633
-4.5972 -8.0529 0.0642 0.9636
-4.0053 -8.0786 0.0625 0.9646
-3.8921 -8.4631 0.0645 0.9634
-3.8783 -8.7683 0.0664 0.9624
-3.8782 -9.1261 0.0687 0.9611
-4.4994 -11.0330 0.0825 0.9535
-4.3368 -11.0954 0.0825 0.9535
-4.2265 -11.2973 0.0835 0.9529
-3.8081 -11.7202 0.0854 0.9519
-3.6630 -11.8606 0.0860 0.9516
-15.8313 -54.0493 0.3901 0.7983
-15.4167 -58.9698 0.4222 0.7836
-14.8025 -87.2591 0.6130 0.7019
22.3971 -85.6702 0.6133 0.7017
22.8223 -82.3593 0.5919 0.7104
24.1153 -82.3312 0.5942 0.7095
25.4185 -82.3030 0.5966 0.7085
33.4923 -82.1277 0.6143 0.7013
34.8876 -82.0974 0.6178 0.6999
37.7281 -82.0357 0.6254 0.6968
39.1753 -82.0043 0.6294 0.6952
40.6417 -81.9724 0.6337 0.6935
48.2993 -81.8061 0.6580 0.6839
51.5367 -81.7359 0.6692 0.6794
3.5936 -2.0168 0.0285 0.9837
3.5260 -1.9117 0.0278 0.9841
3.5369 -1.8512 0.0276 0.9842
3.5564 -1.6672 0.0272 0.9844
3.6175 -1.5686 0.0273 0.9844
3.6981 -1.5397 0.0277 0.9841
7.1466 -2.7333 0.0530 0.9699
22.6430 -8.2830 0.1670 0.9081
22.8596 -7.9855 0.1677 0.9077
23.9298 -7.9690 0.1747 0.9040
28.7617 -8.6531 0.2080 0.8868
11.3752 -3.0628 0.0816 0.9540
11.6345 -2.7707 0.0828 0.9533
11.9187 -2.4728 0.0843 0.9525
11.7598 -2.2611 0.0829 0.9532
11.9599 -2.1189 0.0841 0.9526
16.0463 -2.1225 0.1121 0.9373
19.3067 -2.2672 0.1346 0.9252
22.5794 -2.3176 0.1572 0.9132
22.5919 -1.9858 0.1571 0.9133
29.7707 -2.1790 0.2067 0.8874
29.4682 -1.7243 0.2044 0.8886
29.7181 -1.3036 0.2060 0.8878
47.2692 -0.6908 0.3274 0.8277
96.5857 5.6517 0.6701 0.6791
64.7393 4.7383 0.4496 0.7713
42.7512 3.7577 0.2972 0.8423
42.3690 4.3489 0.2950 0.8434
28.5031 3.7702 0.1991 0.8914
20.8945 4.0175 0.1474 0.9184
20.3601 4.2241 0.1440 0.9202
20.3899 4.5421 0.1447 0.9198
20.4408 4.8679 0.1455 0.9194
20.4933 5.1980 0.1464 0.9189
20.5607 5.5361 0.1475 0.9184
20.6291 5.8791 0.1486 0.9178
12.7828 4.0504 0.0929 0.9478
12.3635 4.1172 0.0903 0.9492
12.3343 4.7175 0.0915 0.9485
12.3589 4.9351 0.0922 0.9482
12.4094 5.3808 0.0937 0.9473
12.4352 5.6093 0.0945 0.9469
12.4615 5.8417 0.0953 0.9464
12.5156 6.3195 0.0971 0.9455
16.9855 9.5327 0.1349 0.9250
16.4201 9.8571 0.1326 0.9263
16.6536 10.3312 0.1357 0.9246
15.5351 9.9546 0.1278 0.9289
16.2520 10.7522 0.1350 0.9250
3.8678 7.8012 0.0603 0.9658
3.5916 7.8095 0.0595 0.9662
3.4882 7.8863 0.0597 0.9661
3.4110 8.0266 0.0604 0.9657
-6.6019 9.5186 0.0802 0.9547
-4.4401 5.8378 0.0508 0.9711
-4.6646 5.7747 0.0514 0.9707
-4.6916 5.6375 0.0508 0.9711
-4.7595 5.2344 0.0490 0.9721
-4.7698 5.0942 0.0483 0.9725
-4.7929 4.8280 0.0471 0.9732
-4.8134 4.7090 0.0466 0.9734
-4.8335 4.5924 0.0462 0.9737
-4.8533 4.4782 0.0457 0.9739
-4.8897 4.2540 0.0449 0.9744
-4.9069 4.1446 0.0445 0.9746
-4.9432 3.9336 0.0438 0.9750
-5.0326 3.5452 0.0426 0.9757
-5.1172 3.4941 0.0429 0.9755
-5.2554 3.4769 0.0436 0.9751
-5.4354 3.4829 0.0447 0.9745
-0.9720 0.6029 0.0079 0.9954
-0.8891 0.5162 0.0071 0.9959
-0.8887 0.4987 0.0071 0.9959
-0.8858 0.4636 0.0069 0.9960
-0.8810 0.4448 0.0068 0.9961
-0.8672 0.3912 0.0066 0.9962
-0.8628 0.3741 0.0065 0.9962
-0.8580 0.3572 0.0064 0.9963
-0.8478 0.3242 0.0063 0.9964
-0.8333 0.2775 0.0061 0.9965
-0.8287 0.2626 0.0060 0.9965
-0.8229 0.2345 0.0059 0.9966
-0.8167 0.1820 0.0058 0.9967
-0.8061 0.1428 0.0057 0.9967
-0.8005 0.1178 0.0056 0.9968
-0.7978 0.1055 0.0056 0.9968
-0.7899 0.0694 0.0055 0.9968
-0.7848 0.0459 0.0054 0.9969
-0.7823 0.0343 0.0054 0.9969
-0.7470 -0.0437 -0.0031 0.9970
-0.7516 -0.0661 -0.0031 0.9970
-0.7538 -0.0774 -0.0031 0.9970
-0.7562 -0.0888 -0.0032 0.9970
-0.7632 -0.1238 -0.0032 0.9969
-0.7656 -0.1356 -0.0032 0.9969
-0.7680 -0.1477 -0.0032 0.9969
-0.7706 -0.1599 -0.0033 0.9969
-0.7737 -0.1724 -0.0033 0.9968
-0.7769 -0.1850 -0.0033 0.9968
-0.7791 -0.1976 -0.0033 0.9968
-0.7805 -0.2225 -0.0034 0.9968
-0.7829 -0.2356 -0.0034 0.9967
-0.7908 -0.2634 -0.0035 0.9967
-0.7948 -0.2777 -0.0035 0.9966
-0.7989 -0.2922 -0.0035 0.9966
-0.8074 -0.3224 -0.0036 0.9965
-0.8118 -0.3380 -0.0037 0.9965
-0.8207 -0.3702 -0.0037 0.9964
-0.8282 -0.4031 -0.0038 0.9963
-0.8401 -0.4555 -0.0040 0.9962
-0.8485 -0.4927 -0.0041 0.9961
-0.8486 -0.5094 -0.0041 0.9960
-0.8486 -0.5264 -0.0041 0.9960
-0.8486 -0.5438 -0.0042 0.9960
-14.1255 -9.3452 -0.0704 0.9345
-14.0018 -9.5604 -0.0705 0.9344
-15.1752 -10.6902 -0.0771 0.9284
-14.8643 -10.7996 -0.0764 0.9291
-11.7852 -9.6629 -0.0633 0.9409
-9.9987 -9.2258 -0.0565 0.9470
-9.6218 -9.6923 -0.0568 0.9468
-9.3720 -9.7208 -0.0561 0.9474
-7.6068 -8.1242 -0.0462 0.9565
-7.1176 -8.0614 -0.0447 0.9579
-6.7018 -8.0531 -0.0435 0.9590
-6.5001 -8.0470 -0.0430 0.9595
-6.1117 -8.0356 -0.0420 0.9604
-5.9244 -8.0302 -0.0415 0.9609
-5.7414 -8.0250 -0.0410 0.9613
-5.3869 -8.0144 -0.0401 0.9621
-5.0480 -8.0061 -0.0393 0.9628
-4.8843 -8.0032 -0.0390 0.9632
-4.7282 -8.0084 -0.0386 0.9635
-4.4219 -8.0156 -0.0380 0.9640
-4.2792 -8.0322 -0.0378 0.9643
-4.0070 -8.0820 -0.0375 0.9646
-3.9323 -8.2314 -0.0379 0.9642
-3.8812 -8.4392 -0.0386 0.9635
-4.3734 -11.1890 -0.0499 0.9531
-3.9974 -11.1802 -0.0493 0.9536
-3.9986 -11.7211 -0.0515 0.9517
-3.8565 -11.8693 -0.0519 0.9513
-3.6824 -11.9233 -0.0519 0.9513
-3.5274 -12.7294 -0.0549 0.9485
-15.1660 -70.5054 -0.2997 0.7494
-15.0606 -75.3551 -0.3193 0.7354
-2.4180 -13.0911 -0.0553 0.9481
-2.2368 -13.1861 -0.0556 0.9479
22.3975 -85.6717 -0.3680 0.7017
24.1153 -82.3313 -0.3565 0.7095
26.7326 -82.2745 -0.3595 0.7075
29.3964 -82.2166 -0.3628 0.7052
39.1753 -82.0043 -0.3777 0.6952
40.6416 -81.9724 -0.3802 0.6935
42.1283 -81.9402 -0.3829 0.6917
43.6362 -81.9074 -0.3857 0.6899
45.1666 -81.8742 -0.3886 0.6880
48.2993 -81.8062 -0.3948 0.6839
51.5367 -81.7359 -0.4015 0.6794
10.6550 -12.8032 -0.0692 0.9355
3.5391 -1.9187 -0.0167 0.9840
3.5851 -1.8102 -0.0167 0.9841
3.5611 -1.6064 -0.0162 0.9845
3.7868 -1.5121 -0.0169 0.9838
21.8431 -7.9905 -0.0967 0.9112
27.7185 -8.3393 -0.1203 0.8907
27.9940 -7.9780 -0.1210 0.8901
11.4090 -3.0720 -0.0491 0.9538
11.5815 -2.9376 -0.0497 0.9533
11.6667 -2.5989 -0.0497 0.9533
11.9726 -2.4840 -0.0508 0.9523
11.9907 -2.1243 -0.0506 0.9525
15.9726 -2.5896 -0.0672 0.9373
16.0889 -2.3678 -0.0676 0.9370
22.7579 -2.0004 -0.0949 0.9127
29.3026 -1.7146 -0.1220 0.8892
29.6771 -1.3018 -0.1234 0.8880
96.3569 4.2266 -0.4008 0.6799
51.5241 3.7711 -0.2147 0.8133
42.4127 3.7280 -0.1769 0.8434
36.1027 4.2396 -0.1511 0.8647
24.5731 3.9840 -0.1034 0.9052
20.3431 5.1599 -0.0872 0.9195
20.3940 5.4911 -0.0878 0.9190
13.6513 3.8905 -0.0590 0.9448
13.1689 3.9620 -0.0571 0.9465
12.3073 4.0986 -0.0539 0.9494
12.2596 4.2826 -0.0540 0.9494
12.2832 4.4933 -0.0544 0.9490
12.3315 4.9241 -0.0552 0.9483
12.3814 5.3686 -0.0561 0.9474
12.4069 5.5965 -0.0566 0.9470
12.4329 5.8283 -0.0571 0.9466
12.4863 6.3047 -0.0581 0.9456
12.5138 6.5498 -0.0587 0.9451
12.5418 6.7998 -0.0593 0.9445
16.3973 9.8434 -0.0795 0.9264
16.3472 10.8152 -0.0815 0.9246
3.8678 7.8012 -0.0362 0.9658
3.7151 7.7766 -0.0358 0.9661
3.5916 7.8095 -0.0357 0.9662
3.4882 7.8863 -0.0358 0.9661
3.4110 8.0266 -0.0362 0.9657
0.2647 5.1714 -0.0215 0.9795
-6.5700 9.4727 -0.0479 0.9549
-4.5701 6.3879 -0.0326 0.9691
-4.5999 5.6945 -0.0304 0.9711
-4.6527 5.4276 -0.0297 0.9718
-4.7226 4.8984 -0.0283 0.9732
-4.7423 4.7771 -0.0280 0.9734
-4.8037 4.4323 -0.0272 0.9742
-4.8215 4.3200 -0.0269 0.9744
-4.8379 4.2090 -0.0266 0.9747
-4.8779 3.9994 -0.0262 0.9751
-4.8943 3.8947 -0.0260 0.9753
-4.9148 3.7951 -0.0258 0.9755
-4.9393 3.7000 -0.0256 0.9756
-4.9682 3.6096 -0.0255 0.9757
-4.9881 3.5139 -0.0254 0.9759
-5.0451 3.4448 -0.0254 0.9759
-5.1314 3.3949 -0.0256 0.9757
-0.8486 0.5438 -0.0042 0.9960
-0.8486 0.5094 -0.0041 0.9960
-0.8485 0.4927 -0.0041 0.9961
-0.8321 0.4201 -0.0039 0.9963
-0.8244 0.3864 -0.0038 0.9964
-0.8163 0.3539 -0.0037 0.9964
-0.8118 0.3380 -0.0037 0.9965
-0.8074 0.3224 -0.0036 0.9965
-0.8031 0.3072 -0.0036 0.9966
-0.7989 0.2923 -0.0035 0.9966
-0.7948 0.2777 -0.0035 0.9966
-0.7908 0.2634 -0.0035 0.9967
-0.7829 0.2355 -0.0034 0.9967
-0.7805 0.2225 -0.0034 0.9968
-0.7768 0.1850 -0.0033 0.9968
-0.7706 0.1599 -0.0033 0.9969
-0.7608 0.1120 -0.0032 0.9969
-0.7585 0.1003 -0.0032 0.9969
-0.7539 0.0774 -0.0031 0.9970
-0.7515 0.0661 -0.0031 0.9970
-0.7448 0.0327 -0.0031 0.9970
-0.7426 0.0217 -0.0031 0.9970
-0.7046 -0.0000 -0.0107 0.9972
-0.7067 -0.0104 -0.0108 0.9972
-0.7087 -0.0207 -0.0108 0.9972
-0.7107 -0.0312 -0.0108 0.9972
-0.7147 -0.0523 -0.0109 0.9971
-0.7188 -0.0738 -0.0110 0.9971
-0.7249 -0.1067 -0.0112 0.9971
-0.7291 -0.1292 -0.0113 0.9970
-0.7333 -0.1521 -0.0114 0.9970
-0.7405 -0.1878 -0.0116 0.9969
-0.7418 -0.1998 -0.0117 0.9969
-0.7423 -0.2116 -0.0118 0.9969
-0.7456 -0.2243 -0.0119 0.9969
-0.7489 -0.2373 -0.0120 0.9969
-0.7523 -0.2506 -0.0121 0.9968
-0.7666 -0.3061 -0.0126 0.9967
-0.7703 -0.3207 -0.0127 0.9967
-0.7819 -0.3665 -0.0132 0.9966
-0.7851 -0.3821 -0.0133 0.9965
-0.7883 -0.3980 -0.0135 0.9965
-0.7915 -0.4143 -0.0136 0.9964
-0.7948 -0.4309 -0.0138 0.9964
-0.7982 -0.4480 -0.0139 0.9963
-0.8017 -0.4655 -0.0141 0.9963
-0.8052 -0.4834 -0.0143 0.9963
-0.8088 -0.5018 -0.0145 0.9962
-0.8104 -0.5361 -0.0148 0.9961
-15.0759 -10.6202 -0.2810 0.9289
-14.8625 -10.7982 -0.2799 0.9291
-14.7429 -11.3841 -0.2838 0.9282
-11.5086 -9.4361 -0.2268 0.9422
-11.2837 -9.5307 -0.2251 0.9426
-10.9274 -9.5069 -0.2207 0.9437
-10.3105 -9.2383 -0.2110 0.9461
-10.2063 -9.4173 -0.2116 0.9460
-10.1057 -9.6016 -0.2124 0.9458
-9.8297 -9.6166 -0.2095 0.9465
-9.5612 -9.6314 -0.2068 0.9472
-7.7898 -8.0797 -0.1710 0.9561
-7.2772 -8.0035 -0.1648 0.9576
-5.5192 -7.9577 -0.1476 0.9620
-5.3497 -7.9591 -0.1461 0.9624
-4.8629 -7.9682 -0.1422 0.9633
-4.7082 -7.9745 -0.1411 0.9636
-4.4078 -7.9902 -0.1391 0.9642
-4.1305 -8.0339 -0.1377 0.9645
-4.0076 -8.0831 -0.1375 0.9646
-3.8744 -8.4244 -0.1413 0.9636
-4.3387 -11.1002 -0.1816 0.9534
-4.1629 -11.1273 -0.1810 0.9536
-3.8981 -11.4262 -0.1840 0.9529
-3.8360 -11.8060 -0.1892 0.9516
-3.7100 -12.0128 -0.1916 0.9509
-15.5444 -53.0696 -0.8427 0.8015
-2.4177 -13.0896 -0.2028 0.9481
-7.0453 -64.0304 -0.9816 0.7728
-6.1067 -64.1020 -0.9812 0.7729
-1.4086 -64.2562 -0.9794 0.7733
3.2794 -64.0673 -0.9775 0.7737
4.2136 -63.9890 -0.9772 0.7737
6.0770 -63.7903 -0.9765 0.7739
8.8566 -63.3920 -0.9754 0.7741
10.6973 -63.0599 -0.9746 0.7742
11.6133 -62.8733 -0.9743 0.7743
12.5261 -62.6740 -0.9739 0.7744
13.4356 -62.4614 -0.9736 0.7745
14.3416 -62.2357 -0.9732 0.7745
16.1424 -61.7454 -0.9725 0.7747
19.6935 -60.6103 -0.9711 0.7750
20.5698 -60.2950 -0.9708 0.7750
23.1680 -59.2736 -0.9698 0.7752
24.0233 -58.9082 -0.9694 0.7753
26.5545 -57.7398 -0.9684 0.7755
27.3858 -57.3257 -0.9681 0.7756
28.2113 -56.9009 -0.9678 0.7756
29.0300 -56.4638 -0.9675 0.7757
29.8420 -56.0149 -0.9671 0.7758
30.6476 -55.5555 -0.9668 0.7758
31.4457 -55.0834 -0.9665 0.7759
33.0209 -54.1068 -0.9659 0.7760
35.3272 -52.5586 -0.9650 0.7762
36.0802 -52.0208 -0.9647 0.7763
36.8257 -51.4730 -0.9644 0.7763
37.5623 -50.9137 -0.9641 0.7764
38.2910 -50.3446 -0.9638 0.7764
39.0112 -49.7652 -0.9636 0.7765
39.7225 -49.1755 -0.9633 0.7766
10.6698 -12.8212 -0.2542 0.9354
41.1193 -47.9669 -0.9627 0.7767
41.8042 -47.3479 -0.9625 0.7767
42.4795 -46.7187 -0.9622 0.7768
43.8029 -45.4330 -0.9617 0.7769
44.4505 -44.7764 -0.9614 0.7769
46.9426 -42.0607 -0.9605 0.7771
49.2729 -39.2097 -0.9595 0.7773
50.3747 -37.7362 -0.9591 0.7774
50.9098 -36.9881 -0.9589 0.7774
52.4484 -34.6996 -0.9583 0.7776
53.4186 -33.1390 -0.9579 0.7776
3.5558 -2.1346 -0.0632 0.9835
3.5493 -2.0607 -0.0625 0.9837
3.5697 -2.0034 -0.0624 0.9838
3.6334 -1.9699 -0.0630 0.9836
16.3971 -8.5823 -0.2820 0.9286
3.5739 -1.8046 -0.0610 0.9841
3.6610 -1.5243 -0.0604 0.9843
3.7771 -1.5082 -0.0620 0.9839
7.1468 -2.7334 -0.1166 0.9699
24.5131 -7.7673 -0.3918 0.9022
27.3893 -8.2402 -0.4358 0.8919
27.7135 -7.8980 -0.4391 0.8911
11.4431 -3.0811 -0.1806 0.9537
11.6165 -2.9465 -0.1826 0.9532
11.7370 -2.7951 -0.1839 0.9529
11.6506 -2.4171 -0.1813 0.9535
16.0832 -2.3670 -0.2477 0.9370
19.3536 -2.2728 -0.2969 0.9250
29.4386 -1.7226 -0.4494 0.8887
29.6072 -1.2987 -0.4516 0.8882
31.3707 -0.9171 -0.4782 0.8820
47.2316 -0.6903 -0.7198 0.8278
63.6016 -0.0000 -0.9692 0.7754
63.5948 0.9293 -0.9692 0.7754
63.5749 1.8584 -0.9692 0.7754
63.5420 2.7872 -0.9692 0.7753
63.4955 3.7154 -0.9692 0.7753
42.3058 3.7186 -0.6471 0.8438
35.8584 4.2109 -0.5502 0.8655
28.7473 3.8024 -0.4419 0.8905
20.1400 4.1785 -0.3134 0.9210
20.1586 4.4905 -0.3147 0.9207
20.2063 4.8121 -0.3165 0.9203
20.3035 5.4668 -0.3204 0.9193
13.5819 3.8707 -0.2152 0.9451
13.1066 3.9432 -0.2086 0.9467
12.6637 4.0126 -0.2024 0.9482
12.2516 4.0800 -0.1968 0.9497
12.2330 4.2734 -0.1975 0.9495
12.1149 4.6336 -0.1977 0.9494
12.3286 5.1331 -0.2035 0.9480
12.4044 5.8149 -0.2088 0.9467
12.5166 6.7861 -0.2170 0.9446
12.4221 6.9716 -0.2171 0.9446
16.2125 9.7325 -0.2881 0.9271
16.4477 10.8817 -0.3005 0.9241
16.5713 11.3150 -0.3058 0.9229
50.9098 36.9882 -0.9589 0.7774
50.3747 37.7361 -0.9591 0.7774
49.2729 39.2097 -0.9595 0.7773
48.7055 39.9343 -0.9598 0.7773
48.1283 40.6514 -0.9600 0.7772
47.5405 41.3602 -0.9602 0.7772
46.9426 42.0607 -0.9605 0.7771
46.3344 42.7525 -0.9607 0.7771
10.4818 9.9589 -0.2203 0.9438
10.1987 9.9775 -0.2174 0.9445
9.0708 9.1373 -0.1962 0.9498
42.4795 46.7186 -0.9622 0.7768
40.4253 48.5760 -0.9630 0.7766
36.0803 52.0208 -0.9647 0.7763
9.1487 13.6111 -0.2499 0.9365
34.5662 53.0855 -0.9653 0.7761
33.0209 54.1067 -0.9659 0.7760
3.8678 7.8012 -0.1327 0.9658
3.5916 7.8095 -0.1310 0.9662
3.4882 7.8863 -0.1314 0.9661
24.0233 58.9082 -0.9694 0.7753
23.1681 59.2736 -0.9698 0.7752
21.4370 59.9553 -0.9703 0.7751
20.5666 60.2855 -0.9706 0.7751
19.6910 60.6026 -0.9710 0.7750
17.9257 61.1996 -0.9717 0.7748
12.5277 62.6812 -0.9740 0.7744
11.6150 62.8825 -0.9744 0.7743
7.9345 63.5549 -0.9760 0.7740
7.0079 63.6892 -0.9764 0.7739
6.0789 63.8105 -0.9768 0.7738
0.2647 5.1715 -0.0789 0.9795
2.3448 64.1597 -0.9783 0.7735
1.4077 64.2124 -0.9787 0.7734
-4.2304 64.2439 -0.9811 0.7729
-6.1106 64.1436 -0.9819 0.7728
-10.7979 63.6530 -0.9838 0.7724
-13.5929 63.1927 -0.9850 0.7721
-16.3680 62.6085 -0.9861 0.7719
-2.8105 9.1001 -0.1451 0.9626
-20.9344 61.3639 -0.9880 0.7715
-22.7353 60.7707 -0.9887 0.7714
-23.6297 60.4549 -0.9891 0.7713
-24.5193 60.1246 -0.9895 0.7712
-26.2852 59.4265 -0.9902 0.7711
-27.1600 59.0566 -0.9905 0.7710
-28.8949 58.2799 -0.9912 0.7709
-29.7539 57.8718 -0.9916 0.7708
-33.1291 56.1118 -0.9930 0.7705
-33.9568 55.6404 -0.9933 0.7705
-34.7781 55.1572 -0.9936 0.7704
-35.5919 54.6610 -0.9939 0.7703
-4.4496 6.6200 -0.1215 0.9686
-4.4478 6.4129 -0.1189 0.9693
-4.4739 6.0641 -0.1148 0.9703
-4.6522 4.9687 -0.1037 0.9731
-4.7140 4.6118 -0.1005 0.9740
-4.7550 4.3874 -0.0986 0.9744
-4.7722 4.2759 -0.0976 0.9747
-4.8118 4.0643 -0.0960 0.9751
-4.8789 3.7673 -0.0939 0.9756
-4.9195 3.5742 -0.0927 0.9760
-4.9424 3.4817 -0.0921 0.9761
-0.8104 0.5361 -0.0148 0.9961
-0.8107 0.5195 -0.0147 0.9962
-0.8088 0.5018 -0.0145 0.9962
-0.7982 0.4480 -0.0139 0.9963
-0.7915 0.4143 -0.0136 0.9964
-0.7883 0.3980 -0.0135 0.9965
-0.7819 0.3665 -0.0132 0.9966
-0.7703 0.3207 -0.0127 0.9967
-0.7594 0.2778 -0.0123 0.9968
-0.7558 0.2641 -0.0122 0.9968
-0.7524 0.2505 -0.0121 0.9968
-0.7423 0.2116 -0.0118 0.9969
-0.7419 0.1997 -0.0117 0.9969
-0.7405 0.1878 -0.0116 0.9969
-0.7354 0.1638 -0.0115 0.9970
-0.7333 0.1521 -0.0114 0.9970
-0.7312 0.1406 -0.0113 0.9970
-0.7291 0.1292 -0.0113 0.9970
-0.7229 0.0956 -0.0111 0.9971
-0.7208 0.0846 -0.0111 0.9971
-0.7167 0.0630 -0.0110 0.9971
-0.7147 0.0523 -0.0109 0.9971
-0.7127 0.0417 -0.0109 0.9971
-0.7086 0.0207 -0.0108 0.9972
-0.7066 0.0103 -0.0108 0.9972
-0.6757 -0.0099 -0.0178 0.9973
-0.6776 -0.0198 -0.0178 0.9973
-0.6794 -0.0298 -0.0179 0.9973
-0.6868 -0.0705 -0.0182 0.9972
-0.6886 -0.0809 -0.0183 0.9972
-0.6996 -0.1452 -0.0188 0.9971
-0.7032 -0.1675 -0.0190 0.9971
-0.7088 -0.2020 -0.0194 0.9971
-0.7175 -0.2390 -0.0199 0.9970
-0.7235 -0.2647 -0.0203 0.9969
-0.7297 -0.2914 -0.0207 0.9969
-0.7488 -0.3781 -0.0221 0.9966
-0.7515 -0.3933 -0.0223 0.9966
-0.7542 -0.4089 -0.0226 0.9966
-0.7596 -0.4411 -0.0231 0.9965
-0.7654 -0.4748 -0.0237 0.9964
-0.7743 -0.5287 -0.0247 0.9963
-14.7692 -11.0638 -0.4858 0.9288
-11.2398 -9.4937 -0.3873 0.9428
-10.4506 -9.3638 -0.3694 0.9454
-10.2021 -9.4134 -0.3654 0.9460
-9.9606 -9.4638 -0.3617 0.9465
-8.0076 -8.0663 -0.2992 0.9555
-7.4380 -7.9439 -0.2865 0.9574
-6.6102 -7.9430 -0.2720 0.9595
-5.8615 -7.9450 -0.2599 0.9613
-4.6932 -7.9489 -0.2430 0.9637
-4.0029 -8.0738 -0.2372 0.9646
-3.9198 -8.2053 -0.2394 0.9643
-3.8679 -8.4104 -0.2437 0.9636
-3.8358 -9.0263 -0.2582 0.9615
-4.5788 -11.2279 -0.3192 0.9526
-4.0264 -11.2611 -0.3148 0.9533
-3.8282 -11.7820 -0.3261 0.9516
-3.7041 -11.9935 -0.3304 0.9510
-10.4959 -35.8339 -0.9829 0.8612
-9.4404 -36.1100 -0.9825 0.8613
-8.9099 -36.2364 -0.9823 0.8613
-8.3777 -36.3551 -0.9821 0.8613
-7.8439 -36.4659 -0.9819 0.8614
-7.3087 -36.5686 -0.9817 0.8614
-2.4191 -13.0968 -0.3506 0.9481
-1.8136 -12.9809 -0.3450 0.9489
-4.6149 -36.9649 -0.9806 0.8615
-4.0734 -37.0205 -0.9804 0.8615
-3.5312 -37.0679 -0.9802 0.8616
-2.9886 -37.1075 -0.9800 0.8616
-2.4456 -37.1392 -0.9798 0.8616
-0.2717 -37.1863 -0.9789 0.8617
1.8994 -37.1064 -0.9781 0.8619
4.0602 -36.9000 -0.9772 0.8620
4.5979 -36.8289 -0.9770 0.8620
7.2662 -36.3563 -0.9760 0.8621
9.8903 -35.6912 -0.9750 0.8623
10.4085 -35.5355 -0.9748 0.8623
12.9613 -34.6453 -0.9738 0.8624
13.4635 -34.4454 -0.9736 0.8624
15.4404 -33.5733 -0.9728 0.8625
15.9262 -33.3376 -0.9726 0.8626
16.4083 -33.0949 -0.9724 0.8626
16.8869 -32.8452 -0.9722 0.8626
19.6759 -31.2055 -0.9711 0.8628
21.0132 -30.2970 -0.9706 0.8628
21.4499 -29.9815 -0.9704 0.8629
23.1487 -28.6575 -0.9698 0.8629
23.9682 -27.9595 -0.9694 0.8630
24.3702 -27.6019 -0.9693 0.8630
24.7670 -27.2385 -0.9691 0.8630
25.1584 -26.8695 -0.9690 0.8630
25.5443 -26.4948 -0.9688 0.8631
26.2995 -25.7293 -0.9685 0.8631
26.6687 -25.3385 -0.9684 0.8631
27.3897 -24.5412 -0.9681 0.8632
28.0871 -23.7237 -0.9678 0.8632
29.0880 -22.4611 -0.9674 0.8632
29.4093 -22.0307 -0.9673 0.8633
30.3351 -20.7131 -0.9670 0.8633
30.9201 -19.8131 -0.9667 0.8633
20.8689 -12.9463 -0.6465 0.9064
3.5542 -2.1336 -0.1091 0.9835
3.5993 -2.0200 -0.1087 0.9836
16.3345 -8.8561 -0.4891 0.9283
16.3404 -8.5527 -0.4855 0.9289
3.5423 -1.6606 -0.1030 0.9845
3.5626 -1.6070 -0.1029 0.9845
3.7905 -1.5136 -0.1074 0.9838
21.6200 -7.9088 -0.6060 0.9120
22.3080 -7.7929 -0.6220 0.9098
30.9153 -9.3011 -0.8499 0.8788
11.4774 -3.0904 -0.3129 0.9536
11.8234 -2.8157 -0.3200 0.9525
11.9507 -2.6621 -0.3223 0.9522
12.0811 -2.3229 -0.3239 0.9520
15.9879 -2.3529 -0.4254 0.9374
19.4725 -2.5757 -0.5171 0.9244
26.2648 -2.6959 -0.6950 0.8997
26.6002 -2.3381 -0.7029 0.8987
29.5377 -1.2957 -0.7783 0.8884
37.2048 -0.5437 -0.9795 0.8617
37.2048 0.5436 -0.9795 0.8617
37.1463 2.1736 -0.9795 0.8617
37.1110 2.7162 -0.9795 0.8617
37.0173 3.7995 -0.9796 0.8617
29.4789 4.3384 -0.7844 0.8876
13.0470 3.9253 -0.3587 0.9469
12.6076 3.9949 -0.3481 0.9485
12.0666 4.4141 -0.3382 0.9499
11.9508 4.7721 -0.3388 0.9498
12.3011 5.1217 -0.3508 0.9481
12.3257 5.3445 -0.3537 0.9477
12.3525 5.5720 -0.3567 0.9472
12.4581 6.2905 -0.3674 0.9457
12.4947 6.5398 -0.3712 0.9451
12.3731 6.7083 -0.3705 0.9452
12.2770 6.8902 -0.3706 0.9452
12.3208 7.1534 -0.3750 0.9446
16.4535 9.8771 -0.5052 0.9261
16.5060 10.2397 -0.5113 0.9252
15.5934 9.9920 -0.4875 0.9286
16.5421 10.9441 -0.5221 0.9237
16.4689 11.6015 -0.5303 0.9226
29.7243 21.5959 -0.9672 0.8633
29.4094 22.0308 -0.9673 0.8633
29.0881 22.4611 -0.9674 0.8632
28.7605 22.8866 -0.9676 0.8632
28.4270 23.3077 -0.9677 0.8632
28.0871 23.7237 -0.9678 0.8632
27.7415 24.1350 -0.9680 0.8632
27.3897 24.5412 -0.9681 0.8632
10.4818 9.9589 -0.3806 0.9438
10.1987 9.9775 -0.3756 0.9445
25.1584 26.8695 -0.9690 0.8630
23.9683 27.9596 -0.9694 0.8630
23.1488 28.6575 -0.9698 0.8629
19.6760 31.2055 -0.9711 0.8628
19.2214 31.4954 -0.9713 0.8627
17.3618 32.5888 -0.9720 0.8626
3.7151 7.7767 -0.2269 0.9661
3.4110 8.0268 -0.2296 0.9657
13.9626 34.2380 -0.9734 0.8625
11.9484 35.0236 -0.9742 0.8624
11.4378 35.2017 -0.9744 0.8623
10.9244 35.3722 -0.9746 0.8623
10.4085 35.5355 -0.9748 0.8623
8.3220 36.1129 -0.9756 0.8622
7.2663 36.3563 -0.9760 0.8621
4.0602 36.9000 -0.9772 0.8620
3.5213 36.9634 -0.9775 0.8619
0.2716 37.1782 -0.9787 0.8618
-3.5309 37.0646 -0.9801 0.8616
-4.0731 37.0178 -0.9804 0.8616
-1.2213 9.7825 -0.2595 0.9613
-5.6952 36.8289 -0.9810 0.8615
-6.7721 36.6635 -0.9815 0.8614
-7.3086 36.5686 -0.9817 0.8614
-8.9102 36.2378 -0.9824 0.8613
-9.4409 36.1118 -0.9826 0.8613
-9.9697 35.9779 -0.9828 0.8612
-12.5831 35.1926 -0.9839 0.8611
-15.1344 34.2165 -0.9849 0.8610
-15.6360 33.9988 -0.9851 0.8609
-17.6096 33.0541 -0.9859 0.8608
-18.0943 32.7998 -0.9861 0.8608
-19.0525 32.2698 -0.9865 0.8608
-19.5257 31.9942 -0.9867 0.8607
-19.9949 31.7114 -0.9869 0.8607
-4.3606 6.6969 -0.2104 0.9685
-4.4673 6.0552 -0.1981 0.9703
-4.4905 5.9041 -0.1953 0.9708
-4.5144 5.7588 -0.1926 0.9711
-4.5608 5.4804 -0.1877 0.9719
-4.5832 5.3465 -0.1854 0.9722
-4.6013 5.2115 -0.1830 0.9726
-4.6395 4.9550 -0.1787 0.9732
-4.6580 4.8314 -0.1767 0.9735
-4.6759 4.7102 -0.1747 0.9738
-4.7159 4.4807 -0.1712 0.9743
-4.7354 4.3694 -0.1696 0.9745
-4.7569 4.2622 -0.1681 0.9748
-4.7798 4.1584 -0.1668 0.9750
-4.7965 4.0514 -0.1653 0.9752
-4.8382 3.8501 -0.1628 0.9756
-4.8915 3.6643 -0.1609 0.9758
-0.8869 0.6443 -0.0289 0.9956
-0.7740 0.5453 -0.0249 0.9962
-0.7713 0.5103 -0.0243 0.9963
-0.7683 0.4923 -0.0240 0.9964
-0.7654 0.4748 -0.0237 0.9964
-0.7625 0.4578 -0.0234 0.9964
-0.7597 0.4411 -0.0231 0.9965
-0.7569 0.4248 -0.0228 0.9965
-0.7542 0.4089 -0.0226 0.9966
-0.7515 0.3933 -0.0223 0.9966
-0.7460 0.3631 -0.0218 0.9967
-0.7361 0.3191 -0.0211 0.9968
-0.7297 0.2914 -0.0207 0.9969
-0.7146 0.2264 -0.0197 0.9970
-0.7117 0.2141 -0.0196 0.9970
-0.7088 0.2020 -0.0194 0.9971
-0.7071 0.1904 -0.0193 0.9971
-0.7032 0.1675 -0.0190 0.9971
-0.6996 0.1451 -0.0188 0.9971
-0.6977 0.1341 -0.0187 0.9972
-0.6941 0.1125 -0.0185 0.9972
-0.6922 0.1019 -0.0184 0.9972
-0.6904 0.0913 -0.0183 0.9972
-0.6849 0.0602 -0.0181 0.9973
-0.6831 0.0500 -0.0180 0.9973
-0.6794 0.0298 -0.0179 0.9973
-0.6757 0.0098 -0.0178 0.9973
-0.6478 -0.0095 -0.0242 0.9974
-0.6492 -0.0190 -0.0243 0.9974
-0.6506 -0.0286 -0.0244 0.9974
-0.6539 -0.0479 -0.0245 0.9974
-0.6555 -0.0576 -0.0246 0.9974
-0.6572 -0.0675 -0.0247 0.9974
-0.6588 -0.0774 -0.0248 0.9973
-0.6621 -0.0974 -0.0250 0.9973
-0.6637 -0.1076 -0.0252 0.9973
-0.6701 -0.1493 -0.0257 0.9973
-0.6733 -0.1708 -0.0260 0.9972
-0.6748 -0.1817 -0.0262 0.9972
-0.6765 -0.1928 -0.0263 0.9972
-0.6786 -0.2041 -0.0265 0.9972
-0.6814 -0.2159 -0.0267 0.9971
-0.6842 -0.2279 -0.0270 0.9971
-0.6871 -0.2400 -0.0272 0.9971
-0.6989 -0.2910 -0.0283 0.9970
-0.7016 -0.3043 -0.0286 0.9969
-0.7043 -0.3177 -0.0289 0.9969
-0.7099 -0.3455 -0.0295 0.9968
-0.7218 -0.4191 -0.0312 0.9967
-0.7241 -0.4346 -0.0316 0.9966
-0.7263 -0.4506 -0.0320 0.9966
-0.7310 -0.4836 -0.0328 0.9965
-0.7381 -0.5363 -0.0341 0.9964
-0.7541 -0.5648 -0.0353 0.9962
-11.2080 -9.4668 -0.5489 0.9430
-10.1978 -9.4095 -0.5192 0.9460
-7.9342 -7.9923 -0.4214 0.9559
-7.6669 -7.9521 -0.4133 0.9567
-7.2187 -7.9391 -0.4015 0.9580
-6.4126 -7.9386 -0.3818 0.9600
-6.2224 -7.9378 -0.3774 0.9604
-5.6801 -7.9394 -0.3653 0.9617
-5.5068 -7.9397 -0.3615 0.9621
-5.3359 -7.9386 -0.3579 0.9624
-5.1693 -7.9389 -0.3545 0.9628
-4.8462 -7.9408 -0.3481 0.9634
-4.5300 -7.9352 -0.3419 0.9641
-3.9202 -8.2061 -0.3403 0.9643
-3.8259 -8.6496 -0.3539 0.9628
-3.8209 -8.9912 -0.3655 0.9616
-4.5859 -11.2452 -0.4544 0.9526
-4.1685 -11.1424 -0.4451 0.9535
-3.9823 -11.1379 -0.4426 0.9538
-3.8690 -11.3411 -0.4484 0.9532
-3.9042 -12.0158 -0.4727 0.9507
-7.7433 -25.0723 -0.9819 0.9003
-7.3751 -25.1791 -0.9817 0.9003
-3.5040 -12.6449 -0.4910 0.9488
-5.1375 -25.7052 -0.9808 0.9004
-2.2408 -13.2095 -0.5013 0.9478
-2.0071 -12.9788 -0.4914 0.9488
-1.8127 -12.9747 -0.4902 0.9489
-2.8644 -26.0327 -0.9800 0.9005
-1.7201 -26.1213 -0.9795 0.9005
-0.5735 -26.1595 -0.9791 0.9006
0.0201 -2.7570 -0.1032 0.9890
1.3366 -26.1116 -0.9783 0.9006
1.7177 -26.0853 -0.9782 0.9006
2.0983 -26.0535 -0.9780 0.9007
2.4784 -26.0161 -0.9779 0.9007
3.6145 -25.8707 -0.9774 0.9007
3.9915 -25.8112 -0.9773 0.9007
5.1165 -25.6000 -0.9768 0.9008
5.8606 -25.4320 -0.9765 0.9008
6.2306 -25.3399 -0.9764 0.9008
6.5992 -25.2424 -0.9762 0.9008
6.9663 -25.1396 -0.9761 0.9008
7.3319 -25.0314 -0.9760 0.9009
7.6957 -24.9180 -0.9758 0.9009
8.4180 -24.6753 -0.9755 0.9009
8.7765 -24.5462 -0.9754 0.9009
9.8395 -24.1277 -0.9750 0.9010
10.8828 -23.6634 -0.9746 0.9010
11.5664 -23.3289 -0.9743 0.9010
12.2398 -22.9748 -0.9740 0.9010
12.9024 -22.6012 -0.9738 0.9011
13.2296 -22.4074 -0.9737 0.9011
14.1933 -21.7976 -0.9733 0.9011
14.5085 -21.5852 -0.9732 0.9011
15.1292 -21.1468 -0.9729 0.9012
15.7368 -20.6905 -0.9727 0.9012
16.0355 -20.4560 -0.9726 0.9012
10.6979 -12.8548 -0.6258 0.9352
17.1950 -19.4752 -0.9721 0.9012
11.8607 -12.3021 -0.6394 0.9339
18.2953 -18.4294 -0.9717 0.9013
18.8219 -17.8831 -0.9715 0.9013
19.0792 -17.6043 -0.9714 0.9013
19.8264 -16.7463 -0.9711 0.9013
15.7577 -12.9199 -0.7625 0.9217
20.3034 -16.1568 -0.9709 0.9013
20.7629 -15.5537 -0.9707 0.9014
20.9861 -15.2473 -0.9706 0.9014
21.2048 -14.9377 -0.9705 0.9014
21.7717 -13.9511 -0.9675 0.9017
16.3545 -8.5601 -0.6907 0.9288
3.5603 -1.6690 -0.1471 0.9844
3.5800 -1.6149 -0.1470 0.9844
3.7081 -1.5439 -0.1503 0.9841
7.1469 -2.7334 -0.2863 0.9698
22.2778 -7.7823 -0.8830 0.9099
25.1883 -7.5780 -0.9842 0.9001
25.2952 -7.2089 -0.9842 0.9001
11.6453 -2.9538 -0.4495 0.9530
11.7788 -2.8051 -0.4531 0.9527
11.9506 -2.6621 -0.4581 0.9522
12.1280 -2.1486 -0.4609 0.9519
16.0281 -2.3589 -0.6062 0.9372
25.7551 -2.6436 -0.9687 0.9016
26.2670 -1.1522 -0.9838 0.9001
26.2809 -0.7683 -0.9838 0.9001
26.2892 -0.3842 -0.9838 0.9001
26.2809 0.7682 -0.9838 0.9001
26.2670 1.1522 -0.9838 0.9001
26.1921 2.3022 -0.9838 0.9001
26.1561 2.6847 -0.9838 0.9001
26.1145 3.0667 -0.9838 0.9001
26.0673 3.4479 -0.9839 0.9001
26.0147 3.8286 -0.9839 0.9001
20.8529 3.6944 -0.7924 0.9187
19.9232 4.1335 -0.7613 0.9218
20.1935 4.8091 -0.7767 0.9203
20.2436 5.1346 -0.7814 0.9198
20.2944 5.4644 -0.7864 0.9193
13.4507 3.8333 -0.5233 0.9456
12.1576 4.0487 -0.4795 0.9500
12.1802 4.2549 -0.4828 0.9497
11.8971 4.5503 -0.4766 0.9503
12.0436 5.0144 -0.4881 0.9491
12.3299 5.3463 -0.5029 0.9476
12.4704 6.2967 -0.5227 0.9456
12.5096 6.5476 -0.5283 0.9450
16.7019 10.0262 -0.7289 0.9250
16.6428 11.0107 -0.7467 0.9232
16.3777 11.1828 -0.7420 0.9237
21.2048 14.9377 -0.9705 0.9014
20.7629 15.5537 -0.9707 0.9014
20.0671 16.4533 -0.9710 0.9013
19.8264 16.7463 -0.9711 0.9013
19.3324 17.3219 -0.9713 0.9013
19.0793 17.6043 -0.9714 0.9013
10.1987 9.9775 -0.5339 0.9445
9.0708 9.1373 -0.4818 0.9498
8.8251 9.1534 -0.4758 0.9504
17.7528 18.9603 -0.9719 0.9013
17.4758 19.2197 -0.9720 0.9012
16.3307 20.2171 -0.9724 0.9012
16.0356 20.4560 -0.9726 0.9012
15.7367 20.6905 -0.9727 0.9012
9.1308 13.1648 -0.5995 0.9379
8.8752 13.2041 -0.5953 0.9383
13.5541 22.2089 -0.9735 0.9011
13.2296 22.4074 -0.9737 0.9011
12.9025 22.6012 -0.9738 0.9011
11.9045 23.1543 -0.9742 0.9010
3.8678 7.8012 -0.3258 0.9657
3.7151 7.7767 -0.3225 0.9661
3.4883 7.8864 -0.3227 0.9661
3.4110 8.0268 -0.3263 0.9657
9.8395 24.1277 -0.9750 0.9010
9.4872 24.2723 -0.9751 0.9009
9.1329 24.4119 -0.9753 0.9009
8.7765 24.5462 -0.9754 0.9009
8.4181 24.6752 -0.9755 0.9009
7.3318 25.0314 -0.9760 0.9009
5.8606 25.4320 -0.9765 0.9008
5.4892 25.5186 -0.9767 0.9008
5.1165 25.6000 -0.9768 0.9008
4.7426 25.6759 -0.9770 0.9008
3.9916 25.8112 -0.9773 0.9007
1.7177 26.0853 -0.9782 0.9006
-0.5734 26.1595 -0.9791 0.9006
-0.9558 26.1523 -0.9792 0.9005
-4.7606 25.7736 -0.9807 0.9004
-5.1375 25.7052 -0.9808 0.9004
-6.2618 25.4668 -0.9813 0.9003
-6.6342 25.3764 -0.9814 0.9003
-8.4751 24.8427 -0.9821 0.9003
-8.8385 24.7197 -0.9823 0.9003
-9.2000 24.5914 -0.9824 0.9002
-9.5598 24.4579 -0.9826 0.9002
-9.9174 24.3191 -0.9827 0.9002
-10.2733 24.1748 -0.9829 0.9002
-11.3275 23.7115 -0.9833 0.9002
-12.0188 23.3768 -0.9835 0.9001
-12.3608 23.2019 -0.9837 0.9001
-12.7002 23.0219 -0.9838 0.9001
-13.0370 22.8370 -0.9839 0.9001
-13.3710 22.6470 -0.9841 0.9001
-4.3312 6.8692 -0.3039 0.9680
-4.3487 6.6786 -0.2982 0.9686
-4.3797 6.5159 -0.2938 0.9691
-4.4132 6.3629 -0.2897 0.9695
-4.4409 6.2073 -0.2856 0.9699
-4.5575 5.4764 -0.2666 0.9719
-4.5798 5.3425 -0.2633 0.9722
-4.6337 4.9489 -0.2537 0.9732
-4.6876 4.5859 -0.2454 0.9741
-4.7077 4.4728 -0.2430 0.9743
-4.7271 4.3618 -0.2407 0.9746
-4.7691 4.1491 -0.2365 0.9750
-4.7977 3.9337 -0.2321 0.9755
-4.8205 3.8360 -0.2305 0.9756
-0.7539 0.5648 -0.0352 0.9962
-0.7381 0.5363 -0.0341 0.9964
-0.7263 0.4506 -0.0320 0.9966
-0.7174 0.3890 -0.0305 0.9967
-0.7153 0.3744 -0.0302 0.9968
-0.7099 0.3455 -0.0295 0.9968
-0.7071 0.3314 -0.0292 0.9969
-0.6988 0.2910 -0.0283 0.9970
-0.6842 0.2279 -0.0270 0.9971
-0.6814 0.2159 -0.0267 0.9971
-0.6785 0.2041 -0.0265 0.9972
-0.6765 0.1928 -0.0263 0.9972
-0.6733 0.1708 -0.0260 0.9972
-0.6685 0.1387 -0.0255 0.9973
-0.6669 0.1282 -0.0254 0.9973
-0.6637 0.1076 -0.0252 0.9973
-0.6621 0.0974 -0.0250 0.9973
-0.6588 0.0773 -0.0248 0.9973
-0.6555 0.0576 -0.0246 0.9974
-0.6539 0.0479 -0.0245 0.9974
-0.6522 0.0381 -0.0244 0.9974
-0.6209 0.0000 -0.0301 0.9975
-0.6221 -0.0091 -0.0302 0.9975
-0.6234 -0.0182 -0.0303 0.9975
-0.6258 -0.0366 -0.0304 0.9975
-0.6286 -0.0553 -0.0306 0.9975
-0.6300 -0.0647 -0.0307 0.9975
-0.6315 -0.0742 -0.0309 0.9975
-0.6344 -0.0934 -0.0311 0.9974
-0.6358 -0.1031 -0.0313 0.9974
-0.6441 -0.1634 -0.0322 0.9973
-0.6454 -0.1738 -0.0324 0.9973
-0.6468 -0.1843 -0.0326 0.9973
-0.6539 -0.2284 -0.0336 0.9972
-0.6564 -0.2401 -0.0339 0.9972
-0.6588 -0.2520 -0.0342 0.9972
-0.6638 -0.2764 -0.0349 0.9971
-0.6664 -0.2890 -0.0352 0.9971
-0.6689 -0.3017 -0.0356 0.9971
-0.6767 -0.3417 -0.0368 0.9970
-0.6793 -0.3555 -0.0372 0.9969
-0.6819 -0.3697 -0.0376 0.9969
-0.6862 -0.3984 -0.0385 0.9968
-0.6913 -0.4430 -0.0398 0.9967
-0.6964 -0.4907 -0.0413 0.9966
-0.6999 -0.5243 -0.0424 0.9965
-0.7017 -0.5418 -0.0430 0.9965
-11.6555 -9.8448 -0.7403 0.9407
-11.0625 -9.6244 -0.7114 0.9430
-9.8654 -9.6515 -0.6696 0.9462
-7.6706 -7.9561 -0.5362 0.9567
-7.4501 -7.9568 -0.5289 0.9573
-7.2220 -7.9427 -0.5209 0.9579
-6.0314 -7.9301 -0.4834 0.9609
-5.8500 -7.9294 -0.4781 0.9613
-5.6736 -7.9302 -0.4731 0.9617
-5.3288 -7.9281 -0.4635 0.9625
-5.1622 -7.9280 -0.4590 0.9628
-5.0170 -7.9568 -0.4564 0.9630
-4.5326 -7.9398 -0.4436 0.9640
-4.3747 -7.9301 -0.4394 0.9644
-4.0048 -8.0775 -0.4374 0.9645
-3.8633 -8.4003 -0.4486 0.9636
-3.8263 -8.6506 -0.4589 0.9628
-4.5390 -11.1302 -0.5832 0.9530
-4.2550 -10.8860 -0.5671 0.9543
-4.0401 -11.2996 -0.5822 0.9531
-3.8228 -11.7655 -0.6002 0.9517
-5.9673 -19.3217 -0.9812 0.9222
-5.6837 -19.4046 -0.9811 0.9222
-5.1131 -19.5579 -0.9808 0.9222
-4.8262 -19.6283 -0.9807 0.9222
-4.5384 -19.6945 -0.9806 0.9223
-4.2497 -19.7564 -0.9805 0.9223
-2.0061 -12.9726 -0.6369 0.9488
-1.9147 -20.0984 -0.9796 0.9223
-1.6206 -20.1220 -0.9795 0.9223
-1.3263 -20.1411 -0.9793 0.9223
-1.0317 -20.1560 -0.9792 0.9224
0.0202 -2.7570 -0.1338 0.9890
0.4421 -20.1656 -0.9787 0.9224
1.0309 -20.1394 -0.9784 0.9224
1.3249 -20.1198 -0.9783 0.9224
1.6185 -20.0959 -0.9782 0.9224
1.9117 -20.0678 -0.9781 0.9224
2.7883 -19.9577 -0.9777 0.9225
3.0793 -19.9125 -0.9776 0.9225
3.6590 -19.8094 -0.9774 0.9225
4.2353 -19.6895 -0.9772 0.9225
4.5220 -19.6232 -0.9771 0.9225
4.8077 -19.5529 -0.9769 0.9225
5.0923 -19.4783 -0.9768 0.9225
5.6580 -19.3168 -0.9766 0.9226
5.9390 -19.2299 -0.9765 0.9226
6.7737 -18.9448 -0.9762 0.9226
7.3228 -18.7346 -0.9760 0.9226
7.5949 -18.6236 -0.9759 0.9226
7.8654 -18.5087 -0.9758 0.9226
8.1341 -18.3898 -0.9756 0.9226
8.9293 -18.0100 -0.9753 0.9227
9.1905 -17.8757 -0.9752 0.9227
9.9620 -17.4504 -0.9749 0.9227
10.2148 -17.3011 -0.9748 0.9227
10.7138 -16.9919 -0.9746 0.9227
10.9599 -16.8319 -0.9745 0.9227
12.1535 -15.9793 -0.9741 0.9227
12.3846 -15.7985 -0.9740 0.9228
12.6129 -15.6144 -0.9739 0.9228
10.7321 -12.8960 -0.8140 0.9350
13.0614 -15.2365 -0.9737 0.9228
14.0927 -14.1961 -0.9705 0.9230
14.2975 -13.9875 -0.9705 0.9230
15.0853 -13.1243 -0.9702 0.9230
15.2743 -12.9014 -0.9701 0.9231
15.6424 -12.4479 -0.9699 0.9231
15.8215 -12.2170 -0.9699 0.9231
15.9972 -11.9837 -0.9698 0.9231
16.1695 -11.7479 -0.9697 0.9231
16.5035 -11.2688 -0.9696 0.9231
16.6654 -11.0257 -0.9695 0.9231
16.8236 -10.7804 -0.9695 0.9231
16.9783 -10.5328 -0.9694 0.9231
17.1293 -10.2830 -0.9694 0.9231
17.8844 -9.6964 -0.9871 0.9218
3.5804 -1.6784 -0.1919 0.9843
3.6515 -1.5833 -0.1931 0.9842
3.7909 -1.5784 -0.1992 0.9837
18.8857 -7.5414 -0.9867 0.9218
19.1957 -6.7057 -0.9866 0.9218
19.4690 -5.8574 -0.9864 0.9218
11.7229 -2.9734 -0.5868 0.9527
19.7755 -4.7095 -0.9863 0.9218
19.9614 -3.8381 -0.9863 0.9218
19.7081 -3.4916 -0.9711 0.9230
19.7566 -3.2032 -0.9711 0.9230
19.8010 -2.9141 -0.9711 0.9230
19.5029 -2.5796 -0.9545 0.9242
19.8771 -2.3342 -0.9710 0.9230
19.9088 -2.0435 -0.9710 0.9230
20.3048 -0.8907 -0.9861 0.9218
20.3155 -0.5939 -0.9861 0.9218
20.3242 -0.0000 -0.9861 0.9218
20.3220 0.2970 -0.9861 0.9218
20.3155 0.5939 -0.9861 0.9218
20.3048 0.8907 -0.9861 0.9218
20.2703 1.4836 -0.9861 0.9218
20.2188 2.0753 -0.9862 0.9218
20.1865 2.3705 -0.9862 0.9218
20.1093 2.9595 -0.9862 0.9218
20.0642 3.2530 -0.9862 0.9218
20.0149 3.5459 -0.9862 0.9218
19.7755 4.7095 -0.9863 0.9218
19.7052 4.9981 -0.9864 0.9218
13.4823 4.2720 -0.6862 0.9449
13.4481 4.4784 -0.6877 0.9448
11.9874 4.3851 -0.6193 0.9502
12.0187 5.0040 -0.6317 0.9492
17.8293 9.0023 -0.9691 0.9231
12.5450 6.5661 -0.6870 0.9449
12.3335 6.6868 -0.6807 0.9454
12.2374 6.8680 -0.6809 0.9454
16.8848 10.1361 -0.9555 0.9242
16.5494 11.3000 -0.9723 0.9229
16.2153 11.7811 -0.9725 0.9229
16.0425 12.0176 -0.9725 0.9229
15.6868 12.4830 -0.9727 0.9229
15.5039 12.7118 -0.9728 0.9228
15.3176 12.9379 -0.9728 0.9228
15.1281 13.1614 -0.9729 0.9228
10.1987 9.9775 -0.6923 0.9445
8.8251 9.1535 -0.6169 0.9504
13.0612 15.2363 -0.9737 0.9228
12.8385 15.4271 -0.9738 0.9228
11.9199 16.1567 -0.9742 0.9227
9.4220 13.1695 -0.7857 0.9372
8.8692 13.1952 -0.7714 0.9383
8.7660 13.4625 -0.7795 0.9377
8.7446 13.8687 -0.7955 0.9365
10.4655 17.1483 -0.9747 0.9227
10.2151 17.3014 -0.9748 0.9227
9.9621 17.4505 -0.9749 0.9227
9.4498 17.7377 -0.9751 0.9227
9.1904 17.8756 -0.9752 0.9227
3.8678 7.8011 -0.4225 0.9657
3.7151 7.7767 -0.4182 0.9661
3.5916 7.8096 -0.4171 0.9662
3.4883 7.8864 -0.4184 0.9661
3.4111 8.0268 -0.4232 0.9657
6.7737 18.9448 -0.9762 0.9226
6.2187 19.1389 -0.9764 0.9226
5.9390 19.2299 -0.9765 0.9226
5.3757 19.3995 -0.9767 0.9225
5.0923 19.4782 -0.9768 0.9225
4.2353 19.6895 -0.9772 0.9225
3.9476 19.7515 -0.9773 0.9225
3.3695 19.8630 -0.9775 0.9225
3.0793 19.9125 -0.9776 0.9225
2.7884 19.9577 -0.9777 0.9225
2.4968 19.9987 -0.9779 0.9225
1.6185 20.0959 -0.9782 0.9224
1.3249 20.1197 -0.9783 0.9224
0.4421 20.1656 -0.9787 0.9224
0.1474 20.1723 -0.9788 0.9224
-0.1474 20.1746 -0.9789 0.9224
-0.4422 20.1727 -0.9790 0.9224
-0.7370 20.1665 -0.9791 0.9224
-1.6206 20.1220 -0.9795 0.9223
-1.9147 20.0984 -0.9796 0.9223
-2.7946 20.0023 -0.9799 0.9223
-3.0869 19.9617 -0.9800 0.9223
-3.3786 19.9167 -0.9802 0.9223
-3.6697 19.8676 -0.9803 0.9223
-4.5384 19.6945 -0.9806 0.9223
-4.8262 19.6283 -0.9807 0.9222
-5.1131 19.5579 -0.9808 0.9222
-2.7744 8.9834 -0.4562 0.9630
-6.5308 19.1433 -0.9814 0.9222
-6.8106 19.0480 -0.9815 0.9222
-7.6413 18.7375 -0.9818 0.9222
-8.4578 18.3906 -0.9821 0.9221
-8.9935 18.1395 -0.9824 0.9221
-9.2586 18.0081 -0.9825 0.9221
-9.5217 17.8727 -0.9826 0.9221
-9.7828 17.7335 -0.9827 0.9221
-10.5538 17.2931 -0.9830 0.9221
-4.3211 6.8531 -0.3931 0.9681
-4.3675 6.4979 -0.3799 0.9691
-4.4414 6.2079 -0.3704 0.9699
-4.4657 6.0530 -0.3650 0.9703
-4.4888 5.9019 -0.3598 0.9707
-4.5333 5.6121 -0.3500 0.9715
-4.5944 5.2036 -0.3368 0.9726
-4.6290 4.9439 -0.3286 0.9732
-4.6467 4.8196 -0.3248 0.9735
-4.6645 4.6988 -0.3212 0.9738
-4.6819 4.5804 -0.3178 0.9741
-4.7376 4.2450 -0.3086 0.9748
-4.7584 4.1398 -0.3060 0.9751
-4.7712 4.0300 -0.3030 0.9753
-0.8410 0.6895 -0.0528 0.9957
-0.7345 0.5845 -0.0455 0.9962
-0.7017 0.5418 -0.0430 0.9965
-0.6982 0.5073 -0.0419 0.9965
-0.6930 0.4585 -0.0403 0.9967
-0.6896 0.4278 -0.0394 0.9968
-0.6879 0.4129 -0.0389 0.9968
-0.6845 0.3842 -0.0381 0.9969
-0.6820 0.3697 -0.0376 0.9969
-0.6793 0.3555 -0.0372 0.9969
-0.6766 0.3416 -0.0368 0.9970
-0.6740 0.3280 -0.0364 0.9970
-0.6638 0.2764 -0.0349 0.9971
-0.6589 0.2520 -0.0342 0.9972
-0.6564 0.2401 -0.0339 0.9972
-0.6539 0.2284 -0.0336 0.9972
-0.6500 0.2060 -0.0331 0.9973
-0.6482 0.1950 -0.0328 0.9973
-0.6428 0.1530 -0.0321 0.9974
-0.6386 0.1227 -0.0316 0.9974
-0.6358 0.1031 -0.0313 0.9974
-0.6344 0.0934 -0.0311 0.9974
-0.6329 0.0837 -0.0310 0.9974
-0.6300 0.0647 -0.0307 0.9975
-0.6258 0.0366 -0.0304 0.9975
-0.6234 0.0182 -0.0303 0.9975
-0.5972 0.0000 -0.0356 0.9976
-0.5983 -0.0088 -0.0357 0.9976
-0.6006 -0.0264 -0.0359 0.9976
-0.6017 -0.0352 -0.0359 0.9976
-0.6063 -0.0712 -0.0364 0.9976
-0.6076 -0.0804 -0.0366 0.9975
-0.6089 -0.0896 -0.0367 0.9975
-0.6126 -0.1178 -0.0372 0.9975
-0.6138 -0.1273 -0.0374 0.9975
-0.6173 -0.1566 -0.0380 0.9975
-0.6196 -0.1766 -0.0384 0.9974
-0.6207 -0.1868 -0.0387 0.9974
-0.6220 -0.1971 -0.0389 0.9974
-0.6235 -0.2077 -0.0392 0.9974
