ply
format ascii 1.0
element vertex 1594
property float32 x
property float32 y
property float32 z
property float32 I
end_header
2.3776 6.0825 -0.9751 0.9739
2.1990 6.1499 -0.9752 0.9739
1.9276 6.2411 -0.9753 0.9739
1.7445 6.2952 -0.9754 0.9739
1.4671 6.3663 -0.9755 0.9739
1.3041 6.5252 -0.9935 0.9734
1.2087 6.5438 -0.9936 0.9734
1.1130 6.5610 -0.9936 0.9734
1.0171 6.5768 -0.9937 0.9734
0.8245 6.6043 -0.9937 0.9734
0.7280 6.6159 -0.9938 0.9734
0.6143 6.4481 -0.9671 0.9741
0.5207 6.4650 -0.9684 0.9741
0.2953 4.4845 -0.6710 0.9820
0.1887 3.6866 -0.5512 0.9852
0.0766 3.4941 -0.5218 0.9860
-0.0729 3.3255 -0.4967 0.9866
-0.1215 3.3257 -0.4969 0.9866
-0.1702 3.3257 -0.4972 0.9866
-0.3664 3.3296 -0.5001 0.9865
-0.4165 3.3363 -0.5020 0.9865
-0.4670 3.3430 -0.5040 0.9864
-0.5182 3.3510 -0.5063 0.9864
-0.5698 3.3592 -0.5087 0.9863
-0.6221 3.3678 -0.5113 0.9862
-0.6748 3.3761 -0.5141 0.9862
-0.7818 3.3926 -0.5198 0.9860
-0.8362 3.4007 -0.5229 0.9859
-0.8911 3.4086 -0.5260 0.9859
-1.1832 3.4682 -0.5471 0.9853
-1.3133 3.5105 -0.5596 0.9850
-1.4871 3.8045 -0.6099 0.9836
-2.6066 6.1338 -0.9951 0.9734
-2.9609 5.9719 -0.9952 0.9734
-2.4285 3.9793 -0.6960 0.9813
-2.4696 3.6743 -0.6610 0.9823
-2.4815 3.5779 -0.6501 0.9825
-0.5185 0.7028 -0.1304 0.9965
-0.4379 0.5586 -0.1060 0.9971
-0.4390 0.5275 -0.1025 0.9972
-0.4467 0.4500 -0.0947 0.9974
-0.4478 0.4382 -0.0935 0.9975
-0.4517 0.3930 -0.0894 0.9976
-0.4539 0.3612 -0.0866 0.9977
-0.4586 0.3034 -0.0821 0.9978
-0.4592 0.2943 -0.0814 0.9978
-0.4611 0.2587 -0.0789 0.9979
-0.4614 0.2502 -0.0784 0.9979
-0.4619 0.2332 -0.0773 0.9979
-0.4621 0.2249 -0.0767 0.9979
-0.4622 0.2167 -0.0762 0.9979
-0.4623 0.2086 -0.0757 0.9980
-0.4624 0.2005 -0.0752 0.9980
-0.4624 0.1925 -0.0748 0.9980
-0.4626 0.1770 -0.0740 0.9980
-0.4628 0.1617 -0.0732 0.9980
-0.4630 0.1320 -0.0719 0.9981
-0.4630 0.1246 -0.0716 0.9981
-0.4628 0.1031 -0.0708 0.9981
-0.4627 0.0960 -0.0706 0.9981
-0.4625 0.0889 -0.0703 0.9981
-0.4623 0.0819 -0.0701 0.9981
-0.4620 0.0749 -0.0699 0.9981
-0.4614 0.0611 -0.0695 0.9981
-0.4610 0.0541 -0.0693 0.9981
-0.4606 0.0473 -0.0691 0.9981
-0.4601 0.0404 -0.0690 0.9981
-0.4596 0.0336 -0.0688 0.9981
-0.4591 0.0269 -0.0687 0.9981
-0.4585 0.0201 -0.0685 0.9981
-0.4573 0.0067 -0.0683 0.9982
-0.4441 -0.0064 -0.0714 0.9982
-0.4452 -0.0195 -0.0716 0.9982
-0.4462 -0.0326 -0.0719 0.9982
-0.4471 -0.0459 -0.0722 0.9982
-0.4474 -0.0525 -0.0724 0.9982
-0.4478 -0.0592 -0.0726 0.9982
-0.4483 -0.0727 -0.0730 0.9982
-0.4485 -0.0795 -0.0732 0.9982
-0.4488 -0.0931 -0.0736 0.9981
-0.4490 -0.1069 -0.0742 0.9981
-0.4490 -0.1209 -0.0747 0.9981
-0.4489 -0.1279 -0.0750 0.9981
-0.4488 -0.1350 -0.0753 0.9981
-0.4487 -0.1421 -0.0756 0.9981
-0.4485 -0.1493 -0.0759 0.9981
-0.4483 -0.1566 -0.0763 0.9981
-0.4480 -0.1639 -0.0766 0.9981
-0.4477 -0.1788 -0.0774 0.9980
-0.4474 -0.1863 -0.0779 0.9980
-0.4472 -0.1939 -0.0783 0.9980
-0.4470 -0.2016 -0.0788 0.9980
-0.4468 -0.2094 -0.0793 0.9980
-0.4466 -0.2173 -0.0798 0.9980
-0.4456 -0.2416 -0.0814 0.9979
-0.4452 -0.2498 -0.0820 0.9979
-0.4436 -0.2752 -0.0839 0.9979
-0.4422 -0.2925 -0.0852 0.9979
-0.4406 -0.3104 -0.0866 0.9978
-0.4387 -0.3286 -0.0881 0.9978
-0.4377 -0.3380 -0.0888 0.9978
-0.4366 -0.3475 -0.0896 0.9977
-0.4321 -0.3871 -0.0932 0.9977
-0.4311 -0.3977 -0.0942 0.9976
-0.4299 -0.4084 -0.0953 0.9976
-0.4260 -0.4549 -0.1001 0.9975
-0.4254 -0.4679 -0.1016 0.9974
-0.4235 -0.5089 -0.1064 0.9973
-0.4228 -0.5234 -0.1081 0.9973
-0.4267 -0.5784 -0.1155 0.9971
-0.4648 -0.6496 -0.1283 0.9968
-1.4445 -2.0827 -0.4072 0.9898
-1.4328 -2.1318 -0.4127 0.9896
-1.4108 -2.2375 -0.4250 0.9893
-1.3903 -2.3548 -0.4393 0.9890
-1.3479 -2.4435 -0.4483 0.9888
-1.3035 -2.4468 -0.4454 0.9888
-1.2596 -2.4501 -0.4426 0.9889
-1.1334 -2.3726 -0.4224 0.9894
-1.1883 -2.5840 -0.4570 0.9885
-1.1326 -2.5607 -0.4498 0.9887
-1.0996 -2.5878 -0.4517 0.9887
-2.1699 -5.8002 -0.9949 0.9752
-1.9135 -5.8891 -0.9948 0.9752
-1.8272 -5.9163 -0.9948 0.9752
-1.7405 -5.9421 -0.9948 0.9752
-1.6534 -5.9667 -0.9947 0.9752
-1.5660 -5.9900 -0.9947 0.9752
-1.3902 -6.0328 -0.9946 0.9752
-1.2132 -6.0704 -0.9945 0.9752
-1.0353 -6.1028 -0.9945 0.9752
-0.9460 -6.1171 -0.9944 0.9752
-0.8564 -6.1300 -0.9944 0.9752
-0.7667 -6.1417 -0.9944 0.9752
-0.6769 -6.1520 -0.9943 0.9752
-0.3163 -6.1801 -0.9942 0.9752
-0.0452 -6.1874 -0.9941 0.9752
0.2313 -2.8718 -0.4629 0.9884
0.2925 -2.6585 -0.4297 0.9892
0.3734 -2.6725 -0.4335 0.9891
0.4364 -2.8219 -0.4587 0.9885
0.4754 -2.8023 -0.4566 0.9886
0.5140 -2.7829 -0.4547 0.9886
1.2121 -6.0646 -0.9936 0.9753
1.6512 -5.9589 -0.9934 0.9753
1.8245 -5.9077 -0.9933 0.9753
1.9106 -5.8802 -0.9933 0.9753
2.1662 -5.7902 -0.9932 0.9753
2.2505 -5.7577 -0.9932 0.9753
2.3343 -5.7240 -0.9931 0.9753
2.4176 -5.6891 -0.9931 0.9753
2.5004 -5.6530 -0.9931 0.9753
2.7455 -5.5375 -0.9930 0.9753
2.9059 -5.4545 -0.9929 0.9753
3.0639 -5.3670 -0.9928 0.9753
3.1419 -5.3214 -0.9928 0.9753
3.2192 -5.2748 -0.9928 0.9753
3.3717 -5.1782 -0.9927 0.9753
3.5951 -5.0250 -0.9926 0.9753
3.6680 -4.9717 -0.9926 0.9753
3.8115 -4.8622 -0.9926 0.9753
3.9517 -4.7485 -0.9925 0.9753
4.0206 -4.6901 -0.9925 0.9753
4.0886 -4.6307 -0.9924 0.9753
4.2219 -4.5090 -0.9924 0.9753
4.2872 -4.4468 -0.9924 0.9753
4.4776 -4.2543 -0.9923 0.9753
4.5392 -4.1883 -0.9923 0.9753
4.6595 -4.0537 -0.9922 0.9753
4.7181 -3.9851 -0.9922 0.9753
4.8323 -3.8454 -0.9921 0.9753
4.9423 -3.7023 -0.9921 0.9753
4.9658 -3.4981 -0.9759 0.9757
5.0162 -3.4251 -0.9758 0.9757
5.0656 -3.3514 -0.9758 0.9757
5.1139 -3.2769 -0.9758 0.9757
5.1612 -3.2018 -0.9758 0.9757
5.2073 -3.1260 -0.9758 0.9757
4.9892 -2.8000 -0.9191 0.9771
5.4212 -2.7373 -0.9757 0.9757
5.4605 -2.6578 -0.9757 0.9757
5.6395 -2.2519 -0.9756 0.9757
5.6717 -2.1692 -0.9756 0.9757
5.7027 -2.0861 -0.9756 0.9757
5.7325 -2.0025 -0.9755 0.9757
5.7670 -1.9205 -0.9765 0.9757
5.7944 -1.8360 -0.9765 0.9757
5.9112 -1.7784 -0.9917 0.9753
5.9832 -1.5176 -0.9917 0.9753
6.0047 -1.4300 -0.9917 0.9753
6.0439 -1.2539 -0.9917 0.9753
6.0615 -1.1655 -0.9917 0.9753
6.0929 -0.9878 -0.9916 0.9753
6.1191 -0.8094 -0.9916 0.9753
6.1302 -0.7199 -0.9916 0.9753
6.1401 -0.6302 -0.9916 0.9753
6.1559 -0.4505 -0.9916 0.9753
6.1617 -0.3605 -0.9916 0.9753
6.1716 -0.0902 -0.9916 0.9753
6.1716 0.0902 -0.9916 0.9753
6.1696 0.1804 -0.9916 0.9753
6.1302 0.7199 -0.9916 0.9753
6.1191 0.8094 -0.9916 0.9753
6.0778 1.0768 -0.9917 0.9753
6.0439 1.2539 -0.9917 0.9753
6.0047 1.4300 -0.9917 0.9753
5.9833 1.5177 -0.9917 0.9753
5.9605 1.6049 -0.9917 0.9753
5.9365 1.6918 -0.9917 0.9753
5.8846 1.8646 -0.9917 0.9753
5.8568 1.9504 -0.9917 0.9753
5.7975 2.1207 -0.9918 0.9753
5.7659 2.2053 -0.9918 0.9753
5.6640 2.4560 -0.9918 0.9753
5.6275 2.5385 -0.9918 0.9753
5.5900 2.6205 -0.9918 0.9753
5.5512 2.7019 -0.9919 0.9753
5.5112 2.7828 -0.9919 0.9753
5.4277 2.9427 -0.9919 0.9753
5.3842 3.0218 -0.9919 0.9753
4.9958 3.6296 -0.9921 0.9753
4.9423 3.7023 -0.9921 0.9753
4.8878 3.7742 -0.9921 0.9753
4.7181 3.9851 -0.9922 0.9753
4.5392 4.1884 -0.9923 0.9753
4.4776 4.2543 -0.9923 0.9753
4.4151 4.3194 -0.9923 0.9753
4.2872 4.4468 -0.9924 0.9753
4.2219 4.5091 -0.9924 0.9753
4.0885 4.6307 -0.9924 0.9753
4.0206 4.6901 -0.9925 0.9753
3.9517 4.7485 -0.9925 0.9753
3.6725 4.8283 -0.9746 0.9757
3.6016 4.8816 -0.9746 0.9757
3.5300 4.9339 -0.9747 0.9757
3.3845 5.0352 -0.9747 0.9757
3.2361 5.1322 -0.9748 0.9757
3.1609 5.1792 -0.9748 0.9757
3.0084 5.2696 -0.9749 0.9757
2.9312 5.3132 -0.9749 0.9757
2.7748 5.3969 -0.9749 0.9757
2.5359 5.5138 -0.9750 0.9757
2.0438 5.7158 -0.9752 0.9757
1.8760 5.7735 -0.9753 0.9757
1.7915 5.8005 -0.9753 0.9757
1.7066 5.8263 -0.9754 0.9757
1.6214 5.8508 -0.9754 0.9757
1.5357 5.8741 -0.9754 0.9757
1.4498 5.8961 -0.9755 0.9757
1.3887 6.0261 -0.9935 0.9753
1.3005 6.0460 -0.9935 0.9753
0.8559 6.1258 -0.9937 0.9753
0.5867 6.1582 -0.9938 0.9752
0.4967 6.1663 -0.9939 0.9752
0.2958 4.4929 -0.7234 0.9819
0.1887 3.6864 -0.5930 0.9852
0.0769 3.5062 -0.5634 0.9859
0.0250 3.4268 -0.5506 0.9862
-0.0246 3.3667 -0.5409 0.9865
-0.1216 3.3267 -0.5348 0.9866
-0.1703 3.3268 -0.5352 0.9866
-0.2679 3.3261 -0.5361 0.9866
-0.4164 3.3357 -0.5401 0.9865
-0.5698 3.3592 -0.5474 0.9863
-0.6221 3.3678 -0.5502 0.9862
-0.6747 3.3759 -0.5531 0.9861
-0.7279 3.3837 -0.5561 0.9861
-0.7817 3.3923 -0.5593 0.9860
-0.8362 3.4007 -0.5626 0.9859
-0.8911 3.4087 -0.5660 0.9858
-0.9469 3.4171 -0.5697 0.9857
-1.0034 3.4256 -0.5735 0.9856
-1.1203 3.4478 -0.5824 0.9854
-1.2480 3.4905 -0.5955 0.9851
-1.3138 3.5120 -0.6024 0.9849
-1.4841 3.7969 -0.6549 0.9836
-2.3387 5.7347 -0.9950 0.9752
-2.4223 5.7001 -0.9950 0.9752
-2.5054 5.6643 -0.9951 0.9752
-2.5880 5.6273 -0.9951 0.9752
-2.8323 5.5090 -0.9952 0.9752
-2.9126 5.4672 -0.9952 0.9752
-2.3914 4.1890 -0.7749 0.9806
-2.4424 3.8736 -0.7357 0.9816
-2.4562 3.7721 -0.7232 0.9819
-2.4690 3.6733 -0.7111 0.9822
-2.4840 3.5814 -0.7002 0.9825
-0.4647 0.6496 -0.1283 0.9968
-0.4210 0.5536 -0.1117 0.9972
-0.4219 0.5382 -0.1099 0.9972
-0.4235 0.5089 -0.1064 0.9973
-0.4254 0.4679 -0.1016 0.9974
-0.4259 0.4550 -0.1001 0.9975
-0.4273 0.4305 -0.0974 0.9975
-0.4287 0.4193 -0.0963 0.9976
-0.4311 0.3977 -0.0942 0.9976
-0.4321 0.3872 -0.0932 0.9977
-0.4342 0.3668 -0.0913 0.9977
-0.4354 0.3570 -0.0905 0.9977
-0.4377 0.3380 -0.0888 0.9978
-0.4422 0.2925 -0.0852 0.9979
-0.4429 0.2838 -0.0845 0.9979
-0.4452 0.2498 -0.0820 0.9979
-0.4460 0.2334 -0.0809 0.9980
-0.4463 0.2254 -0.0803 0.9980
-0.4466 0.2174 -0.0798 0.9980
-0.4471 0.1939 -0.0783 0.9980
-0.4474 0.1863 -0.0779 0.9980
-0.4479 0.1713 -0.0770 0.9981
-0.4480 0.1639 -0.0766 0.9981
-0.4488 0.1350 -0.0753 0.9981
-0.4490 0.1209 -0.0747 0.9981
-0.4490 0.1069 -0.0742 0.9981
-0.4486 0.0795 -0.0732 0.9982
-0.4483 0.0727 -0.0730 0.9982
-0.4474 0.0526 -0.0724 0.9982
-0.4471 0.0459 -0.0722 0.9982
-0.4467 0.0393 -0.0720 0.9982
-0.4452 0.0196 -0.0716 0.9982
-0.4447 0.0130 -0.0715 0.9982
-0.4441 0.0065 -0.0714 0.9982
-0.4309 0.0000 -0.0741 0.9983
-0.4315 -0.0063 -0.0743 0.9982
-0.4326 -0.0189 -0.0745 0.9982
-0.4339 -0.0381 -0.0749 0.9982
-0.4346 -0.0511 -0.0753 0.9982
-0.4349 -0.0575 -0.0755 0.9982
-0.4352 -0.0640 -0.0757 0.9982
-0.4355 -0.0771 -0.0761 0.9982
-0.4357 -0.0837 -0.0763 0.9982
-0.4358 -0.0971 -0.0768 0.9982
-0.4358 -0.1038 -0.0771 0.9982
-0.4358 -0.1105 -0.0774 0.9982
-0.4357 -0.1173 -0.0776 0.9982
-0.4356 -0.1241 -0.0779 0.9982
-0.4354 -0.1310 -0.0782 0.9982
-0.4353 -0.1379 -0.0786 0.9981
-0.4350 -0.1449 -0.0789 0.9981
-0.4347 -0.1519 -0.0792 0.9981
-0.4337 -0.1732 -0.0803 0.9981
-0.4330 -0.1877 -0.0812 0.9981
-0.4321 -0.2103 -0.0827 0.9981
-0.4317 -0.2180 -0.0832 0.9980
-0.4297 -0.2495 -0.0855 0.9980
-0.4291 -0.2576 -0.0861 0.9980
-0.4284 -0.2658 -0.0867 0.9980
-0.4277 -0.2741 -0.0874 0.9979
-0.4269 -0.2824 -0.0881 0.9979
-0.4260 -0.2909 -0.0887 0.9979
-0.4251 -0.2994 -0.0895 0.9979
-0.4241 -0.3081 -0.0902 0.9979
-0.4230 -0.3169 -0.0909 0.9979
-0.4219 -0.3258 -0.0917 0.9978
-0.4167 -0.3625 -0.0950 0.9978
-0.4148 -0.3827 -0.0971 0.9977
-0.4144 -0.3937 -0.0983 0.9977
-0.4139 -0.4049 -0.0996 0.9977
-0.4134 -0.4164 -0.1010 0.9976
-0.4115 -0.4525 -0.1052 0.9975
-0.4107 -0.4652 -0.1068 0.9975
-0.4081 -0.5052 -0.1117 0.9974
-0.4059 -0.5337 -0.1154 0.9973
-0.4035 -0.5639 -0.1193 0.9972
-0.4236 -0.6108 -0.1279 0.9970
-0.4671 -0.6950 -0.1441 0.9966
-1.3959 -2.1438 -0.4401 0.9897
-1.4569 -2.3105 -0.4699 0.9890
-1.4543 -2.3830 -0.4803 0.9887
-1.2974 -2.4354 -0.4748 0.9889
-1.2518 -2.5249 -0.4849 0.9886
-1.1543 -2.5100 -0.4753 0.9888
-1.1300 -2.5548 -0.4806 0.9887
-1.1021 -2.5937 -0.4849 0.9886
-2.0262 -5.4159 -0.9949 0.9768
-1.9468 -5.4448 -0.9948 0.9768
-1.5439 -5.5715 -0.9947 0.9768
-1.3803 -5.6138 -0.9946 0.9768
-1.2981 -5.6332 -0.9946 0.9768
-1.1329 -5.6684 -0.9945 0.9768
-1.0499 -5.6842 -0.9945 0.9768
-0.9667 -5.6987 -0.9944 0.9768
-0.8833 -5.7121 -0.9944 0.9768
-0.6321 -5.7446 -0.9943 0.9768
-0.5481 -5.7531 -0.9943 0.9768
-0.3797 -5.7663 -0.9942 0.9768
-0.2954 -5.7710 -0.9942 0.9768
0.0422 -5.7777 -0.9940 0.9768
0.1267 -5.7762 -0.9940 0.9768
0.2110 -5.7736 -0.9940 0.9768
0.2719 -2.8541 -0.4933 0.9884
0.2926 -2.6589 -0.4602 0.9892
0.4360 -2.8196 -0.4909 0.9885
0.5136 -2.7807 -0.4865 0.9886
0.6132 -2.8509 -0.5017 0.9882
1.2968 -5.6274 -0.9935 0.9768
1.3789 -5.6077 -0.9935 0.9768
1.5420 -5.5646 -0.9935 0.9768
1.6231 -5.5414 -0.9934 0.9768
1.7038 -5.5168 -0.9934 0.9768
1.7842 -5.4912 -0.9934 0.9768
1.8642 -5.4643 -0.9933 0.9768
1.9438 -5.4364 -0.9933 0.9768
2.0229 -5.4072 -0.9933 0.9768
2.1799 -5.3455 -0.9932 0.9768
2.2578 -5.3129 -0.9932 0.9768
2.4119 -5.2443 -0.9931 0.9768
2.5639 -5.1713 -0.9930 0.9768
2.7138 -5.0939 -0.9930 0.9768
2.7878 -5.0535 -0.9930 0.9768
2.9341 -4.9696 -0.9929 0.9768
3.1488 -4.8358 -0.9928 0.9769
3.2190 -4.7892 -0.9928 0.9769
3.5596 -4.5408 -0.9927 0.9769
3.6254 -4.4882 -0.9926 0.9769
3.6905 -4.4346 -0.9926 0.9769
3.7549 -4.3801 -0.9926 0.9769
3.8183 -4.3246 -0.9925 0.9769
3.9429 -4.2111 -0.9925 0.9769
4.0039 -4.1529 -0.9925 0.9769
4.1234 -4.0339 -0.9924 0.9769
4.2959 -3.8491 -0.9924 0.9769
4.4063 -3.7218 -0.9923 0.9769
4.5404 -3.4012 -0.9760 0.9772
4.6376 -3.2670 -0.9760 0.9772
4.8202 -2.9903 -0.9759 0.9772
4.8633 -2.9195 -0.9759 0.9772
4.9464 -2.7760 -0.9759 0.9772
4.9863 -2.7034 -0.9758 0.9772
5.0630 -2.5565 -0.9758 0.9772
5.1700 -2.3321 -0.9758 0.9772
5.2670 -2.1031 -0.9757 0.9772
5.3316 -1.9503 -0.9767 0.9772
5.3594 -1.8721 -0.9767 0.9772
5.5208 -1.6609 -0.9919 0.9769
5.5444 -1.5801 -0.9919 0.9769
5.5668 -1.4989 -0.9919 0.9769
5.6082 -1.3355 -0.9918 0.9769
5.6271 -1.2534 -0.9918 0.9769
5.6447 -1.1711 -0.9918 0.9769
5.6612 -1.0885 -0.9918 0.9769
5.6905 -0.9226 -0.9918 0.9769
5.7033 -0.8393 -0.9918 0.9769
5.7150 -0.7559 -0.9918 0.9769
5.7254 -0.6723 -0.9918 0.9769
5.7425 -0.5047 -0.9918 0.9769
5.7591 -0.2526 -0.9918 0.9769
5.7622 -0.1684 -0.9918 0.9769
5.7640 -0.0842 -0.9918 0.9769
5.7640 0.0843 -0.9918 0.9769
5.7591 0.2526 -0.9918 0.9769
5.7493 0.4208 -0.9918 0.9769
5.7425 0.5048 -0.9918 0.9769
5.7346 0.5886 -0.9918 0.9769
5.7254 0.6723 -0.9918 0.9769
5.6905 0.9226 -0.9918 0.9769
5.6612 1.0885 -0.9918 0.9769
5.6447 1.1712 -0.9918 0.9769
5.6270 1.2535 -0.9918 0.9769
5.6081 1.3355 -0.9918 0.9769
5.5668 1.4989 -0.9919 0.9769
5.5208 1.6610 -0.9919 0.9769
5.4960 1.7414 -0.9919 0.9769
5.4429 1.9013 -0.9919 0.9769
5.4145 1.9807 -0.9919 0.9769
5.3851 2.0596 -0.9919 0.9769
5.3545 2.1381 -0.9919 0.9769
5.3227 2.2161 -0.9920 0.9769
5.2898 2.2937 -0.9920 0.9769
5.1471 2.5989 -0.9920 0.9769
5.1087 2.6739 -0.9920 0.9769
4.9868 2.8954 -0.9921 0.9769
4.8554 3.1113 -0.9921 0.9769
4.8095 3.1820 -0.9922 0.9769
4.7626 3.2519 -0.9922 0.9769
4.5130 3.5913 -0.9923 0.9769
4.4063 3.7218 -0.9923 0.9769
4.2959 3.8491 -0.9924 0.9769
4.2393 3.9116 -0.9924 0.9769
3.9429 4.2111 -0.9925 0.9769
3.7549 4.3801 -0.9926 0.9769
3.6905 4.4346 -0.9926 0.9769
3.6254 4.4882 -0.9926 0.9769
3.5596 4.5408 -0.9926 0.9769
3.4929 4.5925 -0.9927 0.9769
3.4256 4.6432 -0.9927 0.9769
3.3574 4.6929 -0.9927 0.9769
3.2191 4.7892 -0.9928 0.9769
3.1488 4.8358 -0.9928 0.9769
3.0779 4.8815 -0.9928 0.9768
2.8810 4.8795 -0.9749 0.9773
2.8095 4.9212 -0.9749 0.9773
2.5914 5.0400 -0.9750 0.9773
2.4432 5.1139 -0.9751 0.9773
2.3682 5.1492 -0.9751 0.9773
2.2169 5.2165 -0.9752 0.9773
2.1405 5.2486 -0.9752 0.9773
1.9863 5.3092 -0.9753 0.9773
1.9086 5.3378 -0.9753 0.9773
1.6730 5.4168 -0.9754 0.9773
1.4342 5.4854 -0.9755 0.9773
1.3788 5.6077 -0.9935 0.9768
1.1319 5.6633 -0.9936 0.9768
1.0490 5.6794 -0.9936 0.9768
0.9660 5.6943 -0.9937 0.9768
0.8827 5.7080 -0.9937 0.9768
0.7992 5.7205 -0.9937 0.9768
0.7156 5.7318 -0.9938 0.9768
0.6318 5.7418 -0.9938 0.9768
0.5479 5.7506 -0.9938 0.9768
0.3796 5.7646 -0.9939 0.9768
0.1887 3.6863 -0.6350 0.9851
0.0771 3.5183 -0.6055 0.9858
0.0252 3.4400 -0.5919 0.9861
-0.0247 3.3808 -0.5817 0.9864
-0.2679 3.3266 -0.5742 0.9865
-0.3168 3.3258 -0.5748 0.9865
-0.3662 3.3285 -0.5761 0.9865
-0.4671 3.3431 -0.5807 0.9864
-0.6221 3.3678 -0.5892 0.9862
-0.6746 3.3755 -0.5922 0.9861
-0.7817 3.3920 -0.5989 0.9860
-0.9469 3.4171 -0.6101 0.9857
-1.0034 3.4257 -0.6141 0.9856
-1.0607 3.4343 -0.6184 0.9855
-1.1837 3.4696 -0.6307 0.9852
-1.2483 3.4912 -0.6379 0.9851
-1.3144 3.5133 -0.6454 0.9849
-1.4866 3.8035 -0.7026 0.9836
-2.1837 5.3548 -0.9949 0.9768
-2.2618 5.3225 -0.9950 0.9768
-2.4165 5.2545 -0.9950 0.9768
-2.4931 5.2187 -0.9950 0.9768
-2.5691 5.1819 -0.9951 0.9768
-2.7196 5.1049 -0.9951 0.9768
-2.3708 4.2976 -0.8444 0.9803
-2.3902 4.1870 -0.8295 0.9806
-2.4258 3.9748 -0.8011 0.9813
-2.4553 3.7708 -0.7742 0.9819
-0.4671 0.6949 -0.1440 0.9966
-0.4034 0.5639 -0.1193 0.9972
-0.4047 0.5486 -0.1173 0.9972
-0.4059 0.5337 -0.1154 0.9973
-0.4071 0.5193 -0.1135 0.9973
-0.4081 0.5052 -0.1117 0.9974
-0.4090 0.4915 -0.1100 0.9974
-0.4099 0.4782 -0.1084 0.9974
-0.4107 0.4652 -0.1068 0.9975
-0.4122 0.4402 -0.1038 0.9976
-0.4128 0.4282 -0.1023 0.9976
-0.4148 0.3827 -0.0971 0.9977
-0.4156 0.3724 -0.0960 0.9977
-0.4167 0.3625 -0.0950 0.9978
-0.4219 0.3258 -0.0917 0.9978
-0.4230 0.3169 -0.0909 0.9979
-0.4241 0.3081 -0.0902 0.9979
-0.4251 0.2995 -0.0895 0.9979
-0.4260 0.2909 -0.0887 0.9979
-0.4269 0.2825 -0.0881 0.9979
-0.4277 0.2741 -0.0874 0.9979
-0.4284 0.2658 -0.0867 0.9980
-0.4291 0.2576 -0.0861 0.9980
-0.4303 0.2415 -0.0849 0.9980
-0.4317 0.2180 -0.0832 0.9980
-0.4321 0.2103 -0.0827 0.9981
-0.4324 0.2027 -0.0822 0.9981
-0.4337 0.1732 -0.0803 0.9981
-0.4340 0.1660 -0.0799 0.9981
-0.4344 0.1589 -0.0796 0.9981
-0.4347 0.1519 -0.0792 0.9981
-0.4350 0.1449 -0.0789 0.9981
-0.4353 0.1379 -0.0786 0.9981
-0.4356 0.1242 -0.0779 0.9982
-0.4359 0.1038 -0.0771 0.9982
-0.4358 0.0971 -0.0768 0.9982
-0.4357 0.0837 -0.0763 0.9982
-0.4354 0.0706 -0.0759 0.9982
-0.4352 0.0640 -0.0757 0.9982
-0.4349 0.0575 -0.0755 0.9982
-0.4335 0.0318 -0.0748 0.9982
-0.4326 0.0189 -0.0745 0.9982
-0.4321 0.0127 -0.0744 0.9982
-0.4315 0.0063 -0.0743 0.9982
-0.4191 0.0000 -0.0769 0.9983
-0.4215 -0.0309 -0.0775 0.9983
-0.4228 -0.0559 -0.0782 0.9983
-0.4234 -0.0943 -0.0796 0.9982
-0.4233 -0.1073 -0.0801 0.9982
-0.4230 -0.1206 -0.0807 0.9982
-0.4226 -0.1339 -0.0813 0.9982
-0.4223 -0.1406 -0.0817 0.9982
-0.4216 -0.1542 -0.0824 0.9982
-0.4207 -0.1680 -0.0831 0.9982
-0.4202 -0.1749 -0.0835 0.9982
-0.4197 -0.1820 -0.0839 0.9981
-0.4192 -0.1891 -0.0844 0.9981
-0.4163 -0.2337 -0.0876 0.9981
-0.4150 -0.2491 -0.0888 0.9980
-0.4134 -0.2649 -0.0901 0.9980
-0.4106 -0.2892 -0.0921 0.9980
-0.4096 -0.2976 -0.0929 0.9979
-0.4086 -0.3155 -0.0947 0.9979
-0.4079 -0.3246 -0.0957 0.9979
-0.4073 -0.3339 -0.0966 0.9979
-0.4066 -0.3434 -0.0976 0.9978
-0.4042 -0.3729 -0.1009 0.9978
-0.4027 -0.3826 -0.1019 0.9977
-0.3993 -0.4264 -0.1072 0.9976
-0.3975 -0.4502 -0.1102 0.9976
-0.3955 -0.4752 -0.1134 0.9975
-0.3931 -0.5015 -0.1169 0.9974
-0.3970 -0.5907 -0.1306 0.9971
-0.4219 -0.6478 -0.1418 0.9969
-0.4679 -0.7421 -0.1610 0.9964
-1.3904 -2.2784 -0.4897 0.9892
-1.3381 -2.2666 -0.4829 0.9894
-1.3311 -2.3317 -0.4926 0.9891
-1.3014 -2.3591 -0.4943 0.9891
-1.2247 -2.2989 -0.4779 0.9895
-1.2299 -2.4808 -0.5081 0.9888
-1.1994 -2.5107 -0.5105 0.9887
-1.1308 -2.4588 -0.4966 0.9891
-1.1625 -2.6284 -0.5273 0.9884
-1.1047 -2.5996 -0.5183 0.9886
-0.9947 -2.5451 -0.5014 0.9889
-1.8254 -5.1053 -0.9948 0.9782
-1.5997 -5.1799 -0.9947 0.9782
-1.5239 -5.2026 -0.9947 0.9782
-1.2943 -5.2639 -0.9946 0.9782
-1.2172 -5.2821 -0.9945 0.9782
-1.1398 -5.2991 -0.9945 0.9782
-1.0623 -5.3151 -0.9945 0.9782
-0.8283 -5.3560 -0.9944 0.9782
-0.6714 -5.3776 -0.9943 0.9782
-0.5927 -5.3867 -0.9943 0.9782
-0.5139 -5.3946 -0.9943 0.9782
-0.4350 -5.4013 -0.9942 0.9782
-0.1979 -5.4147 -0.9941 0.9782
-0.1187 -5.4169 -0.9941 0.9782
0.0396 -5.4177 -0.9940 0.9782
0.1187 -5.4164 -0.9940 0.9782
0.1506 -2.9429 -0.5407 0.9881
0.1903 -2.8895 -0.5313 0.9883
0.2313 -2.8718 -0.5286 0.9884
0.2719 -2.8541 -0.5260 0.9884
0.3385 -2.7111 -0.5013 0.9890
0.3757 -2.6892 -0.4982 0.9890
0.4357 -2.8174 -0.5231 0.9885
1.2161 -5.2770 -0.9936 0.9782
1.2930 -5.2585 -0.9935 0.9782
1.3696 -5.2389 -0.9935 0.9782
1.4460 -5.2182 -0.9935 0.9782
1.6731 -5.1493 -0.9934 0.9782
1.7481 -5.1241 -0.9934 0.9782
1.8970 -5.0706 -0.9933 0.9782
2.4043 -4.8494 -0.9931 0.9782
2.4749 -4.8136 -0.9931 0.9782
2.5449 -4.7768 -0.9931 0.9782
2.7515 -4.6603 -0.9930 0.9782
2.8192 -4.6195 -0.9929 0.9782
2.9529 -4.5349 -0.9929 0.9782
3.5212 -4.1076 -0.9927 0.9782
3.6396 -4.0028 -0.9926 0.9782
3.8668 -3.7830 -0.9925 0.9782
3.9216 -3.7260 -0.9925 0.9782
3.9146 -3.6120 -0.9773 0.9786
3.9669 -3.5543 -0.9772 0.9786
4.0142 -3.4923 -0.9762 0.9786
4.1144 -3.3734 -0.9762 0.9786
4.1631 -3.3129 -0.9762 0.9786
4.3041 -3.1271 -0.9761 0.9786
4.4790 -2.8701 -0.9760 0.9786
4.5608 -2.7379 -0.9760 0.9786
4.6388 -2.6034 -0.9760 0.9786
4.7827 -2.3279 -0.9759 0.9786
4.8485 -2.1870 -0.9759 0.9786
4.8799 -2.1159 -0.9759 0.9786
4.9395 -1.9724 -0.9759 0.9786
4.9728 -1.9020 -0.9769 0.9786
5.1044 -1.7831 -0.9920 0.9783
5.1542 -1.6332 -0.9920 0.9783
5.1775 -1.5576 -0.9920 0.9783
5.1996 -1.4818 -0.9920 0.9783
5.2207 -1.4057 -0.9920 0.9783
5.2406 -1.3293 -0.9920 0.9783
5.2772 -1.1755 -0.9920 0.9783
5.3092 -1.0208 -0.9920 0.9783
5.3367 -0.8652 -0.9919 0.9783
5.3487 -0.7871 -0.9919 0.9783
5.3780 -0.5520 -0.9919 0.9783
5.3855 -0.4734 -0.9919 0.9783
5.3970 -0.3158 -0.9919 0.9783
5.4039 -0.1580 -0.9919 0.9783
5.4057 -0.0789 -0.9919 0.9783
5.4039 0.1579 -0.9919 0.9783
5.4010 0.2369 -0.9919 0.9783
5.3970 0.3158 -0.9919 0.9783
5.3855 0.4734 -0.9919 0.9783
5.3780 0.5520 -0.9919 0.9783
5.3694 0.6305 -0.9919 0.9783
5.3488 0.7871 -0.9919 0.9783
5.3367 0.8653 -0.9919 0.9783
5.3235 0.9432 -0.9920 0.9783
5.2407 1.3293 -0.9920 0.9783
5.2207 1.4057 -0.9920 0.9783
5.1775 1.5577 -0.9920 0.9783
5.1542 1.6332 -0.9920 0.9783
5.1298 1.7083 -0.9920 0.9783
5.1044 1.7831 -0.9920 0.9783
4.9917 2.0783 -0.9921 0.9783
4.9609 2.1511 -0.9921 0.9783
4.8621 2.3665 -0.9921 0.9782
4.8270 2.4373 -0.9921 0.9782
4.7539 2.5774 -0.9922 0.9782
4.6767 2.7154 -0.9922 0.9782
4.6366 2.7834 -0.9922 0.9782
4.5535 2.9178 -0.9923 0.9782
4.3755 3.1790 -0.9923 0.9782
4.3287 3.2427 -0.9923 0.9782
3.9216 3.7260 -0.9925 0.9782
3.7548 3.8945 -0.9926 0.9782
3.6396 4.0028 -0.9926 0.9782
3.5808 4.0556 -0.9926 0.9782
3.3999 4.2089 -0.9927 0.9782
3.3381 4.2583 -0.9927 0.9782
3.2756 4.3067 -0.9928 0.9782
3.1485 4.4008 -0.9928 0.9782
2.8864 4.5777 -0.9929 0.9782
2.7515 4.6603 -0.9930 0.9782
2.6832 4.7002 -0.9930 0.9782
2.6143 4.7390 -0.9930 0.9782
2.3333 4.8841 -0.9931 0.9782
2.1501 4.8608 -0.9752 0.9786
1.8627 4.9786 -0.9753 0.9786
1.7165 5.0312 -0.9754 0.9786
1.5689 5.0795 -0.9754 0.9786
1.4460 5.2182 -0.9935 0.9782
1.2930 5.2585 -0.9935 0.9782
1.2161 5.2770 -0.9936 0.9782
1.1388 5.2943 -0.9936 0.9782
1.0614 5.3106 -0.9936 0.9782
0.9837 5.3257 -0.9937 0.9782
0.9058 5.3396 -0.9937 0.9782
0.8277 5.3525 -0.9937 0.9782
0.7494 5.3642 -0.9938 0.9782
0.6710 5.3747 -0.9938 0.9782
0.5924 5.3841 -0.9938 0.9782
0.5137 5.3924 -0.9939 0.9782
0.4349 5.3995 -0.9939 0.9782
0.3560 5.4054 -0.9939 0.9782
-0.0731 3.3365 -0.6123 0.9865
-0.1217 3.3289 -0.6112 0.9865
-0.1704 3.3286 -0.6115 0.9865
-0.2191 3.3279 -0.6119 0.9865
-0.3169 3.3264 -0.6131 0.9865
-0.3662 3.3279 -0.6143 0.9865
-0.4164 3.3352 -0.6167 0.9864
-0.5699 3.3593 -0.6252 0.9862
-0.6746 3.3753 -0.6315 0.9861
-0.7277 3.3832 -0.6349 0.9860
-0.7816 3.3917 -0.6386 0.9859
-0.8361 3.4004 -0.6425 0.9859
-0.8912 3.4088 -0.6465 0.9858
-1.0607 3.4344 -0.6595 0.9855
-1.1221 3.4537 -0.6663 0.9853
-1.1874 3.4805 -0.6747 0.9852
-1.3253 3.5426 -0.6940 0.9847
-1.4899 3.8118 -0.7509 0.9835
-2.1208 4.9906 -0.9949 0.9782
-2.1935 4.9592 -0.9949 0.9782
-2.4089 4.8587 -0.9950 0.9782
-2.4797 4.8232 -0.9950 0.9782
-2.3891 4.1850 -0.8842 0.9806
-2.4244 3.9726 -0.8539 0.9813
-0.4679 0.7420 -0.1609 0.9964
-0.4218 0.6478 -0.1418 0.9969
-0.3970 0.5907 -0.1306 0.9971
-0.3874 0.5585 -0.1247 0.9972
-0.3889 0.5437 -0.1226 0.9973
-0.3904 0.5293 -0.1207 0.9973
-0.3918 0.5152 -0.1188 0.9974
-0.3931 0.5015 -0.1169 0.9974
-0.3954 0.4752 -0.1134 0.9975
-0.3965 0.4626 -0.1118 0.9975
-0.3993 0.4264 -0.1072 0.9976
-0.4014 0.3927 -0.1030 0.9977
-0.4050 0.3629 -0.0998 0.9978
-0.4058 0.3531 -0.0987 0.9978
-0.4073 0.3339 -0.0966 0.9979
-0.4079 0.3246 -0.0957 0.9979
-0.4086 0.3155 -0.0947 0.9979
-0.4091 0.3065 -0.0938 0.9979
-0.4116 0.2811 -0.0914 0.9980
-0.4125 0.2729 -0.0908 0.9980
-0.4142 0.2570 -0.0894 0.9980
-0.4150 0.2491 -0.0888 0.9980
-0.4164 0.2337 -0.0876 0.9981
-0.4180 0.2111 -0.0859 0.9981
-0.4184 0.2037 -0.0854 0.9981
-0.4192 0.1891 -0.0844 0.9981
-0.4202 0.1750 -0.0835 0.9982
-0.4216 0.1543 -0.0824 0.9982
-0.4226 0.1339 -0.0813 0.9982
-0.4232 0.1140 -0.0804 0.9982
-0.4234 0.1008 -0.0799 0.9982
-0.4234 0.0943 -0.0796 0.9982
-0.4233 0.0814 -0.0791 0.9982
-0.4233 0.0750 -0.0789 0.9983
-0.4230 0.0622 -0.0784 0.9983
-0.4227 0.0559 -0.0782 0.9983
-0.4222 0.0434 -0.0779 0.9983
-0.4218 0.0371 -0.0777 0.9983
-0.4215 0.0308 -0.0775 0.9983
-0.4211 0.0246 -0.0774 0.9983
-0.4206 0.0185 -0.0773 0.9983
-0.4196 0.0061 -0.0770 0.9983
-0.4078 0.0000 -0.0795 0.9983
-0.4093 -0.0179 -0.0799 0.9983
-0.4101 -0.0300 -0.0802 0.9983
-0.4112 -0.0543 -0.0809 0.9983
-0.4114 -0.0605 -0.0811 0.9983
-0.4115 -0.0667 -0.0813 0.9983
-0.4116 -0.0791 -0.0817 0.9983
-0.4116 -0.0917 -0.0822 0.9983
-0.4114 -0.1043 -0.0828 0.9983
-0.4113 -0.1107 -0.0830 0.9983
-0.4111 -0.1171 -0.0833 0.9983
-0.4106 -0.1301 -0.0840 0.9982
-0.4103 -0.1366 -0.0843 0.9982
-0.4099 -0.1432 -0.0846 0.9982
-0.4095 -0.1498 -0.0850 0.9982
-0.4090 -0.1564 -0.0854 0.9982
-0.4085 -0.1631 -0.0858 0.9982
-0.4073 -0.1766 -0.0866 0.9982
-0.4060 -0.1903 -0.0874 0.9982
-0.4050 -0.2045 -0.0885 0.9982
-0.4039 -0.2189 -0.0896 0.9981
-0.4034 -0.2264 -0.0902 0.9981
-0.4028 -0.2418 -0.0916 0.9981
-0.4024 -0.2496 -0.0923 0.9981
-0.4016 -0.2657 -0.0939 0.9980
-0.4007 -0.2822 -0.0955 0.9980
-0.3995 -0.2993 -0.0973 0.9980
-0.3989 -0.3080 -0.0982 0.9979
-0.3982 -0.3168 -0.0992 0.9979
-0.3975 -0.3259 -0.1002 0.9979
-0.3966 -0.3350 -0.1012 0.9979
-0.3958 -0.3443 -0.1023 0.9979
-0.3949 -0.3538 -0.1034 0.9978
-0.3910 -0.3825 -0.1066 0.9978
-0.3880 -0.4024 -0.1090 0.9977
-0.3861 -0.4246 -0.1119 0.9977
-0.3850 -0.4361 -0.1134 0.9976
-0.3839 -0.4478 -0.1150 0.9976
-0.3814 -0.4722 -0.1183 0.9975
-0.3786 -0.4978 -0.1219 0.9975
-0.3771 -0.5111 -0.1238 0.9974
-0.3754 -0.5247 -0.1258 0.9974
-0.3718 -0.5532 -0.1299 0.9973
-0.4196 -0.6876 -0.1570 0.9967
-1.4106 -2.3892 -0.5409 0.9888
-1.3466 -2.3590 -0.5296 0.9890
-1.2435 -2.4187 -0.5302 0.9890
-1.2164 -2.4534 -0.5339 0.9889
-1.2313 -2.5775 -0.5569 0.9884
-1.1632 -2.5295 -0.5428 0.9887
-1.7179 -4.8045 -0.9947 0.9794
-1.6474 -4.8290 -0.9947 0.9794
-1.3624 -4.9164 -0.9946 0.9794
-1.0727 -4.9870 -0.9945 0.9794
-0.9265 -5.0160 -0.9944 0.9794
-0.7795 -5.0405 -0.9944 0.9794
-0.7057 -5.0512 -0.9943 0.9794
-0.6318 -5.0609 -0.9943 0.9794
-0.5578 -5.0694 -0.9943 0.9794
-0.4836 -5.0769 -0.9943 0.9794
-0.3351 -5.0886 -0.9942 0.9794
-0.2607 -5.0928 -0.9942 0.9794
-0.1862 -5.0959 -0.9941 0.9794
0.0372 -5.0987 -0.9940 0.9794
0.1118 -5.0975 -0.9940 0.9794
0.1512 -2.9545 -0.5767 0.9880
0.2719 -2.8541 -0.5590 0.9884
0.3385 -2.7116 -0.5328 0.9889
0.3769 -2.6977 -0.5310 0.9890
0.9258 -5.0123 -0.9937 0.9794
0.5633 -2.8185 -0.5603 0.9884
0.6164 -2.8657 -0.5715 0.9881
1.1445 -4.9664 -0.9936 0.9794
1.2891 -4.9306 -0.9936 0.9794
1.3609 -4.9111 -0.9935 0.9794
1.5037 -4.8689 -0.9935 0.9794
1.5747 -4.8463 -0.9934 0.9794
1.6453 -4.8226 -0.9934 0.9794
1.7854 -4.7722 -0.9934 0.9794
1.9240 -4.7178 -0.9933 0.9795
2.0609 -4.6593 -0.9932 0.9795
2.1287 -4.6286 -0.9932 0.9795
2.3293 -4.5305 -0.9931 0.9795
2.3952 -4.4958 -0.9931 0.9795
2.4605 -4.4602 -0.9931 0.9795
2.5897 -4.3862 -0.9930 0.9795
2.7792 -4.2682 -0.9930 0.9795
2.8412 -4.2270 -0.9929 0.9795
2.9026 -4.1850 -0.9929 0.9795
2.9633 -4.1420 -0.9929 0.9795
3.0235 -4.0981 -0.9929 0.9795
3.1418 -4.0079 -0.9928 0.9795
3.3142 -3.8661 -0.9927 0.9795
3.4256 -3.7674 -0.9927 0.9795
3.4799 -3.6094 -0.9774 0.9798
3.5321 -3.5580 -0.9774 0.9798
3.5800 -3.5024 -0.9764 0.9798
3.6807 -3.3961 -0.9764 0.9798
3.8725 -3.1751 -0.9763 0.9798
4.0511 -2.9433 -0.9762 0.9798
4.0936 -2.8837 -0.9762 0.9798
4.1352 -2.8236 -0.9762 0.9798
4.2158 -2.7014 -0.9762 0.9798
4.3299 -2.5140 -0.9761 0.9798
4.3661 -2.4504 -0.9761 0.9798
4.4014 -2.3863 -0.9761 0.9798
4.5330 -2.1250 -0.9760 0.9798
4.5636 -2.0585 -0.9760 0.9798
4.5931 -1.9916 -0.9760 0.9798
4.6264 -1.9262 -0.9770 0.9798
4.7422 -1.8137 -0.9898 0.9795
4.7795 -1.7484 -0.9922 0.9795
4.8284 -1.6079 -0.9921 0.9795
4.8513 -1.5371 -0.9921 0.9795
4.8941 -1.3947 -0.9921 0.9795
4.9327 -1.2511 -0.9921 0.9795
4.9504 -1.1789 -0.9921 0.9795
4.9671 -1.1065 -0.9921 0.9795
4.9827 -1.0337 -0.9921 0.9795
4.9972 -0.9608 -0.9921 0.9795
5.0107 -0.8877 -0.9921 0.9795
5.0231 -0.8144 -0.9921 0.9795
5.0539 -0.5935 -0.9921 0.9795
5.0621 -0.5196 -0.9921 0.9795
5.0837 -0.2230 -0.9920 0.9795
5.0864 -0.1487 -0.9920 0.9795
5.0799 0.2973 -0.9920 0.9795
5.0691 0.4456 -0.9921 0.9795
5.0539 0.5935 -0.9921 0.9795
5.0447 0.6673 -0.9921 0.9795
5.0231 0.8144 -0.9921 0.9795
5.0107 0.8877 -0.9921 0.9795
4.9972 0.9608 -0.9921 0.9795
4.9827 1.0338 -0.9921 0.9795
4.9327 1.2512 -0.9921 0.9795
4.8941 1.3948 -0.9921 0.9795
4.8045 1.6784 -0.9922 0.9795
4.7264 1.8873 -0.9922 0.9795
4.6984 1.9562 -0.9922 0.9795
4.6394 2.0927 -0.9922 0.9795
4.6083 2.1603 -0.9922 0.9795
4.5763 2.2274 -0.9922 0.9795
4.5434 2.2941 -0.9923 0.9795
4.4019 2.5557 -0.9923 0.9795
4.2453 2.8087 -0.9924 0.9795
4.1615 2.9316 -0.9924 0.9795
4.1183 2.9921 -0.9924 0.9795
4.0742 3.0520 -0.9924 0.9795
4.0293 3.1113 -0.9925 0.9795
3.9368 3.2279 -0.9925 0.9795
3.8893 3.2851 -0.9925 0.9795
3.8409 3.3416 -0.9925 0.9795
3.7918 3.3975 -0.9926 0.9795
3.7418 3.4526 -0.9926 0.9795
3.6911 3.5070 -0.9926 0.9795
3.6395 3.5606 -0.9926 0.9795
3.5872 3.6135 -0.9926 0.9795
3.5341 3.6656 -0.9927 0.9795
3.3142 3.8661 -0.9927 0.9795
3.1999 3.9614 -0.9928 0.9795
3.1418 4.0079 -0.9928 0.9795
3.0235 4.0982 -0.9929 0.9795
2.9633 4.1420 -0.9929 0.9795
2.9026 4.1850 -0.9929 0.9795
2.7792 4.2682 -0.9930 0.9795
2.7166 4.3084 -0.9930 0.9795
2.6534 4.3478 -0.9930 0.9795
2.3952 4.4958 -0.9931 0.9795
2.3293 4.5305 -0.9931 0.9795
2.2629 4.5642 -0.9932 0.9795
2.1960 4.5968 -0.9932 0.9795
2.0609 4.6593 -0.9932 0.9795
1.8548 4.7455 -0.9933 0.9794
1.7854 4.7723 -0.9934 0.9794
1.7155 4.7980 -0.9934 0.9794
1.6452 4.8226 -0.9934 0.9794
1.5037 4.8689 -0.9935 0.9794
1.3609 4.9111 -0.9935 0.9794
1.2169 4.9490 -0.9936 0.9794
0.9258 5.0122 -0.9937 0.9794
0.8525 5.0254 -0.9937 0.9794
0.6315 5.0584 -0.9938 0.9794
0.5575 5.0672 -0.9938 0.9794
-0.0249 3.4079 -0.6644 0.9862
-0.1217 3.3299 -0.6496 0.9865
-0.1704 3.3291 -0.6499 0.9865
-0.3661 3.3273 -0.6526 0.9865
-0.4671 3.3432 -0.6581 0.9863
-0.5712 3.3672 -0.6658 0.9862
-0.6243 3.3801 -0.6701 0.9861
-0.7327 3.4064 -0.6793 0.9859
-0.7880 3.4194 -0.6841 0.9858
-0.9008 3.4457 -0.6943 0.9856
-0.9587 3.4596 -0.6999 0.9855
-1.0788 3.4931 -0.7127 0.9852
-1.4293 3.8204 -0.7952 0.9835
-1.9958 4.6964 -0.9949 0.9794
-2.0642 4.6670 -0.9949 0.9794
-2.1998 4.6049 -0.9949 0.9794
-2.3997 4.5045 -0.9950 0.9794
-2.5304 4.4327 -0.9951 0.9794
-2.4060 4.0752 -0.9226 0.9809
-0.3723 0.5718 -0.1330 0.9972
-0.3718 0.5532 -0.1299 0.9973
-0.3754 0.5248 -0.1258 0.9974
-0.3771 0.5111 -0.1238 0.9974
-0.3786 0.4978 -0.1219 0.9975
-0.3814 0.4722 -0.1183 0.9975
-0.3827 0.4599 -0.1166 0.9976
-0.3839 0.4479 -0.1150 0.9976
-0.3850 0.4361 -0.1134 0.9976
-0.3861 0.4246 -0.1119 0.9977
-0.3871 0.4134 -0.1104 0.9977
-0.3949 0.3539 -0.1034 0.9978
-0.3958 0.3444 -0.1023 0.9979
-0.3975 0.3259 -0.1002 0.9979
-0.3995 0.2993 -0.0973 0.9980
-0.4001 0.2907 -0.0964 0.9980
-0.4007 0.2823 -0.0955 0.9980
-0.4021 0.2577 -0.0931 0.9981
-0.4031 0.2341 -0.0909 0.9981
-0.4034 0.2264 -0.0902 0.9981
-0.4055 0.1974 -0.0879 0.9982
-0.4060 0.1904 -0.0874 0.9982
-0.4073 0.1766 -0.0866 0.9982
-0.4085 0.1632 -0.0858 0.9982
-0.4090 0.1564 -0.0854 0.9982
-0.4102 0.1366 -0.0843 0.9982
-0.4106 0.1301 -0.0840 0.9982
-0.4109 0.1236 -0.0836 0.9983
-0.4111 0.1172 -0.0833 0.9983
-0.4116 0.0980 -0.0825 0.9983
-0.4116 0.0917 -0.0822 0.9983
-0.4117 0.0791 -0.0817 0.9983
-0.4116 0.0729 -0.0815 0.9983
-0.4112 0.0544 -0.0809 0.9983
-0.4109 0.0482 -0.0807 0.9983
-0.4104 0.0361 -0.0803 0.9983
-0.4093 0.0180 -0.0799 0.9983
-0.4088 0.0120 -0.0797 0.9983
-0.3976 -0.0058 -0.0821 0.9984
-0.3980 -0.0116 -0.0822 0.9984
-0.3997 -0.0410 -0.0830 0.9984
-0.4000 -0.0470 -0.0832 0.9984
-0.4002 -0.0529 -0.0834 0.9984
-0.4003 -0.0589 -0.0836 0.9983
-0.4004 -0.0649 -0.0838 0.9983
-0.4005 -0.0710 -0.0840 0.9983
-0.3998 -0.1139 -0.0858 0.9983
-0.3995 -0.1202 -0.0861 0.9983
-0.3985 -0.1458 -0.0876 0.9983
-0.3982 -0.1523 -0.0880 0.9983
-0.3979 -0.1589 -0.0885 0.9983
-0.3975 -0.1655 -0.0889 0.9982
-0.3941 -0.2366 -0.0949 0.9981
-0.3936 -0.2442 -0.0956 0.9981
-0.3932 -0.2519 -0.0964 0.9981
-0.3927 -0.2598 -0.0972 0.9981
-0.3921 -0.2678 -0.0980 0.9981
-0.3916 -0.2759 -0.0989 0.9980
-0.3903 -0.2924 -0.1007 0.9980
-0.3871 -0.3270 -0.1046 0.9979
-0.3842 -0.3545 -0.1079 0.9979
-0.3814 -0.3731 -0.1102 0.9978
-0.3795 -0.3823 -0.1112 0.9978
-0.3778 -0.3918 -0.1124 0.9978
-0.3759 -0.4014 -0.1136 0.9978
-0.3745 -0.4118 -0.1149 0.9977
-0.3733 -0.4228 -0.1165 0.9977
-0.3720 -0.4340 -0.1180 0.9977
-0.3678 -0.4691 -0.1231 0.9976
-0.3645 -0.4941 -0.1268 0.9975
-0.3628 -0.5070 -0.1287 0.9975
-0.3659 -0.5995 -0.1450 0.9971
-1.3229 -2.3980 -0.5655 0.9889
-1.2831 -2.6859 -0.6146 0.9879
-1.1187 -2.5294 -0.5711 0.9888
-1.0452 -2.4596 -0.5518 0.9891
-0.9992 -2.5566 -0.5668 0.9889
-1.6880 -4.5121 -0.9947 0.9805
-1.5554 -4.5592 -0.9947 0.9805
-1.3540 -4.6226 -0.9946 0.9805
-1.2862 -4.6418 -0.9946 0.9805
-1.2182 -4.6600 -0.9945 0.9805
-1.1500 -4.6771 -0.9945 0.9805
-0.8054 -4.7479 -0.9944 0.9805
-0.5966 -4.7783 -0.9943 0.9805
-0.5266 -4.7863 -0.9943 0.9805
-0.3164 -4.8044 -0.9942 0.9805
-0.1758 -4.8114 -0.9941 0.9805
-0.1055 -4.8133 -0.9941 0.9805
-0.0352 -4.8142 -0.9941 0.9805
0.1055 -4.8129 -0.9940 0.9805
0.1758 -4.8107 -0.9940 0.9805
0.1518 -2.9662 -0.6133 0.9879
0.2719 -2.8542 -0.5920 0.9884
0.3386 -2.7121 -0.5644 0.9889
0.3781 -2.7063 -0.5642 0.9889
0.4350 -2.8129 -0.5877 0.9884
0.4739 -2.7934 -0.5850 0.9885
0.8741 -4.7325 -0.9937 0.9805
0.6180 -2.8731 -0.6068 0.9881
1.0806 -4.6893 -0.9936 0.9805
1.2850 -4.6370 -0.9936 0.9805
1.4868 -4.5759 -0.9935 0.9805
1.5535 -4.5536 -0.9934 0.9805
1.6858 -4.5060 -0.9934 0.9805
1.8166 -4.4546 -0.9933 0.9805
1.8815 -4.4274 -0.9933 0.9805
1.9459 -4.3994 -0.9933 0.9805
2.0099 -4.3704 -0.9933 0.9805
2.1367 -4.3095 -0.9932 0.9805
2.1993 -4.2778 -0.9932 0.9805
2.3233 -4.2114 -0.9931 0.9805
2.4453 -4.1416 -0.9931 0.9805
2.5651 -4.0682 -0.9930 0.9805
2.6242 -4.0301 -0.9930 0.9805
2.6828 -3.9912 -0.9930 0.9805
2.7407 -3.9516 -0.9930 0.9805
2.7981 -3.9110 -0.9930 0.9806
2.8549 -3.8696 -0.9929 0.9806
2.9111 -3.8274 -0.9929 0.9806
2.9666 -3.7844 -0.9929 0.9806
3.0814 -3.5945 -0.9776 0.9808
3.1335 -3.5490 -0.9776 0.9808
3.2325 -3.4523 -0.9765 0.9809
3.3318 -3.3562 -0.9765 0.9809
3.5219 -3.1556 -0.9764 0.9809
3.6125 -3.0512 -0.9764 0.9809
3.6566 -2.9981 -0.9764 0.9809
3.7425 -2.8899 -0.9763 0.9809
3.7843 -2.8348 -0.9763 0.9809
3.8654 -2.7229 -0.9763 0.9809
3.9047 -2.6661 -0.9763 0.9809
4.0535 -2.4333 -0.9762 0.9809
4.0886 -2.3738 -0.9762 0.9809
4.1228 -2.3138 -0.9762 0.9809
4.2507 -2.0689 -0.9761 0.9809
4.3136 -1.9458 -0.9771 0.9809
4.4885 -1.7167 -0.9923 0.9806
4.5367 -1.5848 -0.9923 0.9806
4.5810 -1.4515 -0.9922 0.9806
4.6017 -1.3844 -0.9922 0.9806
4.6214 -1.3170 -0.9922 0.9806
4.6401 -1.2493 -0.9922 0.9806
4.6578 -1.1814 -0.9922 0.9806
4.6746 -1.1132 -0.9922 0.9806
4.7050 -0.9762 -0.9922 0.9806
4.7539 -0.6996 -0.9922 0.9806
4.7636 -0.6301 -0.9922 0.9806
4.8004 -0.2105 -0.9922 0.9806
4.8030 -0.1404 -0.9922 0.9806
4.8004 0.2106 -0.9922 0.9806
4.7969 0.2807 -0.9922 0.9806
4.7800 0.4907 -0.9922 0.9806
4.7636 0.6301 -0.9922 0.9806
4.7539 0.6996 -0.9922 0.9806
4.7432 0.7690 -0.9922 0.9806
4.6401 1.2494 -0.9922 0.9806
4.6213 1.3171 -0.9922 0.9806
4.5810 1.4515 -0.9922 0.9806
4.5593 1.5183 -0.9923 0.9806
4.4886 1.7168 -0.9923 0.9806
4.4365 1.8471 -0.9923 0.9806
4.3808 1.9761 -0.9923 0.9806
4.3515 2.0399 -0.9923 0.9806
4.3213 2.1033 -0.9923 0.9806
4.2581 2.2287 -0.9924 0.9806
4.2251 2.2907 -0.9924 0.9806
4.1565 2.4133 -0.9924 0.9806
4.0843 2.5338 -0.9924 0.9806
4.0087 2.6521 -0.9925 0.9806
3.9696 2.7104 -0.9925 0.9806
3.8888 2.8254 -0.9925 0.9806
3.8471 2.8820 -0.9925 0.9806
3.6725 3.1019 -0.9926 0.9806
3.6269 3.1554 -0.9926 0.9806
3.4853 3.3114 -0.9927 0.9806
3.4366 3.3621 -0.9927 0.9806
3.3871 3.4120 -0.9927 0.9806
3.2861 3.5096 -0.9928 0.9806
3.1823 3.6043 -0.9928 0.9806
3.1294 3.6505 -0.9928 0.9806
3.0757 3.6959 -0.9928 0.9806
3.0215 3.7406 -0.9929 0.9806
2.9666 3.7844 -0.9929 0.9806
2.9110 3.8274 -0.9929 0.9806
2.8549 3.8696 -0.9929 0.9806
2.7407 3.9516 -0.9930 0.9805
2.6242 4.0301 -0.9930 0.9805
2.5651 4.0682 -0.9930 0.9805
2.4452 4.1416 -0.9931 0.9805
2.3845 4.1770 -0.9931 0.9805
2.3233 4.2114 -0.9931 0.9805
2.0735 4.3404 -0.9932 0.9805
1.9459 4.3993 -0.9933 0.9805
1.8815 4.4275 -0.9933 0.9805
1.7514 4.4807 -0.9934 0.9805
1.6858 4.5060 -0.9934 0.9805
1.4868 4.5759 -0.9935 0.9805
1.4198 4.5972 -0.9935 0.9805
1.3526 4.6177 -0.9935 0.9805
1.2850 4.6371 -0.9936 0.9805
1.2171 4.6555 -0.9936 0.9805
1.1490 4.6729 -0.9936 0.9805
1.0120 4.7047 -0.9937 0.9805
0.9432 4.7191 -0.9937 0.9805
0.8049 4.7449 -0.9937 0.9805
0.7355 4.7564 -0.9938 0.9805
0.5963 4.7760 -0.9938 0.9805
0.5264 4.7844 -0.9939 0.9805
0.4564 4.7916 -0.9939 0.9805
0.3163 4.8032 -0.9939 0.9805
0.1887 3.6857 -0.7620 0.9850
0.1301 3.5598 -0.7355 0.9856
0.0254 3.4809 -0.7188 0.9859
-0.0250 3.4212 -0.7064 0.9861
-0.0737 3.3608 -0.6941 0.9864
-0.1717 3.3542 -0.6935 0.9864
-0.2210 3.3565 -0.6946 0.9864
-0.3204 3.3637 -0.6977 0.9863
-0.3709 3.3707 -0.7002 0.9862
-0.4222 3.3819 -0.7037 0.9862
-0.4741 3.3933 -0.7075 0.9861
-0.6338 3.4318 -0.7206 0.9858
-1.0128 4.7085 -0.9945 0.9805
-1.0815 4.6933 -0.9945 0.9805
-1.1500 4.6771 -0.9945 0.9805
-1.2327 4.2085 -0.9055 0.9822
-1.2760 3.9272 -0.8526 0.9833
-1.3034 3.8208 -0.8336 0.9836
-1.3712 3.8350 -0.8410 0.9835
-1.8843 4.4341 -0.9948 0.9805
-1.9489 4.4062 -0.9948 0.9805
-0.4155 0.7279 -0.1731 0.9966
-0.3659 0.5995 -0.1450 0.9971
-0.3545 0.5623 -0.1373 0.9973
-0.3589 0.5339 -0.1328 0.9974
-0.3645 0.4941 -0.1268 0.9975
-0.3662 0.4815 -0.1249 0.9975
-0.3693 0.4572 -0.1214 0.9976
-0.3707 0.4455 -0.1197 0.9976
-0.3733 0.4228 -0.1165 0.9977
-0.3745 0.4118 -0.1149 0.9977
-0.3813 0.3731 -0.1102 0.9978
-0.3842 0.3545 -0.1079 0.9979
-0.3852 0.3452 -0.1068 0.9979
-0.3862 0.3360 -0.1057 0.9979
-0.3871 0.3270 -0.1046 0.9979
-0.3910 0.2841 -0.0998 0.9980
-0.3921 0.2678 -0.0980 0.9981
-0.3927 0.2598 -0.0972 0.9981
-0.3932 0.2520 -0.0964 0.9981
-0.3936 0.2442 -0.0956 0.9981
-0.3947 0.2216 -0.0935 0.9982
-0.3950 0.2142 -0.0928 0.9982
-0.3957 0.1926 -0.0909 0.9982
-0.3962 0.1858 -0.0904 0.9982
-0.3967 0.1789 -0.0899 0.9982
-0.3971 0.1722 -0.0894 0.9982
-0.3979 0.1589 -0.0885 0.9983
-0.3982 0.1523 -0.0880 0.9983
-0.3986 0.1458 -0.0876 0.9983
-0.3993 0.1265 -0.0865 0.9983
-0.3998 0.1139 -0.0858 0.9983
-0.4004 0.0954 -0.0850 0.9983
-0.4005 0.0831 -0.0845 0.9983
-0.4003 0.0589 -0.0836 0.9983
-0.4002 0.0530 -0.0834 0.9984
-0.4000 0.0470 -0.0832 0.9984
-0.3997 0.0411 -0.0830 0.9984
-0.3995 0.0351 -0.0828 0.9984
-0.3992 0.0293 -0.0826 0.9984
-0.3988 0.0234 -0.0825 0.9984
-0.3900 0.0000 -0.0850 0.9984
-0.3910 -0.0171 -0.0853 0.9984
-0.3913 -0.0229 -0.0855 0.9984
-0.3918 -0.0344 -0.0858 0.9984
-0.3920 -0.0402 -0.0859 0.9984
-0.3925 -0.0636 -0.0867 0.9984
-0.3926 -0.0754 -0.0872 0.9984
-0.3926 -0.0814 -0.0874 0.9984
-0.3924 -0.0995 -0.0883 0.9983
-0.3923 -0.1056 -0.0886 0.9983
-0.3916 -0.1304 -0.0900 0.9983
-0.3907 -0.1494 -0.0912 0.9983
-0.3903 -0.1558 -0.0916 0.9983
-0.3890 -0.1755 -0.0931 0.9983
-0.3885 -0.1821 -0.0936 0.9982
-0.3878 -0.1888 -0.0941 0.9982
-0.3874 -0.1956 -0.0946 0.9982
-0.3871 -0.2026 -0.0953 0.9982
-0.3846 -0.2465 -0.0996 0.9981
-0.3835 -0.2619 -0.1013 0.9981
-0.3822 -0.2777 -0.1030 0.9981
-0.3807 -0.2939 -0.1049 0.9980
-0.3798 -0.3023 -0.1059 0.9980
-0.3749 -0.3459 -0.1112 0.9979
-0.3737 -0.3551 -0.1124 0.9979
-0.3722 -0.3641 -0.1136 0.9979
-0.3665 -0.3914 -0.1169 0.9978
-0.3645 -0.4009 -0.1181 0.9978
-0.3624 -0.4105 -0.1194 0.9978
-0.3594 -0.4318 -0.1225 0.9977
-0.3579 -0.4430 -0.1242 0.9977
-0.3546 -0.4661 -0.1277 0.9976
-0.3527 -0.4782 -0.1296 0.9976
-0.3445 -0.5291 -0.1377 0.9974
-0.3422 -0.5427 -0.1399 0.9974
-0.3397 -0.5566 -0.1422 0.9973
-0.3582 -0.6275 -0.1576 0.9970
-0.3769 -0.6832 -0.1702 0.9968
-0.4094 -0.7684 -0.1899 0.9964
-1.3286 -2.8890 -0.6934 0.9871
-1.2738 -2.8800 -0.6867 0.9872
-1.1693 -3.1257 -0.7277 0.9864
-1.2295 -3.4389 -0.7964 0.9852
-1.4727 -4.3169 -0.9946 0.9815
-1.4095 -4.3379 -0.9946 0.9815
-1.3459 -4.3579 -0.9946 0.9815
-1.2820 -4.3770 -0.9946 0.9815
-1.2179 -4.3952 -0.9945 0.9815
-1.0889 -4.4286 -0.9945 0.9815
-0.8937 -4.4718 -0.9944 0.9815
-0.7626 -4.4957 -0.9944 0.9815
-0.6309 -4.5159 -0.9943 0.9815
-0.4986 -4.5321 -0.9943 0.9815
-0.4324 -4.5388 -0.9942 0.9815
-0.2996 -4.5493 -0.9942 0.9815
-0.2330 -4.5530 -0.9942 0.9815
-0.1665 -4.5558 -0.9941 0.9815
-0.0333 -4.5585 -0.9941 0.9815
0.0333 -4.5584 -0.9940 0.9815
0.1665 -4.5552 -0.9940 0.9815
0.1524 -2.9782 -0.6503 0.9879
0.2539 -2.6655 -0.5839 0.9891
0.3121 -2.8368 -0.6223 0.9884
0.3387 -2.7127 -0.5961 0.9889
0.8277 -4.4813 -0.9937 0.9815
0.5662 -2.8329 -0.6300 0.9882
0.6199 -2.8818 -0.6428 0.9880
1.0880 -4.4248 -0.9936 0.9815
1.1525 -4.4083 -0.9936 0.9815
1.3445 -4.3532 -0.9935 0.9815
1.7816 -4.1925 -0.9934 0.9815
1.8426 -4.1659 -0.9933 0.9815
1.9033 -4.1384 -0.9933 0.9815
1.9635 -4.1101 -0.9933 0.9815
2.0233 -4.0809 -0.9933 0.9815
2.0826 -4.0507 -0.9932 0.9815
2.2000 -3.9880 -0.9932 0.9815
2.3155 -3.9218 -0.9931 0.9815
2.4290 -3.8523 -0.9931 0.9815
2.4850 -3.8164 -0.9931 0.9815
2.5404 -3.7795 -0.9931 0.9815
2.5953 -3.7419 -0.9930 0.9815
2.6620 -3.6081 -0.9778 0.9818
2.8145 -3.4842 -0.9767 0.9818
2.9149 -3.4004 -0.9767 0.9818
2.9643 -3.3573 -0.9766 0.9818
3.0130 -3.3136 -0.9766 0.9818
3.2011 -3.1317 -0.9766 0.9818
3.5441 -2.7366 -0.9764 0.9818
3.5836 -2.6845 -0.9764 0.9818
3.6224 -2.6318 -0.9764 0.9818
3.6604 -2.5786 -0.9764 0.9818
3.6977 -2.5247 -0.9764 0.9818
3.8046 -2.3602 -0.9763 0.9818
3.8718 -2.2480 -0.9763 0.9818
3.9042 -2.1911 -0.9763 0.9818
3.9963 -2.0179 -0.9762 0.9818
4.0861 -1.8433 -0.9776 0.9818
4.1754 -1.8105 -0.9924 0.9815
4.2013 -1.7493 -0.9924 0.9815
4.2264 -1.6877 -0.9924 0.9815
4.2506 -1.6257 -0.9924 0.9815
4.3176 -1.4378 -0.9924 0.9815
4.3381 -1.3746 -0.9923 0.9815
4.3577 -1.3110 -0.9923 0.9815
4.3764 -1.2472 -0.9923 0.9815
4.3941 -1.1831 -0.9923 0.9815
4.4556 -0.9244 -0.9923 0.9815
4.4686 -0.8592 -0.9923 0.9815
4.4807 -0.7938 -0.9923 0.9815
4.4918 -0.7282 -0.9923 0.9815
4.5019 -0.6625 -0.9923 0.9815
4.5111 -0.5967 -0.9923 0.9815
4.5266 -0.4646 -0.9923 0.9815
4.5329 -0.3984 -0.9923 0.9815
4.5382 -0.3321 -0.9923 0.9815
4.5459 -0.1994 -0.9923 0.9815
4.5498 -0.0665 -0.9923 0.9815
4.5498 0.0665 -0.9923 0.9815
4.5459 0.1994 -0.9923 0.9815
4.5425 0.2658 -0.9923 0.9815
4.5382 0.3321 -0.9923 0.9815
4.5329 0.3984 -0.9923 0.9815
4.5266 0.4646 -0.9923 0.9815
4.4807 0.7938 -0.9923 0.9815
4.4686 0.8592 -0.9923 0.9815
4.4556 0.9244 -0.9923 0.9815
4.4416 0.9895 -0.9923 0.9815
4.3176 1.4379 -0.9923 0.9815
4.2962 1.5008 -0.9924 0.9815
4.2506 1.6257 -0.9924 0.9815
4.2264 1.6877 -0.9924 0.9815
4.2013 1.7493 -0.9924 0.9815
4.1485 1.8713 -0.9924 0.9815
4.1208 1.9317 -0.9924 0.9815
4.0627 2.0514 -0.9925 0.9815
3.9690 2.2275 -0.9925 0.9815
3.9361 2.2854 -0.9925 0.9815
3.8323 2.4557 -0.9925 0.9815
3.7961 2.5115 -0.9926 0.9815
3.7590 2.5667 -0.9926 0.9815
3.5202 2.8863 -0.9927 0.9815
3.4777 2.9375 -0.9927 0.9815
3.4345 2.9880 -0.9927 0.9815
3.3905 3.0379 -0.9927 0.9815
3.3458 3.0871 -0.9927 0.9815
3.3004 3.1358 -0.9928 0.9815
3.2543 3.1837 -0.9928 0.9815
3.0630 3.3687 -0.9928 0.9815
3.0135 3.4132 -0.9929 0.9815
2.9126 3.4998 -0.9929 0.9815
2.8092 3.5836 -0.9929 0.9815
2.7566 3.6244 -0.9930 0.9815
2.6496 3.7035 -0.9930 0.9815
2.5953 3.7420 -0.9930 0.9815
2.5404 3.7795 -0.9931 0.9815
2.4290 3.8523 -0.9931 0.9815
2.3725 3.8875 -0.9931 0.9815
2.3155 3.9218 -0.9931 0.9815
2.2580 3.9554 -0.9932 0.9815
2.1416 4.0198 -0.9932 0.9815
2.0827 4.0507 -0.9932 0.9815
2.0233 4.0809 -0.9933 0.9815
1.9033 4.1385 -0.9933 0.9815
1.8427 4.1659 -0.9933 0.9815
1.7816 4.1925 -0.9934 0.9815
1.6584 4.2429 -0.9934 0.9815
1.4710 4.3119 -0.9935 0.9815
1.3445 4.3532 -0.9935 0.9815
1.2808 4.3725 -0.9936 0.9815
1.1525 4.4084 -0.9936 0.9815
1.0232 4.4404 -0.9937 0.9815
0.8931 4.4686 -0.9937 0.9815
0.8277 4.4812 -0.9937 0.9815
0.7622 4.4930 -0.9938 0.9815
0.6965 4.5038 -0.9938 0.9815
0.6306 4.5136 -0.9938 0.9815
0.5646 4.5225 -0.9938 0.9815
0.4985 4.5304 -0.9939 0.9815
0.1887 3.6856 -0.8048 0.9850
0.0262 3.5900 -0.7829 0.9854
-0.0263 3.5992 -0.7849 0.9854
-0.1665 4.5558 -0.9941 0.9815
-0.3660 4.5445 -0.9942 0.9815
-0.4986 4.5321 -0.9943 0.9815
-0.5648 4.5245 -0.9943 0.9815
-0.6309 4.5158 -0.9943 0.9815
-0.7626 4.4957 -0.9944 0.9815
-0.8937 4.4718 -0.9944 0.9815
-1.0889 4.4286 -0.9945 0.9815
-1.1535 4.4124 -0.9945 0.9815
-1.2327 4.2085 -0.9563 0.9822
-1.2550 4.0636 -0.9274 0.9827
-1.2760 3.9271 -0.9005 0.9832
-1.3905 3.8890 -0.9006 0.9832
-1.4627 3.9099 -0.9103 0.9831
-1.7226 4.2240 -0.9947 0.9815
-1.8454 4.1721 -0.9948 0.9815
-2.0265 4.0875 -0.9949 0.9815
-2.0861 4.0575 -0.9949 0.9815
-0.3582 0.6275 -0.1576 0.9970
-0.3420 0.5792 -0.1467 0.9973
-0.3397 0.5566 -0.1422 0.9973
-0.3528 0.4782 -0.1296 0.9976
-0.3546 0.4662 -0.1277 0.9976
-0.3562 0.4545 -0.1259 0.9976
-0.3594 0.4318 -0.1225 0.9977
-0.3665 0.3914 -0.1169 0.9978
-0.3684 0.3821 -0.1157 0.9978
-0.3722 0.3641 -0.1136 0.9979
-0.3749 0.3459 -0.1112 0.9979
-0.3760 0.3369 -0.1101 0.9979
-0.3770 0.3280 -0.1090 0.9980
-0.3780 0.3193 -0.1079 0.9980
-0.3790 0.3107 -0.1069 0.9980
-0.3829 0.2697 -0.1021 0.9981
-0.3835 0.2618 -0.1013 0.9981
-0.3846 0.2465 -0.0996 0.9981
-0.3852 0.2389 -0.0988 0.9981
-0.3860 0.2241 -0.0973 0.9982
-0.3874 0.1956 -0.0946 0.9982
-0.3899 0.1623 -0.0921 0.9983
-0.3906 0.1494 -0.0912 0.9983
-0.3910 0.1430 -0.0908 0.9983
-0.3915 0.1304 -0.0900 0.9983
-0.3918 0.1242 -0.0896 0.9983
-0.3922 0.1118 -0.0889 0.9983
-0.3923 0.1057 -0.0886 0.9983
-0.3926 0.0815 -0.0874 0.9984
-0.3925 0.0637 -0.0867 0.9984
-0.3924 0.0578 -0.0865 0.9984
-0.3921 0.0461 -0.0861 0.9984
-0.3920 0.0403 -0.0859 0.9984
-0.3918 0.0345 -0.0858 0.9984
-0.3915 0.0287 -0.0856 0.9984
-0.3913 0.0229 -0.0855 0.9984
-0.3910 0.0171 -0.0853 0.9984
-0.3907 0.0114 -0.0852 0.9984
-0.3835 -0.0056 -0.0881 0.9984
-0.3838 -0.0112 -0.0882 0.9984
-0.3844 -0.0225 -0.0884 0.9984
-0.3848 -0.0338 -0.0887 0.9984
-0.3850 -0.0395 -0.0889 0.9984
-0.3852 -0.0452 -0.0891 0.9984
-0.3853 -0.0510 -0.0893 0.9984
-0.3855 -0.0741 -0.0902 0.9984
-0.3855 -0.0800 -0.0904 0.9984
-0.3854 -0.0918 -0.0910 0.9984
-0.3853 -0.0977 -0.0913 0.9984
-0.3850 -0.1097 -0.0920 0.9984
-0.3846 -0.1218 -0.0927 0.9983
-0.3843 -0.1280 -0.0930 0.9983
-0.3840 -0.1342 -0.0934 0.9983
-0.3833 -0.1466 -0.0943 0.9983
-0.3829 -0.1529 -0.0947 0.9983
-0.3825 -0.1592 -0.0952 0.9983
-0.3821 -0.1657 -0.0957 0.9983
-0.3815 -0.1721 -0.0961 0.9983
-0.3810 -0.1786 -0.0967 0.9983
-0.3803 -0.1851 -0.0972 0.9983
-0.3784 -0.2124 -0.0997 0.9982
-0.3780 -0.2195 -0.1004 0.9982
-0.3775 -0.2266 -0.1011 0.9982
-0.3758 -0.2487 -0.1035 0.9982
-0.3745 -0.2638 -0.1052 0.9981
-0.3729 -0.2794 -0.1070 0.9981
-0.3721 -0.2873 -0.1080 0.9981
-0.3703 -0.3036 -0.1100 0.9980
-0.3693 -0.3119 -0.1110 0.9980
-0.3682 -0.3204 -0.1121 0.9980
-0.3671 -0.3289 -0.1132 0.9980
-0.3634 -0.3555 -0.1168 0.9979
-0.3595 -0.3729 -0.1190 0.9979
-0.3554 -0.3909 -0.1214 0.9978
-0.3489 -0.4192 -0.1253 0.9978
-0.3397 -0.4748 -0.1341 0.9976
-0.3376 -0.4867 -0.1361 0.9976
-0.3330 -0.5114 -0.1402 0.9975
-0.3335 -0.6045 -0.1586 0.9972
-1.2017 -2.4238 -0.6214 0.9890
-1.1612 -2.4309 -0.6188 0.9890
-1.2070 -2.8405 -0.7089 0.9874
-1.1644 -2.9791 -0.7347 0.9870
-1.2162 -3.2509 -0.7973 0.9859
-1.1662 -3.2618 -0.7957 0.9859
-1.3981 -4.0981 -0.9946 0.9824
-1.2777 -4.1370 -0.9946 0.9824
-1.0951 -4.1887 -0.9945 0.9824
-1.0337 -4.2042 -0.9945 0.9824
-0.9722 -4.2188 -0.9944 0.9824
-0.8484 -4.2451 -0.9944 0.9824
-0.4734 -4.3025 -0.9942 0.9824
-0.4104 -4.3088 -0.9942 0.9824
-0.2844 -4.3187 -0.9942 0.9824
-0.0316 -4.3276 -0.9941 0.9824
0.0316 -4.3275 -0.9940 0.9824
0.0949 -4.3264 -0.9940 0.9824
0.1580 -4.3245 -0.9940 0.9824
0.1716 -2.6058 -0.5999 0.9893
0.3805 -2.7238 -0.6317 0.9888
0.5682 -2.8431 -0.6660 0.9882
0.9097 -4.2293 -0.9937 0.9824
0.9714 -4.2155 -0.9937 0.9824
1.0329 -4.2007 -0.9937 0.9824
1.0942 -4.1850 -0.9936 0.9824
