ply
format ascii 1.0
element vertex 1587
property float32 x
property float32 y
property float32 z
property float32 I
end_header
-1.1447 -0.3082 0.0872 0.9953
-1.1460 -0.3266 0.0876 0.9952
-1.1473 -0.3452 0.0881 0.9952
-1.1508 -0.3832 0.0892 0.9951
-1.1530 -0.4028 0.0898 0.9951
-1.1554 -0.4226 0.0905 0.9951
-1.1603 -0.4633 0.0919 0.9950
-1.1655 -0.5054 0.0934 0.9949
-1.1672 -0.5265 0.0942 0.9949
-1.1690 -0.5480 0.0950 0.9948
-1.2434 -0.6052 0.1017 0.9945
-1.4718 -0.7703 0.1222 0.9934
-18.9571 -12.5419 1.6717 0.9129
-18.1067 -12.7552 1.6289 0.9150
-39.8077 -29.8203 3.6581 0.8191
-36.2766 -29.7437 3.4502 0.8285
-34.1348 -29.6973 3.3276 0.8340
-32.4015 -30.7854 3.2871 0.8359
-34.5386 -37.9853 3.7759 0.8139
-34.4643 -41.4132 3.9626 0.8057
-34.4379 -42.6333 4.0307 0.8027
-34.4105 -43.8964 4.1022 0.7995
-34.3822 -45.2053 4.1771 0.7963
-34.3527 -46.5632 4.2557 0.7929
-7.2870 -10.1854 0.9211 0.9510
-6.2032 -9.5266 0.8361 0.9554
-5.4980 -9.9663 0.8371 0.9554
-5.1004 -10.2871 0.8445 0.9550
-5.0578 -10.5873 0.8629 0.9540
-4.8971 -10.6482 0.8620 0.9541
-11.9143 -29.2153 2.3205 0.8811
-11.4296 -29.2418 2.3091 0.8817
-12.6736 -45.7356 3.4905 0.8267
-11.9528 -45.7200 3.4756 0.8273
-11.0266 -47.8499 3.6114 0.8212
-10.8835 -54.4550 4.0842 0.8003
-10.7969 -58.4533 4.3718 0.7879
-10.6972 -63.0585 4.7040 0.7737
-10.5483 -68.2109 5.0763 0.7582
-9.5513 -68.3632 5.0767 0.7582
-8.9371 -71.5855 5.3058 0.7488
-8.7627 -79.6383 5.8925 0.7252
28.0926 -82.3461 6.3990 0.7054
29.5246 -82.5751 6.4497 0.7035
34.9302 -82.1978 6.5686 0.6989
36.3436 -82.1671 6.6079 0.6974
37.8927 -82.3936 6.6699 0.6951
39.3462 -82.3621 6.7132 0.6934
40.6914 -82.0728 6.7374 0.6925
42.1799 -82.0406 6.7846 0.6907
43.6897 -82.0078 6.8339 0.6889
54.9571 -81.7634 7.2456 0.6736
56.6830 -81.7260 7.3149 0.6711
20.3944 -13.9255 1.8163 0.9057
20.7781 -13.3143 1.8150 0.9058
20.2621 -12.5699 1.7537 0.9088
25.6608 -12.9570 2.1142 0.8911
25.6052 -12.4627 2.0944 0.8921
26.5901 -12.4650 2.1598 0.8889
29.0011 -13.0818 2.3399 0.8802
29.9403 -12.4658 2.3853 0.8780
30.4167 -12.1458 2.4088 0.8769
30.3609 -11.1063 2.3777 0.8784
35.1819 -12.2901 2.7409 0.8612
35.8077 -11.9245 2.7757 0.8595
40.3164 -12.7748 3.1104 0.8440
40.0282 -12.0427 3.0743 0.8456
45.6403 -13.0070 3.4903 0.8267
45.8363 -12.3416 3.4912 0.8266
49.8002 -12.6315 3.7786 0.8138
50.9383 -12.1309 3.8511 0.8106
15.6884 -3.0165 1.1750 0.9379
15.9319 -2.8226 1.1900 0.9372
20.8401 -1.8318 1.5386 0.9195
23.9534 -1.7532 1.7664 0.9082
27.5567 -1.6124 2.0302 0.8952
8.1938 0.3594 0.6032 0.9676
8.2244 0.4812 0.6059 0.9675
40.0714 8.9262 3.0194 0.8482
40.1934 10.1948 3.0497 0.8468
32.8756 8.8519 2.5040 0.8724
30.9138 8.8102 2.3641 0.8790
31.7083 9.5396 2.4353 0.8756
31.3305 9.9275 2.4172 0.8765
25.4696 8.4818 1.9743 0.8979
25.7646 9.0003 2.0072 0.8963
25.8268 9.4477 2.0226 0.8956
25.7166 9.8358 2.0250 0.8954
22.6135 9.4152 1.8015 0.9064
22.1389 9.9864 1.7862 0.9072
21.0870 10.2636 1.7248 0.9102
14.0670 9.9095 1.2655 0.9333
3.5038 9.7995 0.7654 0.9591
1.8182 9.0972 0.6823 0.9635
-0.2661 5.1981 0.3828 0.9793
-0.3218 4.8866 0.3602 0.9805
-0.4042 4.2432 0.3135 0.9830
-0.4878 3.9070 0.2896 0.9843
-0.5980 3.8666 0.2878 0.9844
-0.7157 3.8745 0.2898 0.9843
-0.8354 3.8835 0.2922 0.9842
-0.8975 3.8948 0.2940 0.9841
-1.0239 3.9162 0.2977 0.9839
-1.0902 3.9343 0.3003 0.9838
-2.6817 7.1682 0.5629 0.9698
-2.7418 6.7231 0.5340 0.9713
-2.8040 6.3394 0.5098 0.9726
-2.7079 5.8880 0.4766 0.9743
-2.7313 5.7173 0.4660 0.9749
-2.7537 5.5539 0.4559 0.9754
-2.7751 5.3975 0.4464 0.9760
-2.7956 5.2475 0.4373 0.9764
-2.9109 4.3308 0.3838 0.9793
-2.9245 4.2165 0.3774 0.9796
-2.9534 4.0031 0.3659 0.9802
-2.9795 3.8008 0.3552 0.9808
-2.9913 3.7032 0.3501 0.9811
-3.0449 3.2520 0.3276 0.9823
-3.0756 3.0090 0.3165 0.9829
-3.0959 2.8566 0.3098 0.9832
-3.2207 2.8020 0.3140 0.9830
-3.5803 2.8491 0.3365 0.9818
-3.7120 2.8663 0.3449 0.9814
-4.1430 2.9186 0.3727 0.9799
-4.5042 2.9799 0.3972 0.9786
-4.7100 3.0181 0.4114 0.9778
-4.9301 3.0584 0.4267 0.9770
-1.4753 0.7998 0.1234 0.9933
-1.4718 0.7704 0.1222 0.9934
-1.1603 0.4634 0.0919 0.9950
-1.1554 0.4227 0.0905 0.9951
-1.1488 0.3640 0.0886 0.9952
-1.1473 0.3452 0.0881 0.9952
-1.1459 0.3266 0.0876 0.9952
-1.1447 0.3082 0.0872 0.9953
-1.1435 0.2900 0.0868 0.9953
-1.1411 0.2542 0.0860 0.9953
-1.1391 0.2190 0.0853 0.9954
-1.1312 0.1496 0.0839 0.9954
-1.1247 0.1154 0.0831 0.9955
-1.1215 0.0986 0.0828 0.9955
-1.1184 0.0819 0.0825 0.9955
-1.1154 0.0653 0.0822 0.9955
-1.1125 0.0488 0.0819 0.9955
-1.1096 0.0325 0.0816 0.9956
-1.0375 -0.0152 0.0648 0.9959
-1.0479 -0.0459 0.0655 0.9958
-1.0792 -0.1267 0.0678 0.9957
-1.0860 -0.1437 0.0684 0.9956
-1.0930 -0.1609 0.0690 0.9956
-1.1003 -0.1784 0.0696 0.9955
-1.1056 -0.1959 0.0701 0.9955
-1.1074 -0.2297 0.0706 0.9955
-1.1083 -0.2469 0.0709 0.9955
-1.1092 -0.2641 0.0712 0.9954
-1.1102 -0.2816 0.0715 0.9954
-1.1123 -0.3170 0.0722 0.9954
-1.1147 -0.3532 0.0730 0.9953
-1.1162 -0.3717 0.0734 0.9953
-1.1181 -0.3905 0.0739 0.9953
-1.1223 -0.4292 0.0750 0.9952
-1.1267 -0.4691 0.0762 0.9951
-1.1314 -0.5104 0.0775 0.9950
-1.1716 -0.5702 0.0813 0.9948
-1.2577 -0.6351 0.0879 0.9944
-1.4516 -0.8428 0.1048 0.9933
-50.0448 -30.0423 3.6431 0.7914
-19.2832 -11.9626 1.4163 0.9131
-18.8518 -12.4721 1.4108 0.9134
-42.4115 -29.8767 3.2379 0.8123
-41.0821 -29.8479 3.1694 0.8159
-39.8077 -29.8203 3.1044 0.8193
-36.2766 -29.7437 2.9279 0.8286
-35.1863 -29.7200 2.8747 0.8314
-34.1348 -29.6972 2.8239 0.8342
-32.4202 -29.9140 2.7532 0.8380
-34.6274 -33.8766 3.0235 0.8235
-34.6061 -34.8598 3.0658 0.8213
-34.4742 -36.8189 3.1481 0.8170
-34.3018 -40.0141 3.2895 0.8096
-34.4377 -42.6330 3.4206 0.8028
-7.4293 -9.7680 0.7660 0.9520
-7.2694 -9.8533 0.7642 0.9521
-7.1102 -9.9382 0.7627 0.9522
-6.9515 -10.0227 0.7613 0.9523
-6.2575 -9.3097 0.7001 0.9560
-5.4587 -9.8951 0.7053 0.9557
-5.1106 -9.9402 0.6976 0.9562
-5.0065 -10.4798 0.7249 0.9545
-4.6323 -10.4728 0.7147 0.9551
-4.6056 -10.8378 0.7350 0.9539
-11.4295 -29.2415 1.9595 0.8818
-4.2101 -12.3409 0.8138 0.9491
-15.4655 -47.5979 3.1237 0.8183
-11.2379 -45.7045 2.9376 0.8281
-10.8833 -54.4539 3.4659 0.8005
-10.6969 -63.0570 3.9919 0.7739
-10.5807 -68.4206 4.3212 0.7577
-8.8967 -80.8556 5.0770 0.7218
-8.5445 -89.6921 5.6234 0.6969
27.0699 -87.6502 5.7257 0.6924
26.9692 -83.0027 5.4471 0.7048
34.9302 -82.1978 5.5743 0.6991
36.3436 -82.1671 5.6076 0.6976
39.3179 -82.3027 5.6929 0.6938
42.1799 -82.0405 5.7576 0.6909
43.6897 -82.0078 5.7995 0.6891
48.3586 -81.9066 5.9366 0.6830
49.9655 -81.8717 5.9864 0.6809
51.7617 -82.0928 6.0572 0.6778
55.1295 -82.0198 6.1681 0.6730
20.2350 -14.7015 1.5611 0.9046
20.3036 -14.3029 1.5501 0.9053
19.9029 -13.1676 1.4895 0.9088
4.6323 -2.7808 0.3372 0.9786
26.4309 -14.3300 1.8765 0.8865
29.6408 -12.8525 2.0164 0.8786
35.8770 -12.5329 2.3719 0.8587
36.3617 -12.1090 2.3920 0.8576
39.8272 -12.6197 2.6076 0.8458
39.9702 -12.0252 2.6052 0.8460
41.3009 -11.7703 2.6804 0.8419
47.7390 -12.1087 3.0739 0.8209
55.5588 -12.3763 3.5526 0.7960
16.2406 -3.3695 1.0352 0.9357
16.1830 -2.3816 1.0209 0.9365
17.1982 -1.7653 1.0791 0.9331
20.7957 -1.8279 1.3029 0.9197
27.0442 -1.5825 1.6908 0.8971
92.5959 -2.7069 5.7818 0.6899
92.6231 -1.3536 5.7816 0.6899
8.2238 0.2404 0.5135 0.9676
8.2313 0.4817 0.5146 0.9675
56.2439 9.9644 3.5651 0.7954
31.5998 9.5070 2.0596 0.8761
31.5615 10.0006 2.0664 0.8757
25.3987 8.4582 1.6708 0.8983
26.0536 9.9646 1.7410 0.8942
26.0655 10.4083 1.7518 0.8936
22.9406 9.5514 1.5510 0.9052
22.1261 10.3723 1.5252 0.9067
8.3242 7.9090 0.7167 0.9550
3.4900 9.7608 0.6470 0.9593
-0.2591 5.0620 0.3164 0.9799
-0.3941 4.1366 0.2594 0.9835
-0.4335 3.9395 0.2474 0.9842
-0.7009 3.7942 0.2408 0.9847
-0.8179 3.8024 0.2428 0.9845
-0.8779 3.8097 0.2440 0.9845
-0.9397 3.8219 0.2456 0.9844
-1.0014 3.8304 0.2471 0.9843
-1.0658 3.8461 0.2491 0.9841
-1.2677 3.9016 0.2560 0.9837
-1.4129 3.9517 0.2619 0.9833
-1.4889 3.9798 0.2652 0.9831
-2.7115 6.9371 0.4649 0.9706
-2.7398 6.7182 0.4528 0.9713
-2.8021 6.3350 0.4323 0.9726
-2.7079 5.8880 0.4045 0.9744
-2.7313 5.7173 0.3955 0.9749
-2.7751 5.3975 0.3788 0.9760
-2.8153 5.1034 0.3638 0.9769
-2.8327 4.9619 0.3566 0.9774
-2.8491 4.8255 0.3498 0.9778
-2.8949 4.4459 0.3311 0.9790
-2.9091 4.3280 0.3255 0.9793
-2.9646 3.8978 0.3056 0.9806
-2.9768 3.7974 0.3012 0.9808
-3.0218 3.4224 0.2849 0.9819
-3.0424 3.2493 0.2778 0.9823
-3.0523 3.1659 0.2745 0.9825
-3.0620 3.0845 0.2713 0.9827
-3.0924 2.8534 0.2626 0.9833
-3.1112 2.7877 0.2607 0.9834
-3.4547 2.8326 0.2788 0.9823
-3.5802 2.8490 0.2856 0.9818
-3.7119 2.8663 0.2927 0.9814
-4.5062 2.9813 0.3372 0.9786
-1.4516 0.8429 0.1048 0.9933
-1.4422 0.7548 0.1016 0.9935
-1.1715 0.5702 0.0813 0.9948
-1.1290 0.4895 0.0768 0.9951
-1.1244 0.4490 0.0756 0.9952
-1.1223 0.4292 0.0750 0.9952
-1.1202 0.4098 0.0744 0.9952
-1.1181 0.3906 0.0739 0.9953
-1.1162 0.3717 0.0734 0.9953
-1.1147 0.3532 0.0730 0.9953
-1.1135 0.3350 0.0726 0.9954
-1.1124 0.3170 0.0722 0.9954
-1.1102 0.2816 0.0715 0.9954
-1.1092 0.2642 0.0712 0.9954
-1.1083 0.2469 0.0709 0.9955
-1.1065 0.2127 0.0703 0.9955
-1.0860 0.1436 0.0684 0.9956
-1.0598 0.0776 0.0663 0.9958
-1.0538 0.0616 0.0659 0.9958
-0.9803 -0.0430 0.0503 0.9961
-0.9845 -0.0576 0.0506 0.9961
-0.9898 -0.0724 0.0509 0.9960
-0.9951 -0.0875 0.0512 0.9960
-1.0063 -0.1182 0.0520 0.9960
-1.0121 -0.1339 0.0524 0.9959
-1.0242 -0.1660 0.0532 0.9959
-1.0305 -0.1825 0.0537 0.9958
-1.0407 -0.2318 0.0547 0.9957
-1.0483 -0.2823 0.0557 0.9957
-1.0539 -0.3171 0.0565 0.9956
-1.0621 -0.3537 0.0574 0.9955
-1.0733 -0.3926 0.0586 0.9954
-1.0750 -0.4111 0.0590 0.9954
-1.0767 -0.4299 0.0595 0.9954
-1.0785 -0.4490 0.0599 0.9953
-1.0824 -0.4882 0.0609 0.9953
-1.0867 -0.5289 0.0620 0.9952
-1.4204 -0.7434 0.0822 0.9936
-1.4171 -0.7953 0.0834 0.9935
-1.4171 -0.8228 0.0841 0.9935
-19.1826 -12.2919 1.1687 0.9128
-43.7999 -29.9068 2.7206 0.8086
-41.5699 -30.2023 2.6358 0.8140
-40.2804 -30.1744 2.5817 0.8174
-37.4083 -29.7682 2.4523 0.8257
-36.2766 -29.7437 2.4064 0.8287
-35.1863 -29.7201 2.3626 0.8315
-14.2262 -12.3767 0.9673 0.9273
-33.1195 -29.6752 2.2811 0.8368
-34.5614 -36.9120 2.5939 0.8167
-34.5142 -39.0910 2.6750 0.8115
-34.4894 -40.2328 2.7183 0.8088
-34.4638 -41.4126 2.7637 0.8059
-34.4100 -43.8958 2.8611 0.7998
-7.1243 -9.9579 0.6281 0.9521
-6.9802 -10.0641 0.6283 0.9521
-5.8203 -9.5369 0.5731 0.9562
-5.5023 -9.6383 0.5693 0.9565
-5.4348 -9.8516 0.5771 0.9559
-5.0980 -10.2823 0.5887 0.9551
-11.4294 -29.2412 1.6105 0.8818
-11.4026 -30.4786 1.6693 0.8778
-4.2026 -12.3187 0.6677 0.9492
-15.4655 -47.5979 2.5673 0.8184
-14.6950 -47.5812 2.5545 0.8192
-12.6737 -45.7357 2.4345 0.8269
-11.0262 -47.8482 2.5188 0.8215
-11.3566 -52.7959 2.7702 0.8055
-1.6535 -8.2733 0.4328 0.9668
-1.4031 -8.2711 0.4303 0.9670
-1.2789 -8.2701 0.4293 0.9670
-0.6652 -8.2596 0.4251 0.9674
-0.5460 -8.2913 0.4262 0.9673
-0.0589 -2.6870 0.1379 0.9893
0.2652 -12.0962 0.6206 0.9527
0.4261 -11.6585 0.5984 0.9543
27.0703 -87.6516 4.7058 0.6925
26.9696 -83.0040 4.4769 0.7050
28.0926 -82.3461 4.4631 0.7058
30.7852 -82.2877 4.5068 0.7034
33.5332 -82.2281 4.5553 0.7007
36.3436 -82.1671 4.6088 0.6978
37.7743 -82.1361 4.6375 0.6962
40.6914 -82.0728 4.6991 0.6929
42.1799 -82.0405 4.7320 0.6911
43.6897 -82.0078 4.7665 0.6892
45.2219 -81.9746 4.8024 0.6873
48.2879 -81.7869 4.8720 0.6836
51.7244 -82.0336 4.9747 0.6781
53.3917 -81.9974 5.0193 0.6758
20.2947 -13.0046 1.2364 0.9080
4.6324 -2.7809 0.2771 0.9786
25.4049 -13.2971 1.4709 0.8915
25.8473 -13.0512 1.4853 0.8905
30.5195 -11.6727 1.6761 0.8773
35.6985 -13.0589 1.9499 0.8588
36.6614 -12.2089 1.9821 0.8566
40.3963 -12.1534 2.1639 0.8445
46.1207 -11.6982 2.4408 0.8265
50.3996 -12.0026 2.6576 0.8126
55.7256 -12.4134 2.9286 0.7956
16.0326 -2.8404 0.8352 0.9369
16.0010 -2.5943 0.8315 0.9371
16.2550 -2.3923 0.8428 0.9363
16.3087 -2.1572 0.8439 0.9362
20.5152 -2.1057 1.0579 0.9207
23.7875 -2.0908 1.2249 0.9088
27.3734 -1.6018 1.4066 0.8960
8.2127 0.2401 0.4215 0.9676
60.9895 8.9757 3.1623 0.7812
50.4723 9.7045 2.6365 0.8139
40.6979 9.0659 2.1388 0.8462
40.3492 9.6091 2.1277 0.8469
39.9500 10.1330 2.1142 0.8478
22.5794 9.4010 1.2546 0.9067
21.8505 9.8562 1.2296 0.9085
21.5852 10.1187 1.2229 0.9089
8.2421 7.8311 0.5832 0.9555
8.0614 8.1205 0.5870 0.9552
3.4812 9.7362 0.5304 0.9594
-0.3857 4.0480 0.2086 0.9838
-0.4223 3.8382 0.1981 0.9847
-0.4665 3.7361 0.1931 0.9850
-0.5187 3.7121 0.1923 0.9851
-0.6300 3.7139 0.1932 0.9850
-0.8012 3.7249 0.1954 0.9849
-0.8593 3.7289 0.1963 0.9848
-0.9197 3.7405 0.1976 0.9847
-0.9807 3.7513 0.1989 0.9846
-1.0424 3.7619 0.2002 0.9845
-1.1699 3.7879 0.2034 0.9842
-1.2374 3.8084 0.2054 0.9841
-1.3069 3.8307 0.2076 0.9839
-1.3780 3.8540 0.2100 0.9837
-1.5280 3.9093 0.2153 0.9833
-2.7378 6.7134 0.3719 0.9714
-2.7693 6.5167 0.3632 0.9720
-2.8002 6.3307 0.3551 0.9727
-2.7956 5.2474 0.3050 0.9765
-2.8136 5.1002 0.2988 0.9769
-2.8471 4.8223 0.2873 0.9778
-2.8630 4.6912 0.2819 0.9782
-2.8783 4.5648 0.2768 0.9786
-2.8930 4.4430 0.2720 0.9790
-2.9344 4.1015 0.2587 0.9800
-2.9488 3.9970 0.2548 0.9803
-2.9619 3.8942 0.2510 0.9806
-2.9974 3.6017 0.2404 0.9814
-3.0398 3.2466 0.2281 0.9823
-3.0498 3.1633 0.2254 0.9826
-3.0596 3.0820 0.2228 0.9828
-3.0890 2.8502 0.2156 0.9833
-3.3350 2.8169 0.2239 0.9827
-3.4547 2.8325 0.2292 0.9823
-3.5801 2.8490 0.2347 0.9818
-4.5082 2.9826 0.2773 0.9786
-1.4486 0.8987 0.0874 0.9932
-1.4171 0.7953 0.0834 0.9935
-1.4187 0.7691 0.0828 0.9936
-1.0845 0.5084 0.0614 0.9952
-1.0824 0.4882 0.0609 0.9953
-1.0804 0.4685 0.0604 0.9953
-1.0767 0.4300 0.0595 0.9954
-1.0733 0.3927 0.0586 0.9954
-1.0704 0.3739 0.0582 0.9955
-1.0620 0.3537 0.0574 0.9955
-1.0569 0.3348 0.0569 0.9956
-1.0539 0.3171 0.0565 0.9956
-1.0510 0.2995 0.0561 0.9956
-1.0483 0.2823 0.0557 0.9957
-1.0457 0.2652 0.0553 0.9957
-1.0407 0.2318 0.0547 0.9957
-1.0383 0.2154 0.0544 0.9958
-1.0361 0.1992 0.0541 0.9958
-1.0242 0.1661 0.0532 0.9959
-1.0121 0.1339 0.0524 0.9959
-1.0006 0.1027 0.0516 0.9960
-0.9845 0.0576 0.0506 0.9961
-0.9763 0.0285 0.0501 0.9961
-0.9723 0.0142 0.0499 0.9961
-0.9115 0.0000 0.0366 0.9964
-0.9184 -0.0269 0.0369 0.9963
-0.9219 -0.0404 0.0371 0.9963
-0.9292 -0.0680 0.0374 0.9963
-0.9331 -0.0820 0.0376 0.9963
-0.9528 -0.1402 0.0387 0.9962
-0.9580 -0.1553 0.0390 0.9961
-0.9747 -0.2171 0.0401 0.9960
-0.9766 -0.2326 0.0403 0.9960
-0.9786 -0.2482 0.0406 0.9960
-0.9807 -0.2641 0.0408 0.9959
-0.9829 -0.2801 0.0411 0.9959
-0.9851 -0.2963 0.0413 0.9959
-0.9938 -0.3309 0.0421 0.9958
-1.0014 -0.3498 0.0426 0.9958
-1.0091 -0.3691 0.0432 0.9957
-1.0158 -0.3885 0.0437 0.9957
-1.0216 -0.4079 0.0442 0.9956
-1.0229 -0.4259 0.0445 0.9956
-1.0243 -0.4441 0.0449 0.9955
-1.0257 -0.4627 0.0452 0.9955
-1.0304 -0.5203 0.0464 0.9954
-1.2465 -0.6758 0.0570 0.9943
-1.4130 -0.7930 0.0651 0.9935
-1.4124 -0.8200 0.0656 0.9935
-45.2519 -29.9383 2.1808 0.8048
-43.7998 -29.9068 2.1316 0.8087
-40.2804 -30.1744 2.0228 0.8175
-39.0423 -30.1475 1.9826 0.8208
-37.4083 -29.7683 1.9215 0.8258
-36.2766 -29.7437 1.8855 0.8288
-32.4198 -29.9137 1.7729 0.8381
-32.4009 -30.7848 1.7963 0.8362
-34.6270 -33.8762 1.9470 0.8237
-34.6057 -34.8594 1.9742 0.8215
-34.4636 -41.4123 2.1654 0.8060
-34.4098 -43.8955 2.2417 0.7999
-7.4914 -9.8495 0.4974 0.9517
-7.0457 -9.8480 0.4867 0.9527
-6.9555 -10.0285 0.4905 0.9523
-6.4221 -9.5545 0.4627 0.9550
-6.1763 -9.4854 0.4549 0.9557
-6.0682 -9.6239 0.4573 0.9555
-5.5123 -9.3364 0.4358 0.9575
-5.3983 -9.4561 0.4376 0.9573
-5.2832 -9.5768 0.4396 0.9572
-5.2385 -10.1889 0.4605 0.9552
-5.0403 -10.1660 0.4561 0.9556
-4.7102 -10.2416 0.4531 0.9559
-4.5010 -10.5918 0.4625 0.9550
-4.3510 -10.6691 0.4631 0.9549
-11.4293 -29.2408 1.2618 0.8819
-4.1970 -12.3023 0.5224 0.9493
-15.4655 -47.5979 2.0115 0.8184
-14.6950 -47.5812 2.0015 0.8193
-12.6736 -45.7357 1.9075 0.8270
-1.6441 -8.2261 0.3372 0.9670
-1.5190 -8.2235 0.3361 0.9671
-1.1486 -8.2209 0.3336 0.9673
-1.0259 -8.2170 0.3328 0.9674
-0.6612 -8.2098 0.3310 0.9676
-0.4196 -8.1967 0.3299 0.9677
-0.2994 -8.1926 0.3295 0.9677
-0.0598 -8.1826 0.3289 0.9678
0.0598 -8.1861 0.3290 0.9678
0.7843 -11.9100 0.4797 0.9533
27.0708 -87.6530 3.6871 0.6926
26.9700 -83.0053 3.5078 0.7051
28.0925 -82.3461 3.4969 0.7059
29.4323 -82.3171 3.5136 0.7047
30.7852 -82.2877 3.5312 0.7035
32.1518 -82.2581 3.5497 0.7022
33.5333 -82.2281 3.5691 0.7008
34.9302 -82.1978 3.5896 0.6994
42.1799 -82.0406 3.7076 0.6912
46.7779 -81.9409 3.7922 0.6854
49.9656 -81.8717 3.8550 0.6812
51.6000 -81.8363 3.8884 0.6789
54.9571 -81.7634 3.9596 0.6741
56.6831 -81.7260 3.9974 0.6716
11.9798 -10.7339 0.6465 0.9376
25.3354 -13.2608 1.1493 0.8918
25.4143 -12.8325 1.1443 0.8923
30.2340 -13.1097 1.3245 0.8764
30.3710 -12.6452 1.3222 0.8766
35.5600 -13.0082 1.5219 0.8593
35.9974 -12.5750 1.5325 0.8584
40.3252 -12.7775 1.7002 0.8442
46.1062 -12.4143 1.9191 0.8260
50.9164 -12.9146 2.1112 0.8104
52.2058 -12.4327 2.1569 0.8067
56.5549 -12.5982 2.3288 0.7930
16.2549 -3.3724 0.6672 0.9357
16.3276 -2.4029 0.6633 0.9361
16.4371 -1.9302 0.6652 0.9359
20.5758 -2.1120 0.8313 0.9205
23.7420 -2.0869 0.9579 0.9090
92.0082 -1.3446 3.6984 0.6919
8.1818 0.3589 0.3292 0.9677
60.9245 8.9662 2.4750 0.7815
56.1511 9.1039 2.2863 0.7963
55.5378 9.8393 2.2669 0.7979
50.4750 9.7051 2.0658 0.8140
40.6662 8.4371 1.6693 0.8468
40.6566 9.0567 1.6741 0.8464
17.4860 4.1643 0.7224 0.9306
17.0696 4.5961 0.7105 0.9317
17.1808 5.1689 0.7211 0.9307
17.2378 5.4620 0.7268 0.9302
22.6753 9.4409 0.9872 0.9064
22.2894 9.6648 0.9764 0.9073
21.4281 10.0451 0.9512 0.9096
20.2781 9.8699 0.9064 0.9137
22.2228 11.6316 1.0081 0.9045
8.2215 7.8114 0.4558 0.9556
8.0339 8.0929 0.4583 0.9554
3.4759 9.7216 0.4150 0.9595
1.8164 9.0884 0.3726 0.9636
-0.1249 5.6957 0.2290 0.9775
-0.1935 5.2933 0.2129 0.9790
-0.2460 4.8060 0.1934 0.9809
-0.2942 4.4673 0.1799 0.9822
-0.4130 3.7535 0.1518 0.9850
-0.7289 3.6468 0.1495 0.9852
-0.7852 3.6504 0.1501 0.9852
-1.1448 3.7068 0.1559 0.9846
-1.2087 3.7198 0.1572 0.9845
-1.4889 3.8093 0.1644 0.9838
-2.7358 6.7086 0.2912 0.9714
-2.7983 6.3264 0.2780 0.9727
-2.7536 5.5539 0.2491 0.9755
-2.7750 5.3975 0.2439 0.9760
-2.7937 5.2439 0.2388 0.9765
-2.8116 5.0965 0.2339 0.9770
-2.8452 4.8191 0.2249 0.9778
-2.8611 4.6881 0.2207 0.9783
-2.8764 4.5619 0.2168 0.9786
-2.9190 4.2087 0.2059 0.9797
-3.0058 3.5064 0.1856 0.9817
-3.0271 3.3292 0.1808 0.9821
-3.0373 3.2439 0.1786 0.9824
-3.0571 3.0795 0.1744 0.9828
-3.0855 2.8470 0.1687 0.9833
-3.2205 2.8019 0.1716 0.9831
-3.5801 2.8489 0.1839 0.9819
-3.9961 2.9034 0.1985 0.9804
-4.1476 2.9218 0.2039 0.9799
-4.3177 2.9481 0.2101 0.9793
-1.4127 0.8480 0.0662 0.9934
-1.0288 0.5007 0.0460 0.9954
-1.0243 0.4442 0.0449 0.9955
-1.0216 0.4079 0.0442 0.9956
-1.0091 0.3691 0.0432 0.9957
-1.0015 0.3498 0.0426 0.9958
-0.9874 0.3129 0.0416 0.9959
-0.9828 0.2801 0.0411 0.9959
-0.9786 0.2482 0.0406 0.9960
-0.9729 0.2018 0.0399 0.9960
-0.9477 0.1254 0.0384 0.9962
-0.9427 0.1107 0.0381 0.9962
-0.9292 0.0680 0.0374 0.9963
-0.9255 0.0541 0.0373 0.9963
-0.9219 0.0405 0.0371 0.9963
-0.9184 0.0269 0.0369 0.9963
-0.8609 0.0000 0.0251 0.9966
-0.8670 -0.0254 0.0252 0.9965
-0.8701 -0.0382 0.0253 0.9965
-0.8832 -0.0906 0.0258 0.9965
-0.8867 -0.1041 0.0260 0.9964
-0.8910 -0.1179 0.0262 0.9964
-0.9045 -0.1602 0.0267 0.9963
-0.9197 -0.2333 0.0276 0.9962
-0.9213 -0.2480 0.0278 0.9962
-0.9230 -0.2630 0.0279 0.9962
-0.9403 -0.3284 0.0290 0.9960
-0.9470 -0.3464 0.0293 0.9960
-0.9539 -0.3648 0.0297 0.9959
-0.9657 -0.4020 0.0304 0.9958
-0.9792 -0.5125 0.0322 0.9956
-1.1001 -0.6174 0.0367 0.9950
-1.4151 -0.8495 0.0480 0.9934
-1.4229 -0.8827 0.0487 0.9933
-41.5700 -30.2023 1.4951 0.8141
-40.2804 -30.1744 1.4644 0.8176
-39.0423 -30.1475 1.4353 0.8209
-14.1875 -12.3431 0.5472 0.9275
-33.1196 -29.6752 1.2939 0.8370
-32.4196 -29.9135 1.2835 0.8382
-32.4007 -30.7846 1.3004 0.8362
-10.4089 -11.1169 0.4431 0.9409
-10.3770 -11.4125 0.4488 0.9401
-10.1517 -11.4979 0.4463 0.9405
-34.4890 -40.2323 1.5419 0.8089
-34.4369 -42.6321 1.5946 0.8031
-6.9803 -10.0643 0.3564 0.9522
-6.4544 -9.6026 0.3367 0.9548
-6.1492 -9.4437 0.3279 0.9559
-6.0310 -9.5650 0.3290 0.9558
-5.6912 -9.3254 0.3179 0.9572
-5.5506 -9.4012 0.3177 0.9573
-5.4359 -9.5221 0.3190 0.9571
-5.3202 -9.6440 0.3205 0.9569
-5.2034 -9.7670 0.3220 0.9567
-4.6234 -10.0530 0.3220 0.9567
-4.4603 -10.0840 0.3208 0.9568
-4.3996 -10.7882 0.3390 0.9544
-11.4291 -29.2404 0.9135 0.8819
-11.4023 -30.4779 0.9468 0.8779
-17.0307 -47.6319 1.4719 0.8167
-4.2020 -12.3170 0.3787 0.9493
-14.6950 -47.5812 1.4490 0.8193
-12.6737 -45.7357 1.3809 0.8270
-1.8864 -8.1858 0.2444 0.9669
-1.7602 -8.1831 0.2436 0.9671
-1.3867 -8.1746 0.2413 0.9674
-1.2640 -8.1739 0.2407 0.9674
-1.0199 -8.1688 0.2395 0.9676
-0.7776 -8.1627 0.2386 0.9677
-0.6573 -8.1605 0.2382 0.9678
-0.0965 -2.6402 0.0769 0.9895
-0.0595 -8.1362 0.2367 0.9680
0.0594 -8.1362 0.2367 0.9680
0.1785 -8.1425 0.2370 0.9679
0.2978 -8.1488 0.2373 0.9679
27.0712 -87.6544 2.6693 0.6927
28.0925 -82.3461 2.5316 0.7060
29.4323 -82.3170 2.5437 0.7048
32.1518 -82.2581 2.5698 0.7023
33.5333 -82.2281 2.5839 0.7009
34.9302 -82.1978 2.5987 0.6995
36.3437 -82.1671 2.6142 0.6980
39.2232 -82.1047 2.6476 0.6948
42.1799 -82.0405 2.6842 0.6913
45.2220 -81.9746 2.7241 0.6875
46.7778 -81.9409 2.7454 0.6855
51.6000 -81.8363 2.8150 0.6790
53.2633 -81.8002 2.8402 0.6766
54.9572 -81.7635 2.8665 0.6742
91.8171 -36.6637 2.8767 0.6733
55.6111 -13.2437 1.6634 0.7955
16.2413 -2.6333 0.4787 0.9363
23.8351 -2.0950 0.6962 0.9087
27.0853 -1.9824 0.7902 0.8970
31.1811 -1.8245 0.9088 0.8825
35.2269 -1.0298 1.0254 0.8685
92.0606 -1.3454 2.6790 0.6918
73.5541 8.6376 2.1549 0.7435
65.7840 9.6814 1.9347 0.7664
60.3178 9.7794 1.7780 0.7831
50.6184 10.5018 1.5042 0.8131
18.1595 4.0452 0.5413 0.9283
17.3768 4.1382 0.5198 0.9310
17.0282 4.5850 0.5131 0.9319
17.0921 5.1423 0.5193 0.9311
17.1466 5.4331 0.5234 0.9306
17.2036 5.7291 0.5276 0.9300
17.2615 6.0300 0.5320 0.9294
21.8822 9.4883 0.6940 0.9090
21.1984 10.3179 0.6860 0.9100
21.1322 11.0607 0.6940 0.9090
8.4328 7.7809 0.3339 0.9551
8.2215 7.8114 0.3300 0.9556
-0.3671 3.8537 0.1126 0.9846
-0.4070 3.6985 0.1083 0.9852
-0.4530 3.6285 0.1064 0.9855
-0.5527 3.5744 0.1052 0.9856
-0.6058 3.5713 0.1054 0.9856
-0.6599 3.5728 0.1057 0.9856
-0.7699 3.5790 0.1065 0.9855
-0.8255 3.5823 0.1070 0.9854
-0.8817 3.5857 0.1074 0.9853
-0.9404 3.5970 0.1082 0.9852
-1.1208 3.6291 0.1105 0.9849
-1.2468 3.6547 0.1124 0.9847
-1.5279 3.7466 0.1177 0.9839
-2.7654 6.5075 0.2057 0.9721
-2.7079 5.8879 0.1886 0.9744
-2.7536 5.5538 0.1804 0.9755
-2.7730 5.3936 0.1765 0.9760
-2.7917 5.2402 0.1728 0.9765
-2.8267 4.9516 0.1659 0.9774
-2.8592 4.6850 0.1597 0.9783
-2.8746 4.5589 0.1568 0.9787
-2.8893 4.4373 0.1541 0.9790
-2.9036 4.3199 0.1515 0.9794
-2.9172 4.2061 0.1489 0.9797
-2.9303 4.0959 0.1465 0.9800
-2.9438 3.9902 0.1443 0.9804
-2.9565 3.8872 0.1421 0.9806
-3.0033 3.5034 0.1343 0.9817
-3.0348 3.2412 0.1292 0.9824
-3.0546 3.0770 0.1262 0.9828
-3.0735 2.9202 0.1234 0.9832
-3.0827 2.8443 0.1220 0.9834
-3.2204 2.8018 0.1242 0.9831
-3.3348 2.8167 0.1270 0.9827
-3.4545 2.8324 0.1300 0.9823
-3.5800 2.8488 0.1331 0.9819
-3.7117 2.8661 0.1364 0.9814
-4.1492 2.9229 0.1477 0.9799
-4.3196 2.9494 0.1522 0.9793
-4.7122 3.0195 0.1628 0.9779
-1.4230 0.8827 0.0487 0.9933
-1.4147 0.8214 0.0476 0.9935
-0.9791 0.5125 0.0322 0.9956
-0.9758 0.4574 0.0314 0.9957
-0.9718 0.4214 0.0308 0.9958
-0.9657 0.4021 0.0304 0.9958
-0.9539 0.3648 0.0297 0.9959
-0.9403 0.3285 0.0290 0.9960
-0.9338 0.3110 0.0286 0.9961
-0.9275 0.2939 0.0283 0.9961
-0.9230 0.2630 0.0279 0.9962
-0.9166 0.2042 0.0273 0.9962
-0.9140 0.1896 0.0272 0.9963
-0.9092 0.1748 0.0269 0.9963
-0.9045 0.1603 0.0267 0.9963
-0.8999 0.1459 0.0265 0.9964
-0.8954 0.1318 0.0263 0.9964
-0.8910 0.1179 0.0262 0.9964
-0.8799 0.0773 0.0257 0.9965
-0.8733 0.0511 0.0255 0.9965
-0.8670 0.0254 0.0252 0.9965
-0.8639 0.0126 0.0251 0.9965
-0.8239 -0.0361 0.0149 0.9967
-0.8267 -0.0484 0.0149 0.9967
-0.8354 -0.0857 0.0151 0.9966
-0.8384 -0.0984 0.0152 0.9966
-0.8446 -0.1243 0.0154 0.9966
-0.8486 -0.1376 0.0155 0.9966
-0.8525 -0.1510 0.0156 0.9965
-0.8565 -0.1647 0.0157 0.9965
-0.8606 -0.1785 0.0158 0.9965
-0.8663 -0.2063 0.0160 0.9964
-0.8688 -0.2339 0.0162 0.9964
-0.8701 -0.2479 0.0163 0.9964
-0.8919 -0.3262 0.0171 0.9962
-0.9141 -0.3963 0.0179 0.9960
-0.9299 -0.4526 0.0186 0.9959
-0.9306 -0.4699 0.0188 0.9958
-0.9337 -0.5421 0.0194 0.9957
-1.1482 -0.6893 0.0241 0.9947
-14.9746 -9.2897 0.3174 0.9319
-45.2519 -29.9383 0.9772 0.8049
-42.9151 -30.2315 0.9454 0.8106
-40.2804 -30.1744 0.9064 0.8176
-39.0423 -30.1475 0.8883 0.8209
-36.2766 -29.7437 0.8448 0.8289
-14.2114 -12.3639 0.3392 0.9274
-10.3343 -11.0372 0.2723 0.9413
-10.1181 -11.4598 0.2753 0.9407
-34.4632 -41.4118 0.9703 0.8061
-34.4367 -42.6318 0.9870 0.8031
-7.1896 -9.7451 0.2181 0.9527
-7.0057 -9.7922 0.2168 0.9530
-5.9919 -9.5029 0.2023 0.9561
-5.7275 -9.3848 0.1980 0.9570
-5.5878 -9.4641 0.1979 0.9570
-5.3577 -9.7120 0.1998 0.9566
-5.1216 -9.9615 0.2017 0.9562
-5.0017 -10.0881 0.2028 0.9560
-4.5393 -9.8701 0.1957 0.9575
-4.4722 -10.1109 0.1991 0.9567
-4.3442 -10.6526 0.2072 0.9550
-4.1520 -10.6226 0.2054 0.9554
-17.0307 -47.6319 0.9110 0.8168
-4.2109 -12.3431 0.2349 0.9492
-15.4655 -47.5979 0.9013 0.8185
-14.6950 -47.5812 0.8968 0.8194
-2.2582 -8.1492 0.1523 0.9667
-2.1295 -8.1455 0.1516 0.9669
-2.0021 -8.1425 0.1510 0.9670
-1.7504 -8.1375 0.1499 0.9672
-1.5019 -8.1312 0.1489 0.9675
-1.3788 -8.1279 0.1485 0.9676
-1.2568 -8.1267 0.1481 0.9676
-1.1352 -8.1250 0.1477 0.9677
-0.8932 -8.1176 0.1471 0.9679
-0.7730 -8.1140 0.1468 0.9679
-0.6533 -8.1118 0.1466 0.9680
-0.0588 -2.6829 0.0483 0.9893
0.1774 -8.0929 0.1458 0.9681
0.4149 -8.1054 0.1462 0.9681
0.6506 -8.0779 0.1459 0.9681
27.0716 -87.6558 1.6522 0.6928
28.0926 -82.3461 1.5669 0.7060
29.4323 -82.3171 1.5744 0.7049
32.1518 -82.2581 1.5906 0.7023
33.5332 -82.2281 1.5993 0.7010
34.9302 -82.1978 1.6084 0.6996
42.1799 -82.0406 1.6613 0.6914
45.2220 -81.9746 1.6860 0.6876
46.7779 -81.9408 1.6992 0.6856
49.9655 -81.8717 1.7273 0.6813
51.6000 -81.8363 1.7423 0.6791
53.2633 -81.8002 1.7579 0.6767
11.9802 -10.7343 0.2897 0.9377
22.4411 -8.5830 0.4327 0.9084
40.5327 -12.8432 0.7657 0.8436
15.9353 -3.0640 0.2922 0.9371
16.4745 -2.4246 0.2999 0.9356
16.3798 -2.1666 0.2976 0.9360
16.9774 -1.9937 0.3079 0.9339
20.6424 -2.1188 0.3737 0.9203
35.3247 -1.0326 0.6364 0.8682
51.1659 -0.7477 0.9216 0.8149
8.4781 0.2479 0.1528 0.9666
8.1339 0.3568 0.1466 0.9680
94.6970 9.7199 1.7144 0.6833
33.1583 5.3759 0.6050 0.8743
33.5183 6.4447 0.6147 0.8724
16.9923 4.5753 0.3169 0.9320
17.0237 4.8516 0.3188 0.9316
17.4426 6.6712 0.3363 0.9280
23.2579 9.2871 0.4510 0.9047
22.0320 9.5532 0.4325 0.9084
21.4612 9.6807 0.4240 0.9101
21.1720 9.9250 0.4211 0.9107
20.9792 10.2112 0.4202 0.9109
21.0771 11.0319 0.4284 0.9092
8.4328 7.7809 0.2066 0.9551
8.2214 7.8114 0.2042 0.9556
8.0953 7.9198 0.2040 0.9557
1.8152 9.0824 0.1668 0.9636
0.0420 5.7509 0.1036 0.9773
-0.1775 4.8568 0.0875 0.9807
-0.2781 4.2235 0.0762 0.9832
-0.3551 3.7272 0.0674 0.9851
-0.4910 3.5138 0.0639 0.9859
-0.5429 3.5107 0.0640 0.9859
-0.5951 3.5076 0.0641 0.9859
-0.8096 3.5133 0.0649 0.9857
-0.8646 3.5163 0.0652 0.9856
-0.9212 3.5236 0.0656 0.9855
-0.9794 3.5343 0.0660 0.9854
-1.1580 3.5638 0.0675 0.9851
-1.3507 3.6103 0.0694 0.9847
-1.4188 3.6298 0.0702 0.9845
-2.7946 6.3180 0.1244 0.9727
-2.7079 5.8879 0.1167 0.9744
-2.7897 5.2364 0.1069 0.9765
-2.8248 4.9482 0.1026 0.9775
-2.8727 4.5560 0.0970 0.9787
-2.8173 3.9379 0.0872 0.9808
-2.9105 3.8266 0.0866 0.9809
-3.0101 3.4092 0.0819 0.9820
-3.0201 3.3215 0.0808 0.9822
-3.0299 3.2360 0.0798 0.9824
-3.0395 3.1526 0.0789 0.9826
-3.0580 2.9917 0.0770 0.9830
-3.1096 2.7862 0.0752 0.9834
-3.2205 2.8019 0.0769 0.9831
-3.3354 2.8173 0.0786 0.9827
-3.5804 2.8491 0.0824 0.9819
-3.7119 2.8662 0.0845 0.9814
-3.8502 2.8842 0.0866 0.9809
-3.9959 2.9032 0.0890 0.9804
-4.1498 2.9234 0.0914 0.9799
-4.3202 2.9499 0.0942 0.9793
-4.5095 2.9835 0.0974 0.9786
-4.7120 3.0194 0.1008 0.9779
-0.9299 0.4526 0.0186 0.9959
-0.9248 0.4335 0.0184 0.9959
-0.9194 0.4147 0.0182 0.9960
-0.9090 0.3785 0.0177 0.9961
-0.9037 0.3609 0.0175 0.9961
-0.8977 0.3434 0.0173 0.9962
-0.8862 0.3096 0.0169 0.9963
-0.8807 0.2933 0.0167 0.9963
-0.8753 0.2773 0.0165 0.9963
-0.8675 0.2200 0.0161 0.9964
-0.8648 0.1927 0.0160 0.9965
-0.8606 0.1785 0.0158 0.9965
-0.8565 0.1647 0.0157 0.9965
-0.8525 0.1511 0.0156 0.9965
-0.8485 0.1376 0.0155 0.9966
-0.8384 0.0985 0.0152 0.9966
-0.8354 0.0858 0.0151 0.9966
-0.8239 0.0362 0.0149 0.9967
-0.8184 0.0120 0.0147 0.9967
-0.7750 0.0000 0.0054 0.9969
-0.7824 -0.0343 0.0054 0.9969
-0.7849 -0.0459 0.0054 0.9969
-0.7874 -0.0576 0.0055 0.9968
-0.7925 -0.0814 0.0055 0.9968
-0.7952 -0.0934 0.0055 0.9968
-0.8032 -0.1302 0.0056 0.9968
-0.8131 -0.1687 0.0058 0.9967
-0.8168 -0.1820 0.0058 0.9967
-0.8210 -0.2082 0.0059 0.9966
-0.8229 -0.2345 0.0059 0.9966
-0.8380 -0.2928 0.0061 0.9965
-0.8528 -0.3405 0.0064 0.9963
-0.8629 -0.3741 0.0065 0.9962
-0.8672 -0.3912 0.0066 0.9962
-0.8763 -0.4265 0.0067 0.9961
-0.8859 -0.4636 0.0069 0.9960
-0.8884 -0.4816 0.0070 0.9960
-0.8887 -0.4988 0.0071 0.9959
-0.8891 -0.5162 0.0071 0.9959
-0.8895 -0.5339 0.0072 0.9959
-0.9721 -0.6030 0.0079 0.9954
-17.5143 -11.2229 0.1441 0.9202
-16.0981 -11.3403 0.1364 0.9243
-15.3039 -11.4643 0.1324 0.9264
-36.2766 -29.7437 0.3249 0.8289
-14.2625 -12.4083 0.1309 0.9272
-32.4192 -29.9131 0.3055 0.8382
-10.6482 -10.7262 0.1047 0.9413
-10.4797 -10.8697 0.1046 0.9414
-10.2325 -10.9284 0.1037 0.9419
-9.9937 -11.3189 0.1046 0.9414
-9.9645 -11.6239 0.1060 0.9406
-34.4365 -42.6316 0.3796 0.8031
-6.9869 -9.4704 0.0815 0.9540
-6.9203 -9.6728 0.0824 0.9535
-6.2708 -9.6305 0.0796 0.9551
-5.7438 -9.4115 0.0764 0.9569
-5.3718 -9.4097 0.0750 0.9576
-5.3349 -9.6707 0.0765 0.9568
-5.2234 -9.8046 0.0769 0.9565
-4.9773 -9.6808 0.0754 0.9574
-4.9867 -10.0580 0.0778 0.9561
-4.5524 -9.8987 0.0755 0.9574
-4.3770 -9.8956 0.0749 0.9576
-4.3092 -10.1402 0.0763 0.9569
-4.5000 -11.0345 0.0825 0.9534
-11.4288 -29.2398 0.2174 0.8820
-2.4371 -7.8912 0.0572 0.9675
-2.1180 -8.1014 0.0580 0.9671
-1.9912 -8.0980 0.0578 0.9672
-1.8654 -8.0947 0.0575 0.9673
-1.7407 -8.0924 0.0573 0.9674
-1.4936 -8.0862 0.0570 0.9676
-1.0080 -8.0743 0.0564 0.9680
-0.6495 -8.0636 0.0560 0.9682
-0.5307 -8.0588 0.0559 0.9682
-0.4123 -8.0550 0.0559 0.9683
-0.0964 -2.6369 0.0183 0.9895
-0.0588 -2.6812 0.0186 0.9893
-0.0193 -2.6313 0.0182 0.9895
0.0588 -8.0483 0.0557 0.9683
0.1764 -8.0498 0.0558 0.9683
0.2946 -8.0610 0.0559 0.9682
0.5312 -8.0671 0.0560 0.9682
27.0721 -87.6572 0.6354 0.6928
26.9713 -83.0091 0.6045 0.7053
30.7852 -82.2877 0.6085 0.7037
33.5333 -82.2281 0.6151 0.7010
34.9302 -82.1979 0.6186 0.6996
36.3436 -82.1672 0.6223 0.6981
39.2232 -82.1047 0.6302 0.6949
40.6914 -82.0729 0.6345 0.6932
42.1799 -82.0406 0.6389 0.6914
43.6897 -82.0078 0.6436 0.6896
49.9655 -81.8718 0.6643 0.6814
51.6000 -81.8363 0.6701 0.6791
11.9804 -10.7345 0.1114 0.9377
4.6326 -2.7810 0.0374 0.9786
22.2880 -9.6642 0.1683 0.9074
22.3417 -8.1729 0.1648 0.9092
23.3373 -8.1524 0.1712 0.9058
28.0389 -7.9908 0.2019 0.8899
29.5541 -7.9576 0.2120 0.8848
34.1004 -8.1209 0.2428 0.8692
40.1705 -8.9484 0.2850 0.8482
40.0993 -8.3195 0.2836 0.8489
15.9855 -3.0736 0.1127 0.9370
16.5225 -2.4316 0.1157 0.9354
20.6759 -2.1222 0.1440 0.9202
23.9750 -2.1073 0.1667 0.9082
27.2201 -1.9923 0.1890 0.8966
34.2609 -2.0047 0.2377 0.8717
51.8506 -0.7577 0.3592 0.8127
8.4769 0.2478 0.0587 0.9666
8.1574 0.4773 0.0566 0.9678
46.9915 4.1305 0.3267 0.8280
32.8731 3.8604 0.2292 0.8760
32.6090 4.3132 0.2278 0.8767
28.7571 4.2321 0.2013 0.8902
25.2219 4.0893 0.1770 0.9028
25.1544 5.2188 0.1779 0.9023
17.8861 3.9843 0.1269 0.9293
17.1850 4.0926 0.1224 0.9318
16.9564 4.5656 0.1216 0.9322
16.9876 4.8413 0.1223 0.9318
17.0511 5.4029 0.1239 0.9310
17.0834 5.6891 0.1247 0.9305
17.1495 6.2735 0.1265 0.9296
17.1926 6.5757 0.1275 0.9290
17.3014 6.9087 0.1290 0.9282
21.2405 9.5811 0.1614 0.9110
21.0532 9.8693 0.1610 0.9112
21.0223 11.0032 0.1643 0.9095
8.4328 7.7809 0.0795 0.9551
8.2215 7.8114 0.0785 0.9556
4.8742 5.2058 0.0494 0.9719
3.4795 9.7316 0.0716 0.9595
0.1258 5.7385 0.0398 0.9773
-0.1137 5.1891 0.0359 0.9795
-0.2688 4.0827 0.0283 0.9838
-0.4341 3.4769 0.0243 0.9861
-0.4831 3.4579 0.0242 0.9861
-0.5341 3.4537 0.0242 0.9861
-0.6374 3.4507 0.0243 0.9861
-0.7974 3.4603 0.0246 0.9859
-1.0223 3.4901 0.0252 0.9856
-1.0809 3.4999 0.0254 0.9855
-1.2608 3.5262 0.0259 0.9851
-1.3256 3.5432 0.0262 0.9850
-1.3919 3.5610 0.0265 0.9848
-1.4595 3.5790 0.0268 0.9847
-1.5301 3.6005 0.0271 0.9845
-1.6055 3.6297 0.0275 0.9842
-2.7076 5.8875 0.0449 0.9744
-2.7690 5.3857 0.0419 0.9761
-2.7877 5.2327 0.0411 0.9766
-2.8229 4.9449 0.0394 0.9775
-2.8708 4.5531 0.0373 0.9787
-2.8857 4.4317 0.0366 0.9791
-2.7988 3.9120 0.0333 0.9809
-2.8249 3.7142 0.0323 0.9815
-2.9797 3.5805 0.0323 0.9815
-2.9904 3.4884 0.0318 0.9818
-3.0110 3.3115 0.0310 0.9823
-3.0421 3.0645 0.0299 0.9829
-3.0642 2.9114 0.0293 0.9832
-3.0750 2.8372 0.0290 0.9834
-3.3341 2.8161 0.0302 0.9827
-4.1513 2.9244 0.0352 0.9799
-4.3219 2.9510 0.0362 0.9793
-4.5114 2.9847 0.0375 0.9786
-4.7142 3.0208 0.0388 0.9779
-0.9720 0.6030 0.0079 0.9954
-0.8891 0.5162 0.0071 0.9959
-0.8883 0.4816 0.0070 0.9960
-0.8763 0.4265 0.0068 0.9961
-0.8717 0.4087 0.0067 0.9962
-0.8672 0.3912 0.0066 0.9962
-0.8629 0.3741 0.0065 0.9962
-0.8580 0.3573 0.0064 0.9963
-0.8478 0.3242 0.0063 0.9964
-0.8429 0.3084 0.0062 0.9964
-0.8333 0.2775 0.0061 0.9965
-0.8242 0.2480 0.0060 0.9966
-0.8219 0.2213 0.0059 0.9966
-0.8209 0.2082 0.0059 0.9966
-0.8200 0.1953 0.0058 0.9966
-0.8061 0.1428 0.0057 0.9967
-0.8005 0.1178 0.0056 0.9968
-0.7952 0.0934 0.0055 0.9968
-0.7925 0.0814 0.0055 0.9968
-0.7899 0.0694 0.0055 0.9968
-0.7849 0.0459 0.0054 0.9969
-0.7823 0.0343 0.0054 0.9969
-0.7799 0.0228 0.0054 0.9969
-0.7381 0.0000 -0.0031 0.9971
-0.7426 -0.0217 -0.0031 0.9970
-0.7471 -0.0437 -0.0031 0.9970
-0.7493 -0.0548 -0.0031 0.9970
-0.7516 -0.0661 -0.0031 0.9970
-0.7539 -0.0773 -0.0031 0.9970
-0.7585 -0.1004 -0.0032 0.9969
-0.7609 -0.1120 -0.0032 0.9969
-0.7656 -0.1357 -0.0032 0.9969
-0.7680 -0.1477 -0.0032 0.9969
-0.7706 -0.1599 -0.0033 0.9969
-0.7791 -0.1976 -0.0033 0.9968
-0.8032 -0.3071 -0.0036 0.9966
-0.8118 -0.3380 -0.0037 0.9965
-0.8163 -0.3540 -0.0037 0.9964
-0.8207 -0.3702 -0.0037 0.9964
-0.8244 -0.3864 -0.0038 0.9964
-0.8282 -0.4031 -0.0038 0.9963
-0.8321 -0.4201 -0.0039 0.9963
-0.8443 -0.4738 -0.0040 0.9961
-0.8486 -0.5264 -0.0042 0.9960
-0.8486 -0.5438 -0.0042 0.9960
-16.6723 -11.0303 -0.0831 0.9231
-38.5842 -29.7937 -0.2026 0.8228
-37.4083 -29.7683 -0.1987 0.8259
-10.7555 -9.3571 -0.0592 0.9446
-10.1369 -9.3531 -0.0573 0.9463
-10.9307 -10.6937 -0.0635 0.9407
-10.3111 -11.3400 -0.0637 0.9405
-9.9355 -11.5900 -0.0634 0.9408
-34.4627 -41.4112 -0.2239 0.8061
-34.4362 -42.6312 -0.2277 0.8032
-34.4088 -43.8942 -0.2318 0.8000
-7.6182 -10.0163 -0.0523 0.9509
-6.7809 -9.4780 -0.0484 0.9545
-6.6754 -9.6246 -0.0487 0.9542
-6.2559 -9.6075 -0.0476 0.9552
-5.5359 -9.0709 -0.0442 0.9584
-5.4686 -9.5793 -0.0458 0.9568
-5.2529 -9.8598 -0.0464 0.9563
-4.6902 -9.8177 -0.0452 0.9574
-4.5449 -9.8823 -0.0452 0.9574
-4.3469 -10.2291 -0.0462 0.9565
-4.1397 -10.1511 -0.0456 0.9571
-11.4287 -29.2395 -0.1305 0.8820
-1.8552 -8.0504 -0.0343 0.9675
-1.6075 -8.0429 -0.0341 0.9677
-1.3632 -8.0356 -0.0339 0.9679
-1.2421 -8.0320 -0.0338 0.9680
-0.7638 -8.0174 -0.0335 0.9683
-0.4099 -8.0080 -0.0333 0.9684
-0.0587 -2.6795 -0.0111 0.9893
0.0585 -8.0091 -0.0333 0.9685
0.0628 -2.8647 -0.0119 0.9886
0.2933 -8.0261 -0.0334 0.9684
0.5305 -8.0565 -0.0336 0.9682
2.0795 -13.4470 -0.0565 0.9470
2.2213 -13.0939 -0.0552 0.9483
27.0725 -87.6586 -0.3812 0.6928
29.4323 -82.3171 -0.3633 0.7049
32.1519 -82.2581 -0.3670 0.7024
34.9303 -82.1978 -0.3711 0.6996
39.2232 -82.1047 -0.3781 0.6949
43.6897 -82.0079 -0.3861 0.6896
45.2220 -81.9746 -0.3890 0.6876
49.9655 -81.8718 -0.3986 0.6814
51.6000 -81.8363 -0.4020 0.6791
21.2323 -9.2065 -0.0962 0.9116
21.2035 -8.8282 -0.0954 0.9122
22.1089 -8.0877 -0.0978 0.9101
26.3300 -8.3430 -0.1148 0.8954
27.5112 -7.8404 -0.1189 0.8919
28.9498 -7.7949 -0.1246 0.8870
32.3278 -8.1998 -0.1386 0.8751
33.1709 -7.8996 -0.1417 0.8725
38.9469 -8.0804 -0.1653 0.8529
16.0360 -3.0833 -0.0679 0.9368
16.2895 -2.8859 -0.0687 0.9360
16.5497 -2.6832 -0.0697 0.9351
16.5560 -2.4365 -0.0695 0.9353
16.6408 -2.2011 -0.0698 0.9351
34.0458 -1.9921 -0.1417 0.8725
34.4251 -1.5100 -0.1432 0.8712
34.3493 -1.0041 -0.1428 0.8716
51.7432 -0.7562 -0.2151 0.8130
8.4949 0.1241 -0.0353 0.9666
8.4936 0.2483 -0.0353 0.9666
8.1180 0.4750 -0.0338 0.9680
8.1771 0.5985 -0.0341 0.9677
43.8353 3.8530 -0.1829 0.8386
40.7366 4.1813 -0.1702 0.8489
29.6217 3.9181 -0.1242 0.8873
17.7809 3.9609 -0.0757 0.9297
17.0907 4.0702 -0.0730 0.9321
16.9516 4.8311 -0.0732 0.9319
16.9829 5.1095 -0.0737 0.9315
17.0791 5.9662 -0.0752 0.9302
17.1455 6.5576 -0.0763 0.9292
21.6114 9.3708 -0.0979 0.9101
21.2693 9.5941 -0.0970 0.9109
21.1217 9.9015 -0.0969 0.9109
20.2385 9.8507 -0.0935 0.9139
21.1123 10.6603 -0.0983 0.9097
20.9089 10.9439 -0.0981 0.9099
14.0956 9.9297 -0.0717 0.9334
8.4328 7.7809 -0.0477 0.9551
8.2215 7.8114 -0.0471 0.9557
8.0341 8.0930 -0.0474 0.9554
4.8743 5.2059 -0.0296 0.9719
3.3501 9.8199 -0.0431 0.9593
0.0421 5.7702 -0.0240 0.9772
-0.1057 4.8205 -0.0200 0.9809
-0.3008 3.7344 -0.0156 0.9851
-0.3429 3.5995 -0.0150 0.9856
-0.3828 3.4793 -0.0145 0.9861
-0.4290 3.4363 -0.0144 0.9862
-0.4762 3.4087 -0.0143 0.9863
-0.5266 3.4053 -0.0143 0.9863
-0.5784 3.4097 -0.0144 0.9863
-0.6836 3.4203 -0.0145 0.9861
-0.7362 3.4228 -0.0145 0.9861
-0.8442 3.4333 -0.0147 0.9860
-0.8995 3.4407 -0.0148 0.9859
-1.0704 3.4657 -0.0151 0.9856
-1.2495 3.4945 -0.0154 0.9853
-1.3114 3.5052 -0.0156 0.9851
-1.3751 3.5181 -0.0157 0.9850
-1.4418 3.5355 -0.0159 0.9848
-1.5760 3.5631 -0.0162 0.9845
-2.7275 5.7095 -0.0263 0.9750
-2.7671 5.3820 -0.0251 0.9761
-2.7858 5.2291 -0.0246 0.9766
-2.8377 4.8063 -0.0232 0.9779
-2.7974 3.9101 -0.0200 0.9810
-2.8095 3.8081 -0.0197 0.9812
-2.9295 3.6266 -0.0194 0.9815
-2.9704 3.5693 -0.0193 0.9816
-2.9812 3.4776 -0.0190 0.9818
-2.9917 3.3884 -0.0188 0.9821
-3.0035 3.3032 -0.0186 0.9823
-3.0155 3.2206 -0.0183 0.9825
-3.0272 3.1399 -0.0181 0.9827
-3.0499 2.9837 -0.0177 0.9831
-3.0716 2.8342 -0.0174 0.9834
-3.1051 2.7823 -0.0173 0.9835
-3.2158 2.7977 -0.0177 0.9831
-3.3316 2.8140 -0.0181 0.9827
-3.4529 2.8311 -0.0186 0.9823
-3.5801 2.8489 -0.0190 0.9819
-3.8533 2.8866 -0.0200 0.9809
-4.3240 2.9525 -0.0218 0.9793
-4.5137 2.9862 -0.0225 0.9786
-0.8486 0.5264 -0.0041 0.9960
-0.8486 0.5094 -0.0041 0.9960
-0.8443 0.4738 -0.0040 0.9961
-0.8118 0.3380 -0.0037 0.9965
-0.8074 0.3224 -0.0036 0.9965
-0.8032 0.3072 -0.0036 0.9966
-0.7990 0.2923 -0.0035 0.9966
-0.7948 0.2777 -0.0035 0.9966
-0.7908 0.2634 -0.0035 0.9967
-0.7868 0.2493 -0.0034 0.9967
-0.7830 0.2355 -0.0034 0.9967
-0.7805 0.2225 -0.0034 0.9968
-0.7791 0.1976 -0.0033 0.9968
-0.7769 0.1850 -0.0033 0.9968
-0.7706 0.1598 -0.0033 0.9969
-0.7680 0.1477 -0.0033 0.9969
-0.7632 0.1237 -0.0032 0.9969
-0.7562 0.0888 -0.0032 0.9970
-0.7538 0.0774 -0.0031 0.9970
-0.7516 0.0661 -0.0031 0.9970
-0.7493 0.0548 -0.0031 0.9970
-0.7471 0.0437 -0.0031 0.9970
-0.7425 0.0217 -0.0031 0.9970
-0.7046 0.0000 -0.0107 0.9972
-0.7067 -0.0103 -0.0108 0.9972
-0.7107 -0.0311 -0.0108 0.9972
-0.7147 -0.0523 -0.0109 0.9971
-0.7168 -0.0630 -0.0110 0.9971
-0.7208 -0.0846 -0.0111 0.9971
-0.7229 -0.0956 -0.0111 0.9971
-0.7270 -0.1179 -0.0112 0.9971
-0.7291 -0.1291 -0.0113 0.9970
-0.7312 -0.1406 -0.0113 0.9970
-0.7405 -0.1878 -0.0116 0.9969
-0.7419 -0.1997 -0.0117 0.9969
-0.7524 -0.2505 -0.0121 0.9968
-0.7559 -0.2641 -0.0122 0.9968
-0.7741 -0.3357 -0.0129 0.9966
-0.7819 -0.3665 -0.0132 0.9966
-0.7851 -0.3821 -0.0133 0.9965
-0.7883 -0.3980 -0.0135 0.9965
-0.7948 -0.4309 -0.0138 0.9964
-15.8230 -11.1465 -0.2949 0.9255
-15.4701 -11.2397 -0.2914 0.9264
-15.1984 -11.3852 -0.2894 0.9268
-15.1019 -11.6613 -0.2907 0.9265
-13.2917 -10.5770 -0.2588 0.9343
-12.8447 -10.5315 -0.2531 0.9357
-10.7711 -9.3707 -0.2176 0.9445
-10.1254 -9.3425 -0.2099 0.9464
-9.8242 -9.3339 -0.2065 0.9472
-9.5380 -9.3310 -0.2033 0.9480
-9.3288 -9.3971 -0.2018 0.9484
-10.1796 -10.8720 -0.2270 0.9422
-10.0800 -11.0859 -0.2283 0.9418
-34.4360 -42.6309 -0.8351 0.8031
-34.4086 -43.8939 -0.8499 0.8000
-7.1596 -9.7045 -0.1838 0.9529
-2.0148 -2.8162 -0.0528 0.9862
-6.6458 -9.5820 -0.1777 0.9544
-6.2409 -9.5846 -0.1743 0.9553
-6.0436 -9.5849 -0.1727 0.9557
-5.5766 -9.4453 -0.1671 0.9571
-5.1199 -9.2809 -0.1615 0.9585
-4.8081 -9.6977 -0.1649 0.9576
-4.7785 -10.0026 -0.1689 0.9566
-4.3590 -10.2576 -0.1698 0.9564
-3.3281 -8.1608 -0.1343 0.9654
-3.0204 -8.0734 -0.1313 0.9661
-2.8762 -8.0442 -0.1302 0.9664
-2.6059 -8.0200 -0.1285 0.9668
-2.4755 -8.0155 -0.1278 0.9670
-2.2190 -8.0079 -0.1266 0.9673
-1.8431 -7.9982 -0.1251 0.9677
-1.7197 -7.9945 -0.1246 0.9678
-1.4754 -7.9876 -0.1238 0.9680
-1.3544 -7.9840 -0.1234 0.9681
-1.2341 -7.9806 -0.1231 0.9682
-1.1146 -7.9773 -0.1227 0.9683
-0.8771 -7.9708 -0.1222 0.9684
-0.7591 -7.9676 -0.1220 0.9685
-0.6415 -7.9650 -0.1218 0.9685
-0.5245 -7.9644 -0.1216 0.9686
-0.0963 -2.6336 -0.0402 0.9895
-0.0587 -2.6777 -0.0408 0.9893
-0.0193 -2.6456 -0.0403 0.9895
0.5298 -8.0457 -0.1229 0.9683
7.9321 -63.5358 -0.9757 0.7740
9.7779 -63.2295 -0.9750 0.7742
2.2210 -13.0922 -0.2023 0.9483
2.4405 -13.2127 -0.2047 0.9477
14.3407 -62.2317 -0.9731 0.7745
16.1412 -61.7409 -0.9724 0.7747
17.9253 -61.1982 -0.9717 0.7748
18.8108 -60.9080 -0.9714 0.7749
19.6916 -60.6046 -0.9710 0.7750
20.5677 -60.2888 -0.9707 0.7750
21.4387 -59.9604 -0.9703 0.7751
24.8698 -58.5236 -0.9690 0.7754
25.7133 -58.1337 -0.9686 0.7755
26.5509 -57.7321 -0.9683 0.7755
27.3823 -57.3185 -0.9680 0.7756
28.2073 -56.8929 -0.9677 0.7757
29.0262 -56.4564 -0.9673 0.7757
29.8376 -56.0067 -0.9670 0.7758
30.6428 -55.5467 -0.9667 0.7759
33.0154 -54.0978 -0.9657 0.7761
33.7916 -53.5928 -0.9654 0.7761
35.3211 -52.5496 -0.9648 0.7762
36.0738 -52.0115 -0.9645 0.7763
37.5556 -50.9046 -0.9639 0.7764
38.2836 -50.3349 -0.9637 0.7765
39.0035 -49.7556 -0.9634 0.7765
40.4171 -48.5662 -0.9628 0.7767
41.7951 -47.3375 -0.9623 0.7768
42.4709 -46.7092 -0.9620 0.7768
43.1370 -46.0709 -0.9617 0.7769
43.7937 -45.4235 -0.9615 0.7769
44.4404 -44.7663 -0.9612 0.7770
47.5294 -41.3506 -0.9600 0.7772
15.2340 -12.8674 -0.3039 0.9233
50.8968 -36.9787 -0.9587 0.7775
51.9333 -35.4605 -0.9582 0.7776
20.2973 -13.0062 -0.3673 0.9081
56.0395 -28.2962 -0.9566 0.7779
56.8237 -26.6379 -0.9563 0.7780
21.0722 -9.5052 -0.3523 0.9117
20.9924 -8.7403 -0.3465 0.9130
22.0443 -8.0640 -0.3577 0.9104
24.0315 -8.0029 -0.3860 0.9036
26.1364 -8.2816 -0.4178 0.8961
27.2839 -7.7756 -0.4323 0.8927
35.1326 -7.8261 -0.5485 0.8659
38.8209 -8.0542 -0.6042 0.8533
16.0869 -3.0931 -0.2496 0.9366
16.3418 -2.8952 -0.2529 0.9358
16.6036 -2.6920 -0.2563 0.9349
20.6378 -2.4236 -0.3166 0.9202
23.9721 -2.4605 -0.3672 0.9081
34.1120 -1.4963 -0.5203 0.8723
34.2248 -1.0005 -0.5217 0.8720
8.4868 0.1240 -0.1293 0.9666
63.5549 1.8579 -0.9689 0.7754
8.1127 0.3559 -0.1237 0.9680
8.2014 0.6003 -0.1253 0.9676
42.0941 3.7000 -0.6439 0.8445
33.2247 3.9016 -0.5098 0.8747
29.2788 3.8727 -0.4500 0.8886
25.3818 3.7355 -0.3909 0.9025
24.6442 4.3661 -0.3814 0.9047
24.8329 4.7748 -0.3853 0.9038
16.9974 4.0479 -0.2663 0.9325
16.8550 4.2752 -0.2650 0.9328
16.7063 4.4982 -0.2636 0.9331
16.9468 5.0986 -0.2697 0.9317
17.0099 5.6646 -0.2732 0.9308
17.0421 5.9533 -0.2751 0.9303
17.0228 6.7974 -0.2793 0.9293
17.3552 7.5254 -0.2883 0.9271
20.8691 9.7830 -0.3512 0.9119
21.1164 11.0525 -0.3632 0.9091
54.7734 30.7404 -0.9571 0.7778
54.3312 31.5459 -0.9573 0.7778
53.8718 32.3396 -0.9575 0.7777
52.9247 33.9134 -0.9578 0.7777
13.8011 9.1307 -0.2522 0.9359
13.4099 9.1564 -0.2474 0.9371
50.3619 37.7266 -0.9589 0.7775
48.6934 39.9245 -0.9595 0.7773
47.5287 41.3499 -0.9600 0.7772
46.9313 42.0506 -0.9602 0.7772
8.4328 7.7809 -0.1748 0.9551
8.2215 7.8115 -0.1728 0.9556
8.0954 7.9198 -0.1726 0.9557
8.0341 8.0930 -0.1738 0.9554
4.8744 5.2060 -0.1087 0.9719
41.1104 47.9564 -0.9625 0.7767
40.4168 48.5658 -0.9628 0.7767
39.7145 49.1655 -0.9631 0.7766
39.0033 49.7552 -0.9634 0.7765
37.5550 50.9038 -0.9639 0.7764
36.0735 52.0111 -0.9645 0.7763
32.2314 54.5914 -0.9660 0.7760
29.8374 56.0062 -0.9670 0.7758
29.0256 56.4550 -0.9673 0.7757
28.2070 56.8920 -0.9676 0.7757
27.3820 57.3176 -0.9680 0.7756
24.0161 58.8905 -0.9691 0.7754
21.4369 59.9552 -0.9703 0.7751
3.3438 9.8015 -0.1578 0.9594
17.9260 61.2009 -0.9718 0.7748
15.2449 62.0007 -0.9729 0.7746
1.8135 9.0736 -0.1410 0.9637
11.6156 62.8858 -0.9745 0.7743
9.7811 63.2493 -0.9753 0.7741
8.8594 63.4110 -0.9757 0.7740
7.9350 63.5592 -0.9760 0.7740
5.1485 63.9235 -0.9772 0.7737
4.2156 64.0182 -0.9776 0.7736
2.3451 64.1655 -0.9784 0.7735
-0.0364 4.9823 -0.0759 0.9803
-0.1012 4.6176 -0.0704 0.9817
-0.2953 3.6661 -0.0560 0.9854
-0.3326 3.4914 -0.0534 0.9861
-0.4252 3.4057 -0.0523 0.9864
-0.5212 3.3702 -0.0520 0.9865
-0.5726 3.3754 -0.0522 0.9864
-0.7829 3.3975 -0.0531 0.9861
-0.8920 3.4118 -0.0537 0.9860
-0.9471 3.4178 -0.0540 0.9859
-1.0598 3.4314 -0.0547 0.9857
-1.2383 3.4633 -0.0560 0.9854
-1.2996 3.4737 -0.0565 0.9853
-1.3619 3.4841 -0.0570 0.9851
-1.5575 3.5214 -0.0587 0.9847
-1.6291 3.5423 -0.0594 0.9845
-2.7275 5.7093 -0.0964 0.9750
-2.7476 5.5417 -0.0943 0.9756
-2.8027 5.0805 -0.0884 0.9771
-2.8196 4.9392 -0.0867 0.9775
-2.8519 4.6730 -0.0834 0.9783
-2.7449 4.3532 -0.0784 0.9796
-2.7581 4.2358 -0.0770 0.9800
-2.9585 4.2655 -0.0791 0.9794
-3.1735 4.3015 -0.0815 0.9788
-2.8209 3.7089 -0.0710 0.9815
-2.8436 3.6274 -0.0702 0.9817
-2.8864 3.5732 -0.0700 0.9818
-2.9757 3.4712 -0.0697 0.9819
-2.9881 3.3843 -0.0688 0.9821
-3.0120 3.2169 -0.0672 0.9825
-3.0238 3.1363 -0.0664 0.9827
-3.0353 3.0575 -0.0656 0.9829
-3.0465 2.9804 -0.0649 0.9831
-3.0575 2.9050 -0.0643 0.9833
-3.1030 2.7802 -0.0635 0.9835
-4.1549 2.9269 -0.0774 0.9799
-0.8088 0.5018 -0.0145 0.9962
-0.8052 0.4834 -0.0143 0.9963
-0.7982 0.4480 -0.0139 0.9963
-0.7948 0.4309 -0.0138 0.9964
-0.7915 0.4143 -0.0136 0.9964
-0.7819 0.3666 -0.0132 0.9966
-0.7780 0.3509 -0.0130 0.9966
-0.7703 0.3207 -0.0127 0.9967
-0.7559 0.2641 -0.0122 0.9968
-0.7490 0.2373 -0.0120 0.9969
-0.7423 0.2116 -0.0118 0.9969
-0.7418 0.1998 -0.0117 0.9969
-0.7377 0.1757 -0.0116 0.9970
-0.7333 0.1521 -0.0114 0.9970
-0.7270 0.1179 -0.0112 0.9971
-0.7250 0.1067 -0.0112 0.9971
-0.7229 0.0956 -0.0111 0.9971
-0.7188 0.0737 -0.0110 0.9971
-0.7168 0.0630 -0.0110 0.9971
-0.7127 0.0417 -0.0109 0.9971
-0.7107 0.0312 -0.0108 0.9972
-0.7066 0.0103 -0.0108 0.9972
-0.6743 0.0000 -0.0177 0.9973
-0.6794 -0.0298 -0.0179 0.9973
-0.6812 -0.0398 -0.0180 0.9973
-0.6831 -0.0500 -0.0180 0.9973
-0.6868 -0.0705 -0.0182 0.9972
-0.6904 -0.0913 -0.0183 0.9972
-0.6922 -0.1019 -0.0184 0.9972
-0.7032 -0.1674 -0.0190 0.9971
-0.7088 -0.2020 -0.0194 0.9971
-0.7205 -0.2516 -0.0201 0.9970
-0.7236 -0.2647 -0.0203 0.9969
-0.7297 -0.2914 -0.0207 0.9969
-0.7329 -0.3051 -0.0209 0.9968
-0.7361 -0.3191 -0.0211 0.9968
-0.7393 -0.3334 -0.0214 0.9968
-0.7488 -0.3781 -0.0221 0.9966
-0.7625 -0.4577 -0.0234 0.9964
-0.7654 -0.4748 -0.0237 0.9964
-0.7713 -0.5102 -0.0243 0.9963
-0.7743 -0.5287 -0.0247 0.9963
-0.7740 -0.5453 -0.0249 0.9962
-0.8869 -0.6444 -0.0289 0.9956
-15.0882 -11.3027 -0.4963 0.9273
-12.5505 -10.6008 -0.4325 0.9364
-10.4613 -9.3732 -0.3698 0.9453
-2.5440 -2.4888 -0.0937 0.9859
-2.4837 -2.5020 -0.0928 0.9860
-2.3665 -2.5275 -0.0911 0.9862
-2.2535 -2.5523 -0.0896 0.9865
-9.2046 -11.0604 -0.3788 0.9440
-7.2998 -9.3121 -0.3115 0.9538
-2.1129 -2.7780 -0.0919 0.9861
-2.0569 -2.7880 -0.0912 0.9862
-2.0016 -2.7977 -0.0906 0.9863
-6.4820 -9.6437 -0.3059 0.9546
-5.7754 -9.1596 -0.2851 0.9576
-5.7351 -9.3973 -0.2898 0.9569
-5.4860 -9.6098 -0.2913 0.9567
-4.8835 -9.8496 -0.2894 0.9570
-4.7170 -9.8739 -0.2881 0.9572
-4.5956 -9.9927 -0.2895 0.9569
-3.4708 -8.1675 -0.2336 0.9651
-3.2968 -8.0842 -0.2298 0.9657
-3.1406 -8.0350 -0.2271 0.9661
-2.5949 -7.9863 -0.2211 0.9670
-2.4636 -7.9768 -0.2198 0.9671
-1.9543 -7.9482 -0.2155 0.9678
-1.8313 -7.9468 -0.2147 0.9679
-1.4680 -7.9478 -0.2128 0.9682
-1.3483 -7.9480 -0.2122 0.9683
-1.2292 -7.9482 -0.2117 0.9683
-1.1106 -7.9495 -0.2113 0.9684
-0.9926 -7.9509 -0.2109 0.9684
-0.7577 -7.9534 -0.2103 0.9685
-0.5238 -7.9537 -0.2098 0.9686
-0.0962 -2.6320 -0.0693 0.9895
-0.0587 -2.6761 -0.0705 0.9893
-0.0194 -2.6529 -0.0698 0.9894
0.4100 -8.0089 -0.2111 0.9684
4.5978 -36.8281 -0.9770 0.8620
5.1343 -36.7488 -0.9768 0.8620
2.4430 -13.2261 -0.3541 0.9476
