ply
format ascii 1.0
element vertex 1578
property float32 x
property float32 y
property float32 z
property float32 I
end_header
-42.2177 -29.7402 4.3739 0.8128
-39.6256 -29.6839 4.1935 0.8198
-12.0570 -9.5946 1.3051 0.9400
-11.8270 -9.6971 1.2954 0.9405
-11.6525 -9.8422 1.2919 0.9406
-11.5364 -10.0366 1.2951 0.9405
-11.2894 -10.4167 1.3010 0.9402
-11.1437 -10.5879 1.3019 0.9402
-11.2844 -11.0398 1.3371 0.9386
-11.3676 -11.4509 1.3666 0.9373
-17.6288 -18.8278 2.1846 0.9016
-9.9465 -12.6884 1.3655 0.9373
-33.1872 -47.8495 4.9321 0.7916
-19.0370 -29.2364 2.9549 0.8693
-17.8267 -29.2101 2.8984 0.8716
-17.5726 -30.7818 3.0021 0.8674
-1.4898 -2.7963 0.2684 0.9874
-23.6206 -47.6416 4.5039 0.8078
-22.7505 -47.6227 4.4702 0.8091
-17.8684 -45.7149 4.1572 0.8212
-17.1971 -48.0973 4.3263 0.8146
-17.0990 -52.6252 4.6866 0.8008
-16.8244 -57.4396 5.0694 0.7864
-3.4136 -13.0570 1.1431 0.9473
-15.3142 -62.2828 5.4323 0.7730
-15.2315 -66.0973 5.7450 0.7616
-15.1387 -70.3787 6.0973 0.7490
-15.0338 -75.2205 6.4970 0.7350
-14.9141 -80.7430 6.9544 0.7192
-14.6156 -94.5121 8.1001 0.6812
20.8309 -84.7190 7.3892 0.7045
26.7215 -82.2403 7.3240 0.7067
28.0467 -82.2115 7.3572 0.7056
29.3842 -82.1824 7.3922 0.7044
33.4784 -82.0934 7.5091 0.7005
36.2840 -82.0325 7.5973 0.6976
37.7124 -82.0014 7.6446 0.6961
39.1589 -81.9699 7.6942 0.6944
42.1106 -81.9058 7.8004 0.6909
5.8766 -10.6526 1.0304 0.9523
48.2790 -81.7717 8.0429 0.6830
51.5150 -81.7014 8.1806 0.6786
1.9456 -2.2696 0.2532 0.9881
1.9822 -2.1801 0.2496 0.9882
2.0135 -2.1504 0.2495 0.9882
2.0499 -2.1262 0.2502 0.9882
2.0866 -2.1019 0.2509 0.9882
2.1236 -2.0775 0.2516 0.9881
2.1608 -2.0530 0.2524 0.9881
18.7619 -13.2168 1.9438 0.9120
19.4375 -12.8598 1.9740 0.9107
19.3153 -12.3770 1.9430 0.9120
23.0989 -12.9637 2.2435 0.8991
23.4744 -12.7270 2.2616 0.8984
23.9239 -12.0800 2.2700 0.8980
28.8389 -13.5191 2.6977 0.8800
28.8260 -12.4991 2.6611 0.8815
29.9412 -11.9559 2.7307 0.8786
33.7992 -11.8071 3.0324 0.8661
9.5936 -3.0398 0.8524 0.9604
9.8763 -2.8146 0.8698 0.9596
9.9105 -2.6684 0.8693 0.9596
9.9495 -2.5236 0.8694 0.9596
10.0636 -2.3966 0.8762 0.9593
10.1314 -2.1020 0.8764 0.9593
10.2180 -1.9647 0.8813 0.9591
10.1952 -1.8062 0.8770 0.9593
10.9834 -1.7807 0.9424 0.9563
14.2993 -2.1044 1.2242 0.9436
34.6107 8.2425 3.0134 0.8669
34.2633 8.6907 2.9939 0.8677
33.3027 9.4909 2.9330 0.8702
26.4676 9.2460 2.3746 0.8936
25.1195 9.1890 2.2655 0.8982
19.5122 9.8523 1.8514 0.9160
19.4176 10.1633 1.8563 0.9158
16.1169 9.6751 1.5921 0.9273
16.0876 9.9802 1.6035 0.9268
15.8233 10.1394 1.5917 0.9273
15.8888 10.5120 1.6136 0.9264
2.3200 7.9207 0.6991 0.9674
2.1830 7.8782 0.6924 0.9677
2.0692 7.9149 0.6929 0.9677
-1.2716 5.1714 0.4510 0.9788
-8.2753 9.3727 1.0590 0.9510
-8.8919 7.7359 0.9982 0.9538
-8.8997 7.5171 0.9867 0.9543
-8.9074 7.3033 0.9756 0.9548
-8.9463 6.9081 0.9573 0.9556
-8.9691 6.7188 0.9492 0.9560
-9.0190 6.3534 0.9344 0.9567
-8.9449 5.5491 0.8916 0.9586
-8.9906 5.2200 0.8805 0.9591
-9.0124 5.0580 0.8753 0.9594
-9.0762 4.5829 0.8612 0.9600
-9.0970 4.4278 0.8569 0.9602
-1.2297 0.5764 0.1150 0.9946
-1.2045 0.5433 0.1119 0.9947
-1.2024 0.5214 0.1110 0.9948
-1.1957 0.4573 0.1084 0.9949
-1.1902 0.4158 0.1068 0.9950
-1.1876 0.3955 0.1060 0.9950
-1.1818 0.3368 0.1041 0.9951
-1.1773 0.2804 0.1025 0.9952
-1.1748 0.2438 0.1016 0.9952
-1.1736 0.2257 0.1012 0.9952
-1.1709 0.1898 0.1005 0.9952
-1.1651 0.1368 0.0994 0.9953
-1.1616 0.1193 0.0989 0.9953
-1.1582 0.1018 0.0985 0.9953
-1.1548 0.0846 0.0981 0.9954
-1.1516 0.0674 0.0977 0.9954
-1.1484 0.0504 0.0974 0.9954
-1.1454 0.0335 0.0971 0.9954
-1.1041 0.0000 0.0812 0.9956
-1.1068 -0.0162 0.0814 0.9956
-1.1154 -0.0653 0.0822 0.9955
-1.1279 -0.1324 0.0835 0.9955
-1.1312 -0.1496 0.0839 0.9954
-1.1381 -0.2016 0.0850 0.9954
-1.1401 -0.2365 0.0856 0.9953
-1.1412 -0.2542 0.0860 0.9953
-1.1488 -0.3640 0.0886 0.9952
-1.1530 -0.4028 0.0898 0.9951
-1.1554 -0.4226 0.0905 0.9951
-1.1578 -0.4428 0.0912 0.9950
-1.1603 -0.4633 0.0919 0.9950
-1.1629 -0.4841 0.0926 0.9950
-1.1655 -0.5054 0.0934 0.9949
-1.1672 -0.5264 0.0942 0.9949
-1.1690 -0.5480 0.0950 0.9948
-1.2434 -0.6051 0.1017 0.9945
-1.4718 -0.7703 0.1222 0.9934
-1.4753 -0.7998 0.1234 0.9933
-51.5734 -29.9436 4.3860 0.7873
-49.8168 -29.9054 4.2733 0.7921
-46.5595 -29.8346 4.0670 0.8011
-43.5997 -29.7703 3.8828 0.8092
-42.2177 -29.7402 3.7980 0.8129
-40.8943 -29.7114 3.7177 0.8165
-12.3456 -9.5329 1.1472 0.9394
-11.6426 -9.8339 1.1209 0.9407
-11.5264 -10.0280 1.1237 0.9406
-11.2764 -10.7139 1.1440 0.9395
-11.1685 -11.2503 1.1659 0.9384
-17.8696 -18.5346 1.8935 0.9019
-40.5708 -44.6194 4.4354 0.7852
-40.5426 -45.9188 4.5052 0.7822
-40.5135 -47.2602 4.5782 0.7791
-39.9428 -47.9963 4.5925 0.7785
-9.8940 -12.6214 1.1795 0.9377
-34.2499 -47.8726 4.3292 0.7897
-19.6604 -29.2500 2.5920 0.8682
-19.0370 -29.2364 2.5659 0.8694
-17.5936 -29.7987 2.5451 0.8704
-24.5042 -47.6608 3.9415 0.8066
-23.6206 -47.6416 3.9109 0.8079
-21.0478 -47.5857 3.8268 0.8116
-5.2279 -12.8195 1.0182 0.9460
-17.8684 -45.7149 3.6099 0.8213
-17.2404 -46.0830 3.6187 0.8209
-17.0431 -55.1839 4.2478 0.7932
-16.9824 -57.9793 4.4433 0.7848
-16.4587 -66.9374 5.0697 0.7585
-15.4810 -67.1797 5.0703 0.7584
-15.1382 -70.3763 5.2943 0.7492
-15.0332 -75.2178 5.6414 0.7352
-14.7756 -87.1000 6.4975 0.7016
-14.6149 -94.5079 7.0334 0.6814
21.5300 -82.3532 6.2604 0.7108
22.8845 -82.5838 6.3027 0.7091
25.4877 -82.5272 6.3525 0.7072
29.3842 -82.1825 6.4190 0.7047
30.7348 -82.1531 6.4511 0.7034
36.2841 -82.0325 6.5971 0.6978
39.1589 -81.9700 6.6812 0.6946
40.7522 -82.1954 6.7474 0.6921
42.1106 -81.9058 6.7734 0.6912
46.7009 -81.8061 6.9279 0.6854
49.8833 -81.7369 7.0426 0.6811
51.5150 -81.7014 7.1036 0.6788
9.1572 -12.7995 1.1575 0.9388
1.9314 -2.2530 0.2183 0.9882
2.0517 -2.1280 0.2174 0.9882
2.0883 -2.1036 0.2180 0.9882
2.1252 -2.0791 0.2187 0.9881
2.1623 -2.0545 0.2194 0.9881
2.2061 -2.0356 0.2208 0.9880
18.8689 -12.8838 1.6804 0.9124
19.7699 -13.0796 1.7434 0.9093
23.5973 -12.7937 1.9742 0.8979
24.0438 -12.1405 1.9810 0.8976
5.6034 -2.7273 0.4583 0.9753
29.2802 -13.2076 2.3624 0.8791
29.0213 -12.5839 2.3264 0.8808
29.6527 -12.3461 2.3623 0.8791
33.7688 -12.3529 2.6445 0.8657
33.6571 -11.7575 2.6221 0.8668
9.4830 -3.1580 0.7351 0.9607
9.6209 -3.0485 0.7423 0.9603
9.9050 -2.8228 0.7575 0.9595
10.0016 -2.6929 0.7618 0.9593
10.1080 -2.4072 0.7642 0.9592
14.1320 -2.2912 1.0529 0.9442
14.3383 -2.1101 1.0659 0.9435
14.6180 -1.9335 1.0845 0.9426
17.5810 -2.0645 1.3019 0.9315
21.2274 -1.5536 1.5654 0.9182
50.2124 9.6546 3.7606 0.8146
50.0181 10.3773 3.7570 0.8147
44.6242 9.9405 3.3624 0.8325
34.3967 8.7245 2.6099 0.8673
34.3378 9.2457 2.6154 0.8671
33.6276 10.6554 2.5944 0.8681
33.6884 11.2188 2.6115 0.8673
25.4744 9.7432 2.0059 0.8964
25.2297 10.0746 1.9980 0.8968
26.4702 11.0211 2.1088 0.8914
19.8946 10.0454 1.6391 0.9145
17.1767 9.6401 1.4486 0.9240
16.2703 9.4466 1.3837 0.9273
16.1628 9.7027 1.3865 0.9272
15.5399 9.9578 1.3574 0.9286
15.3440 10.1515 1.3531 0.9289
15.1441 10.3405 1.3487 0.9291
2.1644 7.8108 0.5961 0.9680
-8.6722 7.3250 0.8349 0.9555
-8.9308 6.8961 0.8299 0.9558
-9.0372 6.1708 0.8048 0.9571
-8.8918 5.8828 0.7841 0.9581
-8.9168 5.7138 0.7789 0.9584
-8.9843 5.2163 0.7641 0.9592
-9.0060 5.0545 0.7595 0.9594
-1.4753 0.7998 0.1234 0.9933
-1.4717 0.7431 0.1213 0.9934
-1.2433 0.6052 0.1017 0.9945
-1.1690 0.5480 0.0950 0.9948
-1.1672 0.5265 0.0942 0.9949
-1.1655 0.5054 0.0934 0.9949
-1.1554 0.4227 0.0905 0.9951
-1.1473 0.3452 0.0881 0.9952
-1.1447 0.3082 0.0872 0.9953
-1.1434 0.2900 0.0868 0.9953
-1.1422 0.2720 0.0864 0.9953
-1.1411 0.2543 0.0860 0.9953
-1.1381 0.2016 0.0850 0.9954
-1.1346 0.1670 0.0843 0.9954
-1.1279 0.1325 0.0835 0.9955
-1.1215 0.0986 0.0828 0.9955
-1.1184 0.0819 0.0825 0.9955
-1.0599 -0.0776 0.0663 0.9958
-1.0792 -0.1267 0.0678 0.9957
-1.1057 -0.1959 0.0701 0.9955
-1.1074 -0.2297 0.0706 0.9955
-1.1102 -0.2816 0.0715 0.9954
-1.1113 -0.2992 0.0718 0.9954
-1.1123 -0.3170 0.0722 0.9954
-1.1135 -0.3350 0.0726 0.9954
-1.1147 -0.3532 0.0730 0.9953
-1.1181 -0.3906 0.0739 0.9953
-1.1223 -0.4292 0.0750 0.9952
-1.1244 -0.4489 0.0756 0.9952
-1.1267 -0.4691 0.0762 0.9951
-1.1290 -0.4895 0.0768 0.9951
-1.1314 -0.5104 0.0775 0.9950
-1.1337 -0.5314 0.0781 0.9950
-1.1716 -0.5702 0.0813 0.9948
-1.4418 -0.7817 0.1024 0.9934
-20.4720 -12.2895 1.4903 0.9087
-45.0453 -29.8017 3.3711 0.8054
-40.8943 -29.7114 3.1549 0.8166
-12.4377 -9.3171 0.9699 0.9396
-11.8394 -9.4214 0.9444 0.9412
-11.6384 -9.8303 0.9508 0.9408
-11.5382 -10.0382 0.9545 0.9405
-11.2256 -10.6656 0.9665 0.9398
-10.7310 -10.8097 0.9507 0.9408
-17.8714 -18.5365 1.6071 0.9020
-40.5704 -44.6189 3.7639 0.7853
-40.5422 -45.9183 3.8232 0.7823
-40.5130 -47.2596 3.8851 0.7792
-38.7490 -47.9704 3.8488 0.7810
-37.5843 -47.9450 3.8023 0.7834
-35.3362 -47.8962 3.7149 0.7878
-34.2500 -47.8726 3.6739 0.7899
-19.0370 -29.2364 2.1775 0.8695
-18.4260 -29.2231 2.1562 0.8707
-17.5933 -29.7983 2.1598 0.8705
-17.5720 -30.7809 2.2122 0.8676
-1.5207 -2.7565 0.1965 0.9875
-1.4898 -2.7963 0.1978 0.9874
-23.6206 -47.6416 3.3189 0.8081
-22.6775 -47.4698 3.2835 0.8099
-21.8229 -47.4512 3.2598 0.8111
-20.9803 -47.4329 3.2371 0.8123
-20.1492 -47.4148 3.2155 0.8134
-5.2121 -12.7805 0.8615 0.9462
-17.2401 -46.0821 3.0709 0.8210
-17.1964 -48.0952 3.1879 0.8149
-17.1492 -50.2685 3.3150 0.8083
-17.0982 -52.6228 3.4534 0.8011
-17.0427 -55.1827 3.6047 0.7934
-16.6704 -72.3413 4.6334 0.7427
-14.7750 -87.0964 5.5137 0.7018
-14.6143 -94.5037 5.9685 0.6816
21.1929 -86.1916 5.5398 0.7007
21.5299 -82.3532 5.3127 0.7110
22.8679 -82.5242 5.3447 0.7095
24.1635 -82.4960 5.3652 0.7086
33.5593 -82.2917 5.5468 0.7003
39.1589 -81.9700 5.6699 0.6948
42.1106 -81.9059 5.7481 0.6914
45.2567 -82.0375 5.8477 0.6869
46.8476 -82.0630 5.8977 0.6847
48.4307 -82.0286 5.9455 0.6826
50.0399 -81.9936 5.9953 0.6805
2.0220 -2.1595 0.1846 0.9882
2.1322 -2.0861 0.1862 0.9881
20.7089 -14.1402 1.5651 0.9044
23.9312 -12.9747 1.6990 0.8966
24.1648 -12.2016 1.6896 0.8972
24.4163 -11.4459 1.6831 0.8976
29.1116 -13.1316 1.9933 0.8799
29.4587 -12.7735 2.0040 0.8793
30.1658 -12.5597 2.0394 0.8773
30.7362 -12.2733 2.0657 0.8758
34.2160 -11.9526 2.2621 0.8648
9.5098 -3.1669 0.6256 0.9606
9.6483 -3.0572 0.6317 0.9602
9.7897 -2.9453 0.6381 0.9599
9.9338 -2.8311 0.6447 0.9594
9.7689 -2.4778 0.6290 0.9604
10.2212 -2.1206 0.6515 0.9590
10.2703 -1.9747 0.6528 0.9590
10.7374 -1.9023 0.6806 0.9572
17.6467 -2.0722 1.1090 0.9313
18.1164 -1.8595 1.1367 0.9296
67.5298 9.9383 4.2602 0.7607
44.5948 9.9339 2.8516 0.8327
34.5321 8.7589 2.2235 0.8669
34.2825 9.2308 2.2159 0.8674
33.6938 10.1370 2.1961 0.8685
33.8239 10.7175 2.2145 0.8674
11.7951 4.1204 0.7798 0.9512
11.3692 4.1591 0.7556 0.9526
10.8913 4.5346 0.7363 0.9538
10.9328 4.7406 0.7437 0.9534
20.2569 9.8596 1.4061 0.9137
19.9073 10.0518 1.3919 0.9145
16.0941 9.6614 1.1716 0.9275
15.8167 9.8121 1.1617 0.9281
15.1970 10.0543 1.1373 0.9296
14.9705 10.2220 1.1314 0.9299
14.0311 9.8842 1.0712 0.9335
7.8462 10.0092 0.7938 0.9503
2.4345 7.8826 0.5149 0.9675
2.1566 7.7828 0.5041 0.9682
1.8640 8.0890 0.5181 0.9673
-1.2716 5.1715 0.3324 0.9789
-2.7034 9.7557 0.6318 0.9602
-4.3530 9.1120 0.6303 0.9603
-8.3199 9.4232 0.7846 0.9509
-8.4572 7.3578 0.6997 0.9561
-8.6722 7.3250 0.7085 0.9555
-8.9664 6.5145 0.6917 0.9566
-8.8881 5.8804 0.6652 0.9582
-8.9110 5.7100 0.6606 0.9585
-8.9336 5.5421 0.6562 0.9587
-8.9559 5.3763 0.6520 0.9590
-1.4516 0.8429 0.1048 0.9933
-1.4446 0.8108 0.1034 0.9934
-1.4418 0.7817 0.1024 0.9934
-1.4422 0.7549 0.1016 0.9935
-1.1715 0.5702 0.0813 0.9948
-1.1337 0.5314 0.0781 0.9950
-1.1290 0.4896 0.0768 0.9951
-1.1223 0.4293 0.0750 0.9952
-1.1202 0.4098 0.0744 0.9952
-1.1181 0.3906 0.0739 0.9953
-1.1135 0.3350 0.0726 0.9954
-1.1124 0.3170 0.0722 0.9954
-1.1113 0.2993 0.0718 0.9954
-1.1102 0.2816 0.0715 0.9954
-1.1092 0.2642 0.0712 0.9954
-1.1083 0.2469 0.0709 0.9955
-1.1065 0.2128 0.0703 0.9955
-1.1003 0.1784 0.0696 0.9955
-1.0930 0.1609 0.0690 0.9956
-1.0860 0.1437 0.0684 0.9956
-1.0598 0.0776 0.0663 0.9958
-1.0538 0.0617 0.0659 0.9958
-1.0421 0.0305 0.0651 0.9958
-0.9724 -0.0142 0.0499 0.9961
-0.9803 -0.0430 0.0503 0.9961
-1.0006 -0.1027 0.0516 0.9960
-1.0121 -0.1339 0.0524 0.9959
-1.0305 -0.1825 0.0537 0.9958
-1.0384 -0.2154 0.0544 0.9958
-1.0457 -0.2652 0.0553 0.9957
-1.0483 -0.2822 0.0557 0.9957
-1.0569 -0.3348 0.0569 0.9956
-1.0621 -0.3536 0.0574 0.9955
-1.0733 -0.3926 0.0586 0.9954
-1.0767 -0.4299 0.0595 0.9954
-1.0785 -0.4490 0.0599 0.9953
-1.0804 -0.4685 0.0604 0.9953
-1.0824 -0.4882 0.0609 0.9953
-1.0867 -0.5289 0.0620 0.9952
-1.1840 -0.5977 0.0680 0.9947
-1.4171 -0.7954 0.0834 0.9935
-1.4171 -0.8227 0.0841 0.9935
-1.4186 -0.8515 0.0849 0.9934
-1.4486 -0.8987 0.0874 0.9932
-47.1149 -30.1905 2.8704 0.7992
-42.2177 -29.7402 2.6490 0.8132
-40.8944 -29.7115 2.5929 0.8167
-12.4575 -9.3320 0.7984 0.9396
-12.3685 -9.5506 0.8016 0.9393
-11.9749 -9.5292 0.7850 0.9405
-11.5334 -10.0341 0.7842 0.9406
-11.2545 -10.3845 0.7855 0.9405
-40.5972 -43.3585 3.0469 0.7883
-38.6247 -47.8164 3.1531 0.7818
-36.4472 -47.9204 3.0884 0.7857
-35.3362 -47.8962 3.0532 0.7879
-33.0985 -47.7216 2.9791 0.7925
-19.6603 -29.2500 1.8079 0.8684
-18.4260 -29.2231 1.7721 0.8708
-17.5930 -29.7979 1.7751 0.8706
-1.5207 -2.7565 0.1615 0.9875
-1.4898 -2.7963 0.1625 0.9874
-21.8931 -47.6041 2.6878 0.8107
-21.0479 -47.5857 2.6691 0.8119
-20.2141 -47.5676 2.6512 0.8130
-5.1965 -12.7425 0.7059 0.9464
-17.8685 -45.7149 2.5178 0.8215
-17.2397 -46.0811 2.5238 0.8211
-17.1489 -50.2673 2.7245 0.8084
-17.5080 -53.8839 2.9063 0.7970
-16.9816 -57.9762 3.0989 0.7851
-3.4130 -13.0548 0.6922 0.9474
-16.6699 -72.3390 3.8080 0.7428
-16.5682 -77.0244 4.0415 0.7294
-15.1067 -97.6879 5.0706 0.6731
21.5299 -82.3532 4.3664 0.7111
24.1053 -82.2972 4.3989 0.7093
25.4079 -82.2689 4.4168 0.7083
33.4784 -82.0935 4.5478 0.7011
39.1589 -81.9700 4.6600 0.6950
45.0816 -81.7201 4.7875 0.6881
46.6326 -81.6864 4.8250 0.6861
49.8103 -81.6173 4.9048 0.6818
51.5150 -81.7014 4.9546 0.6792
9.1445 -12.7816 0.8062 0.9390
1.9154 -2.2343 0.1510 0.9883
1.9771 -2.1743 0.1508 0.9883
2.0349 -2.1733 0.1527 0.9881
2.0717 -2.1488 0.1531 0.9881
2.1835 -2.0746 0.1545 0.9880
2.2694 -2.0334 0.1563 0.9879
24.0448 -13.0363 1.4030 0.8962
24.1597 -12.6454 1.3988 0.8965
24.2868 -12.2632 1.3956 0.8968
5.6036 -2.7274 0.3197 0.9753
28.7422 -13.4738 1.6283 0.8806
29.6260 -12.8460 1.6564 0.8787
30.3611 -12.1236 1.6770 0.8773
34.7545 -13.2925 1.9087 0.8615
34.1574 -12.4951 1.8657 0.8644
10.0515 -3.3473 0.5434 0.9585
9.6760 -3.0659 0.5207 0.9602
9.8179 -2.9538 0.5259 0.9598
10.1979 -2.4286 0.5377 0.9589
10.2322 -2.2793 0.5377 0.9589
14.3281 -2.3230 0.7446 0.9435
14.4139 -2.1213 0.7473 0.9433
17.5802 -2.0645 0.9080 0.9316
28.8337 -1.6872 1.4816 0.8908
29.6232 -1.2994 1.5210 0.8880
85.7861 -2.5078 4.4024 0.7091
66.7401 8.8279 3.4534 0.7637
55.4306 8.9871 2.8805 0.7986
49.9034 8.8411 2.5997 0.8163
49.6733 9.5509 2.5947 0.8166
44.1852 9.1671 2.3148 0.8347
44.7595 9.9706 2.3523 0.8322
39.4391 9.3923 2.0797 0.8501
34.4969 8.7500 1.8256 0.8671
34.4767 9.2830 1.8315 0.8667
34.0457 9.7027 1.8160 0.8678
34.1354 10.8162 1.8368 0.8664
11.7061 4.0893 0.6361 0.9515
11.3151 4.1392 0.6180 0.9529
11.0011 4.2076 0.6042 0.9539
10.8372 4.3275 0.5986 0.9543
10.8830 4.7190 0.6085 0.9536
10.9978 5.3530 0.6274 0.9522
11.0423 5.5757 0.6345 0.9517
11.0879 5.8035 0.6420 0.9511
16.2196 9.4172 0.9621 0.9276
16.1177 9.6756 0.9643 0.9275
15.6354 9.6996 0.9438 0.9290
14.9894 10.2349 0.9310 0.9299
15.0689 10.9482 0.9555 0.9281
2.4305 7.8699 0.4225 0.9675
2.2808 7.7869 0.4162 0.9680
2.1554 7.7786 0.4140 0.9682
1.9404 7.8919 0.4169 0.9680
-2.6975 9.7343 0.5182 0.9603
-8.6722 7.3250 0.5823 0.9556
-8.8534 7.2590 0.5873 0.9552
-6.5369 5.2019 0.4285 0.9671
-6.5546 4.7622 0.4156 0.9681
-6.6173 4.5184 0.4110 0.9684
-6.6571 4.4043 0.4095 0.9685
-1.4486 0.8987 0.0874 0.9932
-1.4186 0.8516 0.0849 0.9934
-1.4171 0.7954 0.0834 0.9935
-1.4204 0.7435 0.0822 0.9936
-1.0867 0.5289 0.0620 0.9952
-1.0845 0.5084 0.0614 0.9952
-1.0804 0.4685 0.0604 0.9953
-1.0483 0.2822 0.0557 0.9957
-1.0457 0.2652 0.0553 0.9957
-1.0361 0.1993 0.0541 0.9958
-1.0242 0.1661 0.0532 0.9959
-0.9898 0.0725 0.0509 0.9960
-0.9845 0.0576 0.0506 0.9961
-0.9763 0.0286 0.0501 0.9961
-0.9723 0.0143 0.0499 0.9961
-0.9116 0.0000 0.0366 0.9964
-0.9219 -0.0404 0.0371 0.9963
-0.9255 -0.0541 0.0373 0.9963
-0.9427 -0.1107 0.0381 0.9962
-0.9477 -0.1253 0.0384 0.9962
-0.9634 -0.1706 0.0393 0.9961
-0.9689 -0.1863 0.0397 0.9961
-0.9729 -0.2018 0.0399 0.9960
-0.9787 -0.2482 0.0406 0.9960
-0.9807 -0.2640 0.0408 0.9959
-0.9851 -0.2963 0.0413 0.9959
-1.0091 -0.3691 0.0432 0.9957
-1.0216 -0.4079 0.0442 0.9956
-1.0229 -0.4259 0.0445 0.9956
-1.0258 -0.4627 0.0452 0.9955
-1.0272 -0.4815 0.0456 0.9955
-1.0305 -0.5203 0.0464 0.9954
-1.4129 -0.7930 0.0651 0.9935
-45.5827 -30.1572 2.1967 0.8035
-43.5998 -29.7703 2.1219 0.8095
-42.2177 -29.7403 2.0756 0.8132
-13.5422 -9.8390 0.6728 0.9352
-11.6703 -9.5686 0.6066 0.9414
-11.8164 -9.9807 0.6217 0.9400
-11.7707 -10.2405 0.6271 0.9395
-11.2232 -10.0560 0.6057 0.9415
-11.2195 -10.3522 0.6136 0.9407
-10.9067 -10.3627 0.6047 0.9416
-10.7732 -10.8521 0.6146 0.9406
-11.2725 -11.6920 0.6528 0.9371
-7.5590 -8.3134 0.4516 0.9560
-6.7229 -8.3228 0.4300 0.9581
-19.6604 -29.2500 1.4165 0.8684
-1.4898 -2.7964 0.1273 0.9874
-5.4802 -11.9160 0.5271 0.9488
-20.2141 -47.5676 2.0773 0.8131
-5.1881 -12.7219 0.5522 0.9465
-17.1485 -50.2662 2.1346 0.8085
-17.0418 -55.1799 2.3211 0.7936
-16.9146 -61.0400 2.5458 0.7760
-3.4128 -13.0541 0.5423 0.9474
-16.7600 -68.1626 2.8212 0.7550
-16.4526 -82.3200 3.3740 0.7146
-16.3215 -88.3627 3.6115 0.6979
20.8338 -84.7311 3.5069 0.7052
21.5299 -82.3532 3.4212 0.7112
24.1053 -82.2973 3.4466 0.7094
29.3843 -82.1825 3.5078 0.7051
30.7348 -82.1531 3.5254 0.7039
32.0992 -82.1235 3.5439 0.7026
33.4784 -82.0935 3.5633 0.7012
34.8730 -82.0632 3.5837 0.6998
36.2841 -82.0325 3.6052 0.6983
37.7124 -82.0015 3.6276 0.6968
42.1106 -81.9059 3.7016 0.6916
43.6179 -81.8731 3.7285 0.6898
46.7009 -81.8061 3.7860 0.6859
48.2791 -81.7718 3.8166 0.6838
49.8833 -81.7370 3.8486 0.6816
2.0871 -2.1648 0.1209 0.9880
2.1246 -2.1401 0.1212 0.9880
2.2332 -2.0606 0.1221 0.9879
2.2663 -2.0307 0.1223 0.9879
2.3328 -2.0296 0.1243 0.9877
87.3024 -47.3325 3.9914 0.6720
87.1174 -45.5979 3.9520 0.6746
5.6037 -2.7275 0.2505 0.9754
85.9574 -40.2952 3.8156 0.6838
29.1097 -13.1307 1.2835 0.8800
87.9556 -36.6208 3.8293 0.6829
91.3836 -36.4907 3.9549 0.6744
9.7036 -3.0747 0.4091 0.9601
9.9461 -2.5228 0.4124 0.9598
10.3230 -1.9848 0.4225 0.9588
14.4376 -2.1248 0.5865 0.9433
17.6497 -2.0726 0.7142 0.9313
20.8761 -1.8350 0.8423 0.9195
25.0362 -1.8324 1.0089 0.9044
29.0435 -1.2739 1.1684 0.8901
86.0112 -2.5143 3.4584 0.7086
86.2271 -1.2601 3.4660 0.7081
64.2095 8.4931 2.6032 0.7716
59.3402 8.7330 2.4107 0.7865
54.5586 8.8457 2.2214 0.8015
49.8164 9.5784 2.0389 0.8162
54.0841 11.2209 2.2200 0.8016
44.1974 9.8454 1.8199 0.8342
39.3783 10.6029 1.6391 0.8494
11.2654 4.1211 0.4821 0.9531
10.8129 4.3178 0.4680 0.9545
10.8582 4.7082 0.4757 0.9537
10.9051 5.1121 0.4841 0.9529
10.9336 5.3217 0.4887 0.9525
15.7616 9.4619 0.7389 0.9290
15.7532 9.7727 0.7451 0.9285
14.9536 10.2105 0.7278 0.9301
14.0597 9.9044 0.6912 0.9335
7.8527 10.0175 0.5116 0.9503
2.4305 7.8698 0.3310 0.9676
1.9405 7.8920 0.3266 0.9680
1.8594 8.0689 0.3328 0.9674
-1.2716 5.1716 0.2140 0.9789
-2.6935 9.7201 0.4054 0.9604
-4.3523 9.1105 0.4058 0.9604
-8.6368 7.5141 0.4601 0.9552
-6.3960 5.4024 0.3365 0.9670
-6.4333 5.1195 0.3304 0.9676
-6.4876 4.8599 0.3258 0.9681
-6.5933 4.2249 0.3147 0.9691
-1.4222 0.8823 0.0673 0.9933
-1.2464 0.6757 0.0570 0.9943
-1.0322 0.5403 0.0468 0.9953
-1.0305 0.5203 0.0464 0.9954
-1.0257 0.4627 0.0452 0.9955
-1.0243 0.4442 0.0449 0.9955
-1.0229 0.4259 0.0445 0.9956
-1.0216 0.4079 0.0442 0.9956
-1.0158 0.3886 0.0437 0.9957
-0.9938 0.3309 0.0421 0.9958
-0.9874 0.3129 0.0416 0.9959
-0.9851 0.2964 0.0413 0.9959
-0.9766 0.2326 0.0403 0.9960
-0.9747 0.2171 0.0401 0.9960
-0.9689 0.1863 0.0397 0.9961
-0.9580 0.1554 0.0390 0.9961
-0.9528 0.1403 0.0387 0.9962
-0.9477 0.1254 0.0384 0.9962
-0.9427 0.1107 0.0381 0.9962
-0.9378 0.0963 0.0379 0.9962
-0.9331 0.0821 0.0376 0.9963
-0.9292 0.0681 0.0374 0.9963
-0.9255 0.0542 0.0373 0.9963
-0.9219 0.0405 0.0371 0.9963
-0.8609 0.0000 0.0251 0.9966
-0.8798 -0.0773 0.0257 0.9965
-0.8832 -0.0907 0.0258 0.9965
-0.8911 -0.1179 0.0262 0.9964
-0.8954 -0.1317 0.0263 0.9964
-0.8999 -0.1459 0.0265 0.9964
-0.9045 -0.1602 0.0267 0.9963
-0.9092 -0.1748 0.0269 0.9963
-0.9140 -0.1896 0.0272 0.9963
-0.9166 -0.2041 0.0273 0.9962
-0.9230 -0.2630 0.0279 0.9962
-0.9247 -0.2782 0.0281 0.9961
-0.9275 -0.2939 0.0283 0.9961
-0.9403 -0.3285 0.0290 0.9960
-0.9470 -0.3464 0.0293 0.9960
-0.9657 -0.4020 0.0304 0.9958
-0.9747 -0.4396 0.0311 0.9957
-0.9769 -0.4754 0.0316 0.9957
-0.9804 -0.5315 0.0324 0.9955
-47.1150 -30.1905 1.6282 0.7994
-16.9966 -11.6054 0.5988 0.9209
-42.2178 -29.7402 1.5026 0.8133
-13.2231 -9.9055 0.4807 0.9360
-11.7530 -9.3526 0.4370 0.9417
-11.5554 -9.4744 0.4348 0.9420
-11.4658 -9.6845 0.4367 0.9417
-11.4912 -9.9973 0.4432 0.9409
-10.8558 -10.3143 0.4357 0.9418
-10.7890 -10.5551 0.4392 0.9414
-10.5856 -10.6632 0.4372 0.9416
-7.6979 -8.2214 0.3277 0.9559
-7.0348 -8.2063 0.3145 0.9577
-6.4110 -8.1782 0.3024 0.9593
-6.0308 -8.1744 0.2956 0.9602
-5.9024 -9.0646 0.3147 0.9576
-18.4260 -29.2231 1.0052 0.8709
-6.2319 -10.9163 0.3657 0.9509
-1.5207 -2.7566 0.0916 0.9875
-1.4898 -2.7963 0.0922 0.9874
-5.6683 -11.0249 0.3607 0.9516
-5.5821 -11.2588 0.3657 0.9510
-21.0479 -47.5857 1.5140 0.8120
-20.2141 -47.5676 1.5039 0.8132
-17.8684 -45.7149 1.4282 0.8217
-17.2390 -46.0791 1.4315 0.8213
-17.1953 -48.0921 1.4861 0.8152
-17.1481 -50.2651 1.5453 0.8085
-17.5071 -53.8815 1.6485 0.7971
-17.0414 -55.1786 1.6804 0.7937
-16.9141 -61.0384 1.8430 0.7761
-3.4126 -13.0534 0.3926 0.9474
-16.6688 -72.3345 2.1599 0.7430
-16.5671 -77.0192 2.2923 0.7296
21.5299 -82.3532 2.4768 0.7113
22.8128 -82.3253 2.4857 0.7105
30.7348 -82.1531 2.5522 0.7040
32.0993 -82.1235 2.5656 0.7027
33.4784 -82.0935 2.5797 0.7013
36.2841 -82.0325 2.6100 0.6984
37.7124 -82.0015 2.6262 0.6969
39.1589 -81.9701 2.6433 0.6952
45.1477 -81.8399 2.7196 0.6880
48.2791 -81.7718 2.7631 0.6839
49.8833 -81.7370 2.7862 0.6817
1.9281 -2.1839 0.0848 0.9884
2.0514 -2.1909 0.0873 0.9881
2.1260 -2.1416 0.0878 0.9880
2.1638 -2.1170 0.0881 0.9880
2.2050 -2.0950 0.0885 0.9879
2.2339 -2.0612 0.0884 0.9879
85.7180 -40.1831 2.7546 0.6847
85.6519 -37.1393 2.7164 0.6883
91.0406 -36.3537 2.8524 0.6755
10.0370 -2.5458 0.3013 0.9594
10.2891 -2.4503 0.3078 0.9586
10.3494 -1.9900 0.3067 0.9587
14.4150 -2.3371 0.4249 0.9432
14.4536 -2.1271 0.4251 0.9432
17.7274 -2.0818 0.5194 0.9311
20.9281 -1.8395 0.6113 0.9194
28.1623 -1.6479 0.8208 0.8932
44.7404 -1.3079 1.3024 0.8360
64.7616 9.5309 1.9047 0.7696
26.9541 4.3701 0.7945 0.8965
26.8179 4.7512 0.7925 0.8967
27.2862 6.0783 0.8134 0.8942
44.3480 10.5614 1.3265 0.8332
39.6095 10.0468 1.1890 0.8491
12.0084 3.9991 0.3683 0.9506
11.2162 4.1030 0.3475 0.9533
10.8882 4.1645 0.3392 0.9544
10.7888 4.3081 0.3380 0.9546
10.8110 4.5012 0.3407 0.9542
10.8336 4.6975 0.3436 0.9538
10.8565 4.8972 0.3465 0.9535
10.8799 5.1003 0.3496 0.9531
10.9038 5.3072 0.3529 0.9526
10.9562 5.7346 0.3598 0.9517
11.0465 6.1996 0.3686 0.9506
11.0934 6.4409 0.3732 0.9500
15.3481 9.8348 0.5304 0.9297
14.8080 10.4316 0.5270 0.9301
15.0939 10.9664 0.5429 0.9281
14.8116 11.0955 0.5385 0.9286
7.8595 10.0261 0.3707 0.9503
2.4305 7.8698 0.2397 0.9676
1.8594 8.0691 0.2409 0.9674
-1.2716 5.1716 0.1550 0.9789
-2.6904 9.7087 0.2931 0.9605
-4.3519 9.1098 0.2938 0.9604
-6.3683 5.3789 0.2426 0.9672
-6.3851 5.2352 0.2403 0.9675
-6.4170 4.9550 0.2359 0.9681
-6.4440 4.8273 0.2343 0.9683
-6.4649 4.6970 0.2325 0.9685
-1.4151 0.8495 0.0480 0.9934
-1.4147 0.8214 0.0476 0.9935
-1.0999 0.6173 0.0367 0.9950
-0.9804 0.5315 0.0324 0.9955
-0.9791 0.5125 0.0322 0.9956
-0.9780 0.4938 0.0319 0.9956
-0.9769 0.4755 0.0316 0.9957
-0.9747 0.4397 0.0311 0.9957
-0.9719 0.4214 0.0308 0.9958
-0.9657 0.4021 0.0304 0.9958
-0.9597 0.3832 0.0301 0.9959
-0.9470 0.3464 0.0293 0.9960
-0.9338 0.3110 0.0286 0.9961
-0.9247 0.2782 0.0281 0.9961
-0.9230 0.2630 0.0279 0.9962
-0.9213 0.2481 0.0278 0.9962
-0.9181 0.2186 0.0275 0.9962
-0.9140 0.1896 0.0272 0.9963
-0.9092 0.1748 0.0269 0.9963
-0.8999 0.1459 0.0265 0.9964
-0.8954 0.1318 0.0263 0.9964
-0.8910 0.1179 0.0262 0.9964
-0.8832 0.0907 0.0258 0.9965
-0.8766 0.0642 0.0256 0.9965
-0.8640 0.0127 0.0251 0.9965
-0.8184 -0.0119 0.0147 0.9967
-0.8211 -0.0239 0.0148 0.9967
-0.8239 -0.0361 0.0149 0.9967
-0.8325 -0.0731 0.0150 0.9967
-0.8354 -0.0857 0.0151 0.9966
-0.8384 -0.0984 0.0152 0.9966
-0.8485 -0.1375 0.0155 0.9966
-0.8525 -0.1510 0.0156 0.9965
-0.8565 -0.1646 0.0157 0.9965
-0.8606 -0.1786 0.0158 0.9965
-0.8663 -0.2063 0.0160 0.9964
-0.8675 -0.2200 0.0161 0.9964
-0.8688 -0.2339 0.0162 0.9964
-0.8807 -0.2933 0.0167 0.9963
-0.8977 -0.3433 0.0173 0.9962
-0.9090 -0.3785 0.0177 0.9961
-0.9248 -0.4335 0.0184 0.9959
-0.9299 -0.4526 0.0186 0.9959
-0.9321 -0.5054 0.0191 0.9958
-17.0483 -10.5761 0.3613 0.9229
-16.6406 -11.0093 0.3593 0.9233
-11.7840 -9.3773 0.2712 0.9415
-11.1277 -9.9704 0.2691 0.9420
-10.8086 -10.2695 0.2685 0.9421
-7.1944 -8.1484 0.1958 0.9574
-6.7700 -8.1349 0.1906 0.9585
-6.5629 -8.1248 0.1881 0.9591
-6.1693 -8.1113 0.1835 0.9600
-5.9869 -8.1149 0.1816 0.9605
-5.8115 -8.1230 0.1799 0.9608
-5.4581 -8.3824 0.1801 0.9608
-5.4410 -9.2155 0.1927 0.9581
-5.7405 -11.1653 0.2261 0.9510
-5.5908 -11.2762 0.2267 0.9509
-5.5573 -11.6329 0.2322 0.9497
-20.2141 -47.5676 0.9308 0.8132
-5.1669 -12.6697 0.2464 0.9467
-17.2386 -46.0782 0.8860 0.8213
-17.1949 -48.0910 0.9198 0.8152
-17.0410 -55.1772 1.0400 0.7937
-16.9803 -57.9718 1.0879 0.7853
-16.9137 -61.0368 1.1407 0.7762
-3.4124 -13.0527 0.2430 0.9475
-16.7590 -68.1586 1.2640 0.7552
-16.5666 -77.0167 1.4187 0.7297
-16.4515 -82.3140 1.5117 0.7148
-16.3202 -88.3561 1.6182 0.6981
20.8353 -84.7371 1.5715 0.7053
21.5299 -82.3532 1.5330 0.7114
24.1053 -82.2973 1.5444 0.7096
26.7215 -82.2404 1.5573 0.7076
29.3842 -82.1825 1.5718 0.7053
32.0992 -82.1235 1.5880 0.7028
36.2841 -82.0326 1.6154 0.6985
37.7124 -82.0015 1.6255 0.6969
39.1590 -81.9701 1.6360 0.6953
40.6248 -81.9382 1.6471 0.6936
43.6180 -81.8732 1.6707 0.6900
46.7009 -81.8062 1.6964 0.6860
49.8833 -81.7370 1.7245 0.6818
51.5150 -81.7015 1.7394 0.6795
1.9239 -2.1790 0.0524 0.9884
1.9704 -2.1670 0.0527 0.9884
2.0593 -2.1993 0.0543 0.9880
2.0966 -2.1746 0.0544 0.9880
2.2350 -2.0622 0.0548 0.9879
2.3113 -2.0109 0.0552 0.9878
19.1286 -13.0611 0.4171 0.9115
16.0988 -9.0350 0.3325 0.9288
16.1015 -8.4276 0.3273 0.9299
16.3154 -8.2382 0.3292 0.9295
17.5801 -8.2413 0.3497 0.9253
18.2151 -8.2164 0.3599 0.9232
21.7059 -9.0373 0.4234 0.9102
22.1237 -8.0931 0.4243 0.9101
9.9035 -2.9795 0.1863 0.9595
10.0505 -2.8643 0.1882 0.9591
10.1389 -2.7300 0.1891 0.9589
10.1295 -2.5693 0.1882 0.9591
10.3231 -2.4584 0.1911 0.9584
10.3396 -2.3033 0.1908 0.9585
10.3323 -2.1437 0.1900 0.9587
14.3987 -2.3345 0.2627 0.9433
14.4852 -2.1318 0.2637 0.9431
20.9573 -2.1511 0.3794 0.9192
28.2111 -2.0648 0.5094 0.8930
28.8829 -1.2669 0.5207 0.8908
59.5851 -0.8707 1.0732 0.7879
26.6512 4.3210 0.4862 0.8976
26.7087 4.7318 0.4885 0.8972
22.7519 4.3746 0.4172 0.9115
19.8922 4.1271 0.3659 0.9219
19.0520 4.2440 0.3515 0.9249
18.9689 4.5174 0.3512 0.9250
19.0318 4.8273 0.3536 0.9245
19.1605 5.4605 0.3588 0.9234
11.9269 3.9719 0.2264 0.9510
10.8327 4.1432 0.2089 0.9547
10.7647 4.2986 0.2087 0.9547
10.7867 4.4911 0.2104 0.9543
10.8090 4.6869 0.2122 0.9540
10.8317 4.8860 0.2140 0.9536
10.8549 5.0886 0.2159 0.9532
10.8784 5.2949 0.2179 0.9528
10.9025 5.5050 0.2200 0.9523
10.9269 5.7193 0.2221 0.9519
10.9519 5.9378 0.2244 0.9514
11.0725 6.6469 0.2326 0.9496
15.1712 10.3590 0.3308 0.9291
14.7769 11.0695 0.3325 0.9288
2.4304 7.8696 0.1483 0.9676
2.2808 7.7868 0.1461 0.9681
2.1555 7.7786 0.1454 0.9682
1.9405 7.8921 0.1464 0.9680
-1.2716 5.1717 0.0959 0.9789
-2.6933 9.7192 0.1816 0.9605
-8.1827 9.5453 0.2264 0.9509
-6.2864 5.6327 0.1520 0.9668
-6.3150 5.4941 0.1507 0.9671
-6.3408 5.3557 0.1495 0.9673
-6.3541 5.2098 0.1480 0.9677
-6.3739 4.9218 0.1450 0.9683
-6.3996 4.7940 0.1440 0.9685
-6.4817 4.2883 0.1400 0.9694
-6.5016 4.1662 0.1391 0.9696
-6.5256 4.0482 0.1383 0.9697
-0.9337 0.5421 0.0194 0.9957
-0.9321 0.5054 0.0191 0.9958
-0.9299 0.4526 0.0186 0.9959
-0.9247 0.4336 0.0184 0.9959
-0.9194 0.4147 0.0182 0.9960
-0.9141 0.3964 0.0179 0.9960
-0.9090 0.3785 0.0177 0.9961
-0.8977 0.3434 0.0173 0.9962
-0.8919 0.3263 0.0171 0.9962
-0.8862 0.3096 0.0169 0.9963
-0.8807 0.2933 0.0167 0.9963
-0.8688 0.2339 0.0162 0.9964
-0.8675 0.2200 0.0161 0.9964
-0.8663 0.2063 0.0160 0.9964
-0.8648 0.1927 0.0160 0.9965
-0.8606 0.1786 0.0158 0.9965
-0.8446 0.1243 0.0154 0.9966
-0.8354 0.0857 0.0151 0.9966
-0.8325 0.0732 0.0150 0.9967
-0.8267 0.0484 0.0149 0.9967
-0.8211 0.0240 0.0148 0.9967
-0.8184 0.0120 0.0147 0.9967
-0.7799 -0.0228 0.0054 0.9969
-0.7899 -0.0694 0.0055 0.9968
-0.7978 -0.1055 0.0056 0.9968
-0.8131 -0.1687 0.0058 0.9967
-0.8200 -0.1953 0.0058 0.9966
-0.8210 -0.2082 0.0059 0.9966
-0.8242 -0.2479 0.0060 0.9966
-0.8334 -0.2775 0.0061 0.9965
-0.8381 -0.2927 0.0061 0.9965
-0.8529 -0.3405 0.0064 0.9963
-0.8581 -0.3572 0.0064 0.9963
-0.8629 -0.3741 0.0065 0.9962
-0.8810 -0.4448 0.0068 0.9961
-0.8883 -0.4816 0.0070 0.9960
-0.8891 -0.5161 0.0071 0.9959
-16.2722 -11.4629 0.1379 0.9235
-13.1659 -9.5656 0.1127 0.9370
-12.8970 -9.6613 0.1116 0.9376
-11.5405 -9.4622 0.1034 0.9421
-11.5602 -9.7643 0.1048 0.9413
-11.3041 -9.8346 0.1038 0.9418
-11.0489 -9.8999 0.1027 0.9424
-8.5510 -7.8900 0.0806 0.9545
-8.5537 -8.1270 0.0817 0.9539
-8.0484 -8.1074 0.0791 0.9553
-7.8114 -8.1020 0.0779 0.9560
-7.5802 -8.0957 0.0768 0.9566
-7.1380 -8.0845 0.0747 0.9578
-6.9246 -8.0777 0.0737 0.9583
-6.7161 -8.0702 0.0727 0.9589
-5.5990 -8.0725 0.0680 0.9615
-5.4955 -8.1760 0.0682 0.9614
-5.4310 -8.6133 0.0705 0.9601
-5.4235 -8.8867 0.0721 0.9592
-1.5207 -2.7566 0.0218 0.9875
-5.8029 -11.2866 0.0879 0.9505
-5.5284 -11.5724 0.0888 0.9500
-5.3732 -11.6834 0.0891 0.9499
-5.2295 -11.8230 0.0895 0.9496
-5.1667 -12.6694 0.0948 0.9467
-17.8685 -45.7149 0.3400 0.8217
-17.2383 -46.0773 0.3407 0.8214
-17.1945 -48.0900 0.3537 0.8152
-17.5063 -53.8790 0.3924 0.7972
-17.0405 -55.1759 0.4000 0.7937
-16.9798 -57.9704 0.4184 0.7853
-16.9132 -61.0352 0.4387 0.7762
-16.7585 -68.1566 0.4861 0.7552
-16.6678 -72.3300 0.5141 0.7431
-16.3196 -88.3526 0.6223 0.6981
20.8361 -84.7401 0.6043 0.7053
25.4080 -82.2689 0.5964 0.7086
28.0467 -82.2116 0.6016 0.7065
29.3842 -82.1825 0.6045 0.7053
30.7349 -82.1532 0.6075 0.7041
36.2841 -82.0326 0.6213 0.6985
39.1590 -81.9701 0.6292 0.6953
42.1107 -81.9059 0.6379 0.6918
43.6180 -81.8732 0.6425 0.6900
45.1477 -81.8400 0.6474 0.6881
46.7010 -81.8062 0.6524 0.6861
48.2791 -81.7719 0.6577 0.6840
9.1545 -12.7957 0.1090 0.9390
1.8896 -2.2043 0.0201 0.9885
1.9691 -2.1656 0.0203 0.9884
2.0810 -2.1584 0.0208 0.9881
2.1184 -2.1339 0.0208 0.9880
2.2606 -2.0256 0.0210 0.9879
2.3051 -2.0055 0.0212 0.9879
19.1575 -13.0809 0.1607 0.9114
15.7863 -9.4766 0.1275 0.9290
15.8129 -9.1810 0.1266 0.9295
15.7962 -8.5642 0.1244 0.9306
15.7528 -8.2452 0.1231 0.9313
16.0757 -8.1171 0.1247 0.9305
5.6039 -2.7276 0.0432 0.9754
17.3303 -8.1241 0.1326 0.9263
17.9976 -8.1183 0.1367 0.9241
21.0856 -9.1429 0.1592 0.9122
21.0590 -8.0543 0.1562 0.9138
21.7835 -7.9686 0.1606 0.9114
22.7579 -7.9500 0.1670 0.9081
10.4272 -2.1634 0.0738 0.9583
10.4028 -2.0002 0.0734 0.9585
14.4306 -2.5566 0.1015 0.9431
14.5028 -2.3513 0.1018 0.9429
14.5091 -2.1353 0.1016 0.9430
17.7554 -2.3485 0.1240 0.9309
17.8122 -2.0917 0.1242 0.9308
24.6864 -2.1698 0.1716 0.9056
27.9850 -2.0482 0.1943 0.8938
95.0286 5.5606 0.6593 0.6833
68.2935 4.9984 0.4743 0.7604
41.7337 3.6684 0.2902 0.8457
34.7856 4.6012 0.2430 0.8690
26.5541 3.9080 0.1859 0.8982
22.5289 4.3318 0.1589 0.9123
19.3190 4.0082 0.1367 0.9241
18.8096 4.1900 0.1335 0.9258
18.9802 5.4092 0.1367 0.9241
19.0441 5.7295 0.1377 0.9235
19.1091 6.0549 0.1388 0.9229
11.1192 4.0676 0.0820 0.9537
10.7778 4.1222 0.0799 0.9549
10.7408 4.2890 0.0801 0.9548
10.8071 4.8749 0.0821 0.9537
10.9767 6.3731 0.0879 0.9505
11.0044 6.6061 0.0889 0.9500
11.0514 6.8559 0.0901 0.9493
15.0254 9.6281 0.1236 0.9311
14.8724 9.8395 0.1235 0.9312
15.1896 10.3716 0.1274 0.9291
14.0426 9.8923 0.1190 0.9336
14.7927 11.0814 0.1280 0.9287
2.4304 7.8696 0.0570 0.9676
2.0426 7.8129 0.0559 0.9682
1.8595 8.0694 0.0574 0.9674
-1.2716 5.1717 0.0369 0.9789
-4.3512 9.1083 0.0699 0.9604
-5.9768 5.8472 0.0579 0.9671
-6.0341 5.7331 0.0576 0.9673
-6.2509 5.6009 0.0581 0.9670
-6.2783 5.4621 0.0576 0.9673
-6.3162 5.1787 0.0566 0.9679
-6.3269 5.0347 0.0560 0.9682
-6.3374 4.8936 0.0555 0.9685
-6.3551 4.7606 0.0550 0.9687
-6.3770 4.6332 0.0546 0.9690
-6.3979 4.5070 0.0542 0.9692
-6.4185 4.3826 0.0538 0.9694
-6.4384 4.2596 0.0535 0.9696
-0.8895 0.5340 0.0072 0.9959
-0.8891 0.5163 0.0071 0.9959
-0.8887 0.4988 0.0071 0.9959
-0.8883 0.4816 0.0070 0.9960
-0.8763 0.4265 0.0068 0.9961
-0.8717 0.4086 0.0067 0.9962
-0.8672 0.3912 0.0066 0.9962
-0.8629 0.3742 0.0065 0.9962
-0.8529 0.3406 0.0064 0.9963
-0.8478 0.3243 0.0063 0.9964
-0.8429 0.3083 0.0062 0.9964
-0.8333 0.2775 0.0061 0.9965
-0.8243 0.2480 0.0060 0.9966
-0.8209 0.2083 0.0059 0.9966
-0.8200 0.1953 0.0058 0.9966
-0.8167 0.1819 0.0058 0.9967
-0.8131 0.1687 0.0058 0.9967
-0.7978 0.1056 0.0056 0.9968
-0.7951 0.0934 0.0055 0.9968
-0.7899 0.0695 0.0055 0.9968
-0.7849 0.0460 0.0054 0.9969
-0.7824 0.0343 0.0054 0.9969
-0.7798 0.0229 0.0054 0.9969
-0.7404 -0.0108 -0.0031 0.9970
-0.7426 -0.0217 -0.0031 0.9970
-0.7471 -0.0437 -0.0031 0.9970
-0.7539 -0.0774 -0.0031 0.9970
-0.7585 -0.1003 -0.0032 0.9969
-0.7608 -0.1120 -0.0032 0.9969
-0.7632 -0.1237 -0.0032 0.9969
-0.7769 -0.1850 -0.0033 0.9968
-0.7791 -0.1976 -0.0033 0.9968
-0.7830 -0.2355 -0.0034 0.9967
-0.7869 -0.2493 -0.0034 0.9967
-0.7990 -0.2922 -0.0035 0.9966
-0.8074 -0.3224 -0.0036 0.9965
-0.8118 -0.3380 -0.0037 0.9965
-0.8282 -0.4031 -0.0038 0.9963
-0.8360 -0.4375 -0.0039 0.9962
-0.8401 -0.4555 -0.0040 0.9962
-0.8486 -0.5264 -0.0041 0.9960
-16.5660 -11.3113 -0.0834 0.9229
-16.2173 -11.4242 -0.0824 0.9237
-12.6285 -9.4601 -0.0656 0.9388
-11.7262 -9.0546 -0.0616 0.9425
-11.4990 -9.1505 -0.0611 0.9429
-11.4376 -9.3778 -0.0615 0.9426
-9.0416 -8.1013 -0.0504 0.9526
-8.7422 -8.0664 -0.0494 0.9535
-8.4818 -8.0587 -0.0486 0.9543
-8.2301 -8.0516 -0.0478 0.9550
-7.7488 -8.0371 -0.0464 0.9563
-7.5192 -8.0306 -0.0457 0.9569
-7.2962 -8.0243 -0.0451 0.9575
-7.0793 -8.0180 -0.0444 0.9581
-6.8678 -8.0114 -0.0438 0.9587
-6.4635 -8.0016 -0.0427 0.9597
-5.4890 -8.1664 -0.0409 0.9614
-5.4038 -8.8544 -0.0431 0.9594
-5.4076 -9.1590 -0.0442 0.9583
-6.3176 -11.0665 -0.0530 0.9503
-5.6999 -11.0863 -0.0518 0.9514
-5.5426 -11.1791 -0.0519 0.9513
-5.2607 -11.8935 -0.0540 0.9493
-5.1865 -12.7179 -0.0571 0.9465
-17.8685 -45.7150 -0.2040 0.8217
-17.1942 -48.0890 -0.2122 0.8152
-17.1469 -50.2616 -0.2207 0.8086
-17.0958 -52.6153 -0.2299 0.8015
-17.0402 -55.1745 -0.2400 0.7938
-3.8512 -13.1481 -0.0569 0.9467
-3.6698 -13.2431 -0.0571 0.9465
-3.4121 -13.0512 -0.0561 0.9475
-16.6673 -72.3277 -0.3084 0.7431
-16.5655 -77.0114 -0.3273 0.7297
-16.4503 -82.3081 -0.3488 0.7148
-16.1678 -95.3070 -0.4017 0.6793
22.8129 -82.3254 -0.3550 0.7106
24.1053 -82.2973 -0.3564 0.7096
25.4080 -82.2689 -0.3578 0.7086
26.7215 -82.2404 -0.3594 0.7076
28.0467 -82.2116 -0.3610 0.7065
29.3843 -82.1826 -0.3627 0.7053
32.0993 -82.1235 -0.3664 0.7028
36.2841 -82.0326 -0.3727 0.6985
39.1590 -81.9701 -0.3775 0.6953
45.1477 -81.8399 -0.3884 0.6881
46.7010 -81.8062 -0.3914 0.6861
49.8833 -81.7370 -0.3979 0.6818
51.5150 -81.7016 -0.4014 0.6795
9.1479 -12.7864 -0.0653 0.9390
1.8741 -2.2520 -0.0122 0.9883
1.9686 -2.1650 -0.0122 0.9884
2.1851 -2.0761 -0.0125 0.9880
15.0528 -8.7397 -0.0723 0.9327
15.0733 -8.4595 -0.0718 0.9332
15.1548 -8.2164 -0.0716 0.9334
15.4724 -8.0984 -0.0726 0.9325
5.6040 -2.7276 -0.0259 0.9754
17.8765 -8.0637 -0.0815 0.9246
20.1917 -8.7553 -0.0915 0.9157
20.2021 -8.4113 -0.0909 0.9162
22.3774 -7.8171 -0.0985 0.9095
23.4500 -7.8093 -0.1027 0.9059
10.1098 -2.8812 -0.0437 0.9588
10.2615 -2.7630 -0.0442 0.9584
10.3196 -2.6175 -0.0442 0.9583
10.4543 -2.1689 -0.0444 0.9582
14.4646 -2.5626 -0.0610 0.9429
14.5471 -2.3586 -0.0612 0.9428
14.7373 -2.1689 -0.0619 0.9422
17.8548 -2.0967 -0.0747 0.9306
21.1330 -2.1691 -0.0883 0.9185
27.9220 -2.0436 -0.1163 0.8941
28.3967 -1.6616 -0.1182 0.8925
28.0951 -1.2323 -0.1169 0.8936
29.7308 -0.8691 -0.1236 0.8878
45.5779 -0.6661 -0.1894 0.8333
94.8039 4.1586 -0.3943 0.6841
72.9272 4.2674 -0.3036 0.7466
34.5827 4.0611 -0.1447 0.8700
34.5494 4.5700 -0.1448 0.8699
19.6402 3.7763 -0.0831 0.9231
18.6920 4.4514 -0.0798 0.9260
18.8325 5.3671 -0.0814 0.9247
18.8805 5.6803 -0.0819 0.9242
18.9292 5.9979 -0.0825 0.9236
11.8157 3.9349 -0.0518 0.9514
11.4288 3.9925 -0.0503 0.9527
10.7323 4.1048 -0.0478 0.9551
10.7385 4.4711 -0.0483 0.9545
10.7826 4.8638 -0.0492 0.9538
10.8281 5.2704 -0.0500 0.9530
10.8754 5.6923 -0.0510 0.9521
10.8998 5.9095 -0.0515 0.9516
10.9246 6.1312 -0.0521 0.9511
10.9759 6.5890 -0.0532 0.9501
11.0024 6.8255 -0.0538 0.9495
11.0300 7.0679 -0.0544 0.9489
14.8668 9.8358 -0.0741 0.9312
14.0282 9.8821 -0.0713 0.9337
14.8321 10.7761 -0.0762 0.9293
2.4304 7.8695 -0.0342 0.9676
2.2808 7.7868 -0.0337 0.9681
1.9405 7.8922 -0.0338 0.9680
-1.2717 5.1718 -0.0221 0.9789
-2.7056 9.7638 -0.0421 0.9603
-6.0982 5.9660 -0.0355 0.9665
-6.1215 5.8162 -0.0351 0.9668
-6.1444 5.6694 -0.0347 0.9671
-6.1720 5.5301 -0.0344 0.9674
-6.1996 5.3937 -0.0341 0.9677
-6.2510 4.9743 -0.0332 0.9686
-6.2937 4.7147 -0.0327 0.9690
-6.3161 4.5889 -0.0324 0.9693
-6.3381 4.4649 -0.0322 0.9695
-6.3764 4.2186 -0.0318 0.9699
-0.8486 0.5438 -0.0042 0.9960
-0.8486 0.5095 -0.0041 0.9960
-0.8443 0.4738 -0.0040 0.9961
-0.8401 0.4555 -0.0040 0.9962
-0.8360 0.4376 -0.0039 0.9962
-0.8282 0.4031 -0.0038 0.9963
-0.8244 0.3865 -0.0038 0.9964
-0.8163 0.3539 -0.0037 0.9964
-0.7948 0.2777 -0.0035 0.9966
-0.7908 0.2634 -0.0035 0.9967
-0.7868 0.2494 -0.0034 0.9967
-0.7829 0.2356 -0.0034 0.9967
-0.7805 0.2225 -0.0034 0.9968
-0.7792 0.1976 -0.0033 0.9968
-0.7737 0.1724 -0.0033 0.9968
-0.7656 0.1357 -0.0032 0.9969
-0.7632 0.1238 -0.0032 0.9969
-0.7608 0.1120 -0.0032 0.9969
-0.7562 0.0888 -0.0032 0.9970
-0.7539 0.0774 -0.0031 0.9970
-0.7516 0.0661 -0.0031 0.9970
-0.7493 0.0548 -0.0031 0.9970
-0.7470 0.0437 -0.0031 0.9970
-0.7448 0.0327 -0.0031 0.9970
-0.7426 0.0218 -0.0031 0.9970
-0.7127 -0.0417 -0.0109 0.9971
-0.7188 -0.0737 -0.0110 0.9971
-0.7209 -0.0846 -0.0111 0.9971
-0.7229 -0.0956 -0.0111 0.9971
-0.7312 -0.1406 -0.0113 0.9970
-0.7333 -0.1521 -0.0114 0.9970
-0.7354 -0.1638 -0.0115 0.9970
-0.7405 -0.1878 -0.0116 0.9969
-0.7419 -0.1997 -0.0117 0.9969
-0.7424 -0.2115 -0.0118 0.9969
-0.7456 -0.2243 -0.0119 0.9969
-0.7490 -0.2373 -0.0120 0.9969
-0.7524 -0.2505 -0.0121 0.9968
-0.7559 -0.2640 -0.0122 0.9968
-0.7594 -0.2778 -0.0123 0.9968
-0.7630 -0.2918 -0.0124 0.9967
-0.7819 -0.3665 -0.0132 0.9966
-0.7915 -0.4143 -0.0136 0.9964
-0.7949 -0.4309 -0.0138 0.9964
-0.8017 -0.4654 -0.0141 0.9963
-0.8052 -0.4834 -0.0143 0.9963
-0.8107 -0.5195 -0.0147 0.9962
-13.4214 -9.4546 -0.2502 0.9364
-12.7981 -9.5871 -0.2437 0.9380
-11.8760 -9.1703 -0.2286 0.9417
-11.7399 -9.3423 -0.2286 0.9417
-11.6082 -9.5177 -0.2287 0.9417
-8.9236 -7.9955 -0.1826 0.9532
-8.6696 -7.9994 -0.1798 0.9539
-8.1531 -7.9763 -0.1738 0.9554
-7.4528 -7.9596 -0.1662 0.9573
-6.4340 -7.9652 -0.1560 0.9599
-6.2492 -7.9718 -0.1544 0.9603
-6.0653 -7.9746 -0.1527 0.9607
-5.9003 -7.9975 -0.1514 0.9610
-5.4826 -8.1568 -0.1498 0.9614
-5.4352 -8.3471 -0.1518 0.9609
-5.3944 -9.1366 -0.1617 0.9584
-1.5208 -2.7567 -0.0480 0.9875
-1.4898 -2.7963 -0.0483 0.9874
-5.7071 -11.1002 -0.1902 0.9513
-5.5917 -11.2782 -0.1918 0.9509
-5.3434 -11.6185 -0.1949 0.9501
-18.6499 -45.7320 -0.7526 0.8207
-5.0062 -12.8079 -0.2095 0.9465
-17.2375 -46.0753 -0.7496 0.8214
-17.1938 -48.0879 -0.7782 0.8152
-17.0954 -52.6141 -0.8430 0.8015
-4.0310 -13.0521 -0.2082 0.9468
-3.6713 -13.2487 -0.2095 0.9465
-3.4119 -13.0505 -0.2055 0.9475
-15.4969 -63.0259 -0.9890 0.7713
-13.6308 -63.3686 -0.9877 0.7716
-12.6950 -63.5188 -0.9871 0.7717
-10.8192 -63.7780 -0.9857 0.7720
-8.9392 -63.9822 -0.9844 0.7723
-5.1725 -64.2233 -0.9818 0.7728
-4.2307 -64.2486 -0.9812 0.7729
-3.2893 -64.2612 -0.9805 0.7731
-2.3485 -64.2596 -0.9798 0.7732
-1.4083 -64.2437 -0.9792 0.7733
2.3406 -64.0448 -0.9766 0.7738
3.2740 -63.9613 -0.9759 0.7740
4.2054 -63.8643 -0.9753 0.7741
5.1347 -63.7532 -0.9746 0.7742
7.9078 -63.3411 -0.9727 0.7746
9.7424 -63.0002 -0.9714 0.7749
11.5641 -62.6069 -0.9702 0.7752
12.4696 -62.3910 -0.9695 0.7753
13.3711 -62.1612 -0.9689 0.7754
14.2688 -61.9194 -0.9683 0.7755
15.1624 -61.6652 -0.9676 0.7757
19.5610 -60.2024 -0.9646 0.7763
20.4257 -59.8727 -0.9640 0.7764
23.8295 -58.4332 -0.9616 0.7769
24.6658 -58.0435 -0.9610 0.7770
26.3197 -57.2293 -0.9599 0.7772
27.1371 -56.8051 -0.9593 0.7774
29.5484 -55.4639 -0.9576 0.7777
33.4240 -53.0096 -0.9549 0.7783
34.9203 -51.9532 -0.9539 0.7785
9.1763 -12.8261 -0.2403 0.9389
37.1043 -50.2928 -0.9524 0.7788
38.5181 -49.1363 -0.9514 0.7790
1.8800 -2.2591 -0.0448 0.9883
1.8874 -2.2017 -0.0442 0.9885
1.9190 -2.1735 -0.0442 0.9885
1.9746 -2.1716 -0.0447 0.9883
2.1054 -2.1209 -0.0455 0.9881
2.1430 -2.0965 -0.0457 0.9881
2.2268 -2.0546 -0.0462 0.9880
47.9469 -39.3124 -0.9448 0.7803
48.4968 -38.5921 -0.9444 0.7804
49.5648 -37.1294 -0.9437 0.7806
50.5904 -35.6384 -0.9430 0.7807
19.2410 -13.1379 -0.3550 0.9110
51.5724 -34.1200 -0.9423 0.7808
52.0474 -33.3512 -0.9420 0.7809
14.8857 -9.2345 -0.2669 0.9323
14.8653 -8.6308 -0.2619 0.9335
15.3688 -8.0441 -0.2643 0.9330
15.9938 -8.0758 -0.2730 0.9308
17.1809 -8.0541 -0.2891 0.9269
17.7679 -8.0147 -0.2970 0.9250
20.0422 -8.0031 -0.3289 0.9173
20.4094 -7.8059 -0.3330 0.9163
21.2497 -7.7734 -0.3448 0.9135
22.2418 -7.7697 -0.3590 0.9101
9.8442 -3.1192 -0.1574 0.9595
9.9904 -3.0057 -0.1590 0.9591
10.3067 -2.6142 -0.1620 0.9584
10.5066 -2.3405 -0.1640 0.9579
10.4815 -2.1746 -0.1631 0.9581
14.5356 -2.3566 -0.2244 0.9428
17.9050 -2.3683 -0.2752 0.9303
28.0290 -1.2294 -0.4275 0.8938
29.8328 -0.8720 -0.4548 0.8875
62.3466 -0.0000 -0.9500 0.7793
62.3404 0.9110 -0.9501 0.7793
62.3209 1.8218 -0.9501 0.7793
62.2453 3.6423 -0.9501 0.7792
41.0947 3.6122 -0.6286 0.8479
34.5069 4.0522 -0.5294 0.8702
23.5919 3.8250 -0.3642 0.9088
22.5624 3.9973 -0.3492 0.9124
19.4190 3.7338 -0.3013 0.9239
18.6078 4.4314 -0.2915 0.9263
18.6522 4.7310 -0.2932 0.9259
12.1677 3.8555 -0.1945 0.9502
11.7608 3.9166 -0.1889 0.9516
10.6874 4.0876 -0.1744 0.9553
10.7581 4.8528 -0.1798 0.9539
10.7804 5.0537 -0.1814 0.9535
10.8031 5.2582 -0.1831 0.9531
10.8263 5.4666 -0.1848 0.9526
10.8499 5.6789 -0.1866 0.9522
10.8984 6.1165 -0.1904 0.9512
10.9234 6.3422 -0.1925 0.9507
10.9490 6.5728 -0.1946 0.9502
10.9796 6.8114 -0.1969 0.9496
10.9123 6.9925 -0.1975 0.9495
15.2195 10.3921 -0.2808 0.9289
14.0579 9.9031 -0.2620 0.9335
14.9097 10.8326 -0.2808 0.9289
15.1291 11.3334 -0.2881 0.9272
14.9906 11.5754 -0.2886 0.9270
46.2389 41.4302 -0.9460 0.7801
45.0481 42.8012 -0.9469 0.7799
42.5489 45.4429 -0.9486 0.7795
9.0491 9.9521 -0.2050 0.9476
8.8013 9.9684 -0.2026 0.9482
40.5754 47.3325 -0.9500 0.7793
7.6005 9.1329 -0.1811 0.9536
7.1809 9.1605 -0.1774 0.9545
36.3865 50.8591 -0.9529 0.7787
32.6656 53.5246 -0.9555 0.7781
30.3400 54.9976 -0.9571 0.7778
29.5502 55.4673 -0.9577 0.7777
27.9495 56.3727 -0.9588 0.7775
25.4976 57.6459 -0.9605 0.7771
24.6673 58.0471 -0.9611 0.7770
23.8312 58.4372 -0.9617 0.7769
20.4230 59.8646 -0.9638 0.7764
19.5588 60.1957 -0.9645 0.7763
2.4304 7.8694 -0.1255 0.9676
2.2808 7.7868 -0.1236 0.9681
2.1555 7.7786 -0.1230 0.9682
1.9405 7.8922 -0.1238 0.9680
11.5661 62.6175 -0.9703 0.7751
7.9101 63.3592 -0.9730 0.7746
6.9883 63.5123 -0.9736 0.7744
0.4691 64.2040 -0.9784 0.7735
-0.4694 64.2484 -0.9791 0.7733
-1.4091 64.2796 -0.9797 0.7732
-4.2334 64.2894 -0.9818 0.7728
-7.0612 64.1752 -0.9838 0.7724
-10.8277 63.8287 -0.9865 0.7718
-11.7674 63.7077 -0.9872 0.7717
-2.7157 9.8001 -0.1550 0.9601
-18.2973 62.4685 -0.9919 0.7707
-20.1416 61.9896 -0.9932 0.7705
-21.0592 61.7295 -0.9939 0.7703
-22.8840 61.1681 -0.9952 0.7701
-24.6935 60.5519 -0.9965 0.7698
-27.3758 59.5257 -0.9984 0.7694
-4.3505 9.1068 -0.1538 0.9604
-29.1400 58.7742 -0.9996 0.7692
-31.7462 57.5469 -1.0015 0.7688
-33.4551 56.6641 -1.0027 0.7686
-34.2997 56.2023 -1.0033 0.7684
-35.1381 55.7283 -1.0039 0.7683
-35.9698 55.2413 -1.0045 0.7682
-36.7942 54.7411 -1.0051 0.7681
-38.4222 53.7044 -1.0062 0.7678
-39.2245 53.1668 -1.0068 0.7677
-42.3561 50.8962 -1.0090 0.7673
-6.0361 5.9052 -0.1287 0.9668
-6.1081 5.4729 -0.1250 0.9677
-6.1310 5.3339 -0.1238 0.9680
-6.1514 5.1958 -0.1227 0.9683
-6.1716 5.0602 -0.1216 0.9686
-6.2783 4.4228 -0.1170 0.9697
-0.8547 0.5836 -0.0158 0.9959
-0.8107 0.5195 -0.0147 0.9962
-0.8088 0.5018 -0.0145 0.9962
-0.7883 0.3980 -0.0135 0.9965
-0.7780 0.3510 -0.0130 0.9966
-0.7630 0.2918 -0.0124 0.9967
-0.7559 0.2641 -0.0122 0.9968
-0.7490 0.2374 -0.0120 0.9969
-0.7456 0.2243 -0.0119 0.9969
-0.7424 0.2116 -0.0118 0.9969
-0.7419 0.1998 -0.0117 0.9969
-0.7354 0.1639 -0.0115 0.9970
-0.7270 0.1179 -0.0112 0.9971
-0.7249 0.1067 -0.0112 0.9971
-0.7208 0.0847 -0.0111 0.9971
-0.7147 0.0523 -0.0109 0.9971
-0.7087 0.0207 -0.0108 0.9972
-0.6758 -0.0098 -0.0178 0.9973
-0.6776 -0.0198 -0.0178 0.9973
-0.6794 -0.0298 -0.0179 0.9973
-0.6813 -0.0398 -0.0180 0.9973
-0.6831 -0.0500 -0.0180 0.9973
-0.6849 -0.0602 -0.0181 0.9973
-0.6868 -0.0705 -0.0182 0.9972
-0.6886 -0.0809 -0.0183 0.9972
-0.6904 -0.0913 -0.0183 0.9972
-0.6923 -0.1018 -0.0184 0.9972
-0.6959 -0.1233 -0.0186 0.9972
-0.6996 -0.1451 -0.0188 0.9971
-0.7014 -0.1562 -0.0189 0.9971
-0.7071 -0.1904 -0.0193 0.9971
-0.7088 -0.2020 -0.0194 0.9971
-0.7117 -0.2141 -0.0196 0.9970
-0.7175 -0.2389 -0.0199 0.9970
-0.7361 -0.3191 -0.0211 0.9968
-0.7393 -0.3334 -0.0214 0.9968
-0.7460 -0.3630 -0.0218 0.9967
-0.7489 -0.3781 -0.0221 0.9966
-0.7515 -0.3933 -0.0223 0.9966
-0.7569 -0.4248 -0.0228 0.9965
-0.7625 -0.4577 -0.0234 0.9964
-0.7654 -0.4748 -0.0237 0.9964
-0.7713 -0.5102 -0.0243 0.9963
-0.7744 -0.5287 -0.0247 0.9963
-0.7740 -0.5452 -0.0249 0.9962
-0.8870 -0.6444 -0.0289 0.9956
-12.0297 -9.2890 -0.4001 0.9410
-9.1358 -7.9481 -0.3188 0.9527
-8.1180 -7.9420 -0.2990 0.9556
-7.6576 -7.9426 -0.2904 0.9568
-7.0172 -7.9477 -0.2791 0.9585
-6.8119 -7.9463 -0.2755 0.9590
-6.4207 -7.9486 -0.2690 0.9599
-6.0468 -7.9502 -0.2629 0.9608
-5.8831 -7.9741 -0.2609 0.9611
-5.7276 -8.0057 -0.2591 0.9614
-5.5837 -8.0506 -0.2579 0.9616
-5.4753 -8.1459 -0.2584 0.9615
-5.4274 -8.3352 -0.2618 0.9610
-5.3655 -8.7916 -0.2711 0.9596
-5.3797 -9.1118 -0.2785 0.9585
-6.4527 -11.3032 -0.3426 0.9493
-1.5208 -2.7567 -0.0829 0.9875
-1.4898 -2.7963 -0.0834 0.9874
-5.4297 -10.9514 -0.3218 0.9523
-5.4092 -11.7617 -0.3408 0.9495
-5.3195 -12.0264 -0.3462 0.9487
-4.9769 -12.7328 -0.3599 0.9468
-13.1427 -35.1301 -0.9874 0.8606
-4.0530 -13.1232 -0.3616 0.9465
-3.8540 -13.1579 -0.3609 0.9466
-3.6743 -13.2593 -0.3622 0.9464
-3.3938 -12.9812 -0.3532 0.9477
-8.9292 -36.3149 -0.9844 0.8610
-8.3944 -36.4276 -0.9841 0.8611
-7.3208 -36.6294 -0.9833 0.8612
-6.7822 -36.7185 -0.9829 0.8612
-6.2426 -36.7995 -0.9826 0.8613
-5.7021 -36.8728 -0.9822 0.8613
-4.6187 -36.9952 -0.9814 0.8614
-0.8149 -37.1728 -0.9788 0.8618
0.2714 -37.1520 -0.9780 0.8619
0.8139 -37.1297 -0.9777 0.8619
1.3558 -37.0994 -0.9773 0.8620
2.9769 -36.9616 -0.9761 0.8621
3.5153 -36.9000 -0.9758 0.8622
4.0525 -36.8307 -0.9754 0.8622
4.5885 -36.7532 -0.9750 0.8623
6.1876 -36.4754 -0.9739 0.8624
7.7713 -36.1281 -0.9728 0.8625
8.2952 -35.9971 -0.9724 0.8626
8.8170 -35.8587 -0.9721 0.8626
10.3684 -35.3985 -0.9710 0.8628
10.8805 -35.2302 -0.9706 0.8628
11.8967 -34.8720 -0.9699 0.8629
12.4004 -34.6819 -0.9696 0.8630
14.3847 -33.8500 -0.9682 0.8631
14.8725 -33.6242 -0.9679 0.8632
15.3568 -33.3917 -0.9675 0.8632
15.8376 -33.1523 -0.9672 0.8633
16.3148 -32.9061 -0.9669 0.8633
17.2576 -32.3933 -0.9662 0.8634
18.6419 -31.5744 -0.9652 0.8635
19.0950 -31.2884 -0.9649 0.8636
19.9883 -30.6973 -0.9643 0.8637
9.1868 -12.8409 -0.4156 0.9388
21.7202 -29.4404 -0.9631 0.8638
22.1411 -29.1108 -0.9628 0.8639
1.9801 -2.3793 -0.0815 0.9877
1.8748 -2.1870 -0.0758 0.9885
2.0009 -2.2006 -0.0783 0.9882
2.0318 -2.1700 -0.0783 0.9882
