ply
format ascii 1.0
element vertex 1597
property float32 x
property float32 y
property float32 z
property float32 I
end_header
-1.9345 -8.3948 -0.9948 0.9659
-1.8115 -8.4217 -0.9948 0.9659
-1.5645 -8.4702 -0.9947 0.9659
-1.4405 -8.4917 -0.9946 0.9659
-1.3162 -8.5114 -0.9946 0.9659
-1.1916 -8.5294 -0.9945 0.9659
-0.9418 -8.5597 -0.9944 0.9659
-0.8166 -8.5721 -0.9944 0.9659
-0.5657 -8.5914 -0.9943 0.9659
-0.1887 -8.6067 -0.9941 0.9659
-0.0629 -8.6080 -0.9941 0.9659
0.1887 -8.6053 -0.9940 0.9659
0.4400 -8.5953 -0.9939 0.9659
0.6909 -8.5779 -0.9938 0.9659
0.8161 -8.5664 -0.9937 0.9659
1.1905 -8.5212 -0.9936 0.9659
1.5626 -8.4595 -0.9934 0.9660
1.6859 -8.4354 -0.9934 0.9660
1.9315 -8.3817 -0.9933 0.9660
2.0537 -8.3521 -0.9932 0.9660
2.2966 -8.2878 -0.9931 0.9660
2.4173 -8.2530 -0.9931 0.9660
2.6572 -8.1780 -0.9930 0.9660
2.8947 -8.0961 -0.9929 0.9660
3.0126 -8.0525 -0.9928 0.9660
3.2463 -7.9603 -0.9928 0.9660
3.4772 -7.8613 -0.9927 0.9660
3.5915 -7.8093 -0.9926 0.9660
3.8179 -7.7003 -0.9925 0.9660
4.0408 -7.5848 -0.9924 0.9660
4.1511 -7.5246 -0.9924 0.9660
4.2603 -7.4629 -0.9923 0.9660
4.5827 -7.2680 -0.9922 0.9660
4.6882 -7.2000 -0.9922 0.9660
5.0999 -6.9127 -0.9920 0.9660
5.3973 -6.6818 -0.9919 0.9660
5.5898 -6.5207 -0.9918 0.9660
5.6843 -6.4380 -0.9918 0.9660
2.1985 -2.2802 -0.3658 0.9873
2.1312 -2.1468 -0.3493 0.9879
2.2041 -2.0336 -0.3463 0.9880
2.2645 -2.0289 -0.3511 0.9878
6.7175 -5.3455 -0.9914 0.9660
6.7946 -5.2466 -0.9913 0.9660
6.8704 -5.1466 -0.9913 0.9660
7.0174 -4.9434 -0.9912 0.9660
7.0887 -4.8402 -0.9912 0.9660
7.2267 -4.6307 -0.9912 0.9660
7.3585 -4.4173 -0.9911 0.9660
7.4840 -4.2002 -0.9911 0.9660
7.5444 -4.0903 -0.9910 0.9660
7.6604 -3.8680 -0.9910 0.9660
7.7159 -3.7555 -0.9910 0.9660
7.7021 -3.4742 -0.9757 0.9666
7.7439 -3.3578 -0.9747 0.9666
7.8385 -3.1300 -0.9747 0.9666
7.9344 -2.9025 -0.9756 0.9666
7.9758 -2.7861 -0.9756 0.9666
8.0155 -2.6693 -0.9756 0.9666
8.0536 -2.5518 -0.9756 0.9666
8.0899 -2.4339 -0.9756 0.9666
8.2178 -1.9570 -0.9755 0.9666
8.2454 -1.8368 -0.9755 0.9666
8.3922 -1.7411 -0.9898 0.9661
8.4245 -1.6199 -0.9907 0.9660
8.4472 -1.4966 -0.9907 0.9660
8.4681 -1.3729 -0.9907 0.9660
8.4872 -1.2490 -0.9907 0.9660
8.5200 -1.0005 -0.9906 0.9660
8.5455 -0.7511 -0.9906 0.9660
8.5555 -0.6262 -0.9906 0.9660
8.5701 -0.3759 -0.9906 0.9660
8.5747 -0.2507 -0.9906 0.9660
8.5774 -0.1254 -0.9906 0.9660
8.5783 0.0000 -0.9906 0.9660
8.5774 0.1254 -0.9906 0.9660
8.5455 0.7511 -0.9906 0.9660
8.5336 0.8759 -0.9906 0.9660
8.5200 1.0005 -0.9906 0.9660
8.5045 1.1249 -0.9906 0.9660
8.4681 1.3729 -0.9907 0.9660
8.4472 1.4965 -0.9907 0.9660
8.4001 1.7428 -0.9907 0.9660
8.3738 1.8653 -0.9907 0.9660
8.3457 1.9875 -0.9907 0.9660
8.3159 2.1093 -0.9907 0.9660
8.2509 2.3514 -0.9907 0.9660
8.2158 2.4718 -0.9908 0.9660
8.1789 2.5916 -0.9908 0.9660
8.1403 2.7109 -0.9908 0.9660
8.0579 2.9477 -0.9908 0.9660
8.0141 3.0651 -0.9908 0.9660
7.8726 3.4136 -0.9909 0.9660
7.8220 3.5283 -0.9909 0.9660
7.7159 3.7555 -0.9910 0.9660
7.6032 3.9795 -0.9910 0.9660
7.5444 4.0903 -0.9910 0.9660
7.4840 4.2002 -0.9911 0.9660
7.4221 4.3093 -0.9911 0.9660
7.3585 4.4173 -0.9911 0.9660
7.2934 4.5245 -0.9911 0.9660
7.2266 4.6307 -0.9912 0.9660
6.7459 5.0533 -0.9733 0.9666
6.5958 5.2486 -0.9734 0.9666
6.5186 5.3445 -0.9734 0.9666
6.2787 5.6256 -0.9735 0.9666
6.1961 5.7170 -0.9736 0.9666
6.1121 5.8070 -0.9736 0.9666
6.0268 5.8959 -0.9736 0.9666
5.9402 5.9836 -0.9737 0.9666
5.6729 6.2389 -0.9738 0.9666
5.3947 6.4822 -0.9739 0.9666
5.2996 6.5606 -0.9739 0.9666
5.2034 6.6376 -0.9740 0.9666
5.1060 6.7132 -0.9740 0.9666
5.0076 6.7873 -0.9740 0.9666
4.8075 6.9313 -0.9741 0.9666
4.7059 7.0011 -0.9742 0.9666
4.4997 7.1362 -0.9742 0.9666
4.1832 7.3275 -0.9744 0.9666
4.0759 7.3882 -0.9744 0.9666
3.9677 7.4473 -0.9745 0.9666
3.8586 7.5048 -0.9745 0.9666
3.7487 7.5607 -0.9745 0.9666
3.5265 7.6677 -0.9746 0.9666
3.3012 7.7682 -0.9747 0.9666
3.1875 7.8160 -0.9748 0.9666
2.9580 7.9065 -0.9749 0.9666
2.6091 8.0297 -0.9750 0.9666
2.4917 8.0673 -0.9750 0.9666
2.2551 8.1375 -0.9751 0.9666
2.1360 8.1700 -0.9752 0.9666
2.0165 8.2007 -0.9752 0.9666
1.8966 8.2297 -0.9753 0.9666
1.7762 8.2570 -0.9753 0.9666
1.6555 8.2824 -0.9754 0.9666
1.5344 8.3061 -0.9754 0.9666
1.2911 8.3483 -0.9755 0.9666
1.0468 8.3832 -0.9756 0.9666
0.6784 8.4224 -0.9758 0.9665
0.5554 8.4317 -0.9758 0.9665
0.3088 8.4452 -0.9759 0.9665
0.1853 8.4493 -0.9760 0.9665
-0.0616 8.4519 -0.9761 0.9665
-0.1851 8.4505 -0.9761 0.9665
-0.4321 8.4424 -0.9762 0.9665
-0.5554 8.4356 -0.9763 0.9665
-0.8017 8.4166 -0.9764 0.9665
-1.4143 8.3377 -0.9766 0.9665
-1.5361 8.3166 -0.9767 0.9665
-1.1124 5.1718 -0.6109 0.9789
-1.8994 8.2425 -0.9768 0.9665
-2.0196 8.2143 -0.9769 0.9665
-2.2590 8.1525 -0.9769 0.9665
-2.3781 8.1191 -0.9770 0.9665
-2.4966 8.0839 -0.9770 0.9665
-2.6145 8.0469 -0.9771 0.9665
-2.8489 7.9679 -0.9772 0.9665
-3.3101 7.7893 -0.9774 0.9665
-3.6487 7.6379 -0.9775 0.9665
-3.7601 7.5841 -0.9775 0.9665
-3.9805 7.4716 -0.9776 0.9665
-4.3047 7.2910 -0.9778 0.9665
-4.4109 7.2276 -0.9778 0.9665
-4.5163 7.1627 -0.9779 0.9665
-4.6207 7.0963 -0.9779 0.9665
-4.8265 6.9588 -0.9780 0.9665
-4.9278 6.8878 -0.9780 0.9665
-5.2220 6.8659 -0.9961 0.9659
-5.3220 6.7891 -0.9962 0.9659
-5.4209 6.7109 -0.9962 0.9659
-5.5185 6.6313 -0.9963 0.9659
-0.5205 0.5725 -0.0894 0.9969
-0.5136 0.5485 -0.0868 0.9970
-0.5148 0.5340 -0.0857 0.9970
-0.5160 0.5198 -0.0846 0.9971
-0.5174 0.4774 -0.0813 0.9972
-0.5176 0.4638 -0.0803 0.9972
-0.5178 0.4374 -0.0783 0.9973
-0.5179 0.4246 -0.0773 0.9973
-0.5178 0.4121 -0.0764 0.9973
-0.5174 0.3759 -0.0739 0.9974
-0.5172 0.3644 -0.0731 0.9975
-0.5170 0.3530 -0.0723 0.9975
-0.5164 0.3309 -0.0708 0.9975
-0.5159 0.2995 -0.0689 0.9976
-0.5159 0.2895 -0.0683 0.9976
-0.5157 0.2699 -0.0672 0.9977
-0.5153 0.2508 -0.0662 0.9977
-0.5151 0.2414 -0.0657 0.9977
-0.5148 0.2322 -0.0652 0.9977
-0.5145 0.2231 -0.0648 0.9977
-0.5137 0.2052 -0.0639 0.9978
-0.5133 0.1963 -0.0635 0.9978
-0.5125 0.1707 -0.0624 0.9978
-0.5122 0.1623 -0.0620 0.9978
-0.5115 0.1458 -0.0614 0.9979
-0.5111 0.1376 -0.0611 0.9979
-0.5106 0.1295 -0.0608 0.9979
-0.5101 0.1215 -0.0606 0.9979
-0.5091 0.0979 -0.0599 0.9979
-0.5082 0.0824 -0.0595 0.9979
-0.5077 0.0747 -0.0593 0.9979
-0.5072 0.0671 -0.0591 0.9979
-0.5067 0.0595 -0.0589 0.9979
-0.5061 0.0520 -0.0588 0.9980
-0.5048 0.0370 -0.0585 0.9980
-0.5042 0.0295 -0.0583 0.9980
-0.5034 0.0221 -0.0582 0.9980
-0.5019 0.0073 -0.0580 0.9980
-0.4854 0.0000 -0.0615 0.9980
-0.4869 -0.0142 -0.0617 0.9980
-0.4882 -0.0286 -0.0620 0.9980
-0.4889 -0.0358 -0.0621 0.9980
-0.4905 -0.0576 -0.0626 0.9980
-0.4910 -0.0650 -0.0628 0.9980
-0.4915 -0.0723 -0.0630 0.9980
-0.4919 -0.0798 -0.0631 0.9980
-0.4938 -0.1330 -0.0648 0.9979
-0.4948 -0.1648 -0.0661 0.9979
-0.4950 -0.1729 -0.0664 0.9979
-0.4951 -0.1811 -0.0668 0.9979
-0.4954 -0.1979 -0.0676 0.9979
-0.4959 -0.2150 -0.0685 0.9978
-0.4963 -0.2416 -0.0700 0.9978
-0.4964 -0.2506 -0.0705 0.9978
-0.4963 -0.2691 -0.0716 0.9977
-0.4963 -0.2785 -0.0721 0.9977
-0.4959 -0.2977 -0.0733 0.9977
-0.4957 -0.3076 -0.0739 0.9977
-0.4951 -0.3276 -0.0752 0.9976
-0.4951 -0.3597 -0.0775 0.9975
-0.4949 -0.3708 -0.0784 0.9975
-0.4946 -0.3936 -0.0801 0.9975
-0.4944 -0.4054 -0.0810 0.9974
-0.4941 -0.4174 -0.0820 0.9974
-0.4929 -0.4548 -0.0850 0.9973
-0.4923 -0.4678 -0.0861 0.9973
-0.4910 -0.4946 -0.0883 0.9972
-0.4893 -0.5227 -0.0907 0.9971
-0.4882 -0.5370 -0.0920 0.9971
-0.4865 -0.5511 -0.0932 0.9970
-4.8489 -6.1856 -0.9960 0.9688
-4.7578 -6.2555 -0.9960 0.9688
-4.6657 -6.3241 -0.9959 0.9688
-4.5726 -6.3914 -0.9959 0.9688
-4.4786 -6.4573 -0.9958 0.9688
-4.3836 -6.5218 -0.9958 0.9688
-4.2877 -6.5849 -0.9958 0.9688
-4.1909 -6.6466 -0.9957 0.9688
-3.8951 -6.8231 -0.9956 0.9688
-1.3198 -2.7628 -0.3880 0.9877
-3.2819 -7.1361 -0.9954 0.9688
-3.0717 -7.2284 -0.9953 0.9688
-2.9656 -7.2722 -0.9952 0.9688
-2.6437 -7.3942 -0.9951 0.9688
-2.4264 -7.4677 -0.9950 0.9688
-2.2069 -7.5347 -0.9949 0.9688
-1.9856 -7.5953 -0.9948 0.9688
-1.5383 -7.6969 -0.9947 0.9688
-1.4256 -7.7182 -0.9946 0.9688
-1.3126 -7.7379 -0.9946 0.9689
-0.7441 -7.8112 -0.9944 0.9689
-0.5155 -7.8290 -0.9943 0.9689
-0.2865 -7.8399 -0.9942 0.9689
-0.1719 -7.8430 -0.9941 0.9689
0.2865 -7.8382 -0.9939 0.9689
0.4010 -7.8327 -0.9939 0.9689
0.6296 -7.8170 -0.9938 0.9689
0.8577 -7.7945 -0.9937 0.9689
1.0850 -7.7654 -0.9936 0.9689
1.1982 -7.7484 -0.9936 0.9689
1.6485 -7.6637 -0.9934 0.9689
1.7603 -7.6385 -0.9933 0.9689
1.8716 -7.6116 -0.9933 0.9689
1.9825 -7.5831 -0.9933 0.9689
2.0930 -7.5530 -0.9932 0.9689
2.4217 -7.4530 -0.9931 0.9689
2.5302 -7.4166 -0.9930 0.9689
2.7456 -7.3388 -0.9930 0.9689
2.8524 -7.2977 -0.9929 0.9689
2.9586 -7.2548 -0.9929 0.9689
3.0642 -7.2105 -0.9928 0.9689
3.2733 -7.1173 -0.9927 0.9689
3.3768 -7.0684 -0.9927 0.9689
3.7833 -6.8580 -0.9925 0.9689
3.8829 -6.8017 -0.9925 0.9689
3.9817 -6.7439 -0.9925 0.9689
4.0797 -6.6848 -0.9924 0.9689
4.2729 -6.5623 -0.9923 0.9689
4.3682 -6.4988 -0.9923 0.9689
4.7396 -6.2316 -0.9922 0.9689
4.8301 -6.1615 -0.9921 0.9689
4.9194 -6.0901 -0.9921 0.9689
5.0949 -5.9433 -0.9920 0.9689
2.1446 -2.4289 -0.4106 0.9870
2.1624 -2.3095 -0.4009 0.9873
2.2001 -2.2820 -0.4017 0.9873
2.1350 -2.0887 -0.3785 0.9880
2.2014 -2.0312 -0.3796 0.9880
5.9040 -5.1365 -0.9917 0.9689
5.9782 -5.0495 -0.9917 0.9689
6.1932 -4.7823 -0.9916 0.9689
6.2623 -4.6911 -0.9915 0.9689
6.3300 -4.5990 -0.9915 0.9689
6.3964 -4.5059 -0.9915 0.9689
6.4613 -4.4118 -0.9915 0.9689
6.6479 -4.1241 -0.9914 0.9689
6.7073 -4.0264 -0.9914 0.9689
6.7653 -3.9279 -0.9913 0.9690
6.8218 -3.8286 -0.9913 0.9690
6.8769 -3.7284 -0.9913 0.9690
6.8242 -3.5718 -0.9761 0.9694
6.8685 -3.4681 -0.9751 0.9695
5.7752 -2.7073 -0.8083 0.9746
7.0135 -3.1636 -0.9750 0.9695
7.1450 -2.8531 -0.9750 0.9695
7.2251 -2.6430 -0.9749 0.9695
7.2990 -2.4307 -0.9749 0.9695
7.3667 -2.2163 -0.9749 0.9695
7.4281 -2.0001 -0.9748 0.9695
7.4641 -1.8932 -0.9758 0.9694
7.4909 -1.7839 -0.9758 0.9694
7.6331 -1.7003 -0.9910 0.9690
7.6570 -1.5886 -0.9910 0.9690
7.6794 -1.4765 -0.9910 0.9690
7.7365 -1.1386 -0.9910 0.9690
7.7523 -1.0254 -0.9909 0.9690
7.7896 -0.6846 -0.9909 0.9690
7.8063 -0.4568 -0.9909 0.9690
7.8121 -0.3427 -0.9909 0.9690
7.8187 -0.1143 -0.9909 0.9690
7.8196 0.0000 -0.9909 0.9690
7.8162 0.2285 -0.9909 0.9690
7.8121 0.3427 -0.9909 0.9690
7.8062 0.4568 -0.9909 0.9690
7.7987 0.5708 -0.9909 0.9690
7.7897 0.6847 -0.9909 0.9690
7.7365 1.1386 -0.9910 0.9690
7.6331 1.7003 -0.9910 0.9690
7.6075 1.8117 -0.9910 0.9690
7.5803 1.9227 -0.9910 0.9690
7.5211 2.1434 -0.9910 0.9690
7.4890 2.2531 -0.9911 0.9690
7.4554 2.3623 -0.9911 0.9690
7.4202 2.4711 -0.9911 0.9690
7.3051 2.7940 -0.9911 0.9690
7.2206 3.0063 -0.9912 0.9690
7.1300 3.2162 -0.9912 0.9690
7.0332 3.4232 -0.9912 0.9690
6.9826 3.5257 -0.9913 0.9690
6.9305 3.6275 -0.9913 0.9690
6.8769 3.7284 -0.9913 0.9690
6.8218 3.8286 -0.9913 0.9690
6.7074 4.0265 -0.9914 0.9689
6.3963 4.5059 -0.9915 0.9689
6.2622 4.6911 -0.9915 0.9689
6.1933 4.7822 -0.9916 0.9689
6.1229 4.8723 -0.9916 0.9689
6.0512 4.9614 -0.9916 0.9689
5.7971 5.0433 -0.9737 0.9695
5.5710 5.2930 -0.9738 0.9695
5.4143 5.4538 -0.9739 0.9695
5.0026 5.8355 -0.9740 0.9695
4.9170 5.9082 -0.9741 0.9695
4.2891 6.3810 -0.9743 0.9695
4.1011 6.5041 -0.9744 0.9695
3.9096 6.6216 -0.9745 0.9695
3.7148 6.7336 -0.9746 0.9695
3.6162 6.7875 -0.9746 0.9695
3.3156 6.9402 -0.9747 0.9695
3.2140 6.9883 -0.9748 0.9695
3.1117 7.0348 -0.9748 0.9695
2.3779 7.3179 -0.9751 0.9695
2.2707 7.3522 -0.9751 0.9695
1.7284 7.5000 -0.9753 0.9694
1.6187 7.5248 -0.9754 0.9694
1.2876 7.5895 -0.9755 0.9694
1.1766 7.6079 -0.9756 0.9694
1.0653 7.6246 -0.9756 0.9694
0.8422 7.6532 -0.9757 0.9694
0.5060 7.6838 -0.9758 0.9694
0.1688 7.6997 -0.9760 0.9694
-0.0562 7.7020 -0.9761 0.9694
-0.2812 7.6978 -0.9762 0.9694
-0.3937 7.6932 -0.9762 0.9694
-0.5061 7.6870 -0.9762 0.9694
-0.7306 7.6696 -0.9763 0.9694
-0.9545 7.6457 -0.9764 0.9694
-1.2888 7.5976 -0.9766 0.9694
-1.5104 7.5573 -0.9766 0.9694
-1.8404 7.4849 -0.9768 0.9694
-1.9496 7.4576 -0.9768 0.9694
-2.1669 7.3981 -0.9769 0.9694
-2.2748 7.3660 -0.9770 0.9694
-2.7017 7.2218 -0.9771 0.9694
-2.8071 7.1818 -0.9772 0.9694
-3.0160 7.0973 -0.9773 0.9694
-3.1195 7.0528 -0.9773 0.9694
-3.3246 6.9592 -0.9774 0.9694
-3.5268 6.8596 -0.9775 0.9694
-3.7261 6.7542 -0.9775 0.9694
-3.9221 6.6430 -0.9776 0.9694
-4.4898 6.2755 -0.9778 0.9694
-4.5812 6.2095 -0.9779 0.9694
-0.4976 0.5805 -0.0969 0.9969
-0.4882 0.5370 -0.0920 0.9971
-0.4910 0.4946 -0.0883 0.9972
-0.4923 0.4678 -0.0861 0.9973
-0.4933 0.4421 -0.0839 0.9973
-0.4937 0.4296 -0.0829 0.9974
-0.4946 0.3936 -0.0801 0.9975
-0.4948 0.3820 -0.0792 0.9975
-0.4951 0.3488 -0.0768 0.9976
-0.4952 0.3381 -0.0760 0.9976
-0.4951 0.3276 -0.0752 0.9976
-0.4957 0.3075 -0.0739 0.9977
-0.4959 0.2977 -0.0733 0.9977
-0.4963 0.2785 -0.0721 0.9977
-0.4963 0.2691 -0.0716 0.9977
-0.4964 0.2506 -0.0705 0.9978
-0.4963 0.2416 -0.0700 0.9978
-0.4962 0.2326 -0.0695 0.9978
-0.4961 0.2237 -0.0690 0.9978
-0.4959 0.2150 -0.0685 0.9978
-0.4957 0.2064 -0.0680 0.9978
-0.4954 0.1979 -0.0676 0.9979
-0.4952 0.1894 -0.0672 0.9979
-0.4950 0.1729 -0.0664 0.9979
-0.4948 0.1648 -0.0661 0.9979
-0.4946 0.1567 -0.0658 0.9979
-0.4944 0.1487 -0.0654 0.9979
-0.4941 0.1408 -0.0651 0.9979
-0.4934 0.1175 -0.0643 0.9980
-0.4919 0.0797 -0.0631 0.9980
-0.4914 0.0723 -0.0630 0.9980
-0.4910 0.0649 -0.0628 0.9980
-0.4905 0.0576 -0.0626 0.9980
-0.4900 0.0503 -0.0624 0.9980
-0.4882 0.0286 -0.0620 0.9980
-0.4875 0.0214 -0.0618 0.9980
-0.4869 0.0142 -0.0617 0.9980
-0.4720 -0.0138 -0.0652 0.9981
-0.4738 -0.0347 -0.0656 0.9981
-0.4743 -0.0417 -0.0657 0.9981
-0.4748 -0.0487 -0.0659 0.9981
-0.4757 -0.0629 -0.0662 0.9981
-0.4761 -0.0701 -0.0664 0.9981
-0.4773 -0.0991 -0.0673 0.9980
-0.4777 -0.1137 -0.0678 0.9980
-0.4778 -0.1212 -0.0680 0.9980
-0.4779 -0.1287 -0.0683 0.9980
-0.4779 -0.1363 -0.0686 0.9980
-0.4783 -0.1593 -0.0696 0.9980
-0.4784 -0.1750 -0.0703 0.9979
-0.4784 -0.1830 -0.0707 0.9979
-0.4783 -0.1910 -0.0711 0.9979
-0.4784 -0.1992 -0.0715 0.9979
-0.4786 -0.2075 -0.0720 0.9979
-0.4786 -0.2244 -0.0730 0.9979
-0.4786 -0.2330 -0.0735 0.9979
-0.4784 -0.2504 -0.0745 0.9978
-0.4778 -0.2774 -0.0762 0.9978
-0.4775 -0.2866 -0.0768 0.9978
-0.4771 -0.2959 -0.0775 0.9977
-0.4766 -0.3055 -0.0781 0.9977
-0.4742 -0.3552 -0.0818 0.9976
-0.4734 -0.3767 -0.0835 0.9976
-0.4729 -0.3877 -0.0844 0.9975
-0.4718 -0.4105 -0.0863 0.9975
-0.4688 -0.4586 -0.0905 0.9974
-0.4667 -0.4841 -0.0928 0.9973
-0.4631 -0.5245 -0.0966 0.9972
-0.4602 -0.5530 -0.0993 0.9971
-0.5516 -0.7037 -0.1234 0.9964
-4.2838 -5.8065 -0.9958 0.9713
-4.1984 -5.8683 -0.9957 0.9713
-4.1120 -5.9288 -0.9957 0.9713
-4.0248 -5.9880 -0.9957 0.9713
-3.9368 -6.0460 -0.9956 0.9713
-3.8479 -6.1027 -0.9956 0.9713
-3.5763 -6.2647 -0.9955 0.9713
-3.4843 -6.3161 -0.9954 0.9713
-3.2980 -6.4147 -0.9954 0.9713
-1.3671 -2.7575 -0.4247 0.9876
-3.0134 -6.5523 -0.9953 0.9713
-2.8204 -6.6371 -0.9952 0.9713
-2.5266 -6.7535 -0.9951 0.9713
-2.4275 -6.7894 -0.9950 0.9713
-2.3280 -6.8239 -0.9950 0.9713
-2.2279 -6.8569 -0.9949 0.9713
-2.1274 -6.8885 -0.9949 0.9713
-1.9251 -6.9471 -0.9948 0.9713
-1.8233 -6.9742 -0.9948 0.9713
-1.6186 -7.0239 -0.9947 0.9713
-1.5157 -7.0465 -0.9947 0.9713
-1.4125 -7.0677 -0.9946 0.9713
-1.2053 -7.1053 -0.9945 0.9713
-0.8927 -7.1504 -0.9944 0.9713
-0.6833 -7.1729 -0.9943 0.9713
-0.5784 -7.1817 -0.9943 0.9713
-0.3682 -7.1950 -0.9942 0.9713
-0.1578 -7.2020 -0.9941 0.9713
0.0527 -7.2030 -0.9940 0.9713
0.1579 -7.2012 -0.9940 0.9713
0.2631 -7.1977 -0.9939 0.9713
0.3682 -7.1929 -0.9939 0.9713
0.4732 -7.1864 -0.9939 0.9713
0.5782 -7.1784 -0.9938 0.9713
0.6830 -7.1689 -0.9938 0.9713
0.8920 -7.1453 -0.9937 0.9713
0.9963 -7.1312 -0.9937 0.9713
1.1004 -7.1156 -0.9936 0.9713
1.2042 -7.0984 -0.9936 0.9713
1.3077 -7.0798 -0.9935 0.9713
1.4110 -7.0596 -0.9935 0.9713
1.6165 -7.0148 -0.9934 0.9714
1.8206 -6.9640 -0.9933 0.9714
1.9221 -6.9363 -0.9933 0.9714
2.1238 -6.8767 -0.9932 0.9714
2.2240 -6.8446 -0.9932 0.9714
2.3237 -6.8112 -0.9931 0.9714
2.4229 -6.7762 -0.9931 0.9714
2.5215 -6.7398 -0.9930 0.9714
2.7171 -6.6627 -0.9930 0.9714
2.8141 -6.6220 -0.9929 0.9714
2.9104 -6.5800 -0.9929 0.9714
3.1012 -6.4916 -0.9928 0.9714
3.1956 -6.4453 -0.9928 0.9714
3.2893 -6.3977 -0.9927 0.9714
3.3823 -6.3487 -0.9927 0.9714
3.6569 -6.1937 -0.9926 0.9714
3.8361 -6.0838 -0.9925 0.9714
4.3531 -5.7234 -0.9923 0.9714
4.4361 -5.6589 -0.9923 0.9714
4.6793 -5.4586 -0.9922 0.9714
2.1396 -2.3530 -0.4389 0.9872
2.1634 -2.3105 -0.4368 0.9873
2.2023 -2.2843 -0.4379 0.9873
2.1218 -2.1373 -0.4156 0.9879
2.1596 -2.0518 -0.4111 0.9880
5.4227 -4.7177 -0.9919 0.9714
5.5579 -4.5570 -0.9918 0.9714
5.6237 -4.4752 -0.9918 0.9714
5.6884 -4.3923 -0.9918 0.9714
5.7518 -4.3087 -0.9917 0.9714
5.8749 -4.1386 -0.9917 0.9714
5.9346 -4.0522 -0.9917 0.9714
5.9931 -3.9650 -0.9917 0.9714
6.0503 -3.8769 -0.9916 0.9714
6.1061 -3.7880 -0.9916 0.9714
6.1186 -3.5525 -0.9764 0.9718
6.2132 -3.3686 -0.9753 0.9719
6.3545 -3.0929 -0.9753 0.9719
6.4836 -2.8113 -0.9752 0.9719
6.5239 -2.7162 -0.9752 0.9719
6.6003 -2.5243 -0.9752 0.9719
6.6710 -2.3304 -0.9751 0.9719
6.8298 -1.8390 -0.9761 0.9718
7.0111 -1.5618 -0.9912 0.9714
7.0332 -1.4592 -0.9912 0.9714
7.0537 -1.3562 -0.9912 0.9714
7.0727 -1.2530 -0.9912 0.9714
7.0902 -1.1495 -0.9912 0.9714
7.1062 -1.0458 -0.9912 0.9714
7.1207 -0.9419 -0.9912 0.9714
7.1337 -0.8377 -0.9912 0.9714
7.1451 -0.7334 -0.9912 0.9714
7.1634 -0.5243 -0.9912 0.9714
7.1817 -0.1050 -0.9912 0.9714
7.1825 0.0000 -0.9912 0.9714
7.1817 0.1050 -0.9912 0.9714
7.1794 0.2099 -0.9912 0.9714
7.1756 0.3148 -0.9912 0.9714
7.1634 0.5243 -0.9912 0.9714
7.1550 0.6289 -0.9912 0.9714
7.1450 0.7334 -0.9912 0.9714
7.1336 0.8377 -0.9912 0.9714
7.1207 0.9419 -0.9912 0.9714
7.1062 1.0458 -0.9912 0.9714
7.0902 1.1495 -0.9912 0.9714
7.0727 1.2530 -0.9912 0.9714
7.0537 1.3562 -0.9912 0.9714
7.0332 1.4591 -0.9912 0.9714
6.7818 2.3691 -0.9913 0.9714
6.7465 2.4680 -0.9914 0.9714
6.6322 2.7613 -0.9914 0.9714
6.5912 2.8580 -0.9914 0.9714
6.4600 3.1443 -0.9915 0.9714
6.4136 3.2384 -0.9915 0.9714
6.3656 3.3318 -0.9915 0.9714
6.2139 3.6078 -0.9916 0.9714
6.1607 3.6983 -0.9916 0.9714
6.1061 3.7880 -0.9916 0.9714
6.0502 3.8769 -0.9916 0.9714
5.9346 4.0522 -0.9917 0.9714
5.8749 4.1386 -0.9917 0.9714
5.6884 4.3924 -0.9918 0.9714
5.4909 4.6379 -0.9919 0.9714
5.4227 4.7177 -0.9919 0.9714
5.3533 4.7966 -0.9919 0.9714
4.9728 5.0091 -0.9741 0.9719
4.8246 5.1526 -0.9741 0.9719
4.7490 5.2227 -0.9741 0.9719
4.6723 5.2917 -0.9742 0.9719
4.5160 5.4263 -0.9742 0.9719
4.4363 5.4919 -0.9743 0.9719
4.3558 5.5563 -0.9743 0.9719
4.1918 5.6816 -0.9744 0.9719
3.9392 5.8605 -0.9745 0.9719
3.7666 5.9734 -0.9745 0.9719
3.5907 6.0814 -0.9746 0.9719
2.8577 6.4606 -0.9749 0.9719
2.7631 6.5020 -0.9749 0.9719
2.6679 6.5419 -0.9750 0.9719
2.4758 6.6176 -0.9751 0.9719
2.2816 6.6876 -0.9751 0.9719
1.8874 6.8106 -0.9753 0.9719
1.7877 6.8377 -0.9753 0.9719
1.6876 6.8634 -0.9754 0.9719
1.5873 6.8876 -0.9754 0.9719
1.3854 6.9316 -0.9755 0.9719
1.2841 6.9514 -0.9755 0.9719
1.1824 6.9697 -0.9756 0.9719
1.0805 6.9866 -0.9756 0.9719
0.8760 7.0157 -0.9757 0.9719
0.7734 7.0281 -0.9757 0.9719
0.6706 7.0389 -0.9758 0.9719
0.3616 7.0624 -0.9759 0.9718
0.0517 7.0724 -0.9760 0.9718
-0.0516 7.0727 -0.9761 0.9718
-0.1550 7.0715 -0.9761 0.9718
-0.2583 7.0687 -0.9761 0.9718
-0.3616 7.0645 -0.9762 0.9718
-0.7738 7.0325 -0.9764 0.9718
-1.0813 6.9927 -0.9765 0.9718
-1.3869 6.9395 -0.9766 0.9718
-1.6899 6.8729 -0.9767 0.9718
-1.7902 6.8478 -0.9768 0.9718
-1.8902 6.8212 -0.9768 0.9718
-2.0888 6.7636 -0.9769 0.9718
-2.1875 6.7326 -0.9769 0.9718
-2.3835 6.6663 -0.9770 0.9718
-2.6737 6.5562 -0.9771 0.9718
-2.8643 6.4758 -0.9772 0.9718
-3.0526 6.3898 -0.9773 0.9718
-3.1457 6.3448 -0.9773 0.9718
-3.2382 6.2984 -0.9773 0.9718
-3.4211 6.2016 -0.9774 0.9718
-3.5115 6.1511 -0.9774 0.9718
-3.6012 6.0994 -0.9775 0.9718
-3.9519 5.8795 -0.9776 0.9718
-4.0375 5.8213 -0.9777 0.9718
-4.1223 5.7619 -0.9777 0.9718
-0.4733 0.5860 -0.1040 0.9970
-0.4644 0.5108 -0.0953 0.9972
-0.4656 0.4973 -0.0940 0.9973
-0.4668 0.4841 -0.0928 0.9973
-0.4678 0.4713 -0.0916 0.9973
-0.4696 0.4462 -0.0894 0.9974
-0.4712 0.4222 -0.0873 0.9974
-0.4718 0.4105 -0.0863 0.9975
-0.4724 0.3990 -0.0853 0.9975
-0.4734 0.3767 -0.0835 0.9976
-0.4738 0.3659 -0.0826 0.9976
-0.4742 0.3553 -0.0818 0.9976
-0.4750 0.3347 -0.0802 0.9977
-0.4756 0.3248 -0.0795 0.9977
-0.4780 0.2683 -0.0756 0.9978
-0.4786 0.2329 -0.0735 0.9979
-0.4786 0.2159 -0.0725 0.9979
-0.4784 0.1992 -0.0715 0.9979
-0.4783 0.1910 -0.0711 0.9979
-0.4784 0.1750 -0.0703 0.9979
-0.4782 0.1515 -0.0692 0.9980
-0.4779 0.1362 -0.0686 0.9980
-0.4778 0.1212 -0.0680 0.9980
-0.4775 0.1064 -0.0675 0.9980
-0.4773 0.0991 -0.0673 0.9980
-0.4761 0.0701 -0.0664 0.9981
-0.4753 0.0558 -0.0660 0.9981
-0.4744 0.0417 -0.0657 0.9981
-0.4738 0.0347 -0.0656 0.9981
-0.4720 0.0138 -0.0652 0.9981
-0.4713 0.0069 -0.0651 0.9981
-0.4566 0.0000 -0.0682 0.9982
-0.4573 -0.0067 -0.0683 0.9982
-0.4579 -0.0134 -0.0684 0.9981
-0.4586 -0.0201 -0.0685 0.9981
-0.4596 -0.0337 -0.0688 0.9981
-0.4601 -0.0404 -0.0690 0.9981
-0.4605 -0.0473 -0.0691 0.9981
-0.4610 -0.0541 -0.0693 0.9981
-0.4613 -0.0610 -0.0695 0.9981
-0.4617 -0.0680 -0.0697 0.9981
-0.4620 -0.0749 -0.0699 0.9981
-0.4623 -0.0819 -0.0701 0.9981
-0.4629 -0.1102 -0.0711 0.9981
-0.4630 -0.1174 -0.0713 0.9981
-0.4630 -0.1247 -0.0716 0.9981
-0.4630 -0.1320 -0.0719 0.9981
-0.4629 -0.1393 -0.0722 0.9980
-0.4629 -0.1467 -0.0725 0.9980
-0.4628 -0.1542 -0.0728 0.9980
-0.4626 -0.1770 -0.0740 0.9980
-0.4623 -0.2005 -0.0752 0.9980
-0.4623 -0.2085 -0.0757 0.9980
-0.4622 -0.2167 -0.0762 0.9979
-0.4611 -0.2588 -0.0789 0.9979
-0.4602 -0.2763 -0.0801 0.9978
-0.4579 -0.3127 -0.0828 0.9978
-0.4555 -0.3413 -0.0850 0.9977
-0.4546 -0.3511 -0.0858 0.9977
-0.4532 -0.3716 -0.0875 0.9976
-0.4517 -0.3930 -0.0894 0.9976
-0.4508 -0.4040 -0.0904 0.9976
-0.4499 -0.4152 -0.0914 0.9975
-0.4489 -0.4265 -0.0925 0.9975
-0.4478 -0.4381 -0.0935 0.9975
-0.4427 -0.4869 -0.0982 0.9973
-0.4379 -0.5586 -0.1060 0.9971
-0.4613 -0.6066 -0.1138 0.9969
-0.5186 -0.7030 -0.1304 0.9965
-3.8799 -5.4231 -0.9956 0.9734
-3.8001 -5.4790 -0.9956 0.9734
-3.4731 -5.6909 -0.9954 0.9734
-3.3051 -5.7895 -0.9954 0.9734
-3.2201 -5.8370 -0.9953 0.9734
-3.1343 -5.8833 -0.9953 0.9734
-1.3671 -2.7575 -0.4595 0.9876
-2.7849 -6.0554 -0.9952 0.9734
-2.6960 -6.0953 -0.9951 0.9734
-2.6066 -6.1338 -0.9951 0.9734
-2.3350 -6.2414 -0.9950 0.9734
-2.2435 -6.2746 -0.9950 0.9734
-2.1515 -6.3065 -0.9949 0.9734
-1.8728 -6.3941 -0.9948 0.9734
-1.7791 -6.4205 -0.9948 0.9734
-1.6851 -6.4455 -0.9947 0.9734
-1.4959 -6.4916 -0.9947 0.9734
-1.2099 -6.5502 -0.9945 0.9734
-1.1140 -6.5668 -0.9945 0.9734
-1.0179 -6.5821 -0.9945 0.9734
-0.7283 -6.6196 -0.9943 0.9734
-0.5346 -6.6377 -0.9943 0.9734
-0.4375 -6.6445 -0.9942 0.9734
-0.3404 -6.6499 -0.9942 0.9734
0.0487 -6.6573 -0.9940 0.9734
0.1459 -6.6557 -0.9940 0.9734
0.2431 -6.6526 -0.9940 0.9734
0.3403 -6.6480 -0.9939 0.9734
0.4374 -6.6421 -0.9939 0.9734
0.8245 -6.6041 -0.9937 0.9734
0.9209 -6.5912 -0.9937 0.9734
1.1130 -6.5609 -0.9936 0.9734
1.3041 -6.5251 -0.9935 0.9734
1.5887 -6.4610 -0.9934 0.9734
1.7766 -6.4113 -0.9933 0.9735
2.0557 -6.3266 -0.9932 0.9735
2.1478 -6.2956 -0.9932 0.9735
2.2395 -6.2634 -0.9932 0.9735
2.3307 -6.2298 -0.9931 0.9735
2.7787 -6.0419 -0.9929 0.9735
2.8666 -6.0004 -0.9929 0.9735
2.9538 -5.9577 -0.9929 0.9735
3.2117 -5.8220 -0.9928 0.9735
3.2964 -5.7742 -0.9927 0.9735
3.4634 -5.6750 -0.9927 0.9735
3.5459 -5.6236 -0.9926 0.9735
3.7886 -5.4623 -0.9925 0.9735
3.8678 -5.4062 -0.9925 0.9735
3.9462 -5.3489 -0.9925 0.9735
4.0239 -5.2905 -0.9924 0.9735
4.2515 -5.1086 -0.9923 0.9735
4.3987 -4.9819 -0.9923 0.9735
2.1518 -2.3664 -0.4776 0.9871
2.2133 -2.2956 -0.4761 0.9872
2.1325 -2.1481 -0.4519 0.9878
2.1388 -2.0923 -0.4467 0.9880
5.1377 -4.2125 -0.9920 0.9735
5.2584 -4.0604 -0.9919 0.9735
5.5401 -3.6653 -0.9918 0.9735
5.5072 -3.5289 -0.9766 0.9739
5.5524 -3.4445 -0.9756 0.9739
5.6021 -3.3629 -0.9756 0.9739
5.7437 -3.1140 -0.9755 0.9739
5.7884 -3.0297 -0.9755 0.9739
5.8320 -2.9448 -0.9755 0.9739
5.8743 -2.8592 -0.9755 0.9739
5.7754 -2.7074 -0.9524 0.9745
5.9551 -2.6862 -0.9754 0.9739
6.1015 -2.3336 -0.9754 0.9739
6.1349 -2.2442 -0.9754 0.9739
6.1977 -2.0639 -0.9753 0.9739
6.2616 -1.8838 -0.9763 0.9739
6.2884 -1.7921 -0.9763 0.9739
6.4366 -1.6326 -0.9915 0.9735
6.4597 -1.5384 -0.9915 0.9735
6.4814 -1.4438 -0.9915 0.9735
6.5693 -0.9668 -0.9914 0.9735
6.6053 -0.6780 -0.9914 0.9735
6.6145 -0.5814 -0.9914 0.9735
6.6286 -0.3879 -0.9914 0.9735
6.6335 -0.2909 -0.9914 0.9735
6.6371 -0.1940 -0.9914 0.9735
6.6399 0.0000 -0.9914 0.9735
6.6371 0.1940 -0.9914 0.9735
6.6335 0.2910 -0.9914 0.9735
6.6053 0.6780 -0.9914 0.9735
6.5545 1.0627 -0.9914 0.9735
6.5383 1.1584 -0.9914 0.9735
6.5018 1.3489 -0.9914 0.9735
6.4814 1.4438 -0.9915 0.9735
6.3591 1.9131 -0.9915 0.9735
6.3006 2.0982 -0.9915 0.9735
6.2694 2.1901 -0.9915 0.9735
6.0540 2.7309 -0.9916 0.9735
5.9289 2.9937 -0.9917 0.9735
5.8846 3.0800 -0.9917 0.9735
5.7923 3.2508 -0.9917 0.9735
5.7443 3.3352 -0.9918 0.9735
5.6950 3.4187 -0.9918 0.9735
5.6446 3.5017 -0.9918 0.9735
5.5929 3.5839 -0.9918 0.9735
5.5401 3.6653 -0.9918 0.9735
5.4861 3.7459 -0.9919 0.9735
5.3745 3.9048 -0.9919 0.9735
5.1986 4.1369 -0.9920 0.9735
5.1377 4.2125 -0.9920 0.9735
5.0758 4.2873 -0.9920 0.9735
4.9486 4.4339 -0.9921 0.9735
4.7499 4.6469 -0.9922 0.9735
4.6123 4.7839 -0.9922 0.9735
4.5421 4.8510 -0.9922 0.9735
4.4709 4.9170 -0.9923 0.9735
4.3190 4.8916 -0.9743 0.9740
4.1745 5.0160 -0.9744 0.9740
4.1009 5.0766 -0.9744 0.9740
4.0264 5.1362 -0.9744 0.9740
3.8748 5.2519 -0.9745 0.9739
3.7978 5.3081 -0.9745 0.9739
3.6413 5.4172 -0.9746 0.9739
3.4817 5.5216 -0.9746 0.9739
3.3190 5.6213 -0.9747 0.9739
3.2367 5.6695 -0.9747 0.9739
2.9854 5.8064 -0.9748 0.9739
2.9004 5.8496 -0.9749 0.9739
2.8147 5.8916 -0.9749 0.9739
2.7284 5.9323 -0.9749 0.9739
2.6415 5.9718 -0.9750 0.9739
2.5540 6.0099 -0.9750 0.9739
2.2885 6.1167 -0.9751 0.9739
2.0184 6.2118 -0.9752 0.9739
1.9275 6.2409 -0.9753 0.9739
1.8362 6.2686 -0.9753 0.9739
1.6524 6.3201 -0.9754 0.9739
1.5599 6.3438 -0.9754 0.9739
1.4671 6.3661 -0.9755 0.9739
1.3740 6.3871 -0.9755 0.9739
1.2805 6.4068 -0.9755 0.9739
1.1869 6.4251 -0.9756 0.9739
0.9987 6.4575 -0.9756 0.9739
0.7148 6.4959 -0.9758 0.9739
0.6198 6.5059 -0.9758 0.9739
0.5247 6.5144 -0.9758 0.9739
0.3342 6.5275 -0.9759 0.9739
0.2388 6.5320 -0.9759 0.9739
-0.0477 6.5369 -0.9761 0.9739
-0.1432 6.5357 -0.9761 0.9739
-0.2387 6.5332 -0.9761 0.9739
-0.3342 6.5293 -0.9762 0.9739
-0.4296 6.5239 -0.9762 0.9739
-0.5248 6.5173 -0.9763 0.9739
-0.9994 6.4628 -0.9764 0.9739
-1.1879 6.4313 -0.9765 0.9739
-1.2818 6.4135 -0.9766 0.9739
-1.1125 5.1720 -0.7899 0.9788
-1.5618 6.3520 -0.9767 0.9739
-1.8389 6.2781 -0.9768 0.9739
-1.9305 6.2508 -0.9768 0.9739
-2.0217 6.2221 -0.9769 0.9739
-2.1124 6.1922 -0.9769 0.9739
-2.2028 6.1609 -0.9769 0.9739
-2.2927 6.1283 -0.9770 0.9739
-2.4709 6.0591 -0.9770 0.9739
-2.5593 6.0226 -0.9771 0.9739
-2.7344 5.9456 -0.9771 0.9739
-2.8211 5.9052 -0.9772 0.9739
-2.9926 5.8207 -0.9772 0.9739
-3.1616 5.7312 -0.9773 0.9739
-3.2452 5.6845 -0.9773 0.9739
-3.4101 5.5877 -0.9774 0.9739
-3.4915 5.5374 -0.9774 0.9739
-3.8095 5.3247 -0.9776 0.9739
-0.5186 0.7029 -0.1304 0.9965
-0.4379 0.5586 -0.1060 0.9971
-0.4390 0.5275 -0.1025 0.9972
-0.4454 0.4620 -0.0958 0.9974
-0.4467 0.4499 -0.0947 0.9974
-0.4478 0.4381 -0.0935 0.9975
-0.4489 0.4266 -0.0925 0.9975
-0.4499 0.4151 -0.0914 0.9975
-0.4508 0.4039 -0.0904 0.9976
-0.4517 0.3930 -0.0894 0.9976
-0.4524 0.3821 -0.0884 0.9976
-0.4539 0.3612 -0.0866 0.9977
-0.4564 0.3316 -0.0842 0.9977
-0.4579 0.3127 -0.0828 0.9978
-0.4586 0.3034 -0.0821 0.9978
-0.4591 0.2943 -0.0814 0.9978
-0.4597 0.2852 -0.0808 0.9978
-0.4607 0.2675 -0.0795 0.9978
-0.4610 0.2587 -0.0789 0.9979
-0.4614 0.2502 -0.0784 0.9979
-0.4619 0.2333 -0.0773 0.9979
-0.4622 0.2167 -0.0762 0.9979
-0.4623 0.2085 -0.0757 0.9980
-0.4624 0.2005 -0.0752 0.9980
-0.4624 0.1925 -0.0748 0.9980
-0.4625 0.1847 -0.0744 0.9980
-0.4627 0.1770 -0.0740 0.9980
-0.4627 0.1693 -0.0736 0.9980
-0.4629 0.1393 -0.0722 0.9980
-0.4630 0.1246 -0.0716 0.9981
-0.4628 0.1031 -0.0708 0.9981
-0.4623 0.0819 -0.0701 0.9981
-0.4617 0.0680 -0.0697 0.9981
-0.4613 0.0610 -0.0695 0.9981
-0.4610 0.0541 -0.0693 0.9981
-0.4605 0.0473 -0.0691 0.9981
-0.4591 0.0268 -0.0687 0.9981
-0.4585 0.0201 -0.0685 0.9981
-0.4579 0.0134 -0.0684 0.9981
-0.4446 -0.0130 -0.0715 0.9982
-0.4452 -0.0195 -0.0716 0.9982
-0.4457 -0.0261 -0.0717 0.9982
-0.4462 -0.0327 -0.0719 0.9982
-0.4466 -0.0393 -0.0720 0.9982
-0.4471 -0.0459 -0.0722 0.9982
-0.4474 -0.0525 -0.0724 0.9982
-0.4477 -0.0592 -0.0726 0.9982
-0.4480 -0.0659 -0.0728 0.9982
-0.4489 -0.1000 -0.0739 0.9981
-0.4490 -0.1069 -0.0742 0.9981
-0.4490 -0.1139 -0.0744 0.9981
-0.4486 -0.1422 -0.0756 0.9981
-0.4485 -0.1494 -0.0759 0.9981
-0.4480 -0.1639 -0.0766 0.9981
-0.4477 -0.1787 -0.0774 0.9980
-0.4473 -0.1863 -0.0779 0.9980
-0.4463 -0.2254 -0.0803 0.9980
-0.4460 -0.2334 -0.0809 0.9980
-0.4456 -0.2416 -0.0814 0.9979
-0.4441 -0.2666 -0.0832 0.9979
-0.4435 -0.2752 -0.0839 0.9979
-0.4422 -0.2925 -0.0852 0.9979
-0.4414 -0.3014 -0.0859 0.9978
-0.4396 -0.3195 -0.0873 0.9978
-0.4387 -0.3287 -0.0881 0.9978
-0.4377 -0.3380 -0.0888 0.9978
-0.4354 -0.3570 -0.0905 0.9977
-0.4342 -0.3668 -0.0913 0.9977
-0.4321 -0.3872 -0.0932 0.9977
-0.4310 -0.3977 -0.0942 0.9976
-0.4299 -0.4084 -0.0953 0.9976
-0.4286 -0.4194 -0.0963 0.9976
-0.4259 -0.4549 -0.1001 0.9975
-0.4254 -0.4679 -0.1016 0.9974
-0.4248 -0.4812 -0.1031 0.9974
-0.4242 -0.4948 -0.1047 0.9974
-0.4228 -0.5234 -0.1081 0.9973
-0.4210 -0.5536 -0.1117 0.9972
-0.4267 -0.5784 -0.1155 0.9971
-0.4648 -0.6497 -0.1283 0.9968
-3.3808 -5.1921 -0.9954 0.9752
-3.3045 -5.2408 -0.9954 0.9752
-3.1497 -5.3348 -0.9953 0.9752
-3.0713 -5.3801 -0.9953 0.9752
-2.8323 -5.5090 -0.9952 0.9752
-1.3671 -2.7575 -0.4945 0.9876
-2.4222 -5.7001 -0.9950 0.9752
-2.2545 -5.7681 -0.9950 0.9752
-1.8272 -5.9162 -0.9948 0.9752
-1.6534 -5.9667 -0.9947 0.9752
-1.5660 -5.9900 -0.9947 0.9752
-1.3902 -6.0328 -0.9946 0.9752
-1.3018 -6.0522 -0.9946 0.9752
-1.1243 -6.0873 -0.9945 0.9752
-0.6769 -6.1520 -0.9943 0.9752
-0.4968 -6.1687 -0.9943 0.9752
-0.4066 -6.1750 -0.9942 0.9752
-0.3163 -6.1801 -0.9942 0.9752
-0.1356 -6.1862 -0.9941 0.9752
0.0452 -6.1871 -0.9940 0.9752
0.3163 -6.1786 -0.9939 0.9752
0.4065 -6.1730 -0.9939 0.9752
0.4966 -6.1662 -0.9939 0.9752
0.5867 -6.1581 -0.9938 0.9753
0.6766 -6.1486 -0.9938 0.9753
1.0344 -6.0977 -0.9936 0.9753
1.2121 -6.0645 -0.9936 0.9753
1.3887 -6.0260 -0.9935 0.9753
1.4765 -6.0048 -0.9935 0.9753
1.5640 -5.9824 -0.9934 0.9753
1.7380 -5.9338 -0.9934 0.9753
2.0814 -5.8213 -0.9932 0.9753
2.3343 -5.7239 -0.9931 0.9753
2.4176 -5.6890 -0.9931 0.9753
2.9059 -5.4544 -0.9929 0.9753
3.0638 -5.3668 -0.9928 0.9753
3.1418 -5.3213 -0.9928 0.9753
3.2191 -5.2747 -0.9928 0.9753
3.4468 -5.1281 -0.9927 0.9753
3.5213 -5.0770 -0.9926 0.9753
3.5950 -5.0249 -0.9926 0.9753
3.6679 -4.9716 -0.9926 0.9753
3.7401 -4.9174 -0.9926 0.9753
3.8114 -4.8621 -0.9925 0.9753
3.8820 -4.8057 -0.9925 0.9753
3.9516 -4.7484 -0.9925 0.9753
4.1556 -4.5703 -0.9924 0.9753
4.2871 -4.4466 -0.9923 0.9753
2.1593 -2.1125 -0.4853 0.9878
2.1837 -2.0747 -0.4839 0.9879
4.6593 -4.0536 -0.9922 0.9753
4.7179 -3.9850 -0.9922 0.9753
4.7756 -3.9155 -0.9921 0.9753
4.8321 -3.8453 -0.9921 0.9753
4.8877 -3.7741 -0.9921 0.9753
4.9422 -3.7022 -0.9921 0.9753
5.0161 -3.4250 -0.9758 0.9757
5.0655 -3.3512 -0.9758 0.9757
5.1138 -3.2768 -0.9758 0.9757
5.2961 -2.9723 -0.9757 0.9757
5.4985 -2.5775 -0.9756 0.9757
5.5713 -2.4157 -0.9756 0.9757
5.6059 -2.3340 -0.9756 0.9757
5.6393 -2.2519 -0.9756 0.9757
5.7026 -2.0860 -0.9755 0.9757
5.7324 -2.0025 -0.9755 0.9757
5.8753 -1.7676 -0.9857 0.9754
5.9603 -1.6048 -0.9917 0.9753
5.9831 -1.5175 -0.9917 0.9753
6.0613 -1.1654 -0.9916 0.9753
6.0776 -1.0767 -0.9916 0.9753
6.1301 -0.7198 -0.9916 0.9753
6.1399 -0.6302 -0.9916 0.9753
6.1662 -0.2704 -0.9916 0.9753
6.1694 -0.1804 -0.9916 0.9753
6.1714 -0.0902 -0.9916 0.9753
6.1721 0.0000 -0.9916 0.9753
6.1714 0.0902 -0.9916 0.9753
6.1661 0.2705 -0.9916 0.9753
6.1615 0.3605 -0.9916 0.9753
6.1556 0.4505 -0.9916 0.9753
6.1484 0.5404 -0.9916 0.9753
5.8844 1.8645 -0.9917 0.9753
5.8276 2.0357 -0.9917 0.9753
5.7330 2.2893 -0.9918 0.9753
5.5110 2.7827 -0.9918 0.9753
5.4698 2.8630 -0.9919 0.9753
5.4275 2.9426 -0.9919 0.9753
5.2468 3.2549 -0.9920 0.9753
5.1987 3.3312 -0.9920 0.9753
5.1496 3.4070 -0.9920 0.9753
5.0480 3.5561 -0.9920 0.9753
4.9422 3.7023 -0.9921 0.9753
4.8321 3.8452 -0.9921 0.9753
4.7756 3.9155 -0.9921 0.9753
4.6593 4.0536 -0.9922 0.9753
4.5997 4.1214 -0.9922 0.9753
4.4775 4.2541 -0.9923 0.9753
4.0885 4.6306 -0.9924 0.9753
4.0205 4.6900 -0.9924 0.9753
3.9516 4.7484 -0.9925 0.9753
3.8820 4.8057 -0.9925 0.9753
3.7401 4.9174 -0.9926 0.9753
3.6015 4.8815 -0.9746 0.9757
3.5299 4.9337 -0.9746 0.9757
3.4575 4.9849 -0.9747 0.9757
3.2361 5.1321 -0.9747 0.9757
3.0083 5.2695 -0.9748 0.9757
2.9311 5.3130 -0.9749 0.9757
2.6957 5.4369 -0.9750 0.9757
2.5359 5.5138 -0.9750 0.9757
2.4551 5.5504 -0.9751 0.9757
2.3738 5.5858 -0.9751 0.9757
2.0438 5.7157 -0.9752 0.9757
1.8760 5.7734 -0.9753 0.9757
1.7915 5.8004 -0.9753 0.9757
1.7066 5.8262 -0.9754 0.9757
1.3635 5.9167 -0.9755 0.9757
1.1902 5.9545 -0.9756 0.9757
1.0157 5.9871 -0.9756 0.9757
0.7525 6.0265 -0.9757 0.9757
0.6643 6.0371 -0.9758 0.9757
0.5761 6.0464 -0.9758 0.9757
0.4877 6.0544 -0.9758 0.9757
0.3992 6.0611 -0.9759 0.9757
0.2219 6.0706 -0.9760 0.9757
0.1332 6.0734 -0.9760 0.9757
-0.1331 6.0741 -0.9761 0.9757
-0.2219 6.0717 -0.9761 0.9757
-0.3105 6.0680 -0.9762 0.9757
-0.3992 6.0630 -0.9762 0.9757
-0.5762 6.0493 -0.9763 0.9757
-0.7528 6.0303 -0.9763 0.9757
-0.8409 6.0188 -0.9764 0.9757
-0.9287 6.0061 -0.9764 0.9757
-1.0165 5.9921 -0.9764 0.9757
-1.1912 5.9603 -0.9765 0.9757
-1.1125 5.1719 -0.8499 0.9788
-1.3649 5.9234 -0.9766 0.9757
-1.6234 5.8585 -0.9767 0.9757
-1.7089 5.8343 -0.9767 0.9757
-1.7940 5.8089 -0.9768 0.9757
-1.8787 5.7823 -0.9768 0.9757
-2.1306 5.6950 -0.9769 0.9757
-2.5410 5.5253 -0.9771 0.9757
-2.6216 5.4877 -0.9771 0.9757
-2.7016 5.4490 -0.9771 0.9757
-2.7810 5.4091 -0.9772 0.9757
-3.2446 5.1458 -0.9773 0.9757
-3.3938 5.0491 -0.9774 0.9757
-0.4648 0.6496 -0.1283 0.9968
-0.4266 0.5784 -0.1155 0.9971
-0.4210 0.5536 -0.1117 0.9972
-0.4228 0.5234 -0.1081 0.9973
-0.4235 0.5089 -0.1064 0.9973
-0.4248 0.4812 -0.1031 0.9974
-0.4259 0.4549 -0.1001 0.9975
-0.4263 0.4423 -0.0987 0.9975
-0.4299 0.4084 -0.0953 0.9976
-0.4310 0.3977 -0.0942 0.9976
-0.4331 0.3768 -0.0922 0.9977
-0.4354 0.3570 -0.0905 0.9977
-0.4366 0.3475 -0.0896 0.9977
-0.4377 0.3380 -0.0888 0.9978
-0.4405 0.3104 -0.0866 0.9978
-0.4414 0.3014 -0.0859 0.9978
-0.4435 0.2752 -0.0839 0.9979
-0.4441 0.2666 -0.0832 0.9979
-0.4452 0.2498 -0.0820 0.9979
-0.4456 0.2416 -0.0814 0.9979
-0.4460 0.2334 -0.0809 0.9980
-0.4466 0.2174 -0.0798 0.9980
-0.4470 0.2017 -0.0788 0.9980
-0.4474 0.1863 -0.0779 0.9980
-0.4479 0.1713 -0.0770 0.9981
-0.4480 0.1639 -0.0766 0.9981
-0.4482 0.1566 -0.0763 0.9981
-0.4485 0.1493 -0.0759 0.9981
-0.4487 0.1421 -0.0756 0.9981
-0.4489 0.1279 -0.0750 0.9981
-0.4490 0.1139 -0.0744 0.9981
-0.4490 0.1069 -0.0742 0.9981
-0.4489 0.1000 -0.0739 0.9981
-0.4488 0.0931 -0.0736 0.9981
-0.4483 0.0727 -0.0730 0.9982
-0.4480 0.0660 -0.0728 0.9982
-0.4478 0.0592 -0.0726 0.9982
-0.4474 0.0525 -0.0724 0.9982
-0.4471 0.0459 -0.0722 0.9982
-0.4462 0.0327 -0.0719 0.9982
-0.4457 0.0261 -0.0717 0.9982
-0.4452 0.0195 -0.0716 0.9982
-0.4446 0.0130 -0.0715 0.9982
-0.4315 -0.0063 -0.0743 0.9982
-0.4326 -0.0190 -0.0745 0.9982
-0.4335 -0.0318 -0.0748 0.9982
-0.4339 -0.0381 -0.0749 0.9982
-0.4343 -0.0446 -0.0751 0.9982
-0.4349 -0.0575 -0.0755 0.9982
-0.4352 -0.0640 -0.0757 0.9982
-0.4354 -0.0706 -0.0759 0.9982
-0.4355 -0.0771 -0.0761 0.9982
-0.4357 -0.0838 -0.0763 0.9982
-0.4358 -0.0971 -0.0768 0.9982
-0.4354 -0.1310 -0.0782 0.9982
-0.4347 -0.1519 -0.0792 0.9981
-0.4344 -0.1589 -0.0796 0.9981
-0.4340 -0.1660 -0.0799 0.9981
-0.4337 -0.1731 -0.0803 0.9981
-0.4317 -0.2180 -0.0832 0.9980
-0.4308 -0.2336 -0.0843 0.9980
-0.4291 -0.2576 -0.0861 0.9980
-0.4284 -0.2658 -0.0867 0.9980
-0.4277 -0.2741 -0.0874 0.9979
-0.4269 -0.2824 -0.0881 0.9979
-0.4230 -0.3169 -0.0909 0.9979
-0.4194 -0.3439 -0.0933 0.9978
-0.4181 -0.3532 -0.0942 0.9978
-0.4148 -0.3827 -0.0971 0.9977
-0.4143 -0.3937 -0.0983 0.9977
-0.4139 -0.4049 -0.0996 0.9977
-0.4134 -0.4164 -0.1010 0.9976
-0.4115 -0.4526 -0.1052 0.9975
-0.4107 -0.4652 -0.1068 0.9975
-0.4081 -0.5052 -0.1117 0.9974
-0.4070 -0.5193 -0.1135 0.9973
-0.4671 -0.6950 -0.1441 0.9966
-3.1567 -4.8480 -0.9953 0.9768
-3.0136 -4.9379 -0.9953 0.9768
-2.9410 -4.9813 -0.9952 0.9768
-2.8678 -5.0236 -0.9952 0.9768
-2.7196 -5.1049 -0.9951 0.9768
-2.6447 -5.1440 -0.9951 0.9768
-1.3671 -2.7575 -0.5295 0.9876
-1.3199 -2.7629 -0.5268 0.9876
-2.4165 -5.2545 -0.9950 0.9768
-2.0262 -5.4160 -0.9949 0.9768
-1.8669 -5.4725 -0.9948 0.9768
-1.5439 -5.5715 -0.9947 0.9768
-1.4623 -5.5933 -0.9946 0.9768
-1.2156 -5.6514 -0.9945 0.9768
-0.9667 -5.6987 -0.9944 0.9768
-0.8833 -5.7120 -0.9944 0.9768
-0.7997 -5.7241 -0.9944 0.9768
-0.6320 -5.7446 -0.9943 0.9768
-0.5480 -5.7531 -0.9943 0.9768
-0.4639 -5.7603 -0.9942 0.9768
-0.3797 -5.7662 -0.9942 0.9768
-0.1266 -5.7768 -0.9941 0.9768
-0.0422 -5.7778 -0.9941 0.9768
0.0422 -5.7776 -0.9940 0.9768
0.1266 -5.7762 -0.9940 0.9768
0.3796 -5.7645 -0.9939 0.9768
0.4638 -5.7581 -0.9939 0.9768
0.7156 -5.7317 -0.9938 0.9768
1.2968 -5.6273 -0.9935 0.9768
1.5420 -5.5646 -0.9934 0.9768
1.7038 -5.5167 -0.9934 0.9768
1.7842 -5.4911 -0.9933 0.9768
1.8642 -5.4643 -0.9933 0.9768
1.9437 -5.4363 -0.9933 0.9768
2.0229 -5.4071 -0.9932 0.9768
2.1016 -5.3768 -0.9932 0.9768
2.1799 -5.3454 -0.9932 0.9768
2.3350 -5.2791 -0.9931 0.9768
2.4118 -5.2442 -0.9931 0.9768
2.4881 -5.2082 -0.9931 0.9768
2.8612 -5.0120 -0.9929 0.9768
2.9341 -4.9695 -0.9929 0.9768
3.0063 -4.9259 -0.9928 0.9768
3.1487 -4.8358 -0.9928 0.9769
3.3574 -4.6927 -0.9927 0.9769
3.4929 -4.5924 -0.9927 0.9769
3.6904 -4.4345 -0.9926 0.9769
3.7548 -4.3800 -0.9925 0.9769
2.2121 -2.4328 -0.5657 0.9867
2.2834 -2.3684 -0.5660 0.9867
4.1232 -4.0339 -0.9924 0.9769
4.1816 -3.9731 -0.9924 0.9769
4.2391 -3.9114 -0.9924 0.9769
4.2958 -3.8490 -0.9923 0.9769
4.4600 -3.6568 -0.9923 0.9769
4.4948 -3.4707 -0.9770 0.9772
4.5403 -3.4012 -0.9760 0.9772
4.5894 -3.3343 -0.9760 0.9772
4.6375 -3.2669 -0.9760 0.9772
4.7760 -3.0603 -0.9759 0.9772
4.9462 -2.7759 -0.9758 0.9772
4.9862 -2.7034 -0.9758 0.9772
5.0629 -2.5564 -0.9758 0.9772
5.1353 -2.4073 -0.9758 0.9772
5.2033 -2.2562 -0.9757 0.9772
5.2356 -2.1799 -0.9757 0.9772
5.2969 -2.0259 -0.9757 0.9772
5.3260 -1.9483 -0.9757 0.9772
5.3592 -1.8721 -0.9767 0.9772
5.3859 -1.7936 -0.9766 0.9772
5.5442 -1.5801 -0.9918 0.9769
5.6080 -1.3355 -0.9918 0.9769
5.6446 -1.1711 -0.9918 0.9769
5.6610 -1.0884 -0.9918 0.9769
5.6762 -1.0056 -0.9918 0.9769
5.6903 -0.9226 -0.9918 0.9769
5.7032 -0.8393 -0.9918 0.9769
5.7148 -0.7559 -0.9918 0.9769
5.7252 -0.6723 -0.9918 0.9769
5.7491 -0.4208 -0.9918 0.9769
5.7589 -0.2526 -0.9917 0.9769
5.7620 -0.1684 -0.9917 0.9769
5.7645 0.0000 -0.9917 0.9769
5.7638 0.0842 -0.9917 0.9769
5.7546 0.3367 -0.9917 0.9769
5.7491 0.4208 -0.9918 0.9769
5.7424 0.5047 -0.9918 0.9769
5.7344 0.5886 -0.9918 0.9769
5.7252 0.6723 -0.9918 0.9769
5.6903 0.9226 -0.9918 0.9769
5.6445 1.1710 -0.9918 0.9769
5.5667 1.4989 -0.9918 0.9769
5.5443 1.5801 -0.9918 0.9769
5.3543 2.1380 -0.9919 0.9769
5.2897 2.2936 -0.9919 0.9769
5.2206 2.4473 -0.9920 0.9769
5.0690 2.7482 -0.9920 0.9769
5.0284 2.8221 -0.9920 0.9769
4.9867 2.8952 -0.9921 0.9769
4.8094 3.1818 -0.9921 0.9769
4.7625 3.2519 -0.9921 0.9769
4.6656 3.3898 -0.9922 0.9769
4.6157 3.4576 -0.9922 0.9769
4.5648 3.5248 -0.9922 0.9769
4.5129 3.5912 -0.9922 0.9769
4.4062 3.7216 -0.9923 0.9769
4.2958 3.8490 -0.9923 0.9769
4.2392 3.9115 -0.9924 0.9769
4.1233 4.0338 -0.9924 0.9769
4.0640 4.0938 -0.9924 0.9769
3.8183 4.3246 -0.9925 0.9769
3.7548 4.3800 -0.9925 0.9769
3.6905 4.4345 -0.9926 0.9769
3.5595 4.5407 -0.9926 0.9769
3.4929 4.5924 -0.9927 0.9769
3.3574 4.6927 -0.9927 0.9769
2.8810 4.8794 -0.9749 0.9773
2.7373 4.9618 -0.9749 0.9773
2.5913 5.0399 -0.9750 0.9773
2.4431 5.1138 -0.9751 0.9773
2.3682 5.1491 -0.9751 0.9773
2.2928 5.1833 -0.9751 0.9773
2.2168 5.2164 -0.9752 0.9773
2.1405 5.2484 -0.9752 0.9773
2.0636 5.2793 -0.9752 0.9773
1.9863 5.3091 -0.9752 0.9773
1.8304 5.3652 -0.9753 0.9773
1.5141 5.4636 -0.9754 0.9773
1.4341 5.4854 -0.9755 0.9773
1.3539 5.5059 -0.9755 0.9772
1.1925 5.5435 -0.9756 0.9772
1.0301 5.5763 -0.9756 0.9772
0.8668 5.6044 -0.9757 0.9772
0.7848 5.6166 -0.9757 0.9772
0.4554 5.6537 -0.9759 0.9772
0.2900 5.6650 -0.9759 0.9772
0.2072 5.6688 -0.9760 0.9772
0.1244 5.6714 -0.9760 0.9772
-0.1243 5.6720 -0.9761 0.9772
-0.2072 5.6698 -0.9761 0.9772
-0.2900 5.6663 -0.9762 0.9772
-0.3728 5.6617 -0.9762 0.9772
-0.8673 5.6084 -0.9764 0.9772
-0.9491 5.5954 -0.9764 0.9772
-1.0309 5.5811 -0.9765 0.9772
-1.1123 5.5656 -0.9765 0.9772
-1.1125 5.1720 -0.9102 0.9788
-1.3553 5.5120 -0.9766 0.9772
-1.5159 5.4704 -0.9766 0.9772
-1.5957 5.4479 -0.9767 0.9772
-2.1441 5.2577 -0.9769 0.9772
-2.2970 5.1931 -0.9770 0.9772
-2.4479 5.1241 -0.9770 0.9772
-2.5226 5.0879 -0.9771 0.9772
-2.5967 5.0507 -0.9771 0.9772
-2.8158 4.9324 -0.9772 0.9772
-0.4236 0.6107 -0.1279 0.9970
-0.4034 0.5639 -0.1193 0.9972
-0.4047 0.5486 -0.1173 0.9972
-0.4070 0.5193 -0.1135 0.9973
-0.4108 0.4652 -0.1068 0.9975
-0.4122 0.4402 -0.1038 0.9976
-0.4128 0.4282 -0.1023 0.9976
-0.4147 0.3827 -0.0971 0.9977
-0.4156 0.3724 -0.0960 0.9977
-0.4181 0.3532 -0.0942 0.9978
-0.4219 0.3258 -0.0917 0.9978
-0.4260 0.2909 -0.0887 0.9979
-0.4269 0.2824 -0.0881 0.9979
-0.4284 0.2658 -0.0867 0.9980
-0.4291 0.2576 -0.0861 0.9980
-0.4297 0.2495 -0.0855 0.9980
-0.4303 0.2415 -0.0849 0.9980
-0.4313 0.2257 -0.0838 0.9980
-0.4321 0.2103 -0.0827 0.9981
-0.4327 0.1952 -0.0817 0.9981
-0.4329 0.1877 -0.0812 0.9981
-0.4333 0.1804 -0.0808 0.9981
-0.4337 0.1732 -0.0803 0.9981
-0.4340 0.1660 -0.0799 0.9981
-0.4350 0.1449 -0.0789 0.9981
-0.4352 0.1379 -0.0786 0.9981
-0.4354 0.1310 -0.0782 0.9982
-0.4357 0.1173 -0.0776 0.9982
-0.4358 0.0971 -0.0768 0.9982
-0.4358 0.0904 -0.0766 0.9982
-0.4355 0.0771 -0.0761 0.9982
-0.4354 0.0706 -0.0759 0.9982
-0.4349 0.0575 -0.0755 0.9982
-0.4343 0.0446 -0.0751 0.9982
-0.4335 0.0317 -0.0748 0.9982
-0.4321 0.0126 -0.0744 0.9982
-0.4206 -0.0185 -0.0773 0.9983
-0.4211 -0.0246 -0.0774 0.9983
-0.4215 -0.0309 -0.0775 0.9983
-0.4218 -0.0371 -0.0777 0.9983
-0.4225 -0.0496 -0.0781 0.9983
-0.4227 -0.0559 -0.0782 0.9983
-0.4234 -0.0943 -0.0796 0.9982
-0.4232 -0.1140 -0.0804 0.9982
-0.4230 -0.1205 -0.0807 0.9982
-0.4211 -0.1611 -0.0827 0.9982
-0.4202 -0.1750 -0.0835 0.9982
-0.4196 -0.1820 -0.0839 0.9981
-0.4179 -0.2111 -0.0859 0.9981
-0.4150 -0.2491 -0.0888 0.9980
-0.4142 -0.2570 -0.0894 0.9980
-0.4096 -0.2976 -0.0929 0.9979
-0.4091 -0.3065 -0.0938 0.9979
-0.4086 -0.3155 -0.0947 0.9979
-0.4079 -0.3246 -0.0957 0.9979
-0.4073 -0.3339 -0.0966 0.9979
-0.4058 -0.3530 -0.0987 0.9978
-0.4050 -0.3629 -0.0998 0.9978
-0.4014 -0.3927 -0.1030 0.9977
-0.4008 -0.4037 -0.1044 0.9977
-0.4000 -0.4149 -0.1058 0.9977
-0.3993 -0.4264 -0.1072 0.9976
-0.3975 -0.4502 -0.1102 0.9976
-0.3955 -0.4752 -0.1134 0.9975
-0.3931 -0.5015 -0.1169 0.9974
-0.3904 -0.5293 -0.1207 0.9973
-0.4679 -0.7421 -0.1610 0.9964
-2.8256 -4.6299 -0.9952 0.9782
-2.7575 -4.6705 -0.9952 0.9782
-2.6889 -4.7102 -0.9951 0.9782
-2.6198 -4.7489 -0.9951 0.9782
-2.4797 -4.8231 -0.9950 0.9782
-1.3671 -2.7575 -0.5647 0.9876
-1.3199 -2.7629 -0.5618 0.9876
-2.2658 -4.9268 -0.9950 0.9782
-2.1935 -4.9592 -0.9949 0.9782
-2.1207 -4.9906 -0.9949 0.9782
-2.0475 -5.0209 -0.9949 0.9782
-1.9739 -5.0501 -0.9948 0.9782
-1.8998 -5.0782 -0.9948 0.9782
-1.6753 -5.1561 -0.9947 0.9782
-1.3711 -5.2446 -0.9946 0.9782
-1.2943 -5.2639 -0.9946 0.9782
-1.2172 -5.2821 -0.9945 0.9782
-1.1398 -5.2991 -0.9945 0.9782
-1.0623 -5.3151 -0.9945 0.9782
-0.7499 -5.3673 -0.9944 0.9782
-0.6713 -5.3776 -0.9943 0.9782
-0.4350 -5.4013 -0.9942 0.9782
-0.1979 -5.4147 -0.9941 0.9782
0.0396 -5.4176 -0.9940 0.9782
0.1187 -5.4163 -0.9940 0.9782
0.1979 -5.4138 -0.9940 0.9782
0.3560 -5.4054 -0.9939 0.9782
0.5925 -5.3841 -0.9938 0.9782
0.6710 -5.3746 -0.9938 0.9782
0.7495 -5.3641 -0.9938 0.9782
0.9058 -5.3396 -0.9937 0.9782
0.9837 -5.3256 -0.9937 0.9782
1.2930 -5.2584 -0.9935 0.9782
1.4460 -5.2180 -0.9935 0.9782
1.5220 -5.1962 -0.9934 0.9782
1.7481 -5.1241 -0.9934 0.9782
1.8970 -5.0705 -0.9933 0.9782
2.1171 -4.9821 -0.9932 0.9782
2.3332 -4.8841 -0.9931 0.9782
2.4748 -4.8135 -0.9931 0.9782
2.5448 -4.7767 -0.9930 0.9782
2.6143 -4.7389 -0.9930 0.9782
2.9528 -4.5348 -0.9929 0.9782
3.0839 -4.4463 -0.9928 0.9782
3.2123 -4.3541 -0.9928 0.9782
3.2755 -4.3066 -0.9927 0.9782
3.3380 -4.2582 -0.9927 0.9782
3.3998 -4.2088 -0.9927 0.9782
3.5212 -4.1075 -0.9926 0.9782
3.5807 -4.0555 -0.9926 0.9782
2.2200 -2.3710 -0.5959 0.9869
2.2673 -2.3517 -0.5994 0.9868
3.8112 -3.8391 -0.9925 0.9782
3.8668 -3.7829 -0.9925 0.9782
2.1910 -2.0817 -0.5545 0.9878
2.2195 -2.0479 -0.5541 0.9878
4.0182 -3.4958 -0.9772 0.9786
4.3039 -3.1270 -0.9761 0.9786
4.3491 -3.0637 -0.9761 0.9786
4.3933 -2.9997 -0.9761 0.9786
4.4366 -2.9352 -0.9760 0.9786
4.4789 -2.8700 -0.9760 0.9786
4.5203 -2.8042 -0.9760 0.9786
4.6002 -2.6708 -0.9760 0.9786
4.7126 -2.4666 -0.9759 0.9786
4.8159 -2.2576 -0.9759 0.9786
4.8797 -2.1159 -0.9759 0.9786
4.9101 -2.0443 -0.9758 0.9786
4.9394 -1.9723 -0.9758 0.9786
4.9727 -1.9019 -0.9768 0.9786
4.9999 -1.8290 -0.9768 0.9786
5.0748 -1.7727 -0.9863 0.9784
5.1297 -1.7083 -0.9920 0.9783
5.1541 -1.6331 -0.9920 0.9783
5.1995 -1.4818 -0.9920 0.9783
5.2205 -1.4057 -0.9920 0.9783
5.2593 -1.2525 -0.9919 0.9783
5.2770 -1.1755 -0.9919 0.9783
5.2936 -1.0982 -0.9919 0.9783
5.3233 -0.9431 -0.9919 0.9783
5.3486 -0.7871 -0.9919 0.9783
5.3595 -0.7089 -0.9919 0.9783
5.3693 -0.6305 -0.9919 0.9783
5.3854 -0.4734 -0.9919 0.9783
5.3917 -0.3946 -0.9919 0.9783
5.4009 -0.2369 -0.9919 0.9783
5.4038 -0.1579 -0.9919 0.9783
5.4055 -0.0790 -0.9919 0.9783
5.4061 0.0000 -0.9919 0.9783
5.4055 0.0790 -0.9919 0.9783
5.4038 0.1580 -0.9919 0.9783
5.4009 0.2369 -0.9919 0.9783
5.3854 0.4734 -0.9919 0.9783
5.3779 0.5520 -0.9919 0.9783
5.3693 0.6305 -0.9919 0.9783
5.3486 0.7871 -0.9919 0.9783
5.3365 0.8652 -0.9919 0.9783
5.3234 0.9431 -0.9919 0.9783
5.3090 1.0208 -0.9919 0.9783
5.2936 1.0983 -0.9919 0.9783
5.2594 1.2525 -0.9919 0.9783
5.2405 1.3292 -0.9920 0.9783
5.2206 1.4057 -0.9920 0.9783
5.1995 1.4818 -0.9920 0.9783
5.1773 1.5576 -0.9920 0.9783
5.1297 1.7082 -0.9920 0.9783
5.0777 1.8575 -0.9920 0.9783
4.9916 2.0783 -0.9921 0.9783
4.9608 2.1510 -0.9921 0.9783
4.9289 2.2233 -0.9921 0.9783
4.8960 2.2951 -0.9921 0.9783
4.8620 2.3664 -0.9921 0.9782
4.8269 2.4373 -0.9921 0.9782
4.7538 2.5773 -0.9921 0.9782
4.7157 2.6466 -0.9922 0.9782
4.6766 2.7152 -0.9922 0.9782
4.6365 2.7833 -0.9922 0.9782
4.5954 2.8509 -0.9922 0.9782
4.5533 2.9177 -0.9922 0.9782
4.5103 2.9840 -0.9922 0.9782
4.4213 3.1146 -0.9923 0.9782
4.3754 3.1789 -0.9923 0.9782
4.2808 3.3055 -0.9923 0.9782
4.2321 3.3678 -0.9924 0.9782
4.1826 3.4294 -0.9924 0.9782
4.1321 3.4902 -0.9924 0.9782
4.0808 3.5503 -0.9924 0.9782
3.9754 3.6681 -0.9925 0.9782
3.8667 3.7829 -0.9925 0.9782
3.7547 3.8945 -0.9925 0.9782
3.6975 3.9490 -0.9926 0.9782
3.5807 4.0555 -0.9926 0.9782
3.5212 4.1075 -0.9926 0.9782
3.4609 4.1586 -0.9927 0.9782
3.3998 4.2088 -0.9927 0.9782
3.2756 4.3066 -0.9927 0.9782
3.2123 4.3541 -0.9928 0.9782
3.1484 4.4007 -0.9928 0.9782
3.0839 4.4464 -0.9928 0.9782
3.0187 4.4911 -0.9928 0.9782
2.8863 4.5776 -0.9929 0.9782
2.8192 4.6194 -0.9929 0.9782
2.4043 4.8493 -0.9931 0.9782
2.3332 4.8841 -0.9931 0.9782
2.2617 4.9178 -0.9931 0.9782
2.0788 4.8917 -0.9752 0.9786
1.9352 4.9506 -0.9753 0.9786
1.7898 5.0054 -0.9753 0.9786
1.5688 5.0795 -0.9754 0.9786
1.4198 5.1234 -0.9755 0.9786
1.0422 5.2142 -0.9756 0.9786
0.8895 5.2427 -0.9757 0.9786
0.7359 5.2668 -0.9757 0.9786
0.5045 5.2945 -0.9758 0.9786
0.2720 5.3121 -0.9759 0.9786
0.1943 5.3156 -0.9760 0.9786
-0.1943 5.3165 -0.9761 0.9786
-0.2719 5.3132 -0.9762 0.9786
-0.4271 5.3034 -0.9762 0.9786
-0.5045 5.2967 -0.9762 0.9786
-0.5819 5.2889 -0.9763 0.9786
-0.6591 5.2801 -0.9763 0.9786
-0.8900 5.2466 -0.9764 0.9786
-1.0430 5.2187 -0.9765 0.9786
-1.1192 5.2030 -0.9765 0.9786
-1.1951 5.1862 -0.9765 0.9786
-1.2708 5.1684 -0.9766 0.9786
-1.3462 5.1495 -0.9766 0.9786
-1.4213 5.1294 -0.9766 0.9786
-1.4962 5.1082 -0.9766 0.9786
-1.6450 5.0627 -0.9767 0.9786
-1.7188 5.0382 -0.9767 0.9786
-1.7923 5.0127 -0.9768 0.9786
