ply
format ascii 1.0
element vertex 1575
property float32 x
property float32 y
property float32 z
property float32 I
end_header
9.3063 8.8421 2.5396 0.9490
9.2695 9.0685 2.5654 0.9485
9.4047 9.4737 2.6409 0.9470
8.9802 9.3144 2.5596 0.9486
8.2289 9.5992 2.5013 0.9498
-0.0375 5.1284 1.0146 0.9793
-0.6016 9.1354 1.8112 0.9634
-0.7408 9.1975 1.8255 0.9631
-0.8823 9.2610 1.8404 0.9628
-1.0262 9.3258 1.8561 0.9625
-1.1726 9.3922 1.8725 0.9621
-1.3217 9.4600 1.8897 0.9618
-1.4737 9.5295 1.9077 0.9614
-1.5247 8.9880 1.8035 0.9635
-1.7157 9.2886 1.8687 0.9622
-2.0585 9.5697 1.9365 0.9609
-3.0496 9.3858 1.9524 0.9606
-5.6249 9.2168 2.1361 0.9569
-5.8466 9.2726 2.1686 0.9563
-6.0753 9.3302 2.2026 0.9556
-6.2825 8.7814 2.1361 0.9569
-6.1681 8.3605 2.0554 0.9585
-7.2966 8.7678 2.2566 0.9546
-7.4257 8.6623 2.2572 0.9545
-8.0098 8.8092 2.3554 0.9526
-10.4925 9.4014 2.7871 0.9442
-11.1638 9.4295 2.8910 0.9422
-12.0787 9.6119 3.0538 0.9390
-11.5872 8.4186 2.8335 0.9433
-17.0770 9.9149 3.9065 0.9226
-16.8962 9.4827 3.8331 0.9240
-19.0851 9.2893 4.1991 0.9171
-1.6835 0.3750 0.3412 0.9930
-1.6579 0.2937 0.3331 0.9932
-1.6501 0.2675 0.3307 0.9932
-1.6427 0.2418 0.3285 0.9933
-1.6295 0.1673 0.3241 0.9933
-1.6270 0.1430 0.3231 0.9934
-1.6247 0.1189 0.3223 0.9934
-1.6227 0.0950 0.3216 0.9934
-1.6209 0.0711 0.3210 0.9934
-1.6194 0.0473 0.3205 0.9934
-1.6181 0.0237 0.3201 0.9934
-1.5557 0.0000 0.2899 0.9937
-1.5567 -0.0228 0.2901 0.9937
-1.5609 -0.0913 0.2914 0.9937
-1.5649 -0.1375 0.2927 0.9936
-1.5682 -0.1609 0.2938 0.9936
-1.5751 -0.2083 0.2961 0.9936
-1.5811 -0.2563 0.2985 0.9935
-1.6381 -0.4155 0.3149 0.9931
-1.6658 -0.4486 0.3215 0.9930
-88.7013 -29.5390 17.4212 0.6836
-84.2845 -29.4431 16.6365 0.6954
-80.2479 -29.3555 15.9227 0.7063
-76.5423 -29.2750 15.2707 0.7165
-69.9698 -29.1323 14.1233 0.7346
-64.3115 -29.0094 13.1467 0.7505
-57.7131 -29.1412 12.0476 0.7687
-55.5878 -29.0951 11.6914 0.7747
-53.5841 -29.0515 11.3581 0.7804
-51.6912 -29.0104 11.0455 0.7857
-49.8992 -28.9716 10.7519 0.7908
-48.1996 -28.9346 10.4757 0.7955
-19.0031 -11.7888 4.1671 0.9130
-19.0001 -12.5703 4.2452 0.9115
-18.8522 -12.8724 4.2538 0.9113
-39.1769 -28.4637 9.0237 0.8212
-37.9615 -28.4372 8.8385 0.8245
-36.7947 -28.4119 8.6626 0.8277
-13.5103 -11.0773 3.2556 0.9314
-13.2718 -11.8916 3.3206 0.9301
-12.8151 -12.1759 3.2940 0.9306
-12.9854 -12.7038 3.3851 0.9288
-12.1315 -12.2205 3.2087 0.9323
-12.1876 -12.6411 3.2721 0.9310
-16.1054 -17.7126 4.4610 0.9072
-15.8803 -17.9861 4.4710 0.9070
-9.5600 -11.4875 2.7849 0.9410
-9.0950 -11.6021 2.7471 0.9418
-8.8841 -11.6807 2.7346 0.9420
-8.4392 -11.7959 2.7027 0.9427
-8.2203 -11.8520 2.6877 0.9430
-7.7504 -12.2920 2.7078 0.9426
-8.0345 -13.6082 2.9448 0.9377
-15.9614 -27.9595 5.9992 0.8772
-14.7606 -28.7095 6.0154 0.8769
-14.7386 -29.7269 6.1828 0.8737
-14.7153 -30.8029 6.3612 0.8703
-14.6644 -33.1537 6.7553 0.8629
-5.2661 -12.3922 2.5091 0.9467
-5.0906 -12.4829 2.5121 0.9466
-4.5205 -12.0830 2.4040 0.9489
-14.4642 -42.3981 8.3477 0.8334
-3.8081 -11.7202 2.2964 0.9511
-3.4655 -12.5061 2.4182 0.9486
-3.1647 -12.8707 2.4698 0.9475
-2.6236 -12.1970 2.3248 0.9505
-0.2220 -2.7561 0.5152 0.9888
22.1070 -84.5606 16.2868 0.7007
22.8207 -82.3536 15.9242 0.7063
28.0563 -82.2398 16.1920 0.7022
29.3943 -82.2108 16.2691 0.7010
30.7454 -82.1814 16.3505 0.6998
34.8851 -82.0916 16.6210 0.6956
37.7254 -82.0299 16.8247 0.6926
39.1725 -81.9984 16.9338 0.6909
45.1088 -81.7695 17.4019 0.6839
9.4038 -13.9907 3.1412 0.9337
9.3314 -13.0429 2.9884 0.9368
9.8493 -12.5644 2.9749 0.9371
9.7700 -12.0950 2.8973 0.9387
10.2037 -11.9029 2.9214 0.9382
10.7672 -11.8417 2.9824 0.9370
10.9880 -11.7353 2.9957 0.9367
11.2097 -11.6269 3.0095 0.9364
15.4882 -13.0821 3.7779 0.9208
15.8820 -13.0219 3.8271 0.9198
6.9616 -2.7799 1.3968 0.9700
6.9591 -2.6616 1.3884 0.9701
6.9565 -2.5447 1.3803 0.9703
11.5113 -3.6475 2.2502 0.9521
10.8547 -2.7532 2.0867 0.9555
11.0634 -2.6347 2.1192 0.9548
11.3414 -2.1807 2.1521 0.9541
11.3158 -2.0048 2.1414 0.9543
11.5433 -1.8716 2.1791 0.9535
12.0554 -1.5946 2.2660 0.9517
11.9393 -1.2255 2.2365 0.9523
22.3637 -1.9657 4.1834 0.9127
32.2486 9.1905 6.2486 0.8725
15.7198 8.8224 3.3591 0.9293
15.5435 9.3309 3.3782 0.9289
14.5523 9.3250 3.2207 0.9321
14.3060 9.4648 3.1964 0.9326
14.3884 9.8245 3.2466 0.9316
14.2846 10.0627 3.2560 0.9314
14.1788 10.3015 3.2658 0.9312
10.5119 9.1454 2.5964 0.9449
9.2574 8.7957 2.3795 0.9494
8.9250 9.2572 2.3962 0.9490
8.6104 9.4696 2.3850 0.9493
-0.9252 9.7122 1.8180 0.9611
-1.0666 9.6941 1.8173 0.9611
-1.2080 9.6759 1.8170 0.9611
-1.3493 9.6578 1.8171 0.9611
-1.4907 9.6396 1.8176 0.9611
-1.5412 9.0850 1.7171 0.9632
-2.0540 9.5489 1.8201 0.9610
-2.3232 9.4486 1.8131 0.9612
-2.7242 9.3007 1.8059 0.9613
-2.8574 9.2520 1.8044 0.9614
-3.0529 9.3957 1.8409 0.9606
-5.1943 9.0988 1.9523 0.9583
-5.4029 9.1511 1.9803 0.9577
-6.0673 9.3179 2.0720 0.9558
-6.2296 9.2682 2.0809 0.9556
-6.3695 9.1836 2.0826 0.9555
-6.3475 8.8721 2.0328 0.9566
-6.7889 8.9260 2.0897 0.9554
-6.9260 8.8353 2.0919 0.9553
-11.5574 10.6640 2.9303 0.9380
-11.2085 9.4673 2.7340 0.9420
-11.5655 9.4828 2.7869 0.9410
-11.8823 9.4556 2.8297 0.9401
-12.8509 8.7747 2.8997 0.9386
-16.5556 9.9385 3.5982 0.9244
-19.1285 9.3104 3.9642 0.9171
-1.6658 0.4486 0.3215 0.9930
-1.6193 0.3857 0.3102 0.9932
-1.6110 0.3589 0.3075 0.9933
-1.5810 0.2564 0.2985 0.9935
-1.5751 0.2084 0.2961 0.9936
-1.5717 0.1846 0.2949 0.9936
-1.5609 0.0914 0.2914 0.9937
-1.5579 0.0455 0.2904 0.9937
-1.5567 0.0228 0.2901 0.9937
-1.5000 -0.0219 0.2624 0.9939
-1.5038 -0.0880 0.2635 0.9939
-1.5059 -0.1102 0.2641 0.9939
-1.5117 -0.1551 0.2658 0.9938
-1.5148 -0.1779 0.2668 0.9938
-1.5306 -0.2943 0.2726 0.9937
-1.5374 -0.3189 0.2746 0.9936
-1.5521 -0.3696 0.2791 0.9935
-1.5839 -0.4264 0.2869 0.9934
-1.6100 -0.4588 0.2928 0.9932
-1.6664 -0.5280 0.3057 0.9929
-88.7013 -29.5390 16.3514 0.6841
-84.2847 -29.4431 15.6149 0.6959
-80.2478 -29.3555 14.9449 0.7068
-76.5425 -29.2750 14.3329 0.7169
-69.9699 -29.1323 13.2560 0.7351
-67.5296 -29.2812 12.8734 0.7416
-62.3801 -29.2425 12.0495 0.7560
-55.4421 -29.0188 10.9447 0.7756
-53.5841 -29.0515 10.6606 0.7807
-51.6911 -29.0105 10.3672 0.7861
-18.7475 -12.0131 3.8943 0.9136
-18.6281 -12.3242 3.9065 0.9133
-18.3847 -12.5532 3.8935 0.9136
-37.9615 -28.4373 8.2957 0.8248
-36.7947 -28.4119 8.1306 0.8280
-13.4149 -11.6710 3.1099 0.9303
-13.3342 -11.9475 3.1313 0.9299
-13.7190 -12.6584 3.2648 0.9270
-13.4504 -13.1588 3.2910 0.9264
-12.2480 -13.0810 3.1342 0.9298
-15.9231 -18.0346 4.2077 0.9069
-10.2158 -11.9171 2.7453 0.9382
-9.5764 -11.5073 2.6184 0.9410
-8.8978 -11.0152 2.4766 0.9441
-8.6390 -12.0752 2.5968 0.9415
-8.1961 -12.1938 2.5697 0.9421
-7.8795 -12.4967 2.5839 0.9418
-7.9861 -13.0857 2.6812 0.9396
-7.7804 -13.1780 2.6765 0.9397
-15.4176 -27.9477 5.5825 0.8784
-14.7604 -28.7092 5.6460 0.8771
-14.6904 -31.9426 6.1492 0.8670
-14.6642 -33.1533 6.3404 0.8631
-14.6363 -34.4420 6.5452 0.8590
-4.8663 -12.4500 2.3379 0.9472
-4.5935 -12.2782 2.2928 0.9482
-4.5168 -12.6326 2.3464 0.9470
-4.3379 -12.7153 2.3497 0.9469
-3.8257 -11.7744 2.1653 0.9510
-3.7153 -12.0297 2.2020 0.9502
-3.6009 -12.2937 2.2405 0.9493
-3.4824 -12.5670 2.2808 0.9484
-3.3236 -12.7131 2.2982 0.9480
-2.9403 -12.7595 2.2901 0.9482
-2.7427 -12.7505 2.2811 0.9484
-2.5357 -12.6870 2.2628 0.9488
-2.3308 -12.6188 2.2444 0.9492
-13.4929 -87.2526 15.4418 0.6987
22.5333 -86.1909 15.5814 0.6964
22.8207 -82.3536 14.9464 0.7068
24.1893 -82.5839 15.0507 0.7051
28.1444 -82.4980 15.2454 0.7019
29.4866 -82.4688 15.3180 0.7007
30.7454 -82.1814 15.3464 0.7003
32.1103 -82.1518 15.4268 0.6990
33.5951 -82.3796 15.5602 0.6968
36.2966 -82.0609 15.6937 0.6946
37.7254 -82.0299 15.7915 0.6931
39.1725 -81.9985 15.8939 0.6914
40.6388 -81.9666 16.0011 0.6897
45.1633 -81.8684 16.3530 0.6841
46.7172 -81.8346 16.4808 0.6821
49.9007 -81.7655 16.7535 0.6778
51.5330 -81.7300 16.8988 0.6755
53.1941 -81.6940 17.0502 0.6731
9.9027 -13.4225 2.9173 0.9345
9.8571 -12.2029 2.7436 0.9383
10.2593 -11.9678 2.7570 0.9380
10.9410 -12.0328 2.8444 0.9361
11.8515 -12.2925 2.9864 0.9330
15.5420 -14.3406 3.6986 0.9177
6.9643 -2.8996 1.3194 0.9698
6.9566 -2.5448 1.2955 0.9704
10.9114 -3.4574 2.0019 0.9546
11.1155 -2.6471 1.9985 0.9547
11.0542 -2.4624 1.9808 0.9551
11.1673 -2.1472 1.9889 0.9549
11.1476 -1.9750 1.9801 0.9551
11.6469 -1.7141 2.0590 0.9533
11.8962 -1.2211 2.0916 0.9526
21.8092 -1.9170 3.8291 0.9149
22.4580 -1.6437 3.9384 0.9126
32.2342 10.2138 5.9140 0.8717
15.8223 8.5783 3.1479 0.9295
15.5797 8.7437 3.1247 0.9300
14.9478 8.9734 3.0493 0.9317
14.7842 9.1716 3.0429 0.9318
14.6295 9.3744 3.0389 0.9319
14.5337 10.2383 3.1093 0.9304
14.7502 11.0495 3.2234 0.9279
10.7175 8.7875 2.4240 0.9453
10.7314 9.0643 2.4569 0.9446
10.4919 9.1280 2.4323 0.9451
9.9795 9.2081 2.3749 0.9464
9.2091 8.7498 2.2218 0.9497
9.5788 9.3711 2.3437 0.9470
8.8707 9.2009 2.2353 0.9494
8.6395 9.2271 2.2108 0.9500
8.5789 9.4350 2.2303 0.9495
8.1694 9.5299 2.1954 0.9503
-0.9250 9.7095 1.7059 0.9612
-1.3489 9.6550 1.7051 0.9612
-1.4903 9.6369 1.7055 0.9612
-1.7544 9.4983 1.6893 0.9615
-2.3105 9.3965 1.6924 0.9615
-2.4437 9.3473 1.6898 0.9615
-2.7093 9.2497 1.6857 0.9616
-2.9740 9.1531 1.6832 0.9617
-5.1879 9.0876 1.8302 0.9584
-5.6106 9.1933 1.8837 0.9572
-6.0594 9.3058 1.9422 0.9559
-6.4135 8.9645 1.9278 0.9562
-6.6415 9.0021 1.9566 0.9556
-6.6896 8.7955 1.9327 0.9561
-6.9184 8.8256 1.9613 0.9555
-7.5672 9.3680 2.1062 0.9523
-7.7546 9.3181 2.1202 0.9520
-7.8630 9.1724 2.1130 0.9521
-7.9706 9.0276 2.1063 0.9523
-8.0774 8.8836 2.1000 0.9524
-11.0267 10.1743 2.6241 0.9409
-11.2036 10.0385 2.6310 0.9407
-10.9073 9.4893 2.5286 0.9430
-11.2534 9.5052 2.5763 0.9419
-11.9204 9.4859 2.6644 0.9400
-11.9650 8.9630 2.6147 0.9411
-13.1436 8.4223 2.7303 0.9386
-16.0968 9.9858 3.3130 0.9260
-17.2370 9.3454 3.4293 0.9235
-23.3326 9.7147 4.4204 0.9025
-1.6664 0.5280 0.3057 0.9929
-1.5839 0.4265 0.2869 0.9934
-1.5599 0.3957 0.2815 0.9935
-1.5446 0.3441 0.2768 0.9936
-1.5374 0.3190 0.2746 0.9936
-1.5306 0.2943 0.2726 0.9937
-1.5229 0.2469 0.2698 0.9938
-1.5206 0.2238 0.2688 0.9938
-1.5182 0.2008 0.2678 0.9938
-1.5117 0.1552 0.2658 0.9938
-1.5087 0.1326 0.2649 0.9939
-1.5024 0.0659 0.2630 0.9939
-1.5011 0.0439 0.2627 0.9939
-1.4516 -0.0849 0.2377 0.9941
-1.4565 -0.1280 0.2391 0.9941
-1.4621 -0.1717 0.2407 0.9941
-1.4679 -0.2160 0.2426 0.9940
-1.4722 -0.2608 0.2444 0.9940
-1.4746 -0.2835 0.2455 0.9939
-1.4773 -0.3065 0.2467 0.9939
-1.4905 -0.3549 0.2505 0.9938
-1.5809 -0.5009 0.2711 0.9933
-1.5930 -0.5564 0.2759 0.9932
-67.7071 -29.3582 12.0660 0.7415
-64.9521 -29.2984 11.6501 0.7492
-57.7131 -29.1412 10.5708 0.7695
-55.5878 -29.0951 10.2583 0.7755
-19.6054 -11.3829 3.7066 0.9122
-19.1316 -11.4848 3.6484 0.9135
-18.1137 -11.9839 3.5511 0.9157
-17.9803 -12.2771 3.5597 0.9155
-39.1769 -28.4637 7.9175 0.8218
-13.4776 -11.7255 2.9208 0.9302
-13.3969 -12.0037 2.9410 0.9297
-13.3837 -12.7161 3.0184 0.9279
-12.6607 -12.7536 2.9382 0.9298
-16.1620 -17.7748 3.9279 0.9072
-15.9266 -18.0386 3.9344 0.9071
-9.5929 -11.5270 2.4519 0.9410
-9.3578 -11.5846 2.4348 0.9414
-9.2937 -12.2193 2.5101 0.9397
-8.9817 -12.1742 2.4736 0.9405
-8.7174 -12.1847 2.4496 0.9411
-8.0125 -12.7075 2.4562 0.9409
-8.3581 -14.1564 2.6879 0.9355
-15.4176 -27.9477 5.2187 0.8787
-14.7383 -29.7263 5.4248 0.8742
-14.7150 -30.8022 5.5813 0.8708
-14.6640 -33.1530 5.9271 0.8634
-14.6362 -34.4416 6.1186 0.8593
-4.9914 -12.2396 2.1612 0.9478
-4.6460 -12.4186 2.1679 0.9477
-4.4727 -12.5091 2.1721 0.9476
-3.4994 -12.6283 2.1425 0.9483
-3.3207 -12.7018 2.1466 0.9482
-3.1316 -12.7363 2.1444 0.9482
-2.9205 -12.6734 2.1264 0.9487
-2.7128 -12.6117 2.1092 0.9491
-2.5375 -12.6963 2.1169 0.9489
-2.3331 -12.6312 2.1001 0.9493
-13.6407 -80.4104 13.3349 0.7185
-13.3178 -95.3225 15.7366 0.6770
-0.2220 -2.7562 0.4521 0.9889
25.4780 -82.4959 14.1167 0.7047
28.1241 -82.4384 14.2415 0.7025
30.7454 -82.1815 14.3462 0.7007
37.7254 -82.0299 14.7623 0.6935
40.7664 -82.2239 15.0052 0.6894
42.2575 -82.1915 15.1104 0.6876
48.4475 -82.0571 15.5802 0.6796
50.0573 -82.0221 15.7108 0.6774
51.5952 -81.8287 15.8165 0.6756
53.1942 -81.6940 15.9390 0.6736
9.5858 -14.2614 2.8095 0.9327
9.7819 -12.8612 2.6419 0.9366
9.7095 -12.3861 2.5732 0.9382
9.9107 -12.2693 2.5787 0.9381
10.4574 -11.5010 2.5415 0.9389
14.7873 -13.6442 3.2897 0.9217
14.9729 -13.0263 3.2449 0.9227
15.4243 -12.2742 3.2229 0.9232
15.7586 -12.1684 3.2553 0.9225
3.4316 -1.9259 0.6434 0.9842
6.9643 -2.8996 1.2334 0.9699
6.8869 -2.7500 1.2125 0.9704
6.9591 -2.6616 1.2182 0.9703
6.9488 -2.5419 1.2097 0.9705
10.7833 -3.2442 1.8411 0.9554
10.7802 -3.0723 1.8327 0.9556
11.0113 -2.7930 1.8574 0.9550
10.9713 -2.6128 1.8440 0.9553
11.1114 -2.4752 1.8612 0.9549
10.8493 -2.2509 1.8116 0.9561
11.1936 -1.9832 1.8587 0.9550
11.9676 -1.5830 1.9737 0.9522
11.9100 -1.3986 1.9607 0.9526
21.9070 -1.9255 3.5956 0.9147
22.8799 -1.6746 3.7509 0.9112
15.4502 8.9704 2.9210 0.9301
15.0186 9.0157 2.8640 0.9315
14.5517 9.6274 2.8528 0.9317
14.8596 10.7961 3.0031 0.9283
14.6947 11.0080 3.0019 0.9283
10.8488 8.8951 2.2938 0.9447
10.7110 9.0470 2.2924 0.9448
10.2379 9.1732 2.2475 0.9458
9.9220 9.1550 2.2073 0.9468
9.7330 9.2475 2.1951 0.9470
9.5614 9.3541 2.1870 0.9472
9.7177 9.7889 2.2552 0.9456
8.8669 10.0427 2.1904 0.9471
-1.4898 9.6342 1.5939 0.9613
-1.8975 9.4941 1.5830 0.9615
-2.0315 9.4441 1.5794 0.9616
-2.8263 9.1513 1.5660 0.9619
-3.0894 9.0558 1.5644 0.9620
-6.4806 9.0583 1.8210 0.9559
-6.6328 8.9904 1.8267 0.9557
-6.7733 8.9055 1.8293 0.9557
-6.9108 8.8159 1.8315 0.9556
-7.5206 9.3103 1.9568 0.9526
-7.8950 9.2097 1.9833 0.9520
-11.2391 10.0702 2.4673 0.9407
-11.4175 9.9332 2.4743 0.9405
-11.2984 9.5432 2.4181 0.9418
-11.9587 9.5163 2.4988 0.9399
-11.7929 8.8342 2.4091 0.9420
-11.7561 8.5413 2.3759 0.9428
-12.7295 8.9673 2.5458 0.9388
-16.7523 10.7346 3.2531 0.9225
-16.6781 10.3465 3.2090 0.9235
-16.7639 9.4083 3.1430 0.9250
-17.3035 9.0568 3.1932 0.9239
-17.5467 8.8599 3.2139 0.9234
-17.9019 8.7134 3.2553 0.9225
-23.3198 9.7093 4.1301 0.9027
-23.0412 9.2006 4.0565 0.9043
-1.5809 0.5009 0.2711 0.9933
-1.5333 0.4370 0.2607 0.9936
-1.4838 0.3305 0.2485 0.9939
-1.4773 0.3065 0.2467 0.9939
-1.4652 0.1938 0.2416 0.9940
-1.4621 0.1717 0.2407 0.9941
-1.4592 0.1498 0.2398 0.9941
-1.4486 0.0424 0.2369 0.9941
-1.4476 0.0211 0.2367 0.9941
-1.3980 0.0000 0.2127 0.9944
-1.3997 -0.0409 0.2130 0.9944
-1.4015 -0.0614 0.2134 0.9943
-1.4036 -0.0821 0.2139 0.9943
-1.4188 -0.2088 0.2182 0.9942
-1.4207 -0.2303 0.2190 0.9942
-1.4227 -0.2520 0.2198 0.9942
-1.4248 -0.2739 0.2207 0.9941
-1.4294 -0.3184 0.2228 0.9941
-1.4337 -0.3414 0.2242 0.9941
-1.4859 -0.4470 0.2361 0.9937
-1.5130 -0.5286 0.2438 0.9935
-77.2959 -29.5632 12.5909 0.7155
-70.6670 -29.4225 11.6461 0.7337
-59.9725 -29.1903 10.1478 0.7635
-55.5878 -29.0951 9.5457 0.7758
-19.8017 -11.4969 3.4837 0.9115
-17.8828 -11.8311 3.2623 0.9169
-17.6659 -12.0624 3.2545 0.9171
-17.9290 -13.0261 3.3717 0.9142
-36.7947 -28.4119 7.0727 0.8285
-13.6982 -11.2313 2.6950 0.9308
-13.5407 -11.7804 2.7306 0.9300
-13.8223 -12.7537 2.8614 0.9267
-13.2225 -12.5629 2.7749 0.9289
-12.9843 -12.7028 2.7636 0.9291
-12.6690 -12.7619 2.7359 0.9298
-12.1926 -13.0219 2.7141 0.9304
-16.1655 -17.7787 3.6559 0.9074
-15.9301 -18.0425 3.6619 0.9072
-15.4668 -18.5853 3.6787 0.9068
-9.3736 -11.6043 2.2696 0.9414
-8.8915 -11.6904 2.2346 0.9423
-8.9785 -12.1699 2.3009 0.9406
-8.5460 -12.3216 2.2814 0.9411
-8.1494 -12.9247 2.3247 0.9401
-7.8870 -12.9232 2.3034 0.9406
-16.5344 -28.9633 5.0740 0.8738
-16.1100 -29.2028 5.0742 0.8738
-14.7381 -29.7261 5.0480 0.8744
-14.6639 -33.1526 5.5153 0.8636
-14.6360 -34.4413 5.6935 0.8595
-4.9435 -12.1221 1.9918 0.9484
-4.6013 -12.2990 1.9979 0.9483
-4.4295 -12.3885 2.0017 0.9482
-4.2571 -12.4786 2.0060 0.9481
-4.0841 -12.5695 2.0108 0.9479
-3.7503 -12.1432 1.9336 0.9499
-3.6355 -12.4118 1.9677 0.9490
-3.5164 -12.6899 2.0034 0.9481
-2.6949 -12.5281 1.9497 0.9495
-2.4920 -12.4687 1.9345 0.9499
-0.2220 -2.7562 0.4207 0.9889
24.1136 -82.3255 13.0515 0.7067
28.0563 -82.2399 13.2203 0.7036
29.3943 -82.2108 13.2832 0.7024
30.7454 -82.1815 13.3497 0.7012
36.2966 -82.0609 13.6517 0.6956
37.7255 -82.0299 13.7368 0.6940
39.1725 -81.9985 13.8259 0.6923
40.6879 -82.0656 13.9360 0.6903
42.2270 -82.1322 14.0506 0.6882
43.6331 -81.9016 14.1187 0.6870
45.1634 -81.8684 14.2253 0.6850
9.8397 -13.7534 2.5729 0.9339
9.9139 -13.0348 2.4916 0.9359
10.3719 -12.0991 2.4246 0.9376
10.4750 -11.8641 2.4079 0.9380
10.5216 -11.5715 2.3795 0.9387
14.8836 -14.1412 3.1235 0.9203
14.8042 -13.2646 3.0242 0.9227
14.9909 -13.0421 3.0231 0.9228
15.1766 -12.8189 3.0225 0.9228
15.0592 -11.9837 2.9281 0.9251
20.7928 -12.4821 3.6897 0.9065
3.3963 -1.9719 0.5975 0.9842
3.4374 -1.8636 0.5949 0.9843
6.8867 -2.7499 1.1282 0.9704
10.7876 -2.7362 1.6932 0.9560
11.0500 -2.6316 1.7282 0.9551
11.1689 -2.4880 1.7409 0.9548
10.9616 -2.2742 1.7033 0.9557
11.2399 -1.9913 1.7367 0.9549
11.6386 -1.8870 1.7938 0.9534
11.6059 -1.7080 1.7848 0.9536
11.4103 -1.5093 1.7511 0.9545
19.5435 -2.0060 2.9890 0.9236
22.0053 -1.9342 3.3609 0.9145
20.7807 8.6521 3.4247 0.9129
20.2423 9.1309 3.3785 0.9141
20.1314 9.4373 3.3827 0.9140
20.6071 10.4052 3.5122 0.9108
15.6267 9.0729 2.7492 0.9295
15.0986 9.0638 2.6793 0.9312
14.9419 9.2694 2.6752 0.9313
14.6290 9.6785 2.6687 0.9315
14.5892 10.2774 2.7151 0.9303
10.9339 8.9649 2.1512 0.9444
-1.3497 9.6607 1.4841 0.9613
-1.7534 9.4924 1.4686 0.9617
-1.8872 9.4425 1.4650 0.9618
-2.0204 9.3929 1.4617 0.9619
-2.1531 9.3437 1.4588 0.9619
-2.2854 9.2948 1.4563 0.9620
-2.4173 9.2463 1.4540 0.9621
-2.6801 9.1499 1.4506 0.9622
-2.8111 9.1021 1.4494 0.9622
-6.9051 10.2732 1.8832 0.9512
-6.6894 9.6449 1.7858 0.9536
-6.5489 9.1538 1.7124 0.9555
-6.7646 8.8940 1.7001 0.9558
-11.7642 10.8548 2.4353 0.9373
-11.9645 9.2387 2.2998 0.9407
-11.6263 8.7094 2.2101 0.9429
-12.5759 9.1369 2.3650 0.9390
-7.8060 4.6860 1.3852 0.9638
-7.8268 4.5443 1.3769 0.9640
-7.8473 4.4041 1.3691 0.9642
-7.8687 4.2661 1.3618 0.9644
-7.9119 3.9950 1.3485 0.9648
-7.9329 3.8612 1.3423 0.9649
-7.9934 3.4660 1.3255 0.9654
-8.0133 3.3364 1.3206 0.9655
-1.5131 0.5286 0.2438 0.9935
-1.4859 0.4471 0.2361 0.9937
-1.4638 0.4172 0.2316 0.9939
-1.4400 0.3653 0.2260 0.9940
-1.4337 0.3415 0.2242 0.9941
-1.4270 0.2961 0.2217 0.9941
-1.4105 0.1448 0.2157 0.9943
-1.4080 0.1238 0.2150 0.9943
-1.4057 0.1029 0.2144 0.9943
-1.4015 0.0615 0.2134 0.9943
-1.3997 0.0409 0.2130 0.9944
-1.3527 0.0000 0.1905 0.9946
-1.3551 -0.0396 0.1909 0.9945
-1.3587 -0.0795 0.1917 0.9945
-1.3651 -0.1401 0.1932 0.9945
-1.3700 -0.1812 0.1946 0.9944
-1.3727 -0.2020 0.1954 0.9944
-1.3765 -0.2439 0.1969 0.9944
-1.3784 -0.2650 0.1977 0.9943
-1.3825 -0.3080 0.1995 0.9943
-1.3847 -0.3297 0.2005 0.9943
-1.3929 -0.3750 0.2031 0.9942
-1.4006 -0.3991 0.2051 0.9941
-1.4205 -0.4273 0.2089 0.9940
-1.4323 -0.4539 0.2116 0.9939
-1.4365 -0.4784 0.2132 0.9939
-1.4457 -0.5288 0.2168 0.9938
-1.4506 -0.5548 0.2187 0.9937
-73.8564 -29.4918 11.1992 0.7252
-70.6669 -29.4225 10.7796 0.7340
-64.9522 -29.2984 10.0343 0.7499
-59.9725 -29.1903 9.3928 0.7638
-57.1439 -28.8538 9.0149 0.7721
-23.9003 -12.5096 3.7989 0.8968
-23.0335 -12.4880 3.6897 0.8996
-20.0728 -11.2654 3.2415 0.9112
-18.7875 -11.2782 3.0858 0.9153
-18.4557 -11.4492 3.0585 0.9160
-18.3584 -11.7638 3.0705 0.9157
-18.3571 -12.1449 3.0997 0.9149
-18.2009 -12.8216 3.1352 0.9140
-17.8750 -12.9869 3.1114 0.9146
-18.4971 -13.8563 3.2546 0.9109
-36.7947 -28.4119 6.5465 0.8288
-13.7615 -11.2832 2.5061 0.9306
-13.6834 -11.5577 2.5223 0.9302
-13.6041 -11.8355 2.5393 0.9298
-13.3046 -12.2761 2.5493 0.9295
-16.9469 -17.5775 3.4384 0.9061
-16.1691 -17.7826 3.3846 0.9075
-15.5714 -17.6362 3.3131 0.9093
-9.3896 -11.6241 2.1043 0.9414
-8.6553 -11.3799 2.0134 0.9439
-8.7262 -13.4013 2.2520 0.9374
-8.6032 -13.6444 2.2715 0.9369
-8.3316 -13.6518 2.2522 0.9374
-16.6769 -29.2129 4.7370 0.8729
-16.2947 -30.5860 4.8803 0.8694
-16.4751 -32.0443 5.0741 0.8645
-16.0057 -32.2828 5.0743 0.8645
-15.0567 -32.7390 5.0746 0.8645
-14.6637 -33.1523 5.1049 0.8638
-14.6060 -35.8159 5.4470 0.8553
-4.3261 -12.6808 1.8868 0.9473
-4.1201 -12.6804 1.8776 0.9476
-3.7680 -12.2005 1.7982 0.9497
-3.6529 -12.4714 1.8300 0.9489
-3.5136 -12.6796 1.8529 0.9482
-3.3014 -12.6281 1.8381 0.9486
-2.8818 -12.5054 1.8072 0.9495
-2.6772 -12.4459 1.7928 0.9499
-2.2776 -12.3304 1.7658 0.9506
-13.8660 -81.7384 11.6751 0.7154
-13.3171 -95.3173 13.5533 0.6779
24.1136 -82.3255 12.0804 0.7071
29.3943 -82.2108 12.2950 0.7028
32.1104 -82.1518 12.4212 0.7003
34.8851 -82.0916 12.5609 0.6975
39.1725 -81.9985 12.7973 0.6928
40.6388 -81.9666 12.8836 0.6910
42.1253 -81.9344 12.9739 0.6892
45.1633 -81.8684 13.1669 0.6854
49.9007 -81.7655 13.4894 0.6791
53.1942 -81.6940 13.7283 0.6745
9.8604 -14.6699 2.4892 0.9311
9.7106 -13.1622 2.3034 0.9361
9.9866 -12.7396 2.2796 0.9367
10.0404 -12.4297 2.2501 0.9375
10.2047 -12.2622 2.2466 0.9376
14.9520 -14.2062 2.9044 0.9201
14.4722 -12.5908 2.7014 0.9254
15.0095 -11.9440 2.7013 0.9254
15.6078 -12.0520 2.7769 0.9234
15.8452 -11.8698 2.7880 0.9231
20.1902 -13.7861 3.4428 0.9060
20.1273 -13.3161 3.3986 0.9071
3.4204 -2.0532 0.5618 0.9840
3.3860 -1.9659 0.5514 0.9843
6.8866 -2.7500 1.0443 0.9705
6.9592 -2.6616 1.0493 0.9704
11.0488 -3.5010 1.6322 0.9543
10.9623 -3.1242 1.6052 0.9550
11.0849 -2.9846 1.6166 0.9547
11.1296 -2.6505 1.6111 0.9548
11.7160 -1.8996 1.6714 0.9532
11.5516 -1.7000 1.6443 0.9539
16.2255 -1.9054 2.3006 0.9361
19.1531 -1.9659 2.7114 0.9252
23.1795 -1.3564 3.2698 0.9105
22.2428 8.5071 3.3536 0.9083
20.6687 8.2533 3.1341 0.9140
20.5585 8.9143 3.1556 0.9135
20.4508 9.2249 3.1594 0.9134
20.2181 9.8407 3.1665 0.9132
20.3174 10.2589 3.2052 0.9122
20.2036 10.5747 3.2113 0.9120
16.4236 8.9044 2.6309 0.9273
15.7903 9.1679 2.5713 0.9289
15.5077 9.3094 2.5471 0.9295
15.1987 9.4288 2.5187 0.9303
14.5280 10.2343 2.5026 0.9307
14.7492 10.7159 2.5673 0.9290
-1.3420 9.6052 1.3658 0.9616
-1.6100 9.4906 1.3556 0.9619
-2.0096 9.3424 1.3457 0.9621
-2.2732 9.2450 1.3407 0.9623
-2.4044 9.1967 1.3386 0.9623
-6.8763 9.3205 1.6311 0.9543
-7.0783 9.3065 1.6466 0.9539
-11.8343 10.9194 2.2676 0.9370
-11.4900 9.9962 2.1447 0.9403
-7.6261 5.8886 1.3568 0.9618
-7.6722 5.5742 1.3355 0.9624
-7.7170 5.2693 1.3159 0.9630
-7.7389 5.1200 1.3067 0.9632
-7.7819 4.8276 1.2896 0.9637
-7.8417 4.4010 1.2663 0.9643
-7.8621 4.2626 1.2594 0.9645
-7.8838 4.1264 1.2531 0.9647
-7.9053 3.9916 1.2471 0.9649
-7.9264 3.8580 1.2414 0.9650
-1.4506 0.5548 0.2187 0.9937
-1.4323 0.4539 0.2116 0.9939
-1.4205 0.4273 0.2089 0.9940
-1.4006 0.3992 0.2051 0.9941
-1.3929 0.3750 0.2031 0.9942
-1.3804 0.2864 0.1985 0.9943
-1.3748 0.2229 0.1961 0.9944
-1.3727 0.2020 0.1954 0.9944
-1.3675 0.1606 0.1939 0.9945
-1.3607 0.0996 0.1921 0.9945
-1.3568 0.0596 0.1913 0.9945
-1.3551 0.0396 0.1909 0.9945
-1.3535 0.0198 0.1906 0.9945
-1.3108 -0.0191 0.1698 0.9947
-1.3125 -0.0383 0.1701 0.9947
-1.3143 -0.0576 0.1704 0.9947
-1.3182 -0.0964 0.1712 0.9947
-1.3226 -0.1357 0.1722 0.9947
-1.3248 -0.1556 0.1728 0.9946
-1.3271 -0.1755 0.1734 0.9946
-1.3320 -0.2159 0.1748 0.9946
-1.3335 -0.2362 0.1754 0.9946
-1.3350 -0.2567 0.1761 0.9945
-1.3386 -0.2982 0.1777 0.9945
-1.3406 -0.3193 0.1785 0.9945
-1.3449 -0.3621 0.1804 0.9944
-1.3608 -0.4094 0.1841 0.9943
-1.3881 -0.5543 0.1936 0.9940
-29.7691 -12.3945 4.1772 0.8780
-64.7820 -29.2216 9.2060 0.7508
-61.7649 -28.9542 8.8365 0.7595
-18.9278 -11.3625 2.8598 0.9148
-18.3878 -11.7826 2.8290 0.9157
-18.4813 -12.6191 2.8989 0.9137
-18.6751 -13.5682 2.9902 0.9111
-37.9615 -28.4373 6.1442 0.8259
-35.6732 -28.3876 5.9057 0.8320
-13.8252 -11.3355 2.3159 0.9304
-13.6679 -11.8911 2.3468 0.9295
-13.3624 -12.3294 2.3552 0.9293
-10.8477 -10.3066 1.9383 0.9414
-10.3801 -10.4562 1.9086 0.9423
-15.2587 -18.3352 3.0900 0.9083
-15.3297 -18.9778 3.1602 0.9063
-9.3415 -11.9166 1.9614 0.9408
-8.7672 -12.6405 1.9928 0.9398
-8.6757 -13.3238 2.0596 0.9379
-8.5630 -13.5807 2.0797 0.9373
-17.9083 -34.8318 5.0735 0.8539
-17.3981 -35.0911 5.0737 0.8539
-16.3667 -35.5873 5.0741 0.8539
-15.8455 -35.8241 5.0743 0.8539
-14.5740 -37.2864 5.1859 0.8509
-4.7610 -12.7258 1.7601 0.9467
-4.5300 -12.6697 1.7430 0.9472
-4.1165 -12.6691 1.7256 0.9477
-3.4932 -12.6061 1.6945 0.9486
-3.2795 -12.5440 1.6796 0.9490
-3.0694 -12.4832 1.6652 0.9495
-2.8629 -12.4235 1.6515 0.9499
-2.6598 -12.3651 1.6384 0.9503
-13.8660 -81.7384 10.7396 0.7158
26.7985 -82.4772 11.2339 0.7048
29.4299 -82.3101 11.3234 0.7029
33.4900 -82.1219 11.4886 0.6993
36.2966 -82.0609 11.6235 0.6963
37.7255 -82.0299 11.6960 0.6948
40.6388 -81.9666 11.8513 0.6914
45.1634 -81.8684 12.1119 0.6858
49.9007 -81.7655 12.4085 0.6795
7.1585 -10.9938 1.6994 0.9485
7.1589 -10.6507 1.6624 0.9496
7.1515 -10.3111 1.6255 0.9506
9.5070 -13.2884 2.1165 0.9362
9.8424 -13.3409 2.1476 0.9353
10.1940 -13.0042 2.1404 0.9355
10.6051 -13.1289 2.1862 0.9342
10.5053 -12.6234 2.1274 0.9359
10.5889 -12.3522 2.1076 0.9365
10.6711 -12.0861 2.0885 0.9370
14.6207 -12.7200 2.5104 0.9248
14.8147 -12.5132 2.5120 0.9248
16.3274 -12.2310 2.6427 0.9210
19.6881 -13.4432 3.0882 0.9083
20.3851 -12.6461 3.1075 0.9078
3.3902 -1.9684 0.5078 0.9843
3.4013 -1.9089 0.5052 0.9844
3.4335 -1.8615 0.5059 0.9844
3.4909 -1.8271 0.5104 0.9842
88.0688 -44.4689 12.7802 0.6717
87.0432 -42.3664 12.5402 0.6767
25.4874 -11.9480 3.6464 0.8927
86.9422 -37.6987 12.2756 0.6823
6.8865 -2.7498 0.9606 0.9705
11.0951 -3.5156 1.5077 0.9541
10.7430 -2.3931 1.4258 0.9566
11.1922 -2.3221 1.4807 0.9549
11.0192 -2.1187 1.4536 0.9557
11.3218 -1.6662 1.4824 0.9549
11.8393 -1.5661 1.5470 0.9530
18.9298 -2.2229 2.4690 0.9260
22.0708 -1.9400 2.8701 0.9145
22.2398 -1.6278 2.8886 0.9140
26.0499 9.5293 3.5932 0.8942
20.6259 8.5877 2.8942 0.9138
20.8295 9.0318 2.9410 0.9125
20.6629 9.3206 2.9364 0.9126
16.6802 9.0434 2.4579 0.9263
15.9457 8.9491 2.3687 0.9289
15.4308 9.8879 2.3741 0.9287
15.0177 9.9356 2.3326 0.9299
-1.4344 9.2761 1.2159 0.9628
-1.6014 9.4400 1.2403 0.9621
-1.7345 9.3905 1.2370 0.9622
-1.8670 9.3414 1.2340 0.9623
-1.9989 9.2925 1.2313 0.9624
-2.1302 9.2441 1.2288 0.9625
-3.0943 9.0699 1.2414 0.9621
-6.8903 9.3394 1.5034 0.9543
-11.9049 10.9847 2.0983 0.9368
-11.8602 10.6268 2.0629 0.9378
-11.5264 10.0280 1.9791 0.9402
-7.6230 5.8863 1.2476 0.9619
-7.6692 5.5720 1.2280 0.9625
-7.7984 4.6814 1.1782 0.9640
-7.8173 4.5388 1.1710 0.9642
-7.8555 4.2590 1.1575 0.9646
-7.8987 3.9883 1.1462 0.9649
-7.9393 3.7218 1.1358 0.9653
-7.9571 3.5893 1.1308 0.9654
-1.3881 0.5543 0.1936 0.9940
-1.3838 0.5293 0.1919 0.9940
-1.3684 0.4336 0.1859 0.9942
-1.3486 0.3844 0.1817 0.9944
-1.3449 0.3621 0.1804 0.9944
-1.3427 0.3406 0.1794 0.9944
-1.3351 0.2567 0.1761 0.9945
-1.3334 0.2362 0.1754 0.9946
-1.3295 0.1957 0.1741 0.9946
-1.3204 0.1161 0.1717 0.9947
-1.3182 0.0965 0.1712 0.9947
-1.3125 0.0384 0.1701 0.9947
-1.3108 0.0192 0.1698 0.9947
-1.2611 0.0000 0.1492 0.9949
-1.2685 -0.0371 0.1501 0.9949
-1.2730 -0.0745 0.1508 0.9949
-1.2749 -0.0933 0.1512 0.9949
-1.2768 -0.1122 0.1516 0.9949
-1.2789 -0.1312 0.1521 0.9948
-1.2833 -0.1697 0.1531 0.9948
-1.2857 -0.1892 0.1537 0.9948
-1.2918 -0.2483 0.1556 0.9947
-1.2936 -0.2684 0.1563 0.9947
-1.2976 -0.3090 0.1578 0.9946
-1.2999 -0.3297 0.1586 0.9946
-1.3072 -0.3932 0.1615 0.9945
-1.3100 -0.4151 0.1625 0.9945
-1.3161 -0.4597 0.1649 0.9944
-1.3229 -0.5059 0.1675 0.9943
-1.3305 -0.5539 0.1705 0.9942
-1.3346 -0.5787 0.1721 0.9942
-61.7649 -28.9541 8.0690 0.7598
-24.7236 -12.0337 3.2525 0.8952
-24.1822 -12.2104 3.2044 0.8966
-23.4008 -12.2481 3.1243 0.8991
-23.3926 -12.6827 3.1476 0.8984
-19.8411 -11.5197 2.7139 0.9117
-18.7306 -11.6198 2.6073 0.9150
-18.0545 -11.5690 2.5364 0.9173
-18.2569 -12.0786 2.5894 0.9156
-18.0907 -12.7439 2.6176 0.9147
-37.9615 -28.4372 5.6106 0.8261
-36.7947 -28.4119 5.4989 0.8292
-13.7322 -11.9470 2.1530 0.9293
-13.4215 -12.3840 2.1602 0.9291
-10.1009 -10.4768 1.7214 0.9431
-9.9655 -10.6433 1.7247 0.9430
-10.1241 -11.1343 1.7801 0.9412
-15.3342 -18.9834 2.8866 0.9064
-26.4440 -33.7337 5.0702 0.8414
-9.0229 -11.8633 1.7630 0.9417
-8.9691 -12.1570 1.7870 0.9410
-8.9136 -12.4589 1.8121 0.9402
-8.8451 -12.7529 1.8358 0.9394
-8.6260 -13.2475 1.8699 0.9383
-17.2551 -29.2254 4.0146 0.8722
-16.3163 -29.5768 3.9956 0.8728
-16.2944 -30.5854 4.0993 0.8697
-19.0507 -38.4242 5.0731 0.8414
-18.4880 -38.7000 5.0733 0.8413
-17.9213 -38.9678 5.0735 0.8413
-17.3508 -39.2271 5.0737 0.8413
-16.7765 -39.4783 5.0740 0.8413
-15.6172 -39.9552 5.0744 0.8413
-14.5029 -40.5618 5.0954 0.8407
-3.8037 -12.3161 1.5247 0.9494
-3.6860 -12.5843 1.5511 0.9486
-3.2578 -12.4612 1.5235 0.9494
-2.8443 -12.3429 1.4983 0.9503
-13.8660 -81.7384 9.8068 0.7161
22.5332 -86.1909 10.5380 0.6985
26.7952 -82.4673 10.2568 0.7052
29.4653 -82.4093 10.3524 0.7029
30.7454 -82.1815 10.3791 0.7023
32.1103 -82.1519 10.4335 0.7010
34.9946 -82.3493 10.5840 0.6974
36.2967 -82.0610 10.6139 0.6967
37.7254 -82.0299 10.6801 0.6951
40.7663 -82.2240 10.8558 0.6910
45.1634 -81.8684 11.0598 0.6862
48.4475 -82.0571 11.2718 0.6813
51.5330 -81.7301 11.4290 0.6776
7.1589 -10.6508 1.5180 0.9496
10.3822 -13.2442 1.9906 0.9345
10.7367 -13.2919 2.0211 0.9335
10.4439 -12.5496 1.9313 0.9364
10.5275 -12.2807 1.9133 0.9369
10.7535 -12.1795 1.9219 0.9367
10.8565 -11.9399 1.9089 0.9371
15.0676 -13.9029 2.4251 0.9207
14.8029 -13.2634 2.3511 0.9231
14.8172 -12.8909 2.3232 0.9239
14.8939 -12.5801 2.3061 0.9245
15.0891 -12.3718 2.3081 0.9244
15.2227 -12.1137 2.3012 0.9246
15.1629 -11.7084 2.2661 0.9257
16.2673 -12.1860 2.4042 0.9214
19.5144 -13.3246 2.7951 0.9092
20.0375 -12.4305 2.7892 0.9094
3.4298 -2.0589 0.4732 0.9840
3.3979 -1.9728 0.4648 0.9843
3.4413 -1.8658 0.4630 0.9844
24.5221 -12.3820 3.2495 0.8953
25.3407 -12.3340 3.3337 0.8927
25.1072 -11.7697 3.2800 0.8943
25.5164 -11.5099 3.3111 0.8934
30.4187 -13.1898 3.9219 0.8750
6.8864 -2.7498 0.8771 0.9706
10.8582 -2.9236 1.3301 0.9557
11.0184 -2.7947 1.3446 0.9552
10.8299 -2.5791 1.3169 0.9561
11.1659 -2.3166 1.3489 0.9551
11.3805 -2.0162 1.3671 0.9545
11.4450 -1.6844 1.3684 0.9545
22.3384 -1.6350 2.6494 0.9137
27.9536 8.4100 3.4530 0.8891
27.6987 8.7767 3.4369 0.8896
26.3249 9.6299 3.3157 0.8932
22.4305 8.5789 2.8407 0.9078
20.5420 8.2027 2.6164 0.9148
20.8081 8.6636 2.6662 0.9132
20.7513 8.9979 2.6754 0.9129
16.8616 9.1418 2.2688 0.9257
16.7377 9.7179 2.2894 0.9250
15.7988 9.4842 2.1797 0.9285
15.3187 9.8160 2.1521 0.9293
14.9105 9.8646 2.1148 0.9305
14.7483 10.0703 2.1124 0.9306
14.4077 10.1496 2.0847 0.9315
9.2313 9.8592 1.5976 0.9471
9.0759 9.9817 1.5958 0.9471
-1.4501 9.3770 1.1224 0.9625
-1.5929 9.3898 1.1266 0.9624
-3.0941 9.0694 1.1335 0.9621
-6.9313 9.9936 1.4386 0.9522
-6.9042 9.3583 1.3756 0.9542
-11.5629 10.0598 1.8129 0.9401
-11.9282 9.7802 1.8246 0.9398
-11.8992 9.4690 1.7988 0.9406
-7.6887 5.4163 1.1125 0.9628
-7.7109 5.2651 1.1045 0.9631
-7.7329 5.1161 1.0968 0.9633
-7.7541 4.9687 1.0894 0.9636
-7.7735 4.8225 1.0821 0.9638
-7.8306 4.3947 1.0622 0.9645
-7.8707 4.1196 1.0508 0.9649
-7.8922 3.9850 1.0458 0.9650
-7.9133 3.8516 1.0410 0.9652
-7.9318 3.7182 1.0362 0.9653
-7.9495 3.5859 1.0316 0.9655
-1.3346 0.5787 0.1721 0.9942
-1.3305 0.5539 0.1705 0.9942
-1.3266 0.5297 0.1690 0.9943
-1.3229 0.5060 0.1675 0.9943
-1.3194 0.4827 0.1662 0.9944
-1.3161 0.4598 0.1649 0.9944
-1.3100 0.4151 0.1625 0.9945
-1.3072 0.3933 0.1615 0.9945
-1.3022 0.3507 0.1595 0.9946
-1.2936 0.2684 0.1563 0.9947
-1.2917 0.2484 0.1556 0.9947
-1.2900 0.2286 0.1550 0.9947
-1.2857 0.1893 0.1537 0.9948
-1.2811 0.1505 0.1526 0.9948
-1.2768 0.1122 0.1516 0.9949
-1.2730 0.0745 0.1508 0.9949
-1.2713 0.0557 0.1505 0.9949
-1.2648 0.0185 0.1496 0.9949
-1.2177 0.0000 0.1304 0.9951
-1.2211 -0.0179 0.1307 0.9951
-1.2245 -0.0358 0.1312 0.9951
-1.2281 -0.0539 0.1316 0.9951
-1.2380 -0.1270 0.1332 0.9950
-1.2400 -0.1456 0.1337 0.9950
-1.2421 -0.1643 0.1341 0.9950
-1.2497 -0.2403 0.1362 0.9949
-1.2513 -0.2596 0.1368 0.9949
-1.2530 -0.2791 0.1374 0.9948
-1.2567 -0.3187 0.1388 0.9948
-1.2609 -0.3593 0.1404 0.9947
-1.2631 -0.3800 0.1412 0.9947
-1.2692 -0.4226 0.1432 0.9946
-1.2760 -0.4880 0.1463 0.9945
-28.7063 -13.4570 3.3944 0.8803
-25.2558 -12.2927 3.0073 0.8932
-23.6855 -12.3971 2.8623 0.8980
-23.5686 -12.7781 2.8704 0.8978
-19.6333 -11.7860 2.4517 0.9120
-19.5013 -12.0979 2.4570 0.9118
-19.0840 -12.2287 2.4267 0.9129
-37.4503 -28.9181 5.0659 0.8267
-37.0250 -29.4632 5.0660 0.8267
-36.5918 -30.0021 5.0662 0.8267
-14.1866 -11.9827 1.9882 0.9280
-13.7968 -12.0032 1.9580 0.9291
-13.7131 -12.2870 1.9713 0.9286
-10.3857 -10.4619 1.5783 0.9424
-10.0815 -10.7671 1.5792 0.9424
-10.1775 -11.1931 1.6197 0.9410
-15.5871 -17.6541 2.5214 0.9096
-15.2671 -18.3453 2.5553 0.9085
-8.9659 -12.1528 1.6169 0.9411
-8.9071 -12.4498 1.6390 0.9403
-8.7958 -12.6818 1.6524 0.9398
-8.6873 -12.9246 1.6673 0.9393
-8.4646 -13.4246 1.6992 0.9382
-17.2551 -29.2254 3.6337 0.8724
-16.3162 -29.5765 3.6165 0.8729
-21.0442 -42.4451 5.0723 0.8265
-20.4228 -42.7501 5.0725 0.8265
-19.1668 -43.3328 5.0730 0.8265
-18.5324 -43.6104 5.0733 0.8264
-17.8941 -43.8786 5.0735 0.8264
-17.2520 -44.1377 5.0738 0.8264
-15.9565 -44.6273 5.0743 0.8264
-3.2365 -12.3798 1.3700 0.9498
-14.1357 -57.4898 6.3385 0.7881
-13.9738 -64.9628 7.1144 0.7654
-13.8769 -69.4321 7.5808 0.7521
-13.4909 -87.2393 9.4513 0.7011
-0.2220 -2.7563 0.2961 0.9889
25.3795 -82.1768 9.2083 0.7075
32.1104 -82.1519 9.4436 0.7013
33.5709 -82.3202 9.5184 0.6993
34.9693 -82.2898 9.5729 0.6979
42.2270 -82.1322 9.8877 0.6897
43.6331 -81.9016 9.9356 0.6884
45.1634 -81.8684 10.0106 0.6865
46.8300 -82.0323 10.1132 0.6839
48.4126 -81.9979 10.1951 0.6818
7.1644 -11.0028 1.4057 0.9486
10.0483 -14.0450 1.8490 0.9329
10.0088 -13.1596 1.7701 0.9357
10.8713 -13.4585 1.8523 0.9328
10.3833 -12.4768 1.7379 0.9368
14.8699 -14.1282 2.1961 0.9208
14.9869 -13.4283 2.1545 0.9222
15.0458 -12.3363 2.0831 0.9247
15.6478 -12.0829 2.1167 0.9235
19.6868 -13.8683 2.5783 0.9077
19.5365 -13.3398 2.5328 0.9092
20.2117 -12.9514 2.5701 0.9079
20.2172 -12.5420 2.5473 0.9087
3.4168 -1.9175 0.4195 0.9844
3.4492 -1.8700 0.4201 0.9843
24.9633 -12.1504 2.9725 0.8943
25.5694 -11.0870 2.9839 0.8939
6.8863 -2.7498 0.7939 0.9706
35.8336 -13.1083 4.0852 0.8577
11.3525 -3.5971 1.2750 0.9532
10.5778 -3.1824 1.1827 0.9565
11.0510 -2.8030 1.2206 0.9552
10.9208 -2.6008 1.2019 0.9558
11.2522 -2.1636 1.2268 0.9550
11.4279 -2.0246 1.2426 0.9544
11.4037 -1.8489 1.2369 0.9546
11.8119 -1.7384 1.2783 0.9531
15.5750 -2.0601 1.6821 0.9388
15.9978 -1.8786 1.7246 0.9373
19.2153 -1.9723 2.0681 0.9252
27.7914 8.8061 3.1213 0.8893
26.8492 9.8217 3.0609 0.8914
22.5251 8.6152 2.5820 0.9075
20.6739 8.9644 2.4126 0.9133
20.4843 9.6026 2.4222 0.9130
15.7906 9.4792 1.9719 0.9286
15.9521 9.8961 2.0099 0.9273
15.2085 9.7454 1.9339 0.9299
15.0345 9.9468 1.9301 0.9300
9.2212 9.8484 1.4445 0.9472
-3.0939 9.0689 1.0259 0.9622
-6.9182 9.3772 1.2476 0.9542
-7.7071 6.7052 1.0937 0.9597
-7.7513 6.3554 1.0732 0.9605
-7.7801 6.1911 1.0645 0.9608
-7.6402 5.7233 1.0221 0.9623
-7.6631 5.5676 1.0141 0.9626
-7.7079 5.2630 0.9993 0.9631
-7.7287 5.1132 0.9922 0.9634
-7.7485 4.9651 0.9853 0.9637
-7.7680 4.8190 0.9787 0.9639
-7.7872 4.6747 0.9724 0.9641
-7.8441 4.2529 0.9553 0.9647
-7.8643 4.1162 0.9503 0.9649
-1.2812 0.5334 0.1486 0.9944
-1.2737 0.4659 0.1452 0.9946
-1.2714 0.4442 0.1442 0.9946
-1.2692 0.4227 0.1432 0.9946
-1.2659 0.4011 0.1422 0.9947
-1.2567 0.3187 0.1388 0.9948
-1.2530 0.2791 0.1374 0.9948
-1.2513 0.2596 0.1368 0.9949
-1.2497 0.2403 0.1362 0.9949
-1.2465 0.2021 0.1352 0.9949
-1.2245 0.0358 0.1312 0.9951
-1.2210 0.0179 0.1307 0.9951
-1.1804 -0.0172 0.1132 0.9953
-1.1836 -0.0346 0.1135 0.9953
-1.1903 -0.0696 0.1143 0.9952
-1.1974 -0.1053 0.1152 0.9952
-1.1998 -0.1231 0.1156 0.9952
-1.2054 -0.1774 0.1168 0.9951
-1.2092 -0.2142 0.1177 0.9951
-1.2104 -0.2327 0.1182 0.9951
-1.2132 -0.2702 0.1192 0.9950
-1.2147 -0.2893 0.1197 0.9950
-1.2164 -0.3086 0.1203 0.9950
-1.2241 -0.3879 0.1231 0.9949
-1.2270 -0.4086 0.1240 0.9948
-1.2331 -0.4511 0.1259 0.9947
-1.2372 -0.4940 0.1277 0.9947
-1.2394 -0.5161 0.1287 0.9946
-24.9322 -12.1352 2.6583 0.8946
-23.0168 -12.9176 2.5304 0.8994
-24.0567 -13.9673 2.6669 0.8942
-19.6907 -12.2154 2.2215 0.9111
-18.7883 -12.0393 2.1393 0.9142
-18.2970 -12.1052 2.1033 0.9156
-19.2858 -13.1685 2.2388 0.9104
-42.2576 -29.7683 4.9555 0.8124
-40.9331 -29.7396 4.8506 0.8160
-39.6632 -29.7120 4.7511 0.8194
-37.2997 -30.5825 4.6242 0.8238
-14.2494 -12.0357 1.7882 0.9278
-10.6486 -9.8254 1.3891 0.9434
-10.3643 -10.1395 1.3900 0.9434
-10.2531 -10.3283 1.3952 0.9432
-10.1819 -10.5607 1.4064 0.9428
-9.9205 -10.5952 1.3915 0.9433
-9.9688 -10.9636 1.4206 0.9422
-10.0697 -11.4050 1.4586 0.9407
-15.7902 -18.4196 2.3259 0.9071
-33.2150 -41.1193 5.0675 0.8086
-32.0022 -42.0762 5.0680 0.8086
-8.9699 -12.1582 1.4485 0.9411
-8.5286 -13.0979 1.4984 0.9391
-16.3160 -29.5763 3.2383 0.8731
-16.2942 -30.5848 3.3223 0.8700
-24.1860 -47.0420 5.0711 0.8085
-22.6908 -47.4977 5.0465 0.8094
-21.0602 -47.6136 4.9913 0.8112
-20.2259 -47.5955 4.9579 0.8124
-17.8794 -45.7429 4.7084 0.8209
-17.1069 -45.7261 4.6805 0.8219
-16.3434 -45.7095 4.6539 0.8228
-4.0797 -12.5559 1.2657 0.9483
-3.8399 -12.4333 1.2475 0.9491
-14.1355 -57.4888 5.6756 0.7883
-14.0591 -61.0098 6.0023 0.7776
-13.8766 -69.4307 6.7879 0.7524
-13.6388 -80.3990 7.8179 0.7206
22.8207 -82.3536 8.1927 0.7094
24.1136 -82.3256 8.2241 0.7084
28.0563 -82.2399 8.3305 0.7053
29.3944 -82.2109 8.3702 0.7041
30.7454 -82.1815 8.4120 0.7029
32.1103 -82.1519 8.4561 0.7016
42.1253 -81.9344 8.8324 0.6906
45.1634 -81.8684 8.9638 0.6868
48.2959 -81.8004 9.1070 0.6827
49.9007 -81.7655 9.1833 0.6805
9.9064 -14.2832 1.6664 0.9325
10.6414 -13.5748 1.6536 0.9330
15.0630 -14.3117 1.9920 0.9199
15.4343 -12.6548 1.9135 0.9229
15.6120 -12.0552 1.8910 0.9238
19.8920 -14.0129 2.3327 0.9069
19.7775 -13.0847 2.2735 0.9091
20.2749 -12.9919 2.3086 0.9078
3.4142 -1.9823 0.3785 0.9843
3.3839 -1.8992 0.3720 0.9845
3.5667 -1.8009 0.3831 0.9841
25.8066 -12.5608 2.7516 0.8911
25.4369 -11.4739 2.6752 0.8939
25.5225 -11.0668 2.6670 0.8942
6.8862 -2.7497 0.7109 0.9706
36.1416 -13.2209 3.6894 0.8567
10.6082 -3.1915 1.0620 0.9565
11.0130 -2.6227 1.0853 0.9555
11.0773 -2.4676 1.0880 0.9554
11.3016 -2.1730 1.1033 0.9548
11.4325 -1.8536 1.1103 0.9545
11.7704 -1.7323 1.1406 0.9533
15.7446 -2.0825 1.5226 0.9382
15.9628 -1.8745 1.5409 0.9375
19.4033 -1.7055 1.8674 0.9247
22.5212 -1.6483 2.1649 0.9133
20.6797 8.6101 2.1475 0.9139
20.9546 9.4521 2.2038 0.9118
20.2514 9.4935 2.1442 0.9140
20.6611 10.4325 2.2190 0.9112
17.2351 9.3443 1.8795 0.9242
16.6658 9.6762 1.8475 0.9255
17.5321 10.5246 1.9604 0.9211
-3.0937 9.0685 0.9186 0.9622
-7.6169 7.6727 1.0365 0.9575
-7.6241 7.4589 1.0225 0.9580
-7.6312 7.2506 1.0092 0.9586
-7.6495 7.0582 0.9978 0.9590
-7.6930 6.6929 0.9776 0.9599
-7.7397 6.3459 0.9595 0.9606
-7.7231 5.1095 0.8878 0.9635
-7.7429 4.9615 0.8816 0.9637
-7.7817 4.6714 0.8701 0.9642
-7.8196 4.3886 0.8596 0.9646
-7.8386 4.2498 0.8548 0.9648
-7.8793 3.9785 0.8462 0.9652
-7.8984 3.8444 0.8421 0.9653
-7.9169 3.7113 0.8382 0.9655
-1.2372 0.4940 0.1277 0.9947
-1.2351 0.4724 0.1268 0.9947
-1.2331 0.4511 0.1259 0.9947
-1.2300 0.4297 0.1249 0.9948
-1.2270 0.4086 0.1240 0.9948
-1.2219 0.3676 0.1223 0.9949
-1.2181 0.3280 0.1209 0.9949
-1.2164 0.3086 0.1203 0.9950
-1.2148 0.2893 0.1197 0.9950
-1.2132 0.2703 0.1192 0.9950
-1.2075 0.1957 0.1173 0.9951
-1.2054 0.1774 0.1168 0.9951
-1.2035 0.1592 0.1164 0.9951
-1.2016 0.1411 0.1160 0.9952
-1.1998 0.1232 0.1156 0.9952
-1.1974 0.1053 0.1152 0.9952
-1.1938 0.0874 0.1148 0.9952
-1.1869 0.0521 0.1139 0.9952
-1.1836 0.0346 0.1135 0.9953
-1.1803 0.0173 0.1132 0.9953
-1.1395 0.0000 0.0965 0.9954
-1.1516 -0.0674 0.0977 0.9954
-1.1548 -0.0845 0.0981 0.9954
-1.1582 -0.1018 0.0985 0.9953
-1.1616 -0.1192 0.0989 0.9953
-1.1736 -0.2256 0.1012 0.9952
-1.1748 -0.2437 0.1016 0.9952
-1.1787 -0.2990 0.1030 0.9951
-1.1818 -0.3368 0.1041 0.9951
-1.1852 -0.3755 0.1053 0.9950
-1.1876 -0.3955 0.1060 0.9950
-1.1902 -0.4158 0.1068 0.9950
-1.1929 -0.4364 0.1076 0.9949
-1.1986 -0.4786 0.1093 0.9948
-1.2024 -0.5214 0.1110 0.9948
-1.2044 -0.5432 0.1119 0.9947
-1.2298 -0.5764 0.1150 0.9946
-23.8196 -11.5937 2.2437 0.8991
-23.8778 -12.0566 2.2656 0.8982
-23.6541 -12.8245 2.2790 0.8976
-23.0865 -12.9568 2.2423 0.8992
-51.6219 -29.9717 5.0558 0.7869
-21.1275 -12.6830 2.0871 0.9058
-20.3196 -12.6055 2.0253 0.9085
-19.7487 -12.6546 1.9866 0.9101
-42.2576 -29.7684 4.3780 0.8126
-39.6632 -29.7120 4.1974 0.8196
-38.4441 -29.6855 4.1139 0.8229
-37.3187 -29.6970 4.0395 0.8258
-37.2995 -30.5824 4.0853 0.8240
-11.0039 -9.5734 1.2354 0.9431
-10.4299 -9.9097 1.2185 0.9439
-10.3316 -10.1076 1.2242 0.9436
-10.1657 -10.2402 1.2221 0.9437
-10.0862 -11.0927 1.2698 0.9416
-38.2573 -45.9709 5.0656 0.7866
-37.5835 -46.5274 5.0658 0.7865
-9.1528 -12.4061 1.3058 0.9400
-8.5909 -12.7812 1.3044 0.9401
-17.8438 -29.2382 2.9012 0.8715
-16.6769 -29.2129 2.8491 0.8737
-16.2940 -30.5846 2.9351 0.8701
-24.5185 -47.6887 4.5417 0.8063
-21.9060 -47.6320 4.4405 0.8102
-21.0602 -47.6136 4.4096 0.8114
-19.4026 -47.5776 4.3519 0.8136
-17.8794 -45.7429 4.1598 0.8211
-17.1069 -45.7261 4.1351 0.8220
-15.9438 -46.7351 4.1824 0.8202
-3.8287 -12.3971 1.0989 0.9492
-15.7884 -53.9026 4.7572 0.7981
-15.1543 -57.9659 5.0746 0.7862
-13.8763 -69.4293 5.9968 0.7526
-13.7658 -74.5265 6.4190 0.7377
-13.6385 -80.3972 6.9067 0.7208
22.8207 -82.3536 7.2380 0.7096
25.4167 -82.2972 7.2952 0.7077
26.7307 -82.2687 7.3266 0.7066
28.0563 -82.2399 7.3597 0.7055
29.3943 -82.2109 7.3948 0.7043
33.4900 -82.1219 7.5117 0.7005
34.8851 -82.0916 7.5547 0.6990
36.2967 -82.0610 7.5999 0.6975
37.7255 -82.0300 7.6473 0.6960
39.1725 -81.9985 7.6969 0.6943
40.6388 -81.9667 7.7488 0.6926
43.6332 -81.9016 7.8599 0.6890
46.7172 -81.8347 7.9811 0.6850
49.9008 -81.7655 8.1132 0.6808
7.1591 -10.6511 1.0870 0.9498
15.8248 -13.3663 1.7545 0.9202
15.5524 -12.0092 1.6643 0.9242
20.3557 -13.8990 2.0877 0.9058
19.7848 -13.0895 2.0093 0.9092
20.7927 -12.8990 2.0724 0.9064
20.6688 -12.4077 2.0418 0.9078
3.3869 -1.7727 0.3238 0.9848
3.4579 -1.7461 0.3281 0.9846
25.5443 -11.9746 2.3895 0.8929
29.9515 -12.4704 2.7479 0.8779
35.3436 -12.9291 3.1875 0.8598
35.7193 -11.8951 3.1887 0.8597
41.0242 -12.9990 3.6449 0.8413
11.3828 -3.4246 1.0068 0.9534
10.7946 -3.0764 0.9507 0.9559
11.1928 -2.4933 0.9712 0.9550
11.3136 -2.3473 0.9786 0.9547
11.3514 -2.1826 0.9791 0.9547
11.4868 -2.0351 0.9881 0.9542
11.4613 -1.8583 0.9834 0.9545
15.9280 -1.8704 1.3583 0.9376
18.8460 -1.9343 1.6046 0.9268
21.8537 -1.9209 1.8581 0.9157
22.2616 -1.6293 1.8906 0.9143
34.8116 9.3732 3.0535 0.8653
35.1907 10.0290 3.0993 0.8634
27.9782 8.8652 2.4858 0.8889
26.5001 9.2573 2.3775 0.8934
26.8145 9.8090 2.4183 0.8917
20.9255 9.4390 1.9443 0.9120
20.4804 9.6009 1.9158 0.9132
20.7347 10.0921 1.9532 0.9116
21.4590 10.8354 2.0361 0.9080
17.2871 10.0369 1.6931 0.9229
17.0508 10.5777 1.6995 0.9226
3.3804 7.9549 0.7321 0.9659
3.3052 8.1048 0.7413 0.9655
-6.9461 9.4150 0.9910 0.9541
-7.2503 7.3035 0.8716 0.9595
-7.6074 7.4425 0.9014 0.9582
-7.6355 7.0453 0.8799 0.9592
-7.6574 6.8610 0.8708 0.9596
-7.6789 6.6807 0.8621 0.9600
-7.7057 6.5086 0.8543 0.9603
-7.6564 5.5627 0.8016 0.9627
-7.6771 5.4081 0.7954 0.9630
-7.6974 5.2559 0.7894 0.9633
-7.7373 4.9580 0.7783 0.9638
-7.8141 4.3855 0.7589 0.9647
-1.2297 0.5765 0.1150 0.9946
-1.2024 0.5214 0.1110 0.9948
-1.1986 0.4786 0.1093 0.9948
-1.1902 0.4158 0.1068 0.9950
-1.1852 0.3755 0.1053 0.9950
-1.1834 0.3561 0.1047 0.9951
-1.1773 0.2804 0.1025 0.9952
-1.1760 0.2620 0.1020 0.9952
-1.1690 0.1720 0.1001 0.9953
-1.1581 0.1018 0.0985 0.9953
-1.1516 0.0674 0.0977 0.9954
-1.1454 0.0335 0.0971 0.9954
-1.1125 -0.0488 0.0819 0.9955
-1.1215 -0.0986 0.0828 0.9955
-1.1247 -0.1154 0.0831 0.9955
-1.1312 -0.1496 0.0839 0.9954
-1.1365 -0.1843 0.0847 0.9954
-1.1381 -0.2016 0.0850 0.9954
-1.1423 -0.2720 0.0864 0.9953
-1.1434 -0.2900 0.0868 0.9953
-1.1488 -0.3640 0.0886 0.9952
-1.1507 -0.3832 0.0892 0.9951
-1.1530 -0.4028 0.0898 0.9951
-1.1554 -0.4227 0.0905 0.9951
-1.1603 -0.4633 0.0919 0.9950
-1.1690 -0.5480 0.0950 0.9948
-1.2434 -0.6052 0.1017 0.9945
-1.4717 -0.7431 0.1213 0.9934
-1.4753 -0.7998 0.1234 0.9933
-23.1518 -12.9934 1.9526 0.8990
-51.6218 -29.9717 4.3901 0.7871
-46.6034 -29.8627 4.0708 0.8009
-43.6410 -29.7984 3.8865 0.8090
-40.9331 -29.7396 3.7212 0.8163
-39.6632 -29.7120 3.6448 0.8197
-37.3185 -29.6968 3.5076 0.8259
-10.8512 -9.4405 1.0578 0.9439
-10.7480 -9.6302 1.0614 0.9438
-10.4516 -9.6437 1.0459 0.9446
-10.3080 -10.0845 1.0606 0.9438
-10.2527 -10.3278 1.0703 0.9433
-10.1134 -10.4897 1.0716 0.9432
-10.0141 -10.6951 1.0776 0.9429
-9.8126 -10.7918 1.0728 0.9432
-16.2480 -18.9537 1.8361 0.9047
-39.2331 -47.1434 4.5108 0.7819
-37.6061 -47.9729 4.4831 0.7831
-36.4683 -47.9482 4.4305 0.7854
-32.1656 -47.8548 4.2407 0.7935
-17.8438 -29.2382 2.5192 0.8716
-17.2551 -29.2254 2.4961 0.8727
-16.2939 -30.5843 2.5487 0.8702
-22.7638 -47.6506 3.8839 0.8091
-20.2259 -47.5955 3.8035 0.8127
-19.4026 -47.5776 3.7790 0.8138
-17.1069 -45.7261 3.5907 0.8222
-16.3434 -45.7095 3.5702 0.8231
-15.9436 -46.7345 3.6317 0.8203
-3.9602 -12.8229 0.9870 0.9476
-15.7263 -56.7520 4.3312 0.7896
-15.4935 -67.2341 5.0745 0.7583
-13.8760 -69.4278 5.2072 0.7528
-13.7655 -74.5249 5.5738 0.7379
-13.6382 -80.3953 5.9973 0.7210
-13.3149 -95.3017 7.0772 0.6798
-0.2220 -2.7564 0.2034 0.9890
22.5333 -86.1910 6.5521 0.6996
24.1893 -82.5840 6.3290 0.7081
26.8005 -82.4835 6.3786 0.7062
33.5951 -82.3797 6.5432 0.6999
37.7255 -82.0300 6.6405 0.6962
39.1725 -81.9985 6.6836 0.6946
42.2576 -82.1916 6.7971 0.6903
10.3643 -12.8307 1.2131 0.9360
15.3712 -14.6045 1.5594 0.9185
15.4192 -14.2273 1.5430 0.9193
20.6922 -13.6898 1.8248 0.9053
21.0025 -13.0293 1.8178 0.9056
3.3355 -1.9366 0.2837 0.9846
3.3712 -1.7645 0.2798 0.9849
3.4311 -1.7325 0.2827 0.9847
29.9357 -13.5033 2.4153 0.8766
30.1587 -12.5568 2.4026 0.8772
31.3373 -11.9855 2.4676 0.8741
34.8051 -12.7321 2.7257 0.8619
11.1496 -2.8280 0.8460 0.9549
11.2016 -2.6676 0.8469 0.9549
11.3004 -2.5173 0.8515 0.9546
11.4015 -2.1922 0.8539 0.9545
15.8284 -2.0936 1.1743 0.9380
19.1434 -1.9649 1.4153 0.9257
21.9431 -1.9287 1.6201 0.9154
22.1701 -1.6226 1.6349 0.9147
87.6771 -2.5631 6.4511 0.7034
96.1997 -1.4058 7.0759 0.6799
51.0984 10.6014 3.8381 0.8111
35.4985 9.0040 2.6935 0.8634
26.3619 10.0826 2.0758 0.8930
21.5263 9.7101 1.7368 0.9096
17.4064 9.7689 1.4680 0.9231
3.6193 7.8698 0.6371 0.9659
3.4625 7.8281 0.6295 0.9663
3.2430 7.9523 0.6316 0.9661
-1.3710 9.8129 0.7287 0.9610
-7.6650 6.6685 0.7472 0.9601
-7.6926 6.4975 0.7406 0.9604
-7.7180 6.3280 0.7340 0.9608
-7.7465 6.1644 0.7281 0.9611
-7.6077 5.8745 0.7069 0.9622
-7.6297 5.7155 0.7011 0.9625
-7.6714 5.4041 0.6901 0.9631
-7.6919 5.2521 0.6850 0.9633
-7.7119 5.1021 0.6801 0.9636
-7.7514 4.8086 0.6709 0.9641
-7.7897 4.5228 0.6625 0.9645
-1.4753 0.7998 0.1234 0.9933
-1.4718 0.7704 0.1222 0.9934
-1.4717 0.7431 0.1213 0.9934
-1.2434 0.6052 0.1017 0.9945
-1.1690 0.5480 0.0950 0.9948
-1.1672 0.5265 0.0942 0.9949
-1.1630 0.4842 0.0926 0.9950
-1.1603 0.4633 0.0919 0.9950
-1.1578 0.4429 0.0912 0.9950
-1.1530 0.4028 0.0898 0.9951
-1.1474 0.3452 0.0881 0.9952
-1.1447 0.3082 0.0872 0.9953
-1.1434 0.2900 0.0868 0.9953
-1.1401 0.2365 0.0856 0.9953
-1.1390 0.2190 0.0853 0.9954
-1.1365 0.1843 0.0847 0.9954
-1.1312 0.1496 0.0839 0.9954
-1.1184 0.0819 0.0825 0.9955
-1.1125 0.0488 0.0819 0.9955
-1.1096 0.0325 0.0816 0.9956
-1.0331 0.0000 0.0645 0.9959
-1.0375 -0.0152 0.0648 0.9959
-1.0538 -0.0616 0.0659 0.9958
-1.0661 -0.0937 0.0668 0.9957
-1.0791 -0.1267 0.0678 0.9957
-1.0860 -0.1436 0.0684 0.9956
-1.0930 -0.1608 0.0690 0.9956
-1.1003 -0.1784 0.0696 0.9955
-1.1057 -0.1959 0.0701 0.9955
-1.1074 -0.2298 0.0706 0.9955
-1.1083 -0.2468 0.0709 0.9955
-1.1102 -0.2816 0.0715 0.9954
-1.1113 -0.2992 0.0718 0.9954
-1.1123 -0.3170 0.0722 0.9954
-1.1162 -0.3717 0.0734 0.9953
-1.1181 -0.3906 0.0739 0.9953
-1.1202 -0.4098 0.0744 0.9952
-1.1337 -0.5314 0.0781 0.9950
-1.1716 -0.5702 0.0813 0.9948
-1.4418 -0.7817 0.1024 0.9934
-49.8637 -29.9336 3.6299 0.7921
-48.1932 -29.8973 3.5397 0.7967
-19.1728 -12.2857 1.4212 0.9128
-42.2576 -29.7684 3.2262 0.8129
-40.9331 -29.7396 3.1579 0.8165
-38.4441 -29.6855 3.0315 0.8231
-37.3183 -29.6966 2.9767 0.8260
-11.1290 -9.4001 0.9092 0.9433
-10.9010 -9.4838 0.9018 0.9437
-10.4761 -9.6663 0.8897 0.9445
-10.1953 -9.9743 0.8902 0.9444
-10.1053 -10.1794 0.8952 0.9441
-10.0194 -10.3922 0.9010 0.9438
-9.8389 -10.8208 0.9128 0.9431
