ply
format ascii 1.0
element vertex 1576
property float32 x
property float32 y
property float32 z
property float32 I
end_header
-40.9357 -29.7416 3.7214 0.8163
-39.6657 -29.7139 3.6450 0.8197
-37.2747 -29.6621 3.5035 0.8261
-37.2164 -30.5143 3.5396 0.8245
-10.6466 -9.5395 1.0514 0.9443
-10.2553 -9.7437 1.0404 0.9448
-10.2026 -9.9814 1.0497 0.9444
-10.0483 -10.1221 1.0490 0.9444
-10.0744 -10.4493 1.0675 0.9434
-10.0145 -10.6957 1.0776 0.9429
-39.1509 -47.0447 4.5014 0.7823
-36.4698 -47.9501 4.4307 0.7854
-9.1190 -12.3604 1.1297 0.9403
-32.1668 -47.8567 4.2409 0.7935
-17.8450 -29.2401 2.5194 0.8716
-17.2562 -29.2273 2.4963 0.8727
-16.2128 -30.4323 2.5360 0.8708
-22.7647 -47.6525 3.8841 0.8091
-20.2267 -47.5974 3.8036 0.8127
-17.1076 -45.7280 3.5908 0.8222
-15.8171 -48.6800 3.7645 0.8144
-15.7657 -51.0481 3.9294 0.8071
-15.6481 -56.4699 4.3097 0.7906
-15.5052 -63.0596 4.7760 0.7707
-13.5634 -79.9547 5.9644 0.7223
-13.2419 -94.7794 7.0384 0.6812
-0.1411 -2.7564 0.2030 0.9890
22.5338 -86.1928 6.5523 0.6995
22.8212 -82.3555 6.2852 0.7098
24.1433 -82.4268 6.3169 0.7086
26.8152 -82.5288 6.3821 0.7061
28.1450 -82.4999 6.4110 0.7050
36.2974 -82.0629 6.5995 0.6977
37.7263 -82.0318 6.6406 0.6962
40.7672 -82.2258 6.7499 0.6920
42.2585 -82.1935 6.7972 0.6903
46.7183 -81.8365 6.9305 0.6853
48.2970 -81.8023 6.9866 0.6832
49.9019 -81.7674 7.0452 0.6810
51.5342 -81.7319 7.1063 0.6787
53.1954 -81.6959 7.1699 0.6764
7.1739 -10.6732 0.9458 0.9497
15.4953 -14.2975 1.5506 0.9189
16.0128 -13.5252 1.5416 0.9194
20.7531 -13.7301 1.8301 0.9050
3.6676 -1.6544 0.2959 0.9840
30.2996 -12.6155 2.4139 0.8767
30.8635 -12.3242 2.4442 0.8752
31.4252 -12.0191 2.4745 0.8738
35.1200 -12.2685 2.7360 0.8614
35.7413 -11.9024 2.7706 0.8598
40.2666 -12.7590 3.1066 0.8442
11.4504 -3.4449 0.8794 0.9532
10.8866 -3.1026 0.8326 0.9556
11.2120 -2.8439 0.8507 0.9547
11.3212 -2.6961 0.8559 0.9544
11.4417 -2.3739 0.8594 0.9542
11.4799 -2.2073 0.8598 0.9542
11.5752 -1.8767 0.8624 0.9541
12.3426 -1.8165 0.9175 0.9512
15.9829 -1.8770 1.1836 0.9375
22.0261 -1.9361 1.6262 0.9151
22.2630 -1.6295 1.6417 0.9144
87.7608 -2.5655 6.4573 0.7032
55.2149 10.6164 4.1353 0.7981
35.5447 8.4648 2.6873 0.8637
35.3236 9.5110 2.6905 0.8635
35.0385 11.1023 2.7032 0.8629
26.5378 9.2704 2.0674 0.8934
26.3960 10.0956 2.0785 0.8928
27.7740 11.0905 2.1995 0.8870
20.7845 10.1163 1.7001 0.9115
17.5650 9.5231 1.4695 0.9230
17.3337 10.4055 1.4869 0.9221
17.2676 10.7121 1.4945 0.9217
9.2665 9.8968 0.9971 0.9471
3.4695 7.8441 0.6308 0.9662
0.1134 5.1716 0.3805 0.9795
-7.2655 7.3188 0.7585 0.9595
-7.5087 7.3459 0.7726 0.9587
-7.5219 7.1467 0.7631 0.9592
-7.5452 6.9619 0.7551 0.9597
-7.5666 6.7797 0.7472 0.9601
-7.6180 6.4345 0.7334 0.9608
-7.5084 5.9749 0.7057 0.9622
-7.5528 5.6579 0.6941 0.9629
-7.5737 5.5025 0.6885 0.9631
-7.6538 4.9045 0.6686 0.9642
-7.6924 4.6177 0.6599 0.9647
-7.7113 4.4771 0.6558 0.9649
-1.2433 0.6052 0.1017 0.9945
-1.1672 0.5265 0.0942 0.9949
-1.1655 0.5053 0.0934 0.9949
-1.1630 0.4841 0.0926 0.9950
-1.1578 0.4428 0.0912 0.9950
-1.1554 0.4226 0.0905 0.9951
-1.1460 0.3266 0.0876 0.9952
-1.1422 0.2720 0.0864 0.9953
-1.1411 0.2541 0.0860 0.9953
-1.1391 0.2190 0.0853 0.9954
-1.1381 0.2016 0.0850 0.9954
-1.1312 0.1496 0.0839 0.9954
-1.1279 0.1324 0.0835 0.9955
-1.1246 0.1154 0.0831 0.9955
-1.1215 0.0986 0.0828 0.9955
-1.1096 0.0324 0.0816 0.9956
-1.0421 -0.0305 0.0651 0.9958
-1.0598 -0.0776 0.0663 0.9958
-1.0661 -0.0938 0.0668 0.9957
-1.0725 -0.1101 0.0673 0.9957
-1.0791 -0.1268 0.0678 0.9957
-1.0930 -0.1609 0.0690 0.9956
-1.1003 -0.1784 0.0696 0.9955
-1.1056 -0.1959 0.0701 0.9955
-1.1065 -0.2128 0.0703 0.9955
-1.1074 -0.2298 0.0706 0.9955
-1.1124 -0.3170 0.0722 0.9954
-1.1135 -0.3351 0.0726 0.9954
-1.1161 -0.3717 0.0734 0.9953
-1.1244 -0.4491 0.0756 0.9952
-1.1267 -0.4691 0.0762 0.9951
-1.1290 -0.4896 0.0768 0.9951
-1.1716 -0.5702 0.0813 0.9948
-1.2577 -0.6351 0.0879 0.9944
-1.4422 -0.7548 0.1016 0.9935
-1.4418 -0.7817 0.1024 0.9934
-1.4446 -0.8108 0.1034 0.9934
-1.4516 -0.8429 0.1048 0.9933
-19.1014 -12.2399 1.4160 0.9131
-43.6437 -29.8004 3.2984 0.8091
-40.9357 -29.7415 3.1581 0.8164
-38.4465 -29.6875 3.0317 0.8231
-37.2747 -29.6620 2.9732 0.8262
-37.2162 -30.5142 3.0038 0.8246
-10.9160 -9.4969 0.9031 0.9437
-10.5929 -9.4913 0.8877 0.9446
-10.4527 -9.6447 0.8877 0.9446
-10.2262 -9.7162 0.8804 0.9450
-10.0085 -10.0820 0.8867 0.9447
-9.9260 -10.2954 0.8926 0.9443
-9.8214 -10.4895 0.8969 0.9440
-9.7180 -10.6878 0.9016 0.9438
-9.5530 -10.8198 0.9009 0.9438
-39.1506 -47.0444 3.8200 0.7825
-38.7626 -47.9872 3.8501 0.7810
-36.4698 -47.9501 3.7600 0.7855
-9.1115 -12.3500 0.9579 0.9403
-33.1012 -47.7257 3.6251 0.7923
-32.1668 -47.8567 3.5989 0.7937
-31.1469 -47.8345 3.5627 0.7955
-30.1473 -47.8128 3.5279 0.7973
-16.2345 -29.4284 2.0977 0.8740
-23.5596 -47.5185 3.3103 0.8085
-22.6917 -47.4996 3.2856 0.8098
-20.9934 -47.4628 3.2392 0.8122
-19.3411 -47.4269 3.1968 0.8144
-17.1076 -45.7280 3.0473 0.8223
-16.3440 -45.7114 3.0299 0.8232
-15.8169 -48.6794 3.1946 0.8145
-15.7655 -51.0475 3.3346 0.8072
-15.4212 -66.9204 4.2862 0.7594
-15.3272 -71.2548 4.5490 0.7467
-15.2208 -76.1565 4.8472 0.7325
-0.1411 -2.7565 0.1723 0.9890
22.5337 -86.1928 5.5605 0.6997
22.8212 -82.3555 5.3338 0.7100
24.1433 -82.4268 5.3608 0.7088
25.4787 -82.4978 5.3890 0.7075
29.4660 -82.4112 5.4625 0.7042
32.1111 -82.1537 5.5053 0.7022
36.2974 -82.0629 5.6005 0.6979
37.7263 -82.0318 5.6354 0.6964
39.1734 -82.0004 5.6720 0.6947
43.6341 -81.9035 5.7921 0.6894
48.4486 -82.0591 5.9477 0.6826
50.0585 -82.0241 5.9975 0.6804
53.1954 -81.6959 6.0846 0.6766
7.1737 -10.6729 0.8026 0.9498
22.0165 -14.1079 1.6320 0.9005
3.4152 -1.7245 0.2388 0.9848
3.4574 -1.6828 0.2400 0.9847
30.7490 -12.8026 2.0789 0.8750
32.0928 -12.2745 2.1445 0.8714
35.6527 -13.0422 2.3694 0.8589
35.3195 -12.3382 2.3351 0.8608
35.7601 -11.9087 2.3524 0.8598
40.7542 -12.9135 2.6683 0.8425
11.4045 -3.4311 0.7433 0.9534
10.9182 -3.1116 0.7086 0.9555
11.0800 -2.9834 0.7162 0.9551
11.4143 -2.7183 0.7323 0.9541
11.0776 -2.4677 0.7083 0.9555
11.4923 -2.3844 0.7326 0.9540
11.5307 -2.2171 0.7329 0.9540
11.6306 -2.0606 0.7372 0.9538
12.3049 -1.8109 0.7763 0.9514
19.4583 -1.7104 1.2192 0.9247
22.1721 -1.6228 1.3875 0.9148
87.1400 -2.5474 5.4411 0.7051
69.3903 10.2121 4.3776 0.7550
51.3496 9.0973 3.2548 0.8114
50.1751 9.6473 3.1890 0.8148
45.8923 9.5213 2.9253 0.8287
45.7079 10.1818 2.9227 0.8289
35.6838 9.0509 2.2977 0.8628
35.1151 10.0074 2.2789 0.8639
35.2129 10.5939 2.2951 0.8630
27.9689 9.7703 1.8491 0.8880
21.7868 9.8275 1.4917 0.9087
21.3165 9.9927 1.4694 0.9100
17.0168 9.8800 1.2281 0.9242
16.5316 10.2556 1.2142 0.9250
15.4087 9.8736 1.1422 0.9293
9.2945 9.9266 0.8488 0.9470
3.2593 7.9921 0.5387 0.9660
-1.3635 9.7593 0.6150 0.9613
-3.1076 9.1090 0.6007 0.9622
-6.9597 9.4334 0.7317 0.9541
-7.2656 7.3188 0.6437 0.9595
-5.2398 4.8347 0.4450 0.9718
-5.2715 4.7233 0.4418 0.9720
-5.3032 4.6137 0.4387 0.9722
-5.3347 4.5059 0.4358 0.9724
-5.3872 4.4170 0.4348 0.9725
-5.5539 4.4195 0.4430 0.9720
-7.5281 5.8130 0.5936 0.9626
-7.5918 5.3480 0.5796 0.9635
-1.4516 0.8428 0.1048 0.9933
-1.4446 0.8107 0.1034 0.9934
-1.4418 0.7817 0.1024 0.9934
-1.4422 0.7548 0.1016 0.9935
-1.2577 0.6350 0.0879 0.9944
-1.1716 0.5702 0.0813 0.9948
-1.1267 0.4691 0.0762 0.9951
-1.1244 0.4490 0.0756 0.9952
-1.1201 0.4097 0.0744 0.9952
-1.1147 0.3532 0.0730 0.9953
-1.1135 0.3349 0.0726 0.9954
-1.1124 0.3170 0.0722 0.9954
-1.1102 0.2816 0.0715 0.9954
-1.1092 0.2641 0.0712 0.9954
-1.1083 0.2468 0.0709 0.9955
-1.1074 0.2297 0.0706 0.9955
-1.1065 0.2127 0.0703 0.9955
-1.1057 0.1958 0.0701 0.9955
-1.0930 0.1609 0.0690 0.9956
-1.0725 0.1100 0.0673 0.9957
-1.0375 0.0151 0.0648 0.9959
-0.9723 -0.0142 0.0499 0.9961
-0.9845 -0.0577 0.0506 0.9961
-0.9951 -0.0875 0.0512 0.9960
-1.0006 -0.1028 0.0516 0.9960
-1.0121 -0.1339 0.0524 0.9959
-1.0180 -0.1498 0.0528 0.9959
-1.0361 -0.1993 0.0541 0.9958
-1.0483 -0.2823 0.0557 0.9957
-1.0539 -0.3171 0.0565 0.9956
-1.0569 -0.3349 0.0569 0.9956
-1.0704 -0.3739 0.0582 0.9955
-1.0733 -0.3927 0.0586 0.9954
-1.0767 -0.4300 0.0595 0.9954
-1.0785 -0.4491 0.0599 0.9953
-1.0804 -0.4685 0.0604 0.9953
-1.1839 -0.5978 0.0680 0.9947
-1.4204 -0.7434 0.0822 0.9936
-1.4187 -0.7692 0.0828 0.9936
-1.4186 -0.8516 0.0849 0.9934
-1.4486 -0.8987 0.0874 0.9932
-19.0992 -12.2385 1.1636 0.9132
-45.6281 -30.1873 2.8064 0.8032
-40.9357 -29.7415 2.5956 0.8166
-39.6657 -29.7139 2.5423 0.8200
-37.2747 -29.6620 2.4436 0.8263
-12.0305 -9.8640 0.7980 0.9396
-10.7288 -9.6130 0.7389 0.9439
-10.4114 -9.6066 0.7267 0.9448
-10.4667 -9.9447 0.7406 0.9438
-10.1415 -9.9216 0.7278 0.9448
-9.8027 -10.4694 0.7357 0.9442
-9.4207 -10.6700 0.7301 0.9446
-39.1504 -47.0441 3.1395 0.7826
-35.3581 -47.9260 3.0551 0.7878
-34.2712 -47.9023 3.0213 0.7899
-33.1013 -47.7257 2.9794 0.7924
-31.0638 -47.7068 2.9203 0.7961
-17.8450 -29.2401 1.7572 0.8718
-17.2562 -29.2273 1.7411 0.8729
-16.6779 -29.2148 1.7256 0.8739
-16.2343 -29.4282 1.7240 0.8741
-16.2125 -30.4318 1.7688 0.8710
-22.7647 -47.6525 2.7090 0.8094
-21.0610 -47.6155 2.6708 0.8118
-20.2267 -47.5974 2.6529 0.8129
-19.4034 -47.5795 2.6358 0.8140
-4.3665 -11.6715 0.6392 0.9513
-15.8708 -54.1839 2.8962 0.7976
-15.6477 -56.4682 3.0058 0.7908
-15.5798 -59.5937 3.1597 0.7814
-15.3269 -71.2535 3.7387 0.7468
-13.6899 -97.9859 5.0752 0.6728
22.8212 -82.3555 4.3837 0.7101
25.4173 -82.2991 4.4184 0.7082
29.3950 -82.2128 4.4787 0.7049
30.7461 -82.1835 4.5011 0.7037
42.0646 -81.8164 4.7191 0.6918
45.1644 -81.8703 4.7963 0.6876
46.6499 -81.7169 4.8267 0.6860
49.9621 -81.8661 4.9197 0.6810
51.6586 -81.9293 4.9684 0.6785
53.1954 -81.6959 5.0008 0.6767
3.3850 -1.8998 0.1991 0.9846
3.4232 -1.7285 0.1967 0.9848
3.5494 -1.6639 0.2011 0.9844
3.6627 -1.6522 0.2061 0.9840
30.9875 -12.9018 1.7218 0.8742
31.3698 -12.5264 1.7327 0.8735
35.7630 -13.0825 1.9534 0.8585
41.6306 -13.8637 2.2508 0.8388
11.2788 -2.8608 0.5969 0.9545
11.1705 -2.4884 0.5871 0.9552
11.5433 -2.3950 0.6047 0.9539
11.6204 -2.0587 0.6054 0.9538
11.6338 -1.8862 0.6046 0.9539
15.7617 -2.0849 0.8156 0.9383
18.7946 -2.2071 0.9707 0.9270
22.5058 -1.6472 1.1576 0.9136
30.9113 -1.8088 1.5884 0.8834
87.1230 -2.5469 4.4710 0.7053
87.6837 -1.2814 4.4984 0.7038
60.6020 8.9187 3.1422 0.7824
45.7808 9.4982 2.3984 0.8292
45.6707 10.1736 2.4002 0.8291
35.5534 9.5729 1.8887 0.8629
35.5237 10.6874 1.9029 0.8619
12.2339 4.4752 0.6682 0.9492
12.2623 4.6899 0.6734 0.9488
12.3067 4.9142 0.6798 0.9483
12.3521 5.1429 0.6863 0.9478
12.4942 5.8570 0.7078 0.9462
17.5437 9.5116 1.0237 0.9232
17.1110 9.6031 1.0065 0.9244
16.3977 10.1725 0.9899 0.9256
15.4090 9.8738 0.9388 0.9293
17.3689 11.8596 1.0789 0.9192
3.7378 7.8241 0.4448 0.9659
3.5762 7.7761 0.4390 0.9663
3.4482 7.7958 0.4373 0.9664
3.3399 7.8594 0.4381 0.9664
3.2529 7.9766 0.4419 0.9661
-1.3625 9.7518 0.5051 0.9613
-5.0864 5.1237 0.3703 0.9715
-5.1360 4.8798 0.3634 0.9720
-5.1571 4.7584 0.3599 0.9723
-5.1741 4.6359 0.3564 0.9726
-5.2326 4.2902 0.3471 0.9733
-5.3030 4.2199 0.3476 0.9732
-5.3360 4.1203 0.3458 0.9734
-5.9450 4.0592 0.3693 0.9716
-1.4486 0.8986 0.0874 0.9932
-1.4186 0.8515 0.0849 0.9934
-1.4204 0.7434 0.0822 0.9936
-1.0845 0.5083 0.0614 0.9952
-1.0824 0.4882 0.0609 0.9953
-1.0804 0.4684 0.0604 0.9953
-1.0767 0.4299 0.0595 0.9954
-1.0733 0.3926 0.0586 0.9954
-1.0621 0.3536 0.0574 0.9955
-1.0569 0.3348 0.0569 0.9956
-1.0539 0.3170 0.0565 0.9956
-1.0511 0.2995 0.0561 0.9956
-1.0457 0.2652 0.0553 0.9957
-1.0407 0.2318 0.0547 0.9957
-1.0361 0.1992 0.0541 0.9958
-1.0242 0.1660 0.0532 0.9959
-1.0180 0.1498 0.0528 0.9959
-1.0121 0.1338 0.0524 0.9959
-0.9951 0.0874 0.0512 0.9960
-0.9897 0.0724 0.0509 0.9960
-0.9845 0.0576 0.0506 0.9961
-0.9723 0.0141 0.0499 0.9961
-0.9115 -0.0000 0.0366 0.9964
-0.9184 -0.0269 0.0369 0.9963
-0.9219 -0.0405 0.0371 0.9963
-0.9255 -0.0542 0.0373 0.9963
-0.9292 -0.0680 0.0374 0.9963
-0.9330 -0.0820 0.0376 0.9963
-0.9378 -0.0963 0.0379 0.9962
-0.9427 -0.1107 0.0381 0.9962
-0.9477 -0.1254 0.0384 0.9962
-0.9580 -0.1554 0.0390 0.9961
-0.9689 -0.1863 0.0397 0.9961
-0.9728 -0.2019 0.0399 0.9960
-0.9786 -0.2482 0.0406 0.9960
-0.9807 -0.2641 0.0408 0.9959
-0.9938 -0.3310 0.0421 0.9958
-1.0015 -0.3499 0.0426 0.9958
-1.0091 -0.3691 0.0432 0.9957
-1.0158 -0.3886 0.0437 0.9957
-1.0272 -0.4816 0.0456 0.9955
-1.0288 -0.5008 0.0460 0.9954
-1.0304 -0.5203 0.0464 0.9954
-1.0322 -0.5403 0.0468 0.9953
-1.2465 -0.6759 0.0570 0.9943
-1.4127 -0.8481 0.0662 0.9934
-45.6280 -30.1873 2.1989 0.8033
-38.4465 -29.6875 1.9523 0.8233
-37.2747 -29.6620 1.9146 0.8264
-11.8677 -10.0241 0.6244 0.9397
-10.9291 -9.5084 0.5822 0.9437
-10.6326 -9.5269 0.5738 0.9445
-10.3172 -9.8027 0.5720 0.9446
-10.2095 -9.9881 0.5740 0.9444
-10.1764 -10.2510 0.5805 0.9438
-9.5791 -10.5350 0.5723 0.9446
-9.2669 -10.4959 0.5627 0.9455
-39.1501 -47.0438 2.4599 0.7827
-38.7620 -47.9865 2.4793 0.7812
-6.2868 -8.2659 0.4174 0.9593
-6.0960 -8.2627 0.4127 0.9597
-5.7243 -8.2534 0.4037 0.9606
-5.5440 -8.2482 0.3994 0.9610
-5.1878 -8.2278 0.3909 0.9618
-4.9656 -8.4105 0.3926 0.9617
-23.5595 -47.5185 2.1317 0.8087
-22.7647 -47.6525 2.1226 0.8094
-21.9068 -47.6339 2.1073 0.8107
-21.0610 -47.6155 2.0926 0.8119
-4.7499 -11.1774 0.4881 0.9525
-4.5248 -11.0954 0.4816 0.9532
-16.3441 -45.7114 1.9511 0.8234
-15.8165 -48.6781 2.0571 0.8147
-3.9347 -12.7403 0.5359 0.9480
-15.6474 -56.4673 2.3550 0.7909
-15.5796 -59.5928 2.4757 0.7815
-15.5044 -63.0564 2.6098 0.7711
-15.0989 -81.7439 3.3410 0.7169
-14.9592 -88.1826 3.5948 0.6990
25.4173 -82.2991 3.4619 0.7084
28.0570 -82.2418 3.4925 0.7062
33.4907 -82.1238 3.5646 0.7011
40.6398 -81.9686 3.6771 0.6933
42.1262 -81.9363 3.7029 0.6915
45.1644 -81.8703 3.7580 0.6878
46.7183 -81.8366 3.7874 0.6858
48.2971 -81.8023 3.8181 0.6837
49.9019 -81.7675 3.8501 0.6815
51.5342 -81.7320 3.8834 0.6792
53.1954 -81.6959 3.9182 0.6769
10.6040 -12.7421 0.6663 0.9358
20.5432 -13.1638 0.9806 0.9069
3.3788 -1.8963 0.1557 0.9846
3.4224 -1.7913 0.1553 0.9847
3.4442 -1.7391 0.1551 0.9847
3.6987 -1.6684 0.1631 0.9839
30.7813 -13.3470 1.3485 0.8743
10.9820 -3.1298 0.4590 0.9553
11.1454 -3.0010 0.4639 0.9548
11.2165 -2.6712 0.4634 0.9549
11.2648 -2.5094 0.4639 0.9548
11.3111 -2.3468 0.4643 0.9548
11.6335 -2.2369 0.4761 0.9537
12.0411 -1.9523 0.4903 0.9523
29.9869 -1.7547 1.2073 0.8867
87.6768 -1.2813 3.5243 0.7040
55.9911 9.0779 2.2798 0.7969
50.8794 9.7828 2.0824 0.8127
40.8656 9.7320 1.6884 0.8452
40.0289 10.1531 1.6598 0.8476
35.6205 10.1514 1.4887 0.8622
12.4888 4.1590 0.5290 0.9487
12.2315 4.6781 0.5263 0.9489
12.2829 5.1140 0.5347 0.9481
12.3282 5.3456 0.5401 0.9476
12.4704 6.0697 0.5574 0.9460
17.4891 9.1539 0.7934 0.9240
17.2801 9.3687 0.7900 0.9243
16.8486 9.7823 0.7830 0.9250
16.5467 9.9331 0.7757 0.9256
16.2499 10.0808 0.7686 0.9263
15.4437 9.8961 0.7372 0.9292
16.4360 11.2226 0.7999 0.9234
3.5762 7.7761 0.3440 0.9663
3.4482 7.7958 0.3426 0.9665
3.3399 7.8594 0.3432 0.9664
0.1134 5.1718 0.2079 0.9795
-3.1041 9.0988 0.3864 0.9622
-6.8629 9.5926 0.4741 0.9539
-4.9765 5.6364 0.3022 0.9703
-5.0001 5.4991 0.2987 0.9707
-5.0210 5.3625 0.2953 0.9710
-5.0363 5.2237 0.2916 0.9714
-5.0743 4.9642 0.2853 0.9720
-5.1187 4.7230 0.2799 0.9725
-5.1366 4.6024 0.2772 0.9728
-5.1895 4.2549 0.2697 0.9735
-5.2080 4.1443 0.2675 0.9737
-5.4492 3.8386 0.2679 0.9737
-5.6517 3.8589 0.2751 0.9730
-5.9202 3.9167 0.2853 0.9720
-7.6503 4.9021 0.3652 0.9643
-1.4127 0.8480 0.0662 0.9934
-1.4129 0.7930 0.0651 0.9935
-1.2464 0.6757 0.0570 0.9943
-1.0305 0.5203 0.0464 0.9954
-1.0257 0.4627 0.0452 0.9955
-1.0229 0.4259 0.0445 0.9956
-1.0216 0.4079 0.0442 0.9956
-1.0158 0.3885 0.0437 0.9957
-1.0091 0.3691 0.0432 0.9957
-1.0015 0.3498 0.0426 0.9958
-0.9938 0.3309 0.0421 0.9958
-0.9851 0.2963 0.0413 0.9959
-0.9829 0.2801 0.0411 0.9959
-0.9807 0.2641 0.0408 0.9959
-0.9728 0.2018 0.0399 0.9960
-0.9634 0.1706 0.0393 0.9961
-0.9580 0.1553 0.0390 0.9961
-0.9528 0.1402 0.0387 0.9962
-0.9427 0.1107 0.0381 0.9962
-0.9331 0.0820 0.0376 0.9963
-0.9292 0.0680 0.0374 0.9963
-0.9219 0.0404 0.0371 0.9963
-0.9149 0.0134 0.0368 0.9963
-0.8609 -0.0000 0.0251 0.9966
-0.8640 -0.0127 0.0251 0.9965
-0.8670 -0.0254 0.0252 0.9965
-0.8701 -0.0382 0.0253 0.9965
-0.8798 -0.0774 0.0257 0.9965
-0.8832 -0.0907 0.0258 0.9965
-0.8954 -0.1318 0.0263 0.9964
-0.9045 -0.1603 0.0267 0.9963
-0.9092 -0.1748 0.0269 0.9963
-0.9140 -0.1897 0.0272 0.9963
-0.9166 -0.2042 0.0273 0.9962
-0.9197 -0.2333 0.0276 0.9962
-0.9213 -0.2481 0.0278 0.9962
-0.9247 -0.2782 0.0281 0.9961
-0.9275 -0.2939 0.0283 0.9961
-0.9338 -0.3110 0.0286 0.9961
-0.9403 -0.3285 0.0290 0.9960
-0.9470 -0.3464 0.0293 0.9960
-0.9719 -0.4214 0.0308 0.9958
-0.9748 -0.4397 0.0311 0.9957
-0.9758 -0.4575 0.0314 0.9957
-0.9780 -0.4938 0.0319 0.9956
-1.4147 -0.8214 0.0476 0.9935
-1.4151 -0.8495 0.0480 0.9934
-45.6280 -30.1873 1.5919 0.8034
-44.1639 -30.1555 1.5560 0.8073
-15.1925 -10.7024 0.5407 0.9283
-15.1812 -11.0298 0.5460 0.9277
-38.4465 -29.6875 1.4134 0.8233
-37.2748 -29.6621 1.3861 0.8264
-10.8771 -9.4630 0.4195 0.9439
-10.4227 -9.3387 0.4072 0.9455
-10.2404 -9.4488 0.4054 0.9458
-9.8855 -9.9580 0.4083 0.9454
-9.8202 -10.1856 0.4117 0.9450
-9.6534 -10.3099 0.4110 0.9450
-9.3480 -10.2809 0.4043 0.9459
-9.3731 -10.6160 0.4121 0.9449
-9.1855 -10.7152 0.4107 0.9451
-6.8423 -8.2219 0.3112 0.9581
-6.6369 -8.2163 0.3073 0.9586
-6.2412 -8.2059 0.3000 0.9596
-5.8656 -8.1987 0.2933 0.9605
-5.6821 -8.1926 0.2901 0.9609
-5.5036 -8.1881 0.2871 0.9613
-4.9816 -8.1627 0.2782 0.9625
-4.4245 -8.3051 0.2738 0.9630
-4.3730 -8.5056 0.2783 0.9625
-22.7647 -47.6525 1.5366 0.8095
-21.9068 -47.6339 1.5256 0.8107
-4.8430 -10.9493 0.3484 0.9532
-4.7091 -11.0814 0.3503 0.9530
-4.3217 -11.0568 0.3454 0.9536
-15.8707 -54.1839 1.6428 0.7978
-15.6472 -56.4665 1.7049 0.7910
-15.5794 -59.5918 1.7922 0.7815
-15.5042 -63.0554 1.8894 0.7712
-15.3263 -71.2508 2.1206 0.7470
-15.2199 -76.1520 2.2596 0.7329
-15.0986 -81.7423 2.4187 0.7170
-14.9589 -88.1806 2.6024 0.6991
-2.0202 -13.0636 0.3846 0.9485
22.2048 -84.9347 2.5544 0.7038
26.7313 -82.2706 2.5170 0.7074
28.0570 -82.2418 2.5284 0.7063
29.3950 -82.2128 2.5405 0.7051
36.2975 -82.0629 2.6109 0.6983
39.1735 -82.0004 2.6442 0.6951
42.1263 -81.9363 2.6807 0.6916
45.1644 -81.8703 2.7206 0.6879
49.9019 -81.7674 2.7873 0.6816
7.1738 -10.6730 0.3742 0.9498
10.5917 -12.7273 0.4818 0.9359
15.6120 -12.8005 0.5874 0.9224
20.5005 -13.1365 0.7085 0.9072
3.3689 -1.9560 0.1133 0.9845
3.4191 -1.8538 0.1132 0.9846
87.0651 -39.2732 2.7791 0.6823
30.7105 -13.3162 0.9740 0.8746
87.5710 -36.4607 2.7601 0.6841
91.1158 -36.3838 2.8547 0.6753
11.0141 -3.1389 0.3332 0.9552
11.3462 -2.8779 0.3406 0.9542
11.6465 -2.4163 0.3461 0.9535
11.6855 -2.2469 0.3462 0.9535
11.7197 -2.0763 0.3463 0.9535
12.1831 -1.9753 0.3591 0.9518
15.8132 -2.0917 0.4641 0.9382
19.0612 -1.9565 0.5575 0.9262
26.3641 -1.9296 0.7692 0.8996
87.1413 -1.2735 2.5358 0.7056
45.8306 10.2091 1.3662 0.8287
35.6759 10.1672 1.0794 0.8620
13.3350 4.0119 0.4052 0.9458
12.4203 4.1361 0.3809 0.9490
12.2043 4.6678 0.3802 0.9491
12.2291 4.8832 0.3831 0.9487
12.2543 5.1021 0.3862 0.9483
17.3961 9.1052 0.5713 0.9244
16.2615 10.4201 0.5620 0.9256
16.2275 11.0802 0.5717 0.9244
3.7378 7.8241 0.2523 0.9659
3.5762 7.7761 0.2490 0.9663
3.4482 7.7958 0.2480 0.9665
3.3399 7.8594 0.2485 0.9664
0.1134 5.1718 0.1505 0.9795
-4.9223 5.7420 0.2201 0.9702
-4.9499 5.6062 0.2176 0.9705
-5.0175 5.0543 0.2072 0.9719
-5.0377 4.9284 0.2051 0.9722
-5.1169 4.4516 0.1973 0.9732
-5.1350 4.3372 0.1956 0.9735
-5.1539 4.2257 0.1939 0.9737
-5.1945 4.0110 0.1910 0.9741
-5.2334 3.8022 0.1882 0.9744
-5.4397 3.7143 0.1917 0.9740
-5.6399 3.7313 0.1968 0.9733
-5.9001 3.7807 0.2039 0.9723
-1.4230 0.8827 0.0487 0.9933
-1.4151 0.8495 0.0480 0.9934
-0.9792 0.5125 0.0322 0.9956
-0.9769 0.4754 0.0316 0.9957
-0.9758 0.4574 0.0314 0.9957
-0.9747 0.4396 0.0311 0.9957
-0.9719 0.4214 0.0308 0.9958
-0.9597 0.3832 0.0301 0.9959
-0.9539 0.3648 0.0297 0.9959
-0.9470 0.3464 0.0293 0.9960
-0.9403 0.3284 0.0290 0.9960
-0.9338 0.3109 0.0286 0.9961
-0.9275 0.2939 0.0283 0.9961
-0.9247 0.2782 0.0281 0.9961
-0.9213 0.2480 0.0278 0.9962
-0.9166 0.2041 0.0273 0.9962
-0.9140 0.1896 0.0272 0.9963
-0.9045 0.1602 0.0267 0.9963
-0.8999 0.1459 0.0265 0.9964
-0.8954 0.1318 0.0263 0.9964
-0.8910 0.1178 0.0262 0.9964
-0.8832 0.0906 0.0258 0.9965
-0.8798 0.0773 0.0257 0.9965
-0.8733 0.0511 0.0255 0.9965
-0.8670 0.0253 0.0252 0.9965
-0.8640 0.0126 0.0251 0.9965
-0.8184 -0.0120 0.0147 0.9967
-0.8239 -0.0362 0.0149 0.9967
-0.8267 -0.0484 0.0149 0.9967
-0.8414 -0.1113 0.0153 0.9966
-0.8446 -0.1244 0.0154 0.9966
-0.8525 -0.1511 0.0156 0.9965
-0.8565 -0.1648 0.0157 0.9965
-0.8606 -0.1786 0.0158 0.9965
-0.8714 -0.2622 0.0164 0.9964
-0.8807 -0.2933 0.0167 0.9963
-0.8862 -0.3096 0.0169 0.9963
-0.8919 -0.3263 0.0171 0.9962
-0.8977 -0.3434 0.0173 0.9962
-0.9090 -0.3785 0.0177 0.9961
-0.9141 -0.3964 0.0179 0.9960
-0.9248 -0.4336 0.0184 0.9959
-0.9299 -0.4527 0.0186 0.9959
-0.9313 -0.4875 0.0189 0.9958
-0.9328 -0.5236 0.0193 0.9957
-48.1963 -29.8992 1.0214 0.7970
-47.1618 -30.2206 1.0088 0.7992
-45.6281 -30.1873 0.9853 0.8034
-15.2061 -10.7120 0.3350 0.9283
-15.1144 -10.9813 0.3365 0.9280
-15.2066 -11.3914 0.3422 0.9268
-11.8879 -9.7471 0.2769 0.9404
-10.9346 -9.5131 0.2610 0.9437
-10.3923 -9.3116 0.2513 0.9457
-10.3092 -9.5123 0.2526 0.9454
-10.1688 -9.6616 0.2526 0.9454
-10.0284 -9.8110 0.2527 0.9454
-9.8879 -9.9604 0.2528 0.9454
-9.7169 -10.0785 0.2521 0.9455
-9.6203 -10.2747 0.2535 0.9452
-9.4475 -10.7004 0.2571 0.9445
-7.0019 -8.1678 0.1937 0.9579
-6.5897 -8.1580 0.1889 0.9589
-6.0090 -8.1450 0.1823 0.9603
-5.8231 -8.1393 0.1802 0.9608
-4.6277 -8.1064 0.1681 0.9633
-4.4759 -8.1135 0.1669 0.9636
-4.3169 -8.1030 0.1653 0.9639
-4.0699 -8.8495 0.1754 0.9618
-4.0706 -9.2031 0.1812 0.9605
-4.6164 -10.8634 0.2126 0.9539
-4.4894 -11.0085 0.2141 0.9536
-4.3938 -11.2412 0.2174 0.9529
-4.2016 -11.2307 0.2159 0.9532
-4.1592 -11.6325 0.2225 0.9518
-4.0450 -11.8569 0.2256 0.9511
-15.8707 -54.1839 1.0168 0.7978
-15.5791 -59.5910 1.1093 0.7816
-15.6098 -67.7387 1.2519 0.7572
-14.9585 -88.1786 1.6107 0.6992
-0.1411 -2.7566 0.0497 0.9890
22.2053 -84.9363 1.5810 0.7038
22.8212 -82.3555 1.5390 0.7104
24.1141 -82.3275 1.5450 0.7095
26.7313 -82.2706 1.5579 0.7075
29.3950 -82.2128 1.5724 0.7052
30.7461 -82.1834 1.5803 0.7040
36.2975 -82.0629 1.6160 0.6984
39.1734 -82.0004 1.6366 0.6952
45.1645 -81.8703 1.6839 0.6879
49.9019 -81.7675 1.7251 0.6817
10.5995 -12.7366 0.2984 0.9359
15.5978 -12.7889 0.3633 0.9225
3.4404 -1.8653 0.0705 0.9845
3.4264 -1.7935 0.0696 0.9846
3.4423 -1.7382 0.0694 0.9847
3.4846 -1.6961 0.0698 0.9846
3.6974 -1.6679 0.0730 0.9839
87.5710 -36.4607 1.7083 0.6842
91.1158 -36.3838 1.7669 0.6754
23.1225 -8.8437 0.4458 0.9057
23.1042 -8.4518 0.4431 0.9063
11.2114 -3.0188 0.2091 0.9546
11.3802 -2.8865 0.2114 0.9541
11.6987 -2.4272 0.2152 0.9533
15.8391 -2.0951 0.2877 0.9381
19.0519 -2.2373 0.3455 0.9261
19.3117 -1.9822 0.3496 0.9253
26.0239 -1.9048 0.4699 0.9009
60.9436 -0.8906 1.0977 0.7836
90.4452 9.2834 1.6374 0.6951
78.6458 10.4026 1.4287 0.7281
20.5180 4.2568 0.3774 0.9196
13.2424 3.9841 0.2490 0.9462
12.7837 4.0506 0.2415 0.9478
12.1532 4.4457 0.2331 0.9495
12.2018 4.8723 0.2366 0.9488
12.2267 5.0906 0.2385 0.9484
12.2520 5.3125 0.2405 0.9480
12.2778 5.5382 0.2426 0.9475
12.3307 6.0017 0.2470 0.9466
12.3739 6.2480 0.2496 0.9461
17.3433 9.4029 0.3553 0.9241
16.9799 9.5295 0.3507 0.9251
16.5607 9.6152 0.3449 0.9263
3.5762 7.7761 0.1541 0.9663
3.4482 7.7959 0.1535 0.9665
0.1134 5.1718 0.0932 0.9795
-1.3575 9.7161 0.1767 0.9615
-3.1006 9.0885 0.1729 0.9623
-4.8676 5.8489 0.1370 0.9700
-4.9506 5.4446 0.1325 0.9710
-4.9827 5.1680 0.1293 0.9717
-5.0244 4.7737 0.1248 0.9727
-5.1771 3.8782 0.1165 0.9745
-5.1888 3.7699 0.1155 0.9747
-5.2337 3.6868 0.1153 0.9747
-5.4316 3.5934 0.1173 0.9743
-1.1482 0.6893 0.0241 0.9947
-0.9306 0.4699 0.0188 0.9958
-0.9299 0.4526 0.0186 0.9959
-0.9248 0.4335 0.0184 0.9959
-0.9141 0.3963 0.0179 0.9960
-0.9037 0.3608 0.0175 0.9961
-0.8807 0.2933 0.0167 0.9963
-0.8753 0.2773 0.0165 0.9963
-0.8713 0.2621 0.0164 0.9964
-0.8688 0.2339 0.0162 0.9964
-0.8675 0.2200 0.0161 0.9964
-0.8663 0.2063 0.0160 0.9964
-0.8648 0.1926 0.0160 0.9965
-0.8565 0.1646 0.0157 0.9965
-0.8525 0.1510 0.0156 0.9965
-0.8485 0.1375 0.0155 0.9966
-0.8446 0.1242 0.0154 0.9966
-0.8414 0.1112 0.0153 0.9966
-0.8296 0.0607 0.0150 0.9967
-0.8239 0.0361 0.0149 0.9967
-0.8184 0.0120 0.0147 0.9967
-0.7774 -0.0114 0.0054 0.9969
-0.7799 -0.0228 0.0054 0.9969
-0.7874 -0.0577 0.0055 0.9968
-0.7899 -0.0695 0.0055 0.9968
-0.7978 -0.1056 0.0056 0.9968
-0.8032 -0.1303 0.0056 0.9968
-0.8061 -0.1429 0.0057 0.9967
-0.8096 -0.1557 0.0057 0.9967
-0.8131 -0.1688 0.0058 0.9967
-0.8200 -0.1953 0.0058 0.9966
-0.8219 -0.2213 0.0059 0.9966
-0.8229 -0.2346 0.0059 0.9966
-0.8242 -0.2480 0.0060 0.9966
-0.8333 -0.2775 0.0061 0.9965
-0.8380 -0.2928 0.0061 0.9965
-0.8429 -0.3084 0.0062 0.9964
-0.8528 -0.3406 0.0064 0.9963
-0.8672 -0.3912 0.0066 0.9962
-0.8763 -0.4266 0.0067 0.9961
-0.8858 -0.4637 0.0069 0.9960
-0.8883 -0.4817 0.0070 0.9960
-0.8887 -0.4988 0.0071 0.9959
-0.8891 -0.5163 0.0071 0.9959
-0.8895 -0.5340 0.0072 0.9959
-47.1618 -30.2206 0.3879 0.7993
-45.6281 -30.1873 0.3789 0.8034
-15.4915 -10.5777 0.1299 0.9277
-15.0955 -10.9676 0.1292 0.9281
-15.1534 -11.3515 0.1311 0.9271
-37.2747 -29.6620 0.3299 0.8265
-11.5041 -9.7170 0.1043 0.9415
-10.2213 -9.1584 0.0951 0.9466
-10.1307 -9.3476 0.0955 0.9464
-9.9925 -9.7759 0.0968 0.9456
-9.4346 -10.0763 0.0956 0.9463
-7.1704 -8.1213 0.0750 0.9576
-6.9527 -8.1106 0.0740 0.9582
-6.5433 -8.1005 0.0721 0.9592
-6.1531 -8.0901 0.0704 0.9602
-5.4238 -8.0693 0.0673 0.9619
-5.0808 -8.0582 0.0660 0.9626
-4.9156 -8.0545 0.0654 0.9630
-4.7547 -8.0533 0.0648 0.9633
-4.5995 -8.0570 0.0643 0.9636
-4.4491 -8.0649 0.0638 0.9638
-4.2986 -8.0686 0.0633 0.9641
-4.1052 -8.2800 0.0640 0.9637
-4.4146 -11.2943 0.0840 0.9527
-4.1515 -11.6109 0.0854 0.9519
-3.9945 -11.7087 0.0857 0.9517
-3.8499 -11.8488 0.0863 0.9514
-16.1733 -52.3678 0.3796 0.8031
-15.5036 -63.0533 0.4497 0.7713
-15.6098 -67.7387 0.4815 0.7572
-15.0980 -81.7388 0.5757 0.7171
-14.9582 -88.1766 0.6194 0.6992
-2.0200 -13.0621 0.0915 0.9485
22.2057 -84.9379 0.6081 0.7039
22.8212 -82.3555 0.5919 0.7105
25.4173 -82.2992 0.5966 0.7085
29.3950 -82.2128 0.6047 0.7052
30.7461 -82.1834 0.6077 0.7040
33.4907 -82.1238 0.6143 0.7013
34.8859 -82.0936 0.6178 0.6999
36.2975 -82.0629 0.6215 0.6984
37.7263 -82.0319 0.6254 0.6969
39.1735 -82.0004 0.6294 0.6952
40.6397 -81.9686 0.6337 0.6935
43.6342 -81.9035 0.6427 0.6899
45.1644 -81.8703 0.6476 0.6880
49.9019 -81.7675 0.6635 0.6817
53.1954 -81.6959 0.6752 0.6771
3.3881 -1.9015 0.0269 0.9846
3.3994 -1.8430 0.0268 0.9847
3.3939 -1.7764 0.0265 0.9848
3.4120 -1.7229 0.0265 0.9848
3.4495 -1.6790 0.0266 0.9848
3.6292 -1.6371 0.0276 0.9842
19.4796 -8.1105 0.1461 0.9191
22.4647 -8.2179 0.1657 0.9088
22.8475 -7.9813 0.1676 0.9077
23.9155 -7.9643 0.1746 0.9041
28.5973 -8.1499 0.2060 0.8879
11.2447 -3.0277 0.0807 0.9545
11.4143 -2.8952 0.0816 0.9540
11.5878 -2.7597 0.0825 0.9535
11.5572 -2.5745 0.0820 0.9537
11.7294 -2.4336 0.0830 0.9532
11.6080 -2.2320 0.0819 0.9538
11.7797 -2.0870 0.0829 0.9533
15.8679 -2.3353 0.1111 0.9379
18.9974 -2.5129 0.1327 0.9262
19.1352 -2.2471 0.1334 0.9258
29.5689 -2.1642 0.2053 0.8882
29.2664 -1.7125 0.2030 0.8893
31.2195 -0.9127 0.2163 0.8826
47.0954 -0.6882 0.3262 0.8283
96.2051 4.2200 0.6670 0.6803
96.4084 5.6413 0.6689 0.6796
42.6272 3.7468 0.2964 0.8427
28.3766 3.7534 0.1982 0.8918
27.8918 4.1048 0.1953 0.8934
24.9450 4.0443 0.1750 0.9039
20.8150 4.0022 0.1468 0.9187
20.2071 4.5013 0.1434 0.9205
20.2575 4.8242 0.1442 0.9201
20.3085 5.1511 0.1451 0.9196
12.7235 4.0316 0.0924 0.9480
12.3062 4.0982 0.0898 0.9494
12.1030 4.2279 0.0888 0.9500
12.1265 4.4360 0.0894 0.9497
12.1993 5.0792 0.0915 0.9485
12.2243 5.3005 0.0923 0.9481
12.2757 5.7545 0.0939 0.9472
12.3021 5.9877 0.0948 0.9467
12.3981 6.7218 0.0977 0.9451
12.6500 7.0995 0.1005 0.9436
16.4779 9.5670 0.1320 0.9266
16.1672 9.7052 0.1306 0.9273
16.6432 10.3248 0.1356 0.9246
16.2364 10.7418 0.1348 0.9251
16.1496 11.0270 0.1354 0.9248
9.3380 9.9731 0.0946 0.9468
3.7377 7.8240 0.0601 0.9659
3.2530 7.9768 0.0597 0.9661
-1.3590 9.7270 0.0680 0.9615
-4.8933 6.2422 0.0549 0.9688
-4.6393 5.7434 0.0511 0.9709
-4.8881 5.5363 0.0512 0.9709
-4.9140 5.4044 0.0506 0.9712
-4.9440 5.1279 0.0493 0.9719
-5.0628 4.2762 0.0459 0.9738
-5.1176 3.9516 0.0448 0.9745
-5.1298 3.8427 0.0444 0.9747
-5.1480 3.7402 0.0441 0.9749
-5.1767 3.6467 0.0439 0.9750
-5.2901 3.4998 0.0439 0.9749
-5.4288 3.4786 0.0447 0.9745
-0.9720 0.6030 0.0079 0.9954
-0.8887 0.4987 0.0071 0.9959
-0.8883 0.4816 0.0070 0.9960
-0.8763 0.4265 0.0068 0.9961
-0.8717 0.4086 0.0067 0.9962
-0.8629 0.3741 0.0065 0.9962
-0.8580 0.3572 0.0064 0.9963
-0.8528 0.3405 0.0064 0.9963
-0.8478 0.3242 0.0063 0.9964
-0.8429 0.3083 0.0062 0.9964
-0.8333 0.2775 0.0061 0.9965
-0.8287 0.2625 0.0060 0.9965
-0.8229 0.2345 0.0059 0.9966
-0.8219 0.2212 0.0059 0.9966
-0.8210 0.2082 0.0059 0.9966
-0.8200 0.1953 0.0058 0.9966
-0.8167 0.1819 0.0058 0.9967
-0.8032 0.1302 0.0056 0.9968
-0.8005 0.1177 0.0056 0.9968
-0.7978 0.1055 0.0056 0.9968
-0.7952 0.0933 0.0055 0.9968
-0.7874 0.0576 0.0055 0.9968
-0.7848 0.0459 0.0054 0.9969
-0.7799 0.0228 0.0054 0.9969
-0.7403 -0.0108 -0.0031 0.9970
-0.7426 -0.0218 -0.0031 0.9970
-0.7448 -0.0327 -0.0031 0.9970
-0.7539 -0.0774 -0.0031 0.9970
-0.7562 -0.0888 -0.0032 0.9970
-0.7585 -0.1004 -0.0032 0.9969
-0.7656 -0.1357 -0.0032 0.9969
-0.7769 -0.1850 -0.0033 0.9968
-0.7791 -0.1977 -0.0033 0.9968
-0.7868 -0.2493 -0.0034 0.9967
-0.7948 -0.2777 -0.0035 0.9966
-0.8074 -0.3225 -0.0036 0.9965
-0.8207 -0.3702 -0.0037 0.9964
-0.8244 -0.3865 -0.0038 0.9964
-0.8401 -0.4555 -0.0040 0.9962
-0.8443 -0.4738 -0.0040 0.9961
-0.8486 -0.5095 -0.0041 0.9960
-15.7285 -10.7396 -0.0791 0.9266
-15.1107 -10.9786 -0.0776 0.9280
-14.7041 -11.3542 -0.0772 0.9284
-11.1610 -9.4272 -0.0607 0.9432
-10.1453 -9.3611 -0.0574 0.9463
-9.8091 -9.5964 -0.0570 0.9466
-7.8453 -8.1373 -0.0470 0.9558
-7.5703 -8.0852 -0.0460 0.9567
-7.1159 -8.0595 -0.0447 0.9579
-6.9040 -8.0537 -0.0441 0.9585
-6.6971 -8.0475 -0.0435 0.9590
-5.7376 -8.0197 -0.0410 0.9613
-5.3848 -8.0113 -0.0401 0.9621
-4.7284 -8.0087 -0.0386 0.9635
-4.4324 -8.0348 -0.0381 0.9640
-4.1567 -8.0849 -0.0378 0.9643
-4.0993 -8.2681 -0.0383 0.9638
-4.0554 -8.4890 -0.0391 0.9631
-4.0365 -8.7768 -0.0401 0.9621
-4.0413 -9.1367 -0.0415 0.9608
-4.7563 -11.1926 -0.0505 0.9525
-4.5468 -11.1493 -0.0500 0.9530
-4.1810 -11.1758 -0.0496 0.9534
-4.1932 -11.7275 -0.0518 0.9514
-3.8813 -11.9455 -0.0522 0.9510
-3.7231 -12.7111 -0.0550 0.9484
-15.5034 -63.0522 -0.2698 0.7713
-15.4196 -66.9132 -0.2854 0.7598
-2.6142 -13.0804 -0.0554 0.9480
-2.4335 -13.1751 -0.0557 0.9478
-0.1411 -2.7566 -0.0115 0.9890
22.8212 -82.3556 -0.3551 0.7105
24.1141 -82.3275 -0.3565 0.7095
25.4173 -82.2992 -0.3579 0.7085
26.7313 -82.2706 -0.3595 0.7075
28.0570 -82.2418 -0.3611 0.7064
34.8860 -82.0935 -0.3707 0.6999
36.2975 -82.0629 -0.3729 0.6984
40.6397 -81.9686 -0.3802 0.6935
42.1263 -81.9363 -0.3829 0.6918
45.1644 -81.8704 -0.3886 0.6880
51.5343 -81.7320 -0.4015 0.6794
7.1740 -10.6733 -0.0534 0.9499
3.3860 -2.1006 -0.0166 0.9842
3.3610 -1.9514 -0.0162 0.9846
3.4024 -1.9095 -0.0162 0.9845
3.3781 -1.7682 -0.0158 0.9849
3.3971 -1.7153 -0.0158 0.9849
3.5973 -1.6227 -0.0164 0.9843
19.3309 -8.0485 -0.0870 0.9197
21.5534 -8.2435 -0.0959 0.9118
22.4892 -7.8562 -0.0990 0.9091
23.5017 -7.8265 -0.1029 0.9057
24.6263 -7.8031 -0.1073 0.9018
11.4487 -2.9039 -0.0491 0.9539
11.7350 -2.4347 -0.0498 0.9532
11.8375 -2.2761 -0.0501 0.9529
15.8276 -2.5662 -0.0666 0.9379
15.9163 -2.3424 -0.0669 0.9377
19.1194 -2.5290 -0.0801 0.9258
22.2031 -2.2790 -0.0928 0.9146
22.5852 -1.9852 -0.0942 0.9133
29.2622 -2.1417 -0.1219 0.8893
29.4970 -1.2939 -0.1227 0.8886
46.9529 -0.6862 -0.1951 0.8288
96.1801 4.2189 -0.4001 0.6804
72.9828 4.2705 -0.3038 0.7464
42.2732 3.7157 -0.1763 0.8439
35.9300 4.2193 -0.1503 0.8653
24.4772 3.9685 -0.1030 0.9056
20.2503 3.8936 -0.0857 0.9208
20.1110 4.7893 -0.0859 0.9206
20.1607 5.1136 -0.0864 0.9202
12.2503 4.0795 -0.0537 0.9497
12.1001 4.4263 -0.0535 0.9498
12.1476 4.8507 -0.0544 0.9490
12.2219 5.5130 -0.0557 0.9478
12.2475 5.7414 -0.0562 0.9473
12.3548 6.6984 -0.0584 0.9453
12.3830 6.9496 -0.0590 0.9448
16.4955 9.5773 -0.0793 0.9265
16.3074 9.7895 -0.0790 0.9267
16.5160 10.2459 -0.0808 0.9252
15.4054 9.8715 -0.0760 0.9294
16.2275 10.7360 -0.0809 0.9251
9.2974 9.9298 -0.0565 0.9470
3.7377 7.8239 -0.0360 0.9659
3.5762 7.7761 -0.0356 0.9663
3.4482 7.7959 -0.0354 0.9665
3.3400 7.8595 -0.0355 0.9664
-1.3635 9.7594 -0.0409 0.9613
-4.8252 6.5402 -0.0338 0.9680
-4.7945 5.5929 -0.0306 0.9710
-4.8213 5.4607 -0.0303 0.9713
-4.8475 5.3312 -0.0299 0.9716
-4.8590 5.1895 -0.0295 0.9720
-4.8733 5.0546 -0.0292 0.9723
-4.8932 4.9290 -0.0289 0.9726
-4.9544 4.5713 -0.0280 0.9734
-4.9746 4.4572 -0.0278 0.9736
-5.0097 4.2314 -0.0273 0.9741
-5.0675 3.9130 -0.0266 0.9747
-5.0865 3.8103 -0.0264 0.9749
-5.1105 3.7130 -0.0263 0.9750
-5.2147 3.4500 -0.0260 0.9753
-0.8486 0.5264 -0.0041 0.9960
-0.8486 0.5094 -0.0041 0.9960
-0.8401 0.4554 -0.0040 0.9962
-0.8360 0.4375 -0.0039 0.9962
-0.8321 0.4201 -0.0039 0.9963
-0.8282 0.4030 -0.0038 0.9963
-0.8163 0.3539 -0.0037 0.9964
-0.8118 0.3380 -0.0037 0.9965
-0.8074 0.3224 -0.0036 0.9965
-0.8031 0.3071 -0.0036 0.9966
-0.7948 0.2777 -0.0035 0.9966
-0.7908 0.2633 -0.0035 0.9967
-0.7868 0.2493 -0.0034 0.9967
-0.7798 0.2100 -0.0034 0.9968
-0.7791 0.1976 -0.0033 0.9968
-0.7769 0.1850 -0.0033 0.9968
-0.7706 0.1599 -0.0033 0.9969
-0.7680 0.1477 -0.0032 0.9969
-0.7656 0.1356 -0.0032 0.9969
-0.7632 0.1237 -0.0032 0.9969
-0.7585 0.1003 -0.0032 0.9969
-0.7539 0.0773 -0.0031 0.9970
-0.7516 0.0660 -0.0031 0.9970
-0.7087 -0.0207 -0.0108 0.9972
-0.7127 -0.0417 -0.0109 0.9971
-0.7291 -0.1292 -0.0113 0.9970
-0.7354 -0.1638 -0.0115 0.9970
-0.7405 -0.1878 -0.0116 0.9969
-0.7456 -0.2244 -0.0119 0.9969
-0.7490 -0.2373 -0.0120 0.9969
-0.7524 -0.2506 -0.0121 0.9968
-0.7629 -0.2918 -0.0124 0.9967
-0.7666 -0.3062 -0.0126 0.9967
-0.7703 -0.3208 -0.0127 0.9967
-0.7780 -0.3509 -0.0130 0.9966
-0.7883 -0.3980 -0.0135 0.9965
-0.7915 -0.4143 -0.0136 0.9964
-0.7982 -0.4480 -0.0139 0.9963
-0.8017 -0.4655 -0.0141 0.9963
-0.8052 -0.4834 -0.0143 0.9962
-0.8088 -0.5018 -0.0145 0.9962
-0.8107 -0.5195 -0.0147 0.9962
-0.8550 -0.5838 -0.0158 0.9959
-15.2475 -10.7412 -0.2842 0.9281
-15.0218 -10.9140 -0.2829 0.9284
-12.0889 -9.3348 -0.2327 0.9407
-11.4997 -9.4288 -0.2266 0.9422
-10.5012 -9.1361 -0.2121 0.9458
-10.3680 -9.2898 -0.2121 0.9458
-10.1800 -9.3931 -0.2111 0.9461
-9.7504 -9.5390 -0.2079 0.9469
-7.7455 -8.0337 -0.1700 0.9563
-6.8446 -7.9845 -0.1603 0.9588
-6.2478 -7.9702 -0.1543 0.9603
-6.0583 -7.9654 -0.1525 0.9608
-5.8733 -7.9611 -0.1508 0.9612
-5.3506 -7.9606 -0.1462 0.9624
-5.1851 -7.9632 -0.1448 0.9627
-5.0244 -7.9686 -0.1435 0.9630
-4.8662 -7.9736 -0.1423 0.9633
-4.7095 -7.9767 -0.1412 0.9636
-4.5635 -7.9939 -0.1403 0.9638
-4.0443 -8.4658 -0.1430 0.9632
-4.0224 -8.7464 -0.1467 0.9622
-4.0292 -9.1093 -0.1518 0.9609
-4.8029 -11.3021 -0.1871 0.9521
-4.3396 -11.1025 -0.1816 0.9534
-3.9993 -11.1855 -0.1810 0.9536
-3.9063 -12.0225 -0.1926 0.9507
-15.6462 -56.4631 -0.8928 0.7911
-15.5783 -59.5881 -0.9385 0.7816
-14.5079 -62.9571 -0.9845 0.7722
-13.5815 -63.1391 -0.9841 0.7723
-2.2525 -13.2783 -0.2052 0.9475
-2.0197 -13.0607 -0.2014 0.9485
-7.9830 -63.9434 -0.9819 0.7728
-7.0453 -64.0296 -0.9816 0.7728
-6.1066 -64.1016 -0.9812 0.7729
-5.1675 -64.1603 -0.9808 0.7730
-0.1411 -2.7566 -0.0421 0.9890
6.0771 -63.7914 -0.9765 0.7739
7.0059 -63.6720 -0.9761 0.7739
10.6974 -63.0605 -0.9747 0.7742
11.6135 -62.8745 -0.9743 0.7743
13.4359 -62.4626 -0.9736 0.7745
15.2442 -61.9984 -0.9729 0.7746
17.9272 -61.2047 -0.9718 0.7748
18.8130 -60.9149 -0.9715 0.7749
22.3077 -59.6277 -0.9701 0.7752
23.1686 -59.2752 -0.9698 0.7752
24.8736 -58.5325 -0.9691 0.7754
27.3869 -57.3281 -0.9681 0.7756
28.2123 -56.9029 -0.9678 0.7756
29.0310 -56.4657 -0.9675 0.7757
29.8433 -56.0173 -0.9672 0.7758
30.6486 -55.5573 -0.9669 0.7758
31.4469 -55.0857 -0.9666 0.7759
33.0222 -54.1089 -0.9659 0.7760
34.5678 -53.0882 -0.9653 0.7761
36.0817 -52.0229 -0.9647 0.7763
37.5638 -50.9158 -0.9642 0.7764
39.0127 -49.7673 -0.9636 0.7765
10.4157 -12.8945 -0.2526 0.9358
40.4272 -48.5784 -0.9630 0.7766
41.1210 -47.9688 -0.9628 0.7767
43.1484 -46.0831 -0.9620 0.7768
43.8054 -45.4356 -0.9617 0.7769
44.4529 -44.7789 -0.9615 0.7769
46.3369 -42.7551 -0.9607 0.7771
46.9452 -42.0631 -0.9605 0.7771
47.5431 -41.3625 -0.9603 0.7772
48.7086 -39.9369 -0.9598 0.7773
49.2752 -39.2116 -0.9596 0.7773
49.8318 -38.4789 -0.9594 0.7773
50.9123 -36.9899 -0.9590 0.7774
51.9494 -35.4715 -0.9586 0.7775
3.4097 -2.0469 -0.0606 0.9842
16.2815 -9.4531 -0.2869 0.9275
3.4191 -1.9189 -0.0597 0.9844
3.3732 -1.7656 -0.0580 0.9849
3.3923 -1.7129 -0.0579 0.9849
3.7115 -1.6093 -0.0616 0.9839
19.2262 -8.0049 -0.3174 0.9201
21.3113 -8.5099 -0.3497 0.9123
21.3561 -8.1681 -0.3484 0.9126
23.3360 -7.7713 -0.3748 0.9063
27.2239 -8.1905 -0.4332 0.8925
11.3119 -3.0458 -0.1785 0.9542
11.4833 -2.9127 -0.1805 0.9537
11.6225 -2.7679 -0.1821 0.9533
11.8403 -2.0977 -0.1832 0.9530
15.8654 -2.5723 -0.2449 0.9377
15.8634 -2.3346 -0.2443 0.9379
19.1176 -2.5287 -0.2939 0.9258
22.5775 -2.3174 -0.3458 0.9132
22.6888 -1.9944 -0.3471 0.9129
29.4891 -2.1584 -0.4506 0.8884
63.6061 -0.0000 -0.9692 0.7753
63.5465 2.7874 -0.9693 0.7753
63.4999 3.7157 -0.9693 0.7753
63.4408 4.6432 -0.9693 0.7753
36.8099 3.7782 -0.5639 0.8624
28.6212 3.7857 -0.4399 0.8909
27.7467 4.0834 -0.4274 0.8939
20.0581 3.8566 -0.3112 0.9215
19.9653 4.1422 -0.3107 0.9217
20.0242 4.7687 -0.3137 0.9210
20.0721 5.0911 -0.3155 0.9205
20.1205 5.4175 -0.3175 0.9200
13.5224 3.8537 -0.2143 0.9453
13.0475 3.9254 -0.2076 0.9470
12.6064 3.9945 -0.2015 0.9485
12.1948 4.0611 -0.1959 0.9499
11.9723 4.5790 -0.1953 0.9500
12.1448 5.0565 -0.2005 0.9487
12.1693 5.2766 -0.2021 0.9483
12.1942 5.5005 -0.2038 0.9479
12.2452 5.9601 -0.2075 0.9470
12.2715 6.1962 -0.2095 0.9465
12.2982 6.4370 -0.2115 0.9460
12.3289 6.6843 -0.2137 0.9454
16.1758 9.7105 -0.2875 0.9273
16.1872 10.0420 -0.2903 0.9266
16.2448 10.7474 -0.2968 0.9250
16.3769 11.5367 -0.3053 0.9230
50.3776 37.7383 -0.9592 0.7774
49.2752 39.2116 -0.9596 0.7773
47.5431 41.3625 -0.9603 0.7772
10.4704 9.9482 -0.2201 0.9439
10.1876 9.9667 -0.2172 0.9446
9.0600 9.1264 -0.1960 0.9499
8.7607 9.0868 -0.1923 0.9508
8.5751 9.1583 -0.1912 0.9510
39.7241 49.1775 -0.9633 0.7765
38.2929 50.3471 -0.9639 0.7764
36.8272 51.4750 -0.9645 0.7763
35.3287 52.5607 -0.9650 0.7762
33.0222 54.1089 -0.9659 0.7760
30.6487 55.5572 -0.9669 0.7758
29.8433 56.0173 -0.9672 0.7758
28.2123 56.9028 -0.9678 0.7756
3.5762 7.7761 -0.1304 0.9663
3.3399 7.8595 -0.1301 0.9664
20.5670 60.2868 -0.9706 0.7751
19.6914 60.6038 -0.9710 0.7750
17.9259 61.2004 -0.9718 0.7748
17.0364 61.4796 -0.9721 0.7747
14.3428 62.2405 -0.9733 0.7745
13.4370 62.4676 -0.9737 0.7744
11.6152 62.8833 -0.9744 0.7743
10.6993 63.0712 -0.9748 0.7742
8.8588 63.4070 -0.9756 0.7740
7.0079 63.6900 -0.9764 0.7739
6.0790 63.8113 -0.9768 0.7738
5.1480 63.9185 -0.9772 0.7737
4.2153 64.0126 -0.9775 0.7737
0.4695 64.2522 -0.9791 0.7733
-2.3495 64.2878 -0.9803 0.7731
-3.2899 64.2729 -0.9807 0.7730
-7.9885 63.9877 -0.9826 0.7726
-1.3669 9.7838 -0.1505 0.9613
-10.7976 63.6514 -0.9838 0.7724
-14.5201 63.0102 -0.9853 0.7721
-15.4452 62.8157 -0.9857 0.7720
-17.2875 62.3857 -0.9865 0.7718
-18.2040 62.1497 -0.9868 0.7718
-20.0274 61.6382 -0.9876 0.7716
-3.0954 9.0732 -0.1461 0.9624
-25.4039 59.7805 -0.9898 0.7712
-26.2842 59.4244 -0.9901 0.7711
-27.1593 59.0550 -0.9905 0.7710
-29.7529 57.8698 -0.9915 0.7708
-32.2937 56.5689 -0.9926 0.7706
-33.9556 55.6384 -0.9932 0.7705
-34.7766 55.1548 -0.9936 0.7704
-35.5904 54.6587 -0.9939 0.7703
-36.3975 54.1509 -0.9942 0.7703
-4.6311 6.6772 -0.1238 0.9680
-4.6177 6.4544 -0.1209 0.9688
-4.6903 5.8064 -0.1137 0.9706
-4.7579 5.3889 -0.1095 0.9717
-4.7795 5.2564 -0.1083 0.9720
-4.8007 5.1271 -0.1070 0.9723
-4.8416 4.8771 -0.1047 0.9729
-4.8832 4.6396 -0.1026 0.9734
-4.9041 4.5250 -0.1017 0.9737
-4.9428 4.3001 -0.0998 0.9741
-4.9610 4.1903 -0.0990 0.9744
-5.0046 3.9825 -0.0975 0.9747
-5.0272 3.8818 -0.0968 0.9749
-5.0503 3.7832 -0.0962 0.9751
-5.0922 3.5872 -0.0949 0.9754
-0.8104 0.5361 -0.0148 0.9961
-0.8107 0.5195 -0.0147 0.9962
-0.8052 0.4833 -0.0143 0.9963
-0.8017 0.4654 -0.0141 0.9963
-0.7982 0.4480 -0.0139 0.9963
-0.7948 0.4309 -0.0138 0.9964
-0.7915 0.4143 -0.0136 0.9964
-0.7883 0.3980 -0.0135 0.9965
-0.7851 0.3821 -0.0133 0.9965
-0.7779 0.3509 -0.0130 0.9966
-0.7703 0.3207 -0.0127 0.9967
-0.7666 0.3061 -0.0126 0.9967
-0.7630 0.2918 -0.0124 0.9967
-0.7524 0.2505 -0.0121 0.9968
-0.7424 0.2115 -0.0118 0.9969
-0.7377 0.1757 -0.0116 0.9970
-0.7354 0.1638 -0.0115 0.9970
-0.7333 0.1521 -0.0114 0.9970
-0.7312 0.1406 -0.0113 0.9970
-0.7270 0.1178 -0.0112 0.9971
-0.7249 0.1066 -0.0112 0.9971
-0.7188 0.0737 -0.0110 0.9971
-0.7167 0.0630 -0.0110 0.9971
-0.7147 0.0523 -0.0109 0.9971
-0.7107 0.0311 -0.0108 0.9972
-0.7087 0.0207 -0.0108 0.9972
-0.6742 0.0000 -0.0177 0.9973
-0.6758 -0.0099 -0.0178 0.9973
-0.6794 -0.0298 -0.0179 0.9973
-0.6812 -0.0399 -0.0180 0.9973
-0.6849 -0.0602 -0.0181 0.9973
-0.6904 -0.0914 -0.0183 0.9972
-0.6923 -0.1020 -0.0184 0.9972
-0.6941 -0.1126 -0.0185 0.9972
-0.6959 -0.1233 -0.0186 0.9972
-0.6996 -0.1452 -0.0188 0.9971
-0.7032 -0.1675 -0.0190 0.9971
-0.7051 -0.1788 -0.0191 0.9971
-0.7071 -0.1904 -0.0193 0.9971
-0.7088 -0.2020 -0.0194 0.9971
-0.7146 -0.2265 -0.0197 0.9970
-0.7266 -0.2779 -0.0205 0.9969
-0.7297 -0.2914 -0.0207 0.9969
-0.7329 -0.3052 -0.0209 0.9968
-0.7361 -0.3192 -0.0211 0.9968
-0.7426 -0.3481 -0.0216 0.9967
-0.7460 -0.3631 -0.0218 0.9967
-0.7515 -0.3934 -0.0223 0.9966
-0.7569 -0.4248 -0.0228 0.9965
-0.7597 -0.4411 -0.0231 0.9965
-0.7654 -0.4748 -0.0237 0.9964
-0.7683 -0.4923 -0.0240 0.9964
-0.7713 -0.5103 -0.0243 0.9963
-0.7743 -0.5287 -0.0247 0.9963
-15.1706 -11.3645 -0.4990 0.9270
-12.1124 -9.3529 -0.4028 0.9406
-12.0431 -9.5835 -0.4052 0.9403
-11.5460 -9.4668 -0.3930 0.9420
-10.6424 -9.2589 -0.3713 0.9451
-9.9147 -9.6998 -0.3651 0.9460
-7.2238 -7.9448 -0.2827 0.9579
-7.0114 -7.9412 -0.2789 0.9585
-6.8088 -7.9427 -0.2754 0.9590
-6.6112 -7.9443 -0.2721 0.9595
-6.2276 -7.9444 -0.2657 0.9604
-5.5131 -7.9489 -0.2547 0.9620
-4.8503 -7.9474 -0.2451 0.9634
-4.6958 -7.9534 -0.2431 0.9637
-4.5508 -7.9717 -0.2416 0.9639
-4.4130 -7.9996 -0.2405 0.9641
-4.0862 -8.2416 -0.2422 0.9639
-4.0086 -8.7162 -0.2525 0.9623
-4.0134 -9.0736 -0.2612 0.9611
-4.7695 -11.2237 -0.3210 0.9524
-4.5997 -11.2791 -0.3207 0.9524
-4.1806 -11.1748 -0.3141 0.9534
-4.0217 -11.7886 -0.3279 0.9514
-8.3776 -36.3549 -0.9821 0.8613
-7.8439 -36.4656 -0.9819 0.8614
-2.2543 -13.2892 -0.3548 0.9475
-5.1556 -36.9015 -0.9808 0.8615
-4.0734 -37.0204 -0.9804 0.8615
-2.9886 -37.1075 -0.9800 0.8616
-2.4456 -37.1393 -0.9798 0.8616
-0.1411 -2.7566 -0.0727 0.9890
0.8147 -37.1625 -0.9785 0.8618
1.3573 -37.1385 -0.9783 0.8618
3.5213 -36.9639 -0.9775 0.8619
5.1345 -36.7504 -0.9768 0.8620
5.6697 -36.6636 -0.9766 0.8620
6.7357 -36.4667 -0.9762 0.8621
7.2662 -36.3566 -0.9760 0.8621
7.7951 -36.2388 -0.9758 0.8622
8.3220 -36.1134 -0.9756 0.8622
8.8469 -35.9804 -0.9754 0.8622
9.3697 -35.8399 -0.9752 0.8622
11.4379 -35.2021 -0.9744 0.8623
12.4564 -34.8386 -0.9740 0.8624
13.4637 -34.4460 -0.9736 0.8624
13.9628 -34.2388 -0.9734 0.8625
14.4587 -34.0243 -0.9732 0.8625
14.9513 -33.8026 -0.9730 0.8625
16.8873 -32.8461 -0.9722 0.8626
17.3621 -32.5895 -0.9721 0.8626
18.7630 -31.7795 -0.9715 0.8627
19.2218 -31.4961 -0.9713 0.8627
19.6763 -31.2062 -0.9712 0.8628
21.0137 -30.2977 -0.9706 0.8628
21.4504 -29.9822 -0.9705 0.8629
21.8824 -29.6604 -0.9703 0.8629
22.3096 -29.3325 -0.9701 0.8629
22.7319 -28.9984 -0.9700 0.8629
23.9688 -27.9603 -0.9695 0.8630
25.5451 -26.4957 -0.9689 0.8631
25.9255 -26.1155 -0.9687 0.8631
26.3003 -25.7300 -0.9686 0.8631
26.6694 -25.3392 -0.9684 0.8631
27.0329 -24.9433 -0.9683 0.8631
27.7422 -24.1358 -0.9680 0.8632
28.7616 -22.8876 -0.9676 0.8632
30.0340 -21.1574 -0.9671 0.8633
3.4360 -2.0627 -0.1055 0.9841
3.4440 -1.9329 -0.1040 0.9843
3.3968 -1.7152 -0.1002 0.9849
21.3715 -8.1739 -0.6023 0.9125
21.4693 -7.8537 -0.6018 0.9126
23.3277 -7.7686 -0.6472 0.9063
24.5512 -7.7793 -0.6780 0.9021
30.9033 -9.2974 -0.8495 0.8789
27.6608 -7.8831 -0.7571 0.8913
11.5181 -2.9216 -0.3128 0.9536
11.6944 -2.7850 -0.3165 0.9530
11.8097 -2.6308 -0.3185 0.9527
11.4974 -2.3855 -0.3091 0.9541
11.8709 -2.1031 -0.3174 0.9529
15.7553 -2.3187 -0.4192 0.9383
19.2898 -2.5515 -0.5122 0.9251
26.1082 -2.6798 -0.6909 0.9003
29.7755 -2.1793 -0.7859 0.8874
37.1948 -1.0873 -0.9796 0.8617
37.2104 -0.0001 -0.9795 0.8617
37.1948 1.0873 -0.9796 0.8617
37.1753 1.6307 -0.9796 0.8617
37.1476 2.1737 -0.9796 0.8617
37.0696 3.2583 -0.9796 0.8617
37.0189 3.7996 -0.9796 0.8617
36.9600 4.3402 -0.9796 0.8616
36.8937 4.8799 -0.9797 0.8616
29.2939 4.3111 -0.7794 0.8883
19.7696 4.1016 -0.5315 0.9224
20.0649 5.0893 -0.5449 0.9205
20.1134 5.4155 -0.5483 0.9200
13.4540 3.8342 -0.3683 0.9456
12.9882 3.9076 -0.3570 0.9472
12.1979 5.7181 -0.3546 0.9475
12.2326 5.9539 -0.3581 0.9470
12.1311 6.8082 -0.3662 0.9459
12.1008 7.0257 -0.3683 0.9455
12.5690 7.5453 -0.3859 0.9430
15.4533 9.9023 -0.4832 0.9292
16.4588 10.8890 -0.5195 0.9241
29.0890 22.4618 -0.9675 0.8632
28.4279 23.3084 -0.9677 0.8632
27.3906 24.5420 -0.9681 0.8632
10.1876 9.9667 -0.3752 0.9446
9.0944 13.1123 -0.4201 0.9381
19.6763 31.2061 -0.9712 0.8628
19.2218 31.4961 -0.9713 0.8627
18.7630 31.7794 -0.9715 0.8627
18.3000 32.0561 -0.9717 0.8627
16.4087 33.0955 -0.9724 0.8626
3.4482 7.7959 -0.2244 0.9665
12.9617 34.6459 -0.9738 0.8624
12.4565 34.8385 -0.9740 0.8624
11.9486 35.0241 -0.9742 0.8624
10.9246 35.3728 -0.9746 0.8623
10.4086 35.5358 -0.9748 0.8623
9.3698 35.8398 -0.9752 0.8622
8.3220 36.1133 -0.9756 0.8622
5.1345 36.7502 -0.9768 0.8620
4.0602 36.9004 -0.9772 0.8620
3.5214 36.9637 -0.9775 0.8619
2.4408 37.0668 -0.9779 0.8619
1.8994 37.1066 -0.9781 0.8619
1.3574 37.1386 -0.9783 0.8618
0.2716 37.1782 -0.9787 0.8618
-0.2717 37.1863 -0.9789 0.8617
-0.8152 37.1864 -0.9792 0.8617
-1.9020 37.1581 -0.9794 0.8617
-3.5309 37.0645 -0.9801 0.8616
-4.6145 36.9624 -0.9806 0.8615
-5.6952 36.8285 -0.9810 0.8615
-6.7720 36.6630 -0.9815 0.8614
-7.3086 36.5684 -0.9817 0.8614
-8.9101 36.2373 -0.9823 0.8613
-9.4407 36.1113 -0.9826 0.8613
-9.9696 35.9775 -0.9828 0.8612
-11.0214 35.6865 -0.9832 0.8612
-11.5442 35.5293 -0.9834 0.8612
-12.5829 35.1920 -0.9838 0.8611
-13.0985 35.0119 -0.9841 0.8611
-14.6295 34.4261 -0.9847 0.8610
-16.1341 33.7728 -0.9853 0.8609
-16.6292 33.5404 -0.9855 0.8609
-18.5749 32.5376 -0.9863 0.8608
-20.4595 31.4211 -0.9870 0.8607
-4.5302 6.7399 -0.2138 0.9680
-4.5543 6.5663 -0.2104 0.9685
-4.5799 6.4015 -0.2072 0.9690
-4.6367 6.0963 -0.2016 0.9698
-4.6834 5.7980 -0.1962 0.9706
-4.7302 5.5179 -0.1913 0.9713
-4.7907 5.1165 -0.1845 0.9723
-4.8099 4.9888 -0.1824 0.9727
-4.8286 4.8640 -0.1804 0.9729
-4.8863 4.5085 -0.1750 0.9737
-4.9062 4.3959 -0.1734 0.9740
-4.9267 4.2862 -0.1719 0.9742
-4.9696 4.0746 -0.1692 0.9746
-5.0088 3.8676 -0.1666 0.9750
-5.0319 3.7695 -0.1655 0.9752
-0.7740 0.5452 -0.0249 0.9962
-0.7683 0.4923 -0.0240 0.9964
-0.7625 0.4577 -0.0234 0.9964
-0.7569 0.4248 -0.0228 0.9965
-0.7542 0.4089 -0.0226 0.9966
-0.7426 0.3481 -0.0216 0.9967
-0.7394 0.3334 -0.0214 0.9968
-0.7297 0.2914 -0.0207 0.9969
-0.7266 0.2779 -0.0205 0.9969
-0.7235 0.2646 -0.0203 0.9969
-0.7205 0.2517 -0.0201 0.9970
-0.7146 0.2264 -0.0197 0.9970
-0.7117 0.2141 -0.0196 0.9970
-0.7071 0.1904 -0.0193 0.9971
-0.7051 0.1788 -0.0191 0.9971
-0.7014 0.1562 -0.0189 0.9971
-0.6996 0.1452 -0.0188 0.9971
-0.6978 0.1341 -0.0187 0.9972
-0.6959 0.1232 -0.0186 0.9972
-0.6922 0.1019 -0.0184 0.9972
-0.6904 0.0913 -0.0183 0.9972
-0.6886 0.0808 -0.0183 0.9972
-0.6867 0.0705 -0.0182 0.9972
-0.6849 0.0602 -0.0181 0.9973
-0.6776 0.0198 -0.0178 0.9973
-0.6465 -0.0000 -0.0242 0.9974
-0.6506 -0.0286 -0.0244 0.9974
-0.6522 -0.0382 -0.0244 0.9974
-0.6555 -0.0576 -0.0246 0.9974
-0.6572 -0.0675 -0.0247 0.9974
-0.6637 -0.1077 -0.0252 0.9973
-0.6749 -0.1818 -0.0262 0.9972
-0.6786 -0.2042 -0.0265 0.9972
-0.6814 -0.2159 -0.0267 0.9971
-0.6959 -0.2779 -0.0280 0.9970
-0.6989 -0.2910 -0.0283 0.9970
-0.7016 -0.3043 -0.0286 0.9969
-0.7071 -0.3315 -0.0292 0.9969
-0.7099 -0.3455 -0.0295 0.9968
