ply
format ascii 1.0
element vertex 1594
property float32 x
property float32 y
property float32 z
property float32 I
end_header
-0.5176 0.3877 -0.0747 0.9974
-0.5171 0.3530 -0.0723 0.9975
-0.5159 0.3097 -0.0695 0.9976
-0.5157 0.2699 -0.0672 0.9977
-0.5155 0.2604 -0.0667 0.9977
-0.5153 0.2509 -0.0662 0.9977
-0.5145 0.2231 -0.0648 0.9977
-0.5142 0.2141 -0.0643 0.9978
-0.5138 0.2052 -0.0639 0.9978
-0.5130 0.1877 -0.0631 0.9978
-0.5128 0.1791 -0.0627 0.9978
-0.5125 0.1707 -0.0624 0.9978
-0.5122 0.1623 -0.0620 0.9978
-0.5119 0.1540 -0.0617 0.9978
-0.5111 0.1377 -0.0611 0.9979
-0.5106 0.1296 -0.0608 0.9979
-0.5098 0.1136 -0.0603 0.9979
-0.5095 0.1057 -0.0601 0.9979
-0.5091 0.0979 -0.0599 0.9979
-0.5087 0.0902 -0.0597 0.9979
-0.5082 0.0824 -0.0595 0.9979
-0.5055 0.0445 -0.0586 0.9980
-0.5027 0.0147 -0.0581 0.9980
-0.5020 0.0073 -0.0580 0.9980
-0.4862 -0.0071 -0.0616 0.9980
-0.4869 -0.0142 -0.0617 0.9980
-0.4876 -0.0213 -0.0619 0.9980
-0.4889 -0.0358 -0.0621 0.9980
-0.4895 -0.0430 -0.0623 0.9980
-0.4900 -0.0503 -0.0624 0.9980
-0.4910 -0.0649 -0.0628 0.9980
-0.4919 -0.0797 -0.0631 0.9980
-0.4926 -0.0947 -0.0636 0.9980
-0.4936 -0.1252 -0.0645 0.9979
-0.4938 -0.1330 -0.0648 0.9979
-0.4941 -0.1408 -0.0651 0.9979
-0.4950 -0.1729 -0.0664 0.9979
-0.4951 -0.1811 -0.0668 0.9979
-0.4952 -0.1894 -0.0672 0.9979
-0.4954 -0.1978 -0.0676 0.9979
-0.4957 -0.2064 -0.0680 0.9978
-0.4959 -0.2150 -0.0685 0.9978
-0.4961 -0.2237 -0.0690 0.9978
-0.4963 -0.2416 -0.0700 0.9978
-0.4964 -0.2506 -0.0705 0.9978
-0.4964 -0.2598 -0.0710 0.9977
-0.4964 -0.2691 -0.0716 0.9977
-0.4960 -0.2977 -0.0733 0.9977
-0.4954 -0.3175 -0.0746 0.9976
-0.4951 -0.3275 -0.0752 0.9976
-0.4941 -0.4173 -0.0820 0.9974
-0.4934 -0.4421 -0.0839 0.9973
-0.4929 -0.4547 -0.0850 0.9973
-0.4917 -0.4810 -0.0872 0.9972
-0.4910 -0.4946 -0.0883 0.9972
-0.4902 -0.5084 -0.0895 0.9972
-0.4882 -0.5370 -0.0920 0.9971
-0.4977 -0.5805 -0.0969 0.9969
-0.5820 -0.6993 -0.1153 0.9963
-4.7578 -6.2554 -0.9959 0.9688
-1.8419 -2.6555 -0.4095 0.9871
-1.7829 -2.7381 -0.4141 0.9869
-1.7365 -2.8453 -0.4224 0.9866
-3.8951 -6.8229 -0.9956 0.9688
-3.7948 -6.8788 -0.9956 0.9688
-3.3859 -7.0877 -0.9954 0.9688
-3.2819 -7.1361 -0.9954 0.9688
-3.1771 -7.1829 -0.9953 0.9688
-2.9656 -7.2721 -0.9952 0.9688
-2.7516 -7.3550 -0.9952 0.9688
-2.5353 -7.4316 -0.9951 0.9688
-2.4263 -7.4676 -0.9950 0.9688
-2.3169 -7.5019 -0.9950 0.9688
-2.2069 -7.5346 -0.9949 0.9688
-1.8744 -7.6231 -0.9948 0.9688
-1.7628 -7.6494 -0.9948 0.9688
-1.6507 -7.6739 -0.9947 0.9688
-1.3126 -7.7379 -0.9946 0.9689
-1.0859 -7.7722 -0.9945 0.9689
-0.9721 -7.7869 -0.9944 0.9689
-0.8582 -7.7999 -0.9944 0.9689
-0.7441 -7.8112 -0.9944 0.9689
-0.2865 -7.8400 -0.9942 0.9689
0.4010 -7.8329 -0.9939 0.9689
0.5153 -7.8258 -0.9939 0.9689
0.7437 -7.8067 -0.9938 0.9689
0.9714 -7.7809 -0.9937 0.9689
1.0849 -7.7655 -0.9936 0.9689
1.3113 -7.7298 -0.9935 0.9689
1.4240 -7.7095 -0.9935 0.9689
1.6485 -7.6639 -0.9934 0.9689
1.7603 -7.6387 -0.9934 0.9689
1.9826 -7.5833 -0.9933 0.9689
2.2031 -7.5214 -0.9932 0.9689
2.5303 -7.4167 -0.9931 0.9689
2.6382 -7.3786 -0.9930 0.9689
2.7456 -7.3391 -0.9930 0.9689
2.9587 -7.2550 -0.9929 0.9689
3.0642 -7.2107 -0.9929 0.9689
3.1691 -7.1649 -0.9928 0.9689
3.2733 -7.1175 -0.9928 0.9689
3.3769 -7.0686 -0.9927 0.9689
3.7834 -6.8582 -0.9926 0.9689
3.8830 -6.8019 -0.9925 0.9689
3.9819 -6.7442 -0.9925 0.9689
4.2731 -6.5624 -0.9924 0.9689
4.3684 -6.4991 -0.9923 0.9689
4.9196 -6.0903 -0.9921 0.9689
5.0950 -5.9436 -0.9921 0.9689
5.2662 -5.7917 -0.9920 0.9689
2.9015 -2.7567 -0.5072 0.9840
5.7520 -5.3073 -0.9918 0.9689
5.8287 -5.2226 -0.9918 0.9689
5.9785 -5.0497 -0.9917 0.9689
6.0515 -4.9616 -0.9917 0.9689
6.2626 -4.6913 -0.9916 0.9689
6.3966 -4.5061 -0.9915 0.9689
6.4616 -4.4120 -0.9915 0.9689
6.7077 -4.0266 -0.9914 0.9689
6.7656 -3.9281 -0.9914 0.9689
6.8221 -3.8287 -0.9914 0.9689
6.8246 -3.5720 -0.9761 0.9694
5.9668 -2.5872 -0.8242 0.9741
6.9807 -2.7875 -0.9525 0.9701
7.1537 -2.6168 -0.9653 0.9698
7.2994 -2.4308 -0.9749 0.9695
7.3671 -2.2164 -0.9749 0.9695
7.3986 -2.1085 -0.9749 0.9695
7.5298 -1.7931 -0.9809 0.9693
7.6335 -1.7005 -0.9911 0.9690
7.6575 -1.5887 -0.9910 0.9690
7.6798 -1.4766 -0.9910 0.9690
7.7004 -1.3642 -0.9910 0.9690
7.7793 -0.7985 -0.9910 0.9690
6.7301 -0.5915 -0.8562 0.9731
6.6801 -0.3909 -0.8480 0.9734
7.8192 -0.1142 -0.9910 0.9690
7.8200 0.0000 -0.9910 0.9690
7.8167 0.2286 -0.9910 0.9690
7.8125 0.3427 -0.9910 0.9690
7.8067 0.4568 -0.9910 0.9690
7.7993 0.5709 -0.9910 0.9690
7.7527 1.0255 -0.9910 0.9690
7.7369 1.1386 -0.9910 0.9690
7.7195 1.2516 -0.9910 0.9690
7.7005 1.3643 -0.9910 0.9690
7.6798 1.4766 -0.9910 0.9690
7.6574 1.5887 -0.9910 0.9690
7.6335 1.7005 -0.9911 0.9690
7.6079 1.8118 -0.9911 0.9690
7.5807 1.9228 -0.9911 0.9690
7.5519 2.0334 -0.9911 0.9690
7.4894 2.2532 -0.9911 0.9690
7.4558 2.3625 -0.9911 0.9690
7.3454 2.6871 -0.9912 0.9690
7.3055 2.7941 -0.9912 0.9690
7.2640 2.9006 -0.9912 0.9690
7.2210 3.0065 -0.9912 0.9690
7.1764 3.1118 -0.9912 0.9690
7.1303 3.2163 -0.9912 0.9690
7.0827 3.3203 -0.9913 0.9690
7.0336 3.4234 -0.9913 0.9690
6.9308 3.6277 -0.9913 0.9690
6.8772 3.7286 -0.9913 0.9690
6.8222 3.8288 -0.9914 0.9689
6.7077 4.0267 -0.9914 0.9689
6.5875 4.2212 -0.9915 0.9689
6.5252 4.3170 -0.9915 0.9689
6.3966 4.5061 -0.9915 0.9689
6.1935 4.7825 -0.9916 0.9689
6.1231 4.8726 -0.9916 0.9689
5.8703 4.9582 -0.9737 0.9695
5.7973 5.0436 -0.9738 0.9695
5.7232 5.1279 -0.9738 0.9695
5.4146 5.4541 -0.9739 0.9695
5.2532 5.6104 -0.9740 0.9695
5.0874 5.7619 -0.9740 0.9695
5.0028 5.8358 -0.9741 0.9695
4.9172 5.9084 -0.9741 0.9695
4.8305 5.9799 -0.9741 0.9695
4.7428 6.0500 -0.9742 0.9695
4.6540 6.1189 -0.9742 0.9695
4.1957 6.4435 -0.9744 0.9695
4.1013 6.5044 -0.9744 0.9695
4.0060 6.5639 -0.9745 0.9695
3.6163 6.7877 -0.9746 0.9695
3.5168 6.8401 -0.9747 0.9695
3.4167 6.8911 -0.9747 0.9695
3.0088 7.0800 -0.9749 0.9695
2.9051 7.1235 -0.9749 0.9695
2.5905 7.2449 -0.9750 0.9695
2.3779 7.3182 -0.9751 0.9695
2.1633 7.3852 -0.9752 0.9694
2.0552 7.4163 -0.9752 0.9694
1.9467 7.4459 -0.9753 0.9694
1.6187 7.5250 -0.9754 0.9694
1.5087 7.5482 -0.9755 0.9694
1.2876 7.5898 -0.9755 0.9694
1.1766 7.6080 -0.9756 0.9694
1.0654 7.6248 -0.9756 0.9694
0.9539 7.6399 -0.9757 0.9694
0.8422 7.6534 -0.9757 0.9694
0.6183 7.6754 -0.9758 0.9694
0.5061 7.6839 -0.9759 0.9694
0.1689 7.6998 -0.9760 0.9694
0.0563 7.7018 -0.9760 0.9694
-0.0562 7.7021 -0.9761 0.9694
-0.1687 7.7009 -0.9761 0.9694
-0.3937 7.6933 -0.9762 0.9694
-0.5061 7.6871 -0.9763 0.9694
-0.6184 7.6792 -0.9763 0.9694
-0.7442 7.8113 -0.9944 0.9689
-1.1994 7.7559 -0.9945 0.9689
-1.4256 7.7183 -0.9946 0.9688
-1.5383 7.6969 -0.9947 0.9688
-1.5470 6.2915 -0.8210 0.9742
-1.7538 6.3292 -0.8323 0.9739
-1.6898 5.4715 -0.7257 0.9772
-1.7917 4.7893 -0.6480 0.9796
-1.8142 4.6416 -0.6315 0.9801
-1.8801 4.2505 -0.5890 0.9814
-1.8812 4.0905 -0.5705 0.9820
-1.8990 3.9751 -0.5583 0.9824
-1.9742 3.5787 -0.5179 0.9837
-2.0478 3.5872 -0.5234 0.9835
-2.0586 3.4868 -0.5131 0.9838
-2.0941 3.4314 -0.5094 0.9839
-2.1330 3.3830 -0.5068 0.9840
-2.2354 3.3259 -0.5078 0.9840
-2.3069 3.3262 -0.5130 0.9838
-2.3796 3.3261 -0.5183 0.9836
-2.6236 3.3468 -0.5389 0.9830
-0.4865 0.5511 -0.0932 0.9970
-0.4882 0.5370 -0.0920 0.9971
-0.4894 0.5227 -0.0907 0.9971
-0.4910 0.4946 -0.0883 0.9972
-0.4917 0.4811 -0.0872 0.9972
-0.4929 0.4548 -0.0850 0.9973
-0.4934 0.4421 -0.0839 0.9973
-0.4944 0.4054 -0.0810 0.9974
-0.4948 0.3821 -0.0792 0.9975
-0.4950 0.3708 -0.0784 0.9975
-0.4951 0.3597 -0.0775 0.9975
-0.4951 0.3488 -0.0768 0.9976
-0.4952 0.3382 -0.0760 0.9976
-0.4951 0.3276 -0.0752 0.9976
-0.4962 0.2881 -0.0727 0.9977
-0.4963 0.2786 -0.0721 0.9977
-0.4963 0.2691 -0.0716 0.9977
-0.4964 0.2598 -0.0710 0.9977
-0.4964 0.2507 -0.0705 0.9978
-0.4957 0.2064 -0.0680 0.9978
-0.4954 0.1979 -0.0676 0.9979
-0.4951 0.1811 -0.0668 0.9979
-0.4950 0.1730 -0.0664 0.9979
-0.4944 0.1488 -0.0654 0.9979
-0.4942 0.1409 -0.0651 0.9979
-0.4938 0.1330 -0.0648 0.9979
-0.4936 0.1252 -0.0645 0.9979
-0.4929 0.1023 -0.0638 0.9980
-0.4926 0.0948 -0.0636 0.9980
-0.4923 0.0873 -0.0634 0.9980
-0.4915 0.0724 -0.0630 0.9980
-0.4905 0.0577 -0.0626 0.9980
-0.4900 0.0503 -0.0624 0.9980
-0.4895 0.0430 -0.0623 0.9980
-0.4889 0.0358 -0.0621 0.9980
-0.4882 0.0286 -0.0620 0.9980
-0.4869 0.0143 -0.0617 0.9980
-0.4862 0.0071 -0.0616 0.9980
-0.4706 0.0000 -0.0649 0.9981
-0.4713 -0.0069 -0.0651 0.9981
-0.4720 -0.0137 -0.0652 0.9981
-0.4727 -0.0207 -0.0653 0.9981
-0.4733 -0.0277 -0.0654 0.9981
-0.4738 -0.0346 -0.0656 0.9981
-0.4749 -0.0487 -0.0659 0.9981
-0.4753 -0.0558 -0.0660 0.9981
-0.4765 -0.0772 -0.0666 0.9981
-0.4768 -0.0844 -0.0668 0.9980
-0.4771 -0.0917 -0.0670 0.9980
-0.4777 -0.1137 -0.0678 0.9980
-0.4778 -0.1212 -0.0680 0.9980
-0.4780 -0.1362 -0.0686 0.9980
-0.4782 -0.1515 -0.0692 0.9980
-0.4784 -0.1671 -0.0699 0.9980
-0.4784 -0.1750 -0.0703 0.9979
-0.4786 -0.2159 -0.0725 0.9979
-0.4787 -0.2243 -0.0730 0.9979
-0.4784 -0.2504 -0.0745 0.9978
-0.4780 -0.2683 -0.0757 0.9978
-0.4771 -0.2959 -0.0775 0.9977
-0.4767 -0.3054 -0.0781 0.9977
-0.4757 -0.3247 -0.0795 0.9977
-0.4751 -0.3346 -0.0802 0.9977
-0.4746 -0.3447 -0.0809 0.9976
-0.4738 -0.3658 -0.0826 0.9976
-0.4729 -0.3877 -0.0844 0.9975
-0.4718 -0.4105 -0.0863 0.9975
-0.4696 -0.4462 -0.0894 0.9974
-0.4679 -0.4712 -0.0916 0.9973
-0.4668 -0.4841 -0.0928 0.9973
-0.4657 -0.4973 -0.0940 0.9973
-0.4632 -0.5246 -0.0966 0.9972
-0.4617 -0.5386 -0.0979 0.9971
-4.2838 -5.8064 -0.9958 0.9713
-1.7804 -2.7342 -0.4503 0.9869
-1.7340 -2.8413 -0.4594 0.9866
-3.4843 -6.3160 -0.9954 0.9713
-3.2980 -6.4147 -0.9954 0.9713
-3.0134 -6.5523 -0.9953 0.9713
-2.8204 -6.6370 -0.9952 0.9713
-2.7231 -6.6773 -0.9951 0.9713
-2.5266 -6.7534 -0.9951 0.9713
-2.4275 -6.7894 -0.9950 0.9713
-2.3280 -6.8239 -0.9950 0.9713
-2.2279 -6.8569 -0.9949 0.9713
-2.1274 -6.8884 -0.9949 0.9713
-1.8233 -6.9742 -0.9948 0.9713
-1.7211 -6.9998 -0.9947 0.9713
-1.3091 -7.0873 -0.9946 0.9713
-1.2054 -7.1054 -0.9945 0.9713
-0.9971 -7.1369 -0.9945 0.9713
-0.8927 -7.1504 -0.9944 0.9713
-0.1579 -7.2021 -0.9941 0.9713
0.0527 -7.2030 -0.9940 0.9713
0.2631 -7.1978 -0.9940 0.9713
0.5782 -7.1785 -0.9938 0.9713
0.6829 -7.1689 -0.9938 0.9713
0.7876 -7.1579 -0.9938 0.9713
0.8921 -7.1454 -0.9937 0.9713
1.1004 -7.1157 -0.9936 0.9713
1.3077 -7.0799 -0.9935 0.9713
1.4110 -7.0597 -0.9935 0.9713
1.5139 -7.0380 -0.9935 0.9713
2.0232 -6.9074 -0.9933 0.9714
2.1239 -6.8768 -0.9932 0.9714
2.2240 -6.8448 -0.9932 0.9714
2.4229 -6.7763 -0.9931 0.9714
2.5215 -6.7400 -0.9931 0.9714
2.7172 -6.6629 -0.9930 0.9714
2.8142 -6.6222 -0.9930 0.9714
2.9105 -6.5801 -0.9929 0.9714
3.0062 -6.5366 -0.9929 0.9714
3.1013 -6.4918 -0.9928 0.9714
3.1957 -6.4455 -0.9928 0.9714
3.3824 -6.3489 -0.9927 0.9714
3.4747 -6.2986 -0.9927 0.9714
3.5662 -6.2470 -0.9927 0.9714
3.7470 -6.1396 -0.9926 0.9714
3.8362 -6.0840 -0.9926 0.9714
4.4363 -5.6591 -0.9923 0.9714
4.5183 -5.5936 -0.9923 0.9714
4.6796 -5.4587 -0.9922 0.9714
4.7587 -5.3896 -0.9922 0.9714
4.8367 -5.3194 -0.9922 0.9714
4.9898 -5.1755 -0.9921 0.9714
2.8566 -2.7946 -0.5515 0.9840
5.2830 -4.8746 -0.9920 0.9714
5.3535 -4.7968 -0.9920 0.9714
5.4911 -4.6380 -0.9919 0.9714
5.6240 -4.4753 -0.9918 0.9714
5.8142 -4.2243 -0.9918 0.9714
5.8752 -4.1388 -0.9917 0.9714
5.9349 -4.0524 -0.9917 0.9714
6.0505 -3.8770 -0.9917 0.9714
6.1064 -3.7882 -0.9917 0.9714
6.1637 -3.4592 -0.9754 0.9719
6.2135 -3.3687 -0.9754 0.9719
6.2620 -3.2775 -0.9754 0.9719
6.3090 -3.1856 -0.9753 0.9719
5.6358 -2.7430 -0.8650 0.9750
6.5631 -2.6206 -0.9752 0.9719
6.7364 -2.1345 -0.9752 0.9719
6.8027 -1.9387 -0.9761 0.9718
6.9880 -1.6642 -0.9913 0.9714
7.0115 -1.5618 -0.9913 0.9714
7.0905 -1.1496 -0.9913 0.9714
7.1065 -1.0459 -0.9913 0.9714
7.1210 -0.9419 -0.9913 0.9714
7.1455 -0.7334 -0.9912 0.9714
6.7277 -0.5913 -0.9320 0.9731
6.7014 -0.4905 -0.9273 0.9732
6.4619 -0.2834 -0.8926 0.9742
6.4481 -0.1885 -0.8902 0.9743
7.1829 0.0000 -0.9912 0.9714
7.1821 0.1049 -0.9912 0.9714
7.1798 0.2099 -0.9912 0.9714
7.1760 0.3148 -0.9912 0.9714
7.1554 0.6290 -0.9912 0.9714
7.1340 0.8378 -0.9912 0.9714
7.1210 0.9420 -0.9913 0.9714
7.1065 1.0459 -0.9913 0.9714
7.0731 1.2531 -0.9913 0.9714
7.0115 1.5619 -0.9913 0.9714
6.9880 1.6642 -0.9913 0.9714
6.8792 2.0697 -0.9913 0.9714
6.8159 2.2698 -0.9914 0.9714
6.7821 2.3692 -0.9914 0.9714
6.7469 2.4681 -0.9914 0.9714
6.7102 2.5664 -0.9914 0.9714
6.6721 2.6642 -0.9914 0.9714
6.6325 2.7615 -0.9914 0.9714
6.5916 2.8582 -0.9915 0.9714
6.3660 3.3320 -0.9916 0.9714
6.3167 3.4247 -0.9916 0.9714
6.2661 3.5167 -0.9916 0.9714
6.2142 3.6080 -0.9916 0.9714
6.1609 3.6985 -0.9916 0.9714
6.1063 3.7882 -0.9917 0.9714
6.0505 3.8771 -0.9917 0.9714
5.8752 4.1388 -0.9917 0.9714
5.7520 4.3089 -0.9918 0.9714
5.6886 4.3926 -0.9918 0.9714
5.5581 4.5572 -0.9919 0.9714
5.3535 4.7968 -0.9920 0.9714
5.1170 4.8616 -0.9740 0.9719
4.9730 5.0094 -0.9741 0.9719
4.8248 5.1529 -0.9741 0.9719
4.7492 5.2230 -0.9742 0.9719
4.5948 5.3598 -0.9742 0.9719
4.4365 5.4921 -0.9743 0.9719
4.3559 5.5566 -0.9743 0.9719
4.2744 5.6198 -0.9744 0.9719
4.1920 5.6818 -0.9744 0.9719
4.1087 5.7427 -0.9744 0.9719
4.0244 5.8023 -0.9745 0.9719
3.9394 5.8607 -0.9745 0.9719
3.7667 5.9737 -0.9746 0.9719
3.6791 6.0283 -0.9746 0.9719
3.1379 6.3287 -0.9748 0.9719
3.0452 6.3741 -0.9749 0.9719
2.8578 6.4609 -0.9749 0.9719
2.7632 6.5022 -0.9750 0.9719
2.4759 6.6178 -0.9751 0.9719
2.3790 6.6535 -0.9751 0.9719
2.2817 6.6879 -0.9752 0.9719
2.1838 6.7207 -0.9752 0.9719
2.0854 6.7521 -0.9752 0.9719
1.8874 6.8108 -0.9753 0.9719
1.7877 6.8379 -0.9753 0.9719
1.5873 6.8877 -0.9754 0.9719
1.3855 6.9318 -0.9755 0.9719
1.2841 6.9516 -0.9755 0.9719
1.0805 6.9866 -0.9756 0.9719
0.9784 7.0020 -0.9757 0.9719
0.5677 7.0484 -0.9758 0.9719
0.3616 7.0626 -0.9759 0.9718
0.1551 7.0707 -0.9760 0.9718
-0.0516 7.0728 -0.9761 0.9718
-0.2583 7.0688 -0.9762 0.9718
-0.3615 7.0646 -0.9762 0.9718
-0.6709 7.0429 -0.9763 0.9718
-1.3091 7.0873 -0.9946 0.9713
-1.4126 7.0677 -0.9946 0.9713
-1.5051 6.5313 -0.9249 0.9733
-1.5634 6.3583 -0.9036 0.9739
-2.1274 6.8884 -0.9949 0.9713
-2.2279 6.8569 -0.9949 0.9713
-1.8533 4.3611 -0.6539 0.9810
-1.8626 4.2111 -0.6354 0.9816
-1.8990 3.9751 -0.6079 0.9824
-1.9480 3.6566 -0.5717 0.9834
-2.0367 3.5677 -0.5669 0.9835
-2.0627 3.4936 -0.5599 0.9838
-2.1389 3.3922 -0.5534 0.9839
-2.5353 3.3334 -0.5779 0.9832
-0.5517 0.7038 -0.1234 0.9964
-0.4734 0.5861 -0.1040 0.9970
-0.4632 0.5246 -0.0966 0.9972
-0.4645 0.5109 -0.0953 0.9972
-0.4657 0.4974 -0.0940 0.9973
-0.4678 0.4713 -0.0916 0.9973
-0.4688 0.4587 -0.0905 0.9974
-0.4697 0.4462 -0.0894 0.9974
-0.4742 0.3553 -0.0818 0.9976
-0.4751 0.3347 -0.0802 0.9977
-0.4771 0.2960 -0.0775 0.9977
-0.4778 0.2774 -0.0762 0.9978
-0.4783 0.2593 -0.0751 0.9978
-0.4786 0.2244 -0.0730 0.9979
-0.4785 0.1993 -0.0715 0.9979
-0.4783 0.1910 -0.0711 0.9979
-0.4784 0.1830 -0.0707 0.9979
-0.4782 0.1516 -0.0692 0.9980
-0.4779 0.1287 -0.0683 0.9980
-0.4778 0.1212 -0.0680 0.9980
-0.4777 0.1138 -0.0678 0.9980
-0.4776 0.1064 -0.0675 0.9980
-0.4771 0.0918 -0.0670 0.9980
-0.4765 0.0773 -0.0666 0.9981
-0.4758 0.0630 -0.0662 0.9981
-0.4753 0.0559 -0.0660 0.9981
-0.4749 0.0488 -0.0659 0.9981
-0.4744 0.0417 -0.0657 0.9981
-0.4738 0.0347 -0.0656 0.9981
-0.4567 0.0000 -0.0682 0.9982
-0.4573 -0.0066 -0.0683 0.9982
-0.4586 -0.0201 -0.0685 0.9981
-0.4596 -0.0336 -0.0688 0.9981
-0.4601 -0.0404 -0.0690 0.9981
-0.4606 -0.0472 -0.0691 0.9981
-0.4617 -0.0679 -0.0697 0.9981
-0.4620 -0.0749 -0.0699 0.9981
-0.4622 -0.0819 -0.0701 0.9981
-0.4627 -0.0960 -0.0706 0.9981
-0.4628 -0.1031 -0.0708 0.9981
-0.4630 -0.1174 -0.0713 0.9981
-0.4630 -0.1320 -0.0719 0.9981
-0.4629 -0.1466 -0.0725 0.9980
-0.4628 -0.1541 -0.0728 0.9980
-0.4625 -0.1847 -0.0744 0.9980
-0.4624 -0.1925 -0.0748 0.9980
-0.4621 -0.2248 -0.0767 0.9979
-0.4607 -0.2674 -0.0795 0.9978
-0.4602 -0.2763 -0.0801 0.9978
-0.4597 -0.2852 -0.0808 0.9978
-0.4572 -0.3220 -0.0835 0.9977
-0.4564 -0.3316 -0.0842 0.9977
-0.4547 -0.3511 -0.0858 0.9977
-0.4532 -0.3716 -0.0875 0.9976
-0.4467 -0.4499 -0.0947 0.9974
-0.4454 -0.4620 -0.0958 0.9974
-0.4441 -0.4743 -0.0970 0.9974
-0.4395 -0.5127 -0.1008 0.9973
-0.4613 -0.6065 -0.1138 0.9969
-0.5187 -0.7030 -0.1304 0.9965
-3.8798 -5.4230 -0.9956 0.9734
-1.7778 -2.7303 -0.4865 0.9869
-1.7673 -2.8029 -0.4948 0.9867
-1.6518 -2.7978 -0.4851 0.9869
-3.3051 -5.7895 -0.9954 0.9734
-3.2200 -5.8370 -0.9953 0.9734
-3.0479 -5.9282 -0.9953 0.9734
-2.9608 -5.9718 -0.9952 0.9734
-2.5166 -6.1710 -0.9951 0.9734
-2.4261 -6.2068 -0.9950 0.9734
-2.3350 -6.2414 -0.9950 0.9734
-2.2435 -6.2746 -0.9949 0.9734
-1.7791 -6.4205 -0.9948 0.9734
-1.6851 -6.4455 -0.9947 0.9734
-1.5907 -6.4692 -0.9947 0.9734
-1.4959 -6.4915 -0.9947 0.9734
-1.3055 -6.5320 -0.9946 0.9734
-1.2099 -6.5501 -0.9945 0.9734
-0.9215 -6.5961 -0.9944 0.9734
-0.8250 -6.6086 -0.9944 0.9734
-0.7284 -6.6197 -0.9944 0.9734
-0.5346 -6.6377 -0.9943 0.9734
-0.4375 -6.6445 -0.9942 0.9734
-0.3404 -6.6499 -0.9942 0.9734
-0.1459 -6.6565 -0.9941 0.9734
0.1459 -6.6557 -0.9940 0.9734
0.2431 -6.6527 -0.9940 0.9734
0.3403 -6.6481 -0.9939 0.9734
0.4374 -6.6422 -0.9939 0.9734
0.5344 -6.6348 -0.9939 0.9734
0.7279 -6.6159 -0.9938 0.9734
1.0171 -6.5769 -0.9937 0.9734
1.1130 -6.5611 -0.9936 0.9734
1.3041 -6.5252 -0.9935 0.9734
1.3993 -6.5052 -0.9935 0.9734
1.4942 -6.4838 -0.9935 0.9734
1.5887 -6.4611 -0.9934 0.9734
1.8701 -6.3845 -0.9933 0.9735
1.9631 -6.3563 -0.9933 0.9735
2.1478 -6.2957 -0.9932 0.9735
2.2395 -6.2635 -0.9932 0.9735
2.5116 -6.1587 -0.9931 0.9735
2.6903 -6.0822 -0.9930 0.9735
2.7788 -6.0420 -0.9930 0.9735
2.8666 -6.0005 -0.9929 0.9735
2.9539 -5.9578 -0.9929 0.9735
3.0405 -5.9139 -0.9929 0.9735
3.2118 -5.8221 -0.9928 0.9735
3.5460 -5.6238 -0.9927 0.9735
3.6276 -5.5712 -0.9926 0.9735
3.7086 -5.5174 -0.9926 0.9735
3.7886 -5.4625 -0.9926 0.9735
3.9464 -5.3491 -0.9925 0.9735
4.0240 -5.2907 -0.9925 0.9735
4.3257 -5.0460 -0.9924 0.9735
4.3988 -4.9821 -0.9923 0.9735
4.4710 -4.9171 -0.9923 0.9735
4.5422 -4.8511 -0.9923 0.9735
4.6125 -4.7841 -0.9922 0.9735
4.6818 -4.7161 -0.9922 0.9735
4.8836 -4.5061 -0.9921 0.9735
4.9488 -4.4341 -0.9921 0.9735
5.0129 -4.3612 -0.9921 0.9735
5.0760 -4.2874 -0.9921 0.9735
5.1380 -4.2127 -0.9920 0.9735
5.1988 -4.1370 -0.9920 0.9735
5.4863 -3.7461 -0.9919 0.9735
5.5526 -3.4446 -0.9756 0.9739
5.6507 -3.2807 -0.9756 0.9739
5.7887 -3.0298 -0.9755 0.9739
5.8323 -2.9449 -0.9755 0.9739
5.9939 -2.5990 -0.9755 0.9739
6.0312 -2.5111 -0.9754 0.9739
6.0671 -2.4227 -0.9754 0.9739
6.1018 -2.3337 -0.9754 0.9739
6.1980 -2.0640 -0.9754 0.9739
6.2274 -1.9732 -0.9754 0.9739
6.2619 -1.8839 -0.9764 0.9739
6.3213 -1.8015 -0.9814 0.9738
6.4369 -1.6327 -0.9915 0.9735
6.4600 -1.5384 -0.9915 0.9735
6.5021 -1.3489 -0.9915 0.9735
6.5211 -1.2538 -0.9915 0.9735
6.5387 -1.1584 -0.9915 0.9735
6.5548 -1.0627 -0.9915 0.9735
6.5830 -0.8707 -0.9915 0.9735
6.5950 -0.7744 -0.9915 0.9735
6.6056 -0.6780 -0.9915 0.9735
6.6148 -0.5814 -0.9915 0.9735
6.6225 -0.4847 -0.9915 0.9735
6.6289 -0.3879 -0.9914 0.9735
6.4811 -0.1895 -0.9681 0.9741
6.6395 -0.0970 -0.9914 0.9735
6.6395 0.0971 -0.9914 0.9735
6.6374 0.1940 -0.9914 0.9735
6.6148 0.5815 -0.9915 0.9735
6.6056 0.6780 -0.9915 0.9735
6.5696 0.9669 -0.9915 0.9735
6.5549 1.0628 -0.9915 0.9735
6.5021 1.3490 -0.9915 0.9735
6.4818 1.4439 -0.9915 0.9735
6.4600 1.5385 -0.9915 0.9735
6.4124 1.7266 -0.9915 0.9735
6.3594 1.9132 -0.9916 0.9735
6.2696 2.1902 -0.9916 0.9735
6.2371 2.2816 -0.9916 0.9735
6.1679 2.4629 -0.9916 0.9735
6.1313 2.5528 -0.9916 0.9735
6.0935 2.6422 -0.9917 0.9735
6.0543 2.7310 -0.9917 0.9735
5.9721 2.9068 -0.9917 0.9735
5.9291 2.9938 -0.9917 0.9735
5.8849 3.0802 -0.9917 0.9735
5.8393 3.1659 -0.9918 0.9735
5.7926 3.2510 -0.9918 0.9735
5.7445 3.3353 -0.9918 0.9735
5.6953 3.4189 -0.9918 0.9735
5.6449 3.5019 -0.9918 0.9735
5.3172 3.9832 -0.9920 0.9735
5.1379 4.2127 -0.9920 0.9735
5.0760 4.2874 -0.9921 0.9735
5.0129 4.3612 -0.9921 0.9735
4.9488 4.4341 -0.9921 0.9735
4.8836 4.5061 -0.9921 0.9735
4.8174 4.5771 -0.9922 0.9735
4.6818 4.7161 -0.9922 0.9735
4.6125 4.7842 -0.9922 0.9735
4.5423 4.8512 -0.9923 0.9735
4.1746 5.0162 -0.9744 0.9740
4.1010 5.0768 -0.9744 0.9740
4.0265 5.1363 -0.9745 0.9740
3.9511 5.1948 -0.9745 0.9739
3.7979 5.3084 -0.9746 0.9739
3.5620 5.4702 -0.9746 0.9739
3.4818 5.5218 -0.9747 0.9739
3.4008 5.5723 -0.9747 0.9739
3.0974 5.2462 -0.9096 0.9757
3.1537 5.7165 -0.9748 0.9739
3.0700 5.7622 -0.9748 0.9739
2.9855 5.8066 -0.9749 0.9739
2.9004 5.8498 -0.9749 0.9739
2.8147 5.8918 -0.9749 0.9739
2.7285 5.9325 -0.9750 0.9739
2.6416 5.9720 -0.9750 0.9739
2.5541 6.0101 -0.9750 0.9739
2.1990 6.1499 -0.9752 0.9739
2.1090 6.1816 -0.9752 0.9739
2.0185 6.2120 -0.9753 0.9739
1.4672 6.3663 -0.9755 0.9739
1.3740 6.3873 -0.9755 0.9739
1.1869 6.4252 -0.9756 0.9739
1.0929 6.4421 -0.9756 0.9739
0.9987 6.4577 -0.9757 0.9739
0.9043 6.4718 -0.9757 0.9739
0.8096 6.4846 -0.9757 0.9739
0.7148 6.4959 -0.9758 0.9739
0.6199 6.5059 -0.9758 0.9739
0.5248 6.5146 -0.9758 0.9739
0.3342 6.5277 -0.9759 0.9739
0.0479 6.5368 -0.9760 0.9739
-0.0477 6.5370 -0.9761 0.9739
-0.1432 6.5359 -0.9761 0.9739
-0.2387 6.5333 -0.9761 0.9739
-0.3342 6.5294 -0.9762 0.9739
-0.4296 6.5241 -0.9762 0.9739
-0.6200 6.5092 -0.9763 0.9739
-0.7284 6.6197 -0.9944 0.9734
-1.3055 6.5320 -0.9946 0.9734
-1.4008 6.5125 -0.9946 0.9734
-1.4959 6.4916 -0.9947 0.9734
-1.6851 6.4456 -0.9947 0.9734
-1.7792 6.4205 -0.9948 0.9734
-1.9662 6.3663 -0.9948 0.9734
-2.1515 6.3066 -0.9949 0.9734
-2.2435 6.2746 -0.9949 0.9734
-2.3350 6.2414 -0.9950 0.9734
-1.8138 4.6405 -0.7439 0.9801
-1.8352 4.5002 -0.7256 0.9805
-1.8626 4.2110 -0.6875 0.9815
-1.8812 4.0904 -0.6722 0.9820
-1.9323 3.7584 -0.6310 0.9831
-1.9480 3.6565 -0.6186 0.9834
-1.9631 3.5586 -0.6068 0.9837
-2.0322 3.5598 -0.6120 0.9836
-2.0667 3.5005 -0.6070 0.9837
-2.1834 3.3533 -0.5975 0.9839
-2.3085 3.3284 -0.6048 0.9838
-2.3805 3.3274 -0.6109 0.9836
-0.4613 0.6066 -0.1138 0.9969
-0.4385 0.5429 -0.1042 0.9972
-0.4390 0.5276 -0.1025 0.9972
-0.4427 0.4869 -0.0983 0.9973
-0.4441 0.4744 -0.0970 0.9974
-0.4454 0.4620 -0.0958 0.9974
-0.4467 0.4500 -0.0947 0.9974
-0.4479 0.4382 -0.0935 0.9975
-0.4539 0.3612 -0.0866 0.9977
-0.4546 0.3511 -0.0858 0.9977
-0.4556 0.3413 -0.0850 0.9977
-0.4572 0.3221 -0.0835 0.9977
-0.4611 0.2587 -0.0789 0.9979
-0.4617 0.2417 -0.0778 0.9979
-0.4619 0.2333 -0.0773 0.9979
-0.4623 0.2086 -0.0757 0.9980
-0.4624 0.2005 -0.0752 0.9980
-0.4624 0.1925 -0.0748 0.9980
-0.4625 0.1847 -0.0744 0.9980
-0.4627 0.1770 -0.0740 0.9980
-0.4627 0.1693 -0.0736 0.9980
-0.4628 0.1542 -0.0728 0.9980
-0.4630 0.1393 -0.0722 0.9980
-0.4630 0.1320 -0.0719 0.9981
-0.4630 0.1247 -0.0716 0.9981
-0.4627 0.0960 -0.0706 0.9981
-0.4625 0.0890 -0.0703 0.9981
-0.4623 0.0820 -0.0701 0.9981
-0.4617 0.0680 -0.0697 0.9981
-0.4614 0.0611 -0.0695 0.9981
-0.4610 0.0542 -0.0693 0.9981
-0.4606 0.0473 -0.0691 0.9981
-0.4601 0.0405 -0.0690 0.9981
-0.4596 0.0337 -0.0688 0.9981
-0.4579 0.0134 -0.0684 0.9981
-0.4573 0.0067 -0.0683 0.9982
-0.4435 0.0000 -0.0712 0.9982
-0.4441 -0.0064 -0.0714 0.9982
-0.4447 -0.0130 -0.0715 0.9982
-0.4453 -0.0195 -0.0716 0.9982
-0.4457 -0.0261 -0.0717 0.9982
-0.4467 -0.0392 -0.0720 0.9982
-0.4474 -0.0525 -0.0724 0.9982
-0.4481 -0.0659 -0.0728 0.9982
-0.4483 -0.0727 -0.0730 0.9982
-0.4485 -0.0795 -0.0732 0.9982
-0.4487 -0.0862 -0.0734 0.9982
-0.4488 -0.0931 -0.0736 0.9981
-0.4490 -0.1069 -0.0742 0.9981
-0.4490 -0.1138 -0.0744 0.9981
-0.4490 -0.1209 -0.0747 0.9981
-0.4489 -0.1279 -0.0750 0.9981
-0.4488 -0.1350 -0.0753 0.9981
-0.4485 -0.1493 -0.0759 0.9981
-0.4483 -0.1566 -0.0763 0.9981
-0.4480 -0.1639 -0.0766 0.9981
-0.4479 -0.1713 -0.0770 0.9981
-0.4477 -0.1787 -0.0774 0.9980
-0.4472 -0.1939 -0.0783 0.9980
-0.4470 -0.2016 -0.0788 0.9980
-0.4463 -0.2254 -0.0803 0.9980
-0.4460 -0.2334 -0.0809 0.9980
-0.4447 -0.2582 -0.0826 0.9979
-0.4442 -0.2666 -0.0832 0.9979
-0.4436 -0.2752 -0.0839 0.9979
-0.4429 -0.2837 -0.0845 0.9979
-0.4422 -0.2925 -0.0852 0.9979
-0.4414 -0.3014 -0.0859 0.9978
-0.4406 -0.3104 -0.0866 0.9978
-0.4366 -0.3474 -0.0896 0.9977
-0.4342 -0.3667 -0.0913 0.9977
-0.4321 -0.3872 -0.0932 0.9977
-0.4299 -0.4084 -0.0953 0.9976
-0.4273 -0.4304 -0.0974 0.9975
-0.4260 -0.4549 -0.1001 0.9975
-0.4249 -0.4812 -0.1031 0.9974
-0.4235 -0.5089 -0.1064 0.9973
-0.4228 -0.5234 -0.1081 0.9973
-0.4219 -0.5382 -0.1099 0.9972
-3.5313 -5.0914 -0.9955 0.9752
-1.8101 -2.6929 -0.5213 0.9869
-1.7774 -2.7296 -0.5233 0.9869
-1.7648 -2.7988 -0.5316 0.9867
-1.6496 -2.7939 -0.5213 0.9869
-1.5199 -2.8529 -0.5193 0.9870
-2.8324 -5.5089 -0.9952 0.9752
-2.7515 -5.5495 -0.9952 0.9752
-2.5054 -5.6643 -0.9951 0.9752
-2.4223 -5.7001 -0.9950 0.9752
-2.1699 -5.8002 -0.9949 0.9752
-1.9994 -5.8607 -0.9949 0.9752
-1.8272 -5.9162 -0.9948 0.9752
-1.6534 -5.9667 -0.9947 0.9752
-1.5660 -5.9900 -0.9947 0.9752
-1.3902 -6.0328 -0.9946 0.9752
-1.3019 -6.0522 -0.9946 0.9752
-1.2133 -6.0704 -0.9945 0.9752
-1.0353 -6.1028 -0.9945 0.9752
-0.9460 -6.1170 -0.9944 0.9752
-0.8565 -6.1300 -0.9944 0.9752
-0.6769 -6.1520 -0.9943 0.9752
-0.4968 -6.1687 -0.9943 0.9752
-0.1356 -6.1863 -0.9941 0.9752
-0.0452 -6.1874 -0.9941 0.9752
0.2260 -6.1828 -0.9940 0.9752
0.4065 -6.1731 -0.9939 0.9752
0.7663 -6.1379 -0.9938 0.9753
0.8559 -6.1259 -0.9937 0.9753
0.9453 -6.1125 -0.9937 0.9753
1.0344 -6.0978 -0.9937 0.9753
1.1234 -6.0818 -0.9936 0.9753
1.3005 -6.0460 -0.9936 0.9753
1.3887 -6.0261 -0.9935 0.9753
1.4765 -6.0050 -0.9935 0.9753
1.5641 -5.9826 -0.9934 0.9753
1.9962 -5.8514 -0.9933 0.9753
2.0815 -5.8214 -0.9932 0.9753
2.1663 -5.7902 -0.9932 0.9753
2.3343 -5.7240 -0.9931 0.9753
2.4176 -5.6891 -0.9931 0.9753
2.5827 -5.6157 -0.9930 0.9753
2.6644 -5.5772 -0.9930 0.9753
2.7455 -5.5375 -0.9930 0.9753
2.8260 -5.4966 -0.9929 0.9753
2.9060 -5.4545 -0.9929 0.9753
2.9852 -5.4114 -0.9929 0.9753
3.0639 -5.3670 -0.9929 0.9753
3.2192 -5.2748 -0.9928 0.9753
3.4469 -5.1282 -0.9927 0.9753
3.5214 -5.0771 -0.9927 0.9753
3.5951 -5.0250 -0.9926 0.9753
3.7402 -4.9175 -0.9926 0.9753
3.8115 -4.8622 -0.9926 0.9753
3.8821 -4.8059 -0.9925 0.9753
3.9518 -4.7485 -0.9925 0.9753
4.1557 -4.5704 -0.9924 0.9753
2.8567 -2.7948 -0.6420 0.9839
4.6595 -4.0537 -0.9922 0.9753
4.7181 -3.9851 -0.9922 0.9753
4.7757 -3.9156 -0.9922 0.9753
4.8879 -3.7743 -0.9921 0.9753
4.9709 -3.5017 -0.9769 0.9757
5.0657 -3.3514 -0.9758 0.9757
5.2074 -3.1260 -0.9758 0.9757
5.4987 -2.5777 -0.9757 0.9757
5.5357 -2.4970 -0.9756 0.9757
5.6062 -2.3341 -0.9756 0.9757
5.7029 -2.0861 -0.9756 0.9757
5.7326 -2.0026 -0.9756 0.9757
5.7945 -1.8360 -0.9765 0.9757
5.9606 -1.6049 -0.9917 0.9753
6.0250 -1.3421 -0.9917 0.9753
6.0440 -1.2539 -0.9917 0.9753
6.0930 -0.9878 -0.9917 0.9753
6.1067 -0.8987 -0.9917 0.9753
6.1487 -0.5405 -0.9916 0.9753
6.1559 -0.4505 -0.9916 0.9753
6.1618 -0.3605 -0.9916 0.9753
6.1664 -0.2705 -0.9916 0.9753
6.1717 -0.0902 -0.9916 0.9753
6.1717 0.0902 -0.9916 0.9753
6.1664 0.2705 -0.9916 0.9753
6.1192 0.8095 -0.9916 0.9753
6.0779 1.0768 -0.9917 0.9753
6.0616 1.1655 -0.9917 0.9753
6.0440 1.2539 -0.9917 0.9753
6.0250 1.3421 -0.9917 0.9753
5.9833 1.5177 -0.9917 0.9753
5.9606 1.6049 -0.9917 0.9753
5.9365 1.6919 -0.9917 0.9753
5.9112 1.7784 -0.9917 0.9753
5.8847 1.8646 -0.9917 0.9753
5.8279 2.0359 -0.9918 0.9753
5.7976 2.1209 -0.9918 0.9753
5.7660 2.2053 -0.9918 0.9753
5.6276 2.5386 -0.9918 0.9753
5.5900 2.6205 -0.9919 0.9753
5.5113 2.7828 -0.9919 0.9753
5.4701 2.8631 -0.9919 0.9753
5.4278 2.9427 -0.9919 0.9753
5.2470 3.2550 -0.9920 0.9753
5.1498 3.4071 -0.9920 0.9753
5.0483 3.5563 -0.9921 0.9753
4.8879 3.7743 -0.9921 0.9753
4.8323 3.8454 -0.9922 0.9753
4.7181 3.9852 -0.9922 0.9753
4.6595 4.0538 -0.9922 0.9753
4.5393 4.1884 -0.9923 0.9753
4.4151 4.3195 -0.9923 0.9753
4.3517 4.3836 -0.9923 0.9753
4.2873 4.4468 -0.9924 0.9753
4.2219 4.5091 -0.9924 0.9753
4.0206 4.6902 -0.9925 0.9753
3.8821 4.8059 -0.9925 0.9753
3.7402 4.9176 -0.9926 0.9753
3.5301 4.9339 -0.9747 0.9757
3.4577 4.9851 -0.9747 0.9757
3.2362 5.1323 -0.9748 0.9757
3.1609 5.1792 -0.9748 0.9757
2.8533 5.3557 -0.9749 0.9757
2.6958 5.4371 -0.9750 0.9757
2.6162 5.4761 -0.9750 0.9757
2.3739 5.5860 -0.9751 0.9757
2.2921 5.6203 -0.9751 0.9757
2.0438 5.7159 -0.9752 0.9757
1.5358 5.8741 -0.9754 0.9757
1.3636 5.9169 -0.9755 0.9757
1.1902 5.9546 -0.9756 0.9757
1.1031 5.9716 -0.9756 0.9757
1.0157 5.9873 -0.9757 0.9757
0.9282 6.0017 -0.9757 0.9757
0.8404 6.0148 -0.9757 0.9757
0.4877 6.0545 -0.9759 0.9757
0.3992 6.0612 -0.9759 0.9757
0.3106 6.0666 -0.9759 0.9757
0.1332 6.0735 -0.9760 0.9757
0.0445 6.0750 -0.9760 0.9757
-0.0443 6.0753 -0.9761 0.9757
-0.2218 6.0718 -0.9761 0.9757
-0.3105 6.0681 -0.9762 0.9757
-0.3992 6.0632 -0.9762 0.9757
-0.5762 6.0494 -0.9763 0.9757
-0.6646 6.0405 -0.9763 0.9757
-0.7667 6.1417 -0.9944 0.9752
-1.0353 6.1029 -0.9945 0.9752
-1.1244 6.0873 -0.9945 0.9752
-1.2132 6.0704 -0.9945 0.9752
-1.3018 6.0523 -0.9946 0.9752
-1.3902 6.0328 -0.9946 0.9752
-1.9135 5.8892 -0.9948 0.9752
-1.9994 5.8608 -0.9949 0.9752
-2.0849 5.8311 -0.9949 0.9752
-2.5054 5.6643 -0.9951 0.9752
-1.8989 3.9750 -0.7077 0.9823
-1.9160 3.8645 -0.6930 0.9827
-1.9323 3.7584 -0.6789 0.9830
-1.9631 3.5586 -0.6529 0.9837
-2.0276 3.5518 -0.6571 0.9836
-2.0708 3.5075 -0.6544 0.9836
-2.1092 3.4561 -0.6505 0.9837
-2.1500 3.4099 -0.6476 0.9838
-2.2381 3.3298 -0.6446 0.9839
-2.3089 3.3291 -0.6509 0.9837
-0.4648 0.6498 -0.1283 0.9968
-0.4267 0.5784 -0.1155 0.9971
-0.4219 0.5383 -0.1099 0.9972
-0.4228 0.5234 -0.1081 0.9973
-0.4249 0.4812 -0.1031 0.9974
-0.4321 0.3872 -0.0932 0.9977
-0.4342 0.3668 -0.0913 0.9977
-0.4354 0.3571 -0.0905 0.9977
-0.4366 0.3475 -0.0896 0.9977
-0.4377 0.3380 -0.0888 0.9978
-0.4387 0.3287 -0.0881 0.9978
-0.4397 0.3195 -0.0873 0.9978
-0.4406 0.3104 -0.0866 0.9978
-0.4414 0.3015 -0.0859 0.9978
-0.4429 0.2838 -0.0845 0.9979
-0.4447 0.2582 -0.0826 0.9979
-0.4452 0.2499 -0.0820 0.9979
-0.4460 0.2335 -0.0809 0.9980
-0.4466 0.2174 -0.0798 0.9980
-0.4469 0.2095 -0.0793 0.9980
-0.4472 0.1939 -0.0783 0.9980
-0.4476 0.1788 -0.0774 0.9980
-0.4479 0.1713 -0.0770 0.9981
-0.4482 0.1566 -0.0763 0.9981
-0.4488 0.1351 -0.0753 0.9981
-0.4489 0.1280 -0.0750 0.9981
-0.4490 0.1070 -0.0742 0.9981
-0.4483 0.0727 -0.0730 0.9982
-0.4467 0.0393 -0.0720 0.9982
-0.4447 0.0130 -0.0715 0.9982
-0.4441 0.0065 -0.0714 0.9982
-0.4310 0.0000 -0.0741 0.9983
-0.4315 -0.0063 -0.0743 0.9982
-0.4326 -0.0189 -0.0745 0.9982
-0.4331 -0.0253 -0.0746 0.9982
-0.4339 -0.0381 -0.0749 0.9982
-0.4349 -0.0575 -0.0755 0.9982
-0.4354 -0.0706 -0.0759 0.9982
-0.4357 -0.0837 -0.0763 0.9982
-0.4358 -0.0904 -0.0766 0.9982
-0.4358 -0.0971 -0.0768 0.9982
-0.4358 -0.1105 -0.0774 0.9982
-0.4358 -0.1173 -0.0776 0.9982
-0.4356 -0.1241 -0.0779 0.9982
-0.4353 -0.1379 -0.0786 0.9981
-0.4350 -0.1448 -0.0789 0.9981
-0.4347 -0.1518 -0.0792 0.9981
-0.4344 -0.1589 -0.0796 0.9981
-0.4340 -0.1660 -0.0799 0.9981
-0.4334 -0.1804 -0.0808 0.9981
-0.4330 -0.1877 -0.0812 0.9981
-0.4321 -0.2103 -0.0827 0.9981
-0.4317 -0.2179 -0.0832 0.9980
-0.4303 -0.2414 -0.0849 0.9980
-0.4297 -0.2495 -0.0855 0.9980
-0.4291 -0.2576 -0.0861 0.9980
-0.4277 -0.2740 -0.0874 0.9979
-0.4230 -0.3169 -0.0909 0.9979
-0.4219 -0.3258 -0.0917 0.9978
-0.4195 -0.3439 -0.0933 0.9978
-0.4156 -0.3724 -0.0960 0.9977
-0.4144 -0.3937 -0.0983 0.9977
-0.4128 -0.4282 -0.1023 0.9976
-0.4122 -0.4402 -0.1038 0.9976
-0.4115 -0.4525 -0.1052 0.9975
-0.4090 -0.4915 -0.1100 0.9974
-0.4070 -0.5193 -0.1135 0.9973
-0.4060 -0.5337 -0.1154 0.9973
-0.4035 -0.5639 -0.1193 0.9972
-0.4236 -0.6107 -0.1279 0.9970
-0.4671 -0.6949 -0.1441 0.9966
-1.7622 -2.7948 -0.5684 0.9867
-1.7267 -2.8293 -0.5703 0.9866
-1.6473 -2.7900 -0.5574 0.9869
-2.8678 -5.0235 -0.9952 0.9768
-1.5223 -2.8573 -0.5570 0.9869
-2.6447 -5.1439 -0.9951 0.9768
-2.5692 -5.1819 -0.9951 0.9768
-2.1052 -5.3859 -0.9949 0.9768
-1.9468 -5.4448 -0.9948 0.9768
-1.8670 -5.4725 -0.9948 0.9768
-1.7062 -5.5244 -0.9947 0.9768
-1.5439 -5.5715 -0.9947 0.9768
-1.4622 -5.5933 -0.9946 0.9768
-1.2981 -5.6332 -0.9946 0.9768
-1.2156 -5.6514 -0.9945 0.9768
-1.0499 -5.6841 -0.9945 0.9768
-0.9667 -5.6987 -0.9944 0.9768
-0.7160 -5.7350 -0.9943 0.9768
-0.6321 -5.7447 -0.9943 0.9768
-0.5481 -5.7530 -0.9943 0.9768
-0.4639 -5.7603 -0.9942 0.9768
-0.2954 -5.7711 -0.9942 0.9768
-0.2110 -5.7745 -0.9941 0.9768
-0.1266 -5.7768 -0.9941 0.9768
-0.0422 -5.7778 -0.9941 0.9768
0.2110 -5.7735 -0.9940 0.9768
0.3796 -5.7645 -0.9939 0.9768
0.4637 -5.7582 -0.9939 0.9768
0.5479 -5.7506 -0.9938 0.9768
0.7156 -5.7318 -0.9938 0.9768
1.1319 -5.6633 -0.9936 0.9768
1.2968 -5.6274 -0.9936 0.9768
1.3788 -5.6077 -0.9935 0.9768
1.4606 -5.5868 -0.9935 0.9768
1.5420 -5.5646 -0.9935 0.9768
1.6231 -5.5414 -0.9934 0.9768
1.7038 -5.5168 -0.9934 0.9768
1.9438 -5.4364 -0.9933 0.9768
2.0229 -5.4073 -0.9933 0.9768
2.1799 -5.3455 -0.9932 0.9768
2.2578 -5.3129 -0.9932 0.9768
2.3351 -5.2791 -0.9931 0.9768
2.4119 -5.2443 -0.9931 0.9768
2.4882 -5.2084 -0.9931 0.9768
2.5639 -5.1713 -0.9931 0.9768
2.7138 -5.0939 -0.9930 0.9768
2.7879 -5.0535 -0.9930 0.9768
3.0064 -4.9261 -0.9929 0.9768
3.1488 -4.8359 -0.9928 0.9769
3.2191 -4.7892 -0.9928 0.9769
3.2886 -4.7415 -0.9928 0.9769
3.3575 -4.6928 -0.9927 0.9769
3.4929 -4.5925 -0.9927 0.9769
3.7549 -4.3801 -0.9926 0.9769
2.8567 -2.7948 -0.6876 0.9839
4.2393 -3.9115 -0.9924 0.9769
4.3516 -3.7859 -0.9923 0.9769
4.4063 -3.7218 -0.9923 0.9769
4.4904 -3.4673 -0.9761 0.9772
4.5404 -3.4012 -0.9760 0.9772
4.5896 -3.3345 -0.9760 0.9772
4.6377 -3.2670 -0.9760 0.9772
4.6848 -3.1988 -0.9760 0.9772
4.7310 -3.1300 -0.9760 0.9772
4.9864 -2.7034 -0.9759 0.9772
5.0253 -2.6302 -0.9758 0.9772
5.0998 -2.4822 -0.9758 0.9772
5.1355 -2.4074 -0.9758 0.9772
5.1700 -2.3321 -0.9758 0.9772
5.2671 -2.1032 -0.9757 0.9772
5.3316 -1.9503 -0.9767 0.9772
5.3595 -1.8722 -0.9767 0.9772
5.4960 -1.7414 -0.9919 0.9769
5.5445 -1.5801 -0.9919 0.9769
5.5881 -1.4174 -0.9919 0.9769
5.6083 -1.3355 -0.9919 0.9769
5.6271 -1.2534 -0.9918 0.9769
5.6613 -1.0885 -0.9918 0.9769
5.6765 -1.0057 -0.9918 0.9769
5.6906 -0.9226 -0.9918 0.9769
5.7347 -0.5886 -0.9918 0.9769
5.7494 -0.4208 -0.9918 0.9769
5.7549 -0.3368 -0.9918 0.9769
5.7622 -0.1684 -0.9918 0.9769
5.7641 -0.0842 -0.9918 0.9769
5.7647 0.0000 -0.9918 0.9769
5.7641 0.0843 -0.9918 0.9769
5.7623 0.1685 -0.9918 0.9769
5.7549 0.3368 -0.9918 0.9769
5.7426 0.5048 -0.9918 0.9769
5.7254 0.6724 -0.9918 0.9769
5.7034 0.8394 -0.9918 0.9769
5.6765 1.0057 -0.9918 0.9769
5.6612 1.0885 -0.9918 0.9769
5.6448 1.1711 -0.9918 0.9769
5.6271 1.2535 -0.9918 0.9769
5.6083 1.3356 -0.9919 0.9769
5.5669 1.4989 -0.9919 0.9769
5.4700 1.8216 -0.9919 0.9769
5.4146 1.9807 -0.9919 0.9769
5.3546 2.1382 -0.9920 0.9769
5.3228 2.2162 -0.9920 0.9769
5.2559 2.3709 -0.9920 0.9769
5.1472 2.5990 -0.9920 0.9769
4.9003 3.0400 -0.9921 0.9769
4.8555 3.1113 -0.9921 0.9769
4.7627 3.2520 -0.9922 0.9769
4.7147 3.3213 -0.9922 0.9769
4.6658 3.3899 -0.9922 0.9769
4.5649 3.5249 -0.9923 0.9769
4.4602 3.6570 -0.9923 0.9769
4.3516 3.7859 -0.9923 0.9769
4.2959 3.8492 -0.9924 0.9769
4.2393 3.9116 -0.9924 0.9769
4.0641 4.0939 -0.9925 0.9769
4.0039 4.1530 -0.9925 0.9769
3.8811 4.2684 -0.9925 0.9769
3.7549 4.3802 -0.9926 0.9769
3.6906 4.4347 -0.9926 0.9769
3.5596 4.5409 -0.9927 0.9769
3.3574 4.6929 -0.9927 0.9769
3.2191 4.7892 -0.9928 0.9769
2.6647 5.0015 -0.9750 0.9773
2.5914 5.0401 -0.9750 0.9773
2.5175 5.0776 -0.9751 0.9773
2.2929 5.1834 -0.9751 0.9773
2.2169 5.2166 -0.9752 0.9773
2.0637 5.2795 -0.9752 0.9773
1.7520 5.3917 -0.9754 0.9773
1.6730 5.4169 -0.9754 0.9773
1.5142 5.4638 -0.9755 0.9773
1.2734 5.5254 -0.9756 0.9772
1.1925 5.5436 -0.9756 0.9772
0.8668 5.6046 -0.9757 0.9772
0.7848 5.6168 -0.9757 0.9772
0.7027 5.6279 -0.9758 0.9772
0.2900 5.6651 -0.9759 0.9772
0.2072 5.6689 -0.9760 0.9772
0.1244 5.6715 -0.9760 0.9772
0.0415 5.6729 -0.9760 0.9772
-0.4554 5.6559 -0.9762 0.9772
-0.5381 5.6488 -0.9763 0.9772
-1.0499 5.6842 -0.9945 0.9768
-1.1329 5.6684 -0.9945 0.9768
-1.2981 5.6333 -0.9946 0.9768
-1.3803 5.6139 -0.9946 0.9768
-1.4623 5.5933 -0.9946 0.9768
-1.6252 5.5486 -0.9947 0.9768
-1.7061 5.5244 -0.9947 0.9768
-1.7867 5.4991 -0.9948 0.9768
-1.8669 5.4725 -0.9948 0.9768
-1.9468 5.4448 -0.9948 0.9768
-2.1052 5.3859 -0.9949 0.9768
-1.8989 3.9750 -0.7579 0.9823
-1.9160 3.8644 -0.7421 0.9826
-1.9631 3.5586 -0.6992 0.9836
-2.0320 3.5595 -0.7051 0.9835
-2.1147 3.4652 -0.6984 0.9837
-2.1557 3.4189 -0.6954 0.9837
-2.1958 3.3722 -0.6923 0.9838
-0.4236 0.6108 -0.1279 0.9970
-0.4047 0.5486 -0.1173 0.9972
-0.4059 0.5337 -0.1154 0.9973
-0.4071 0.5193 -0.1135 0.9973
-0.4090 0.4916 -0.1100 0.9974
-0.4128 0.4282 -0.1023 0.9976
-0.4139 0.4050 -0.0996 0.9977
-0.4148 0.3827 -0.0971 0.9977
-0.4167 0.3626 -0.0950 0.9978
-0.4195 0.3439 -0.0933 0.9978
-0.4207 0.3348 -0.0925 0.9978
-0.4219 0.3258 -0.0917 0.9978
-0.4241 0.3082 -0.0902 0.9979
-0.4251 0.2995 -0.0895 0.9979
-0.4260 0.2909 -0.0887 0.9979
-0.4269 0.2825 -0.0881 0.9979
-0.4277 0.2741 -0.0874 0.9979
-0.4284 0.2658 -0.0867 0.9980
-0.4291 0.2576 -0.0861 0.9980
-0.4297 0.2495 -0.0855 0.9980
-0.4303 0.2415 -0.0849 0.9980
-0.4313 0.2258 -0.0838 0.9980
-0.4317 0.2180 -0.0832 0.9980
-0.4321 0.2103 -0.0827 0.9981
-0.4324 0.2027 -0.0822 0.9981
-0.4327 0.1952 -0.0817 0.9981
-0.4333 0.1805 -0.0808 0.9981
-0.4337 0.1732 -0.0803 0.9981
-0.4344 0.1589 -0.0796 0.9981
-0.4351 0.1449 -0.0789 0.9981
-0.4353 0.1379 -0.0786 0.9981
-0.4358 0.1106 -0.0774 0.9982
-0.4359 0.0971 -0.0768 0.9982
-0.4357 0.0838 -0.0763 0.9982
-0.4354 0.0706 -0.0759 0.9982
-0.4346 0.0511 -0.0753 0.9982
-0.4339 0.0382 -0.0749 0.9982
-0.4315 0.0063 -0.0743 0.9982
-0.4202 -0.0123 -0.0771 0.9983
-0.4228 -0.0559 -0.0782 0.9983
-0.4233 -0.0750 -0.0789 0.9983
-0.4234 -0.0814 -0.0791 0.9982
-0.4234 -0.0943 -0.0796 0.9982
-0.4234 -0.1008 -0.0799 0.9982
-0.4233 -0.1073 -0.0801 0.9982
-0.4232 -0.1139 -0.0804 0.9982
-0.4230 -0.1205 -0.0807 0.9982
-0.4229 -0.1272 -0.0810 0.9982
-0.4226 -0.1339 -0.0813 0.9982
-0.4220 -0.1474 -0.0820 0.9982
-0.4212 -0.1611 -0.0827 0.9982
-0.4207 -0.1680 -0.0831 0.9982
-0.4188 -0.1963 -0.0849 0.9981
-0.4184 -0.2036 -0.0854 0.9981
-0.4180 -0.2110 -0.0859 0.9981
-0.4170 -0.2260 -0.0870 0.9981
-0.4157 -0.2413 -0.0882 0.9980
-0.4142 -0.2570 -0.0894 0.9980
-0.4134 -0.2649 -0.0901 0.9980
-0.4106 -0.2892 -0.0921 0.9980
-0.4096 -0.2976 -0.0929 0.9979
-0.4086 -0.3155 -0.0947 0.9979
-0.4080 -0.3246 -0.0957 0.9979
-0.4073 -0.3339 -0.0966 0.9979
-0.4058 -0.3530 -0.0987 0.9978
-0.4050 -0.3629 -0.0998 0.9978
-0.4042 -0.3729 -0.1009 0.9978
-0.4014 -0.3927 -0.1030 0.9977
-0.4001 -0.4149 -0.1058 0.9977
-0.3993 -0.4264 -0.1072 0.9976
-0.3965 -0.4626 -0.1118 0.9975
-0.3919 -0.5152 -0.1188 0.9974
-0.3890 -0.5437 -0.1227 0.9973
-1.5613 -2.8303 -0.5931 0.9869
-1.5247 -2.8619 -0.5950 0.9869
-2.4089 -4.8587 -0.9950 0.9782
-2.2658 -4.9267 -0.9950 0.9782
-2.1935 -4.9591 -0.9949 0.9782
-2.1208 -4.9905 -0.9949 0.9782
-1.9739 -5.0501 -0.9948 0.9782
-1.8998 -5.0782 -0.9948 0.9782
-1.8254 -5.1053 -0.9948 0.9782
-1.5998 -5.1799 -0.9947 0.9782
-1.5239 -5.2026 -0.9947 0.9782
-1.4476 -5.2241 -0.9946 0.9782
-1.3711 -5.2446 -0.9946 0.9782
-1.1398 -5.2991 -0.9945 0.9782
-0.9845 -5.3298 -0.9945 0.9782
-0.9064 -5.3435 -0.9944 0.9782
-0.7499 -5.3674 -0.9944 0.9782
-0.5927 -5.3866 -0.9943 0.9782
-0.2770 -5.4114 -0.9942 0.9782
-0.1187 -5.4169 -0.9941 0.9782
0.0396 -5.4177 -0.9940 0.9782
0.1979 -5.4138 -0.9940 0.9782
0.5924 -5.3841 -0.9938 0.9782
0.6710 -5.3747 -0.9938 0.9782
0.7495 -5.3641 -0.9938 0.9782
0.9058 -5.3396 -0.9937 0.9782
1.0614 -5.3106 -0.9936 0.9782
1.1389 -5.2943 -0.9936 0.9782
1.3696 -5.2389 -0.9935 0.9782
1.4460 -5.2181 -0.9935 0.9782
1.5978 -5.1734 -0.9934 0.9782
1.7481 -5.1241 -0.9934 0.9782
1.9708 -5.0422 -0.9933 0.9782
2.1172 -4.9821 -0.9932 0.9782
2.1897 -4.9505 -0.9932 0.9782
2.2617 -4.9179 -0.9932 0.9782
2.3333 -4.8841 -0.9931 0.9782
2.6833 -4.7002 -0.9930 0.9782
2.8192 -4.6195 -0.9930 0.9782
2.8864 -4.5777 -0.9929 0.9782
3.0187 -4.4912 -0.9929 0.9782
3.1485 -4.4008 -0.9928 0.9782
3.2756 -4.3067 -0.9928 0.9782
3.3999 -4.2089 -0.9927 0.9782
3.5808 -4.0556 -0.9927 0.9782
3.6396 -4.0028 -0.9926 0.9782
3.6976 -3.9491 -0.9926 0.9782
2.8568 -2.7948 -0.7333 0.9839
2.9016 -2.7569 -0.7344 0.9839
3.9669 -3.5543 -0.9773 0.9786
4.0647 -3.4332 -0.9762 0.9786
4.1144 -3.3734 -0.9762 0.9786
4.2111 -3.2516 -0.9762 0.9786
4.3935 -2.9999 -0.9761 0.9786
4.4368 -2.9353 -0.9761 0.9786
4.4791 -2.8701 -0.9761 0.9786
4.6388 -2.6034 -0.9760 0.9786
4.7128 -2.4667 -0.9760 0.9786
4.7482 -2.3975 -0.9760 0.9786
4.7827 -2.3279 -0.9759 0.9786
4.8486 -2.1870 -0.9759 0.9786
4.8799 -2.1159 -0.9759 0.9786
4.9103 -2.0444 -0.9759 0.9786
4.9396 -1.9724 -0.9759 0.9786
5.1045 -1.7831 -0.9920 0.9783
5.1299 -1.7083 -0.9920 0.9783
5.1543 -1.6332 -0.9920 0.9783
5.1997 -1.4818 -0.9920 0.9783
5.2208 -1.4057 -0.9920 0.9783
5.2407 -1.3292 -0.9920 0.9783
5.2772 -1.1755 -0.9920 0.9783
5.2938 -1.0982 -0.9920 0.9783
5.3093 -1.0208 -0.9920 0.9783
5.3368 -0.8652 -0.9920 0.9783
5.3597 -0.7089 -0.9919 0.9783
5.3695 -0.6305 -0.9919 0.9783
5.3856 -0.4734 -0.9919 0.9783
5.3971 -0.3158 -0.9919 0.9783
5.4011 -0.2369 -0.9919 0.9783
5.4063 0.0001 -0.9919 0.9783
5.4057 0.0790 -0.9919 0.9783
5.3919 0.3946 -0.9919 0.9783
5.3856 0.4734 -0.9919 0.9783
5.3597 0.7090 -0.9919 0.9783
5.3236 0.9432 -0.9920 0.9783
5.3093 1.0209 -0.9920 0.9783
5.2938 1.0984 -0.9920 0.9783
5.2772 1.1755 -0.9920 0.9783
5.2595 1.2526 -0.9920 0.9783
5.2207 1.4057 -0.9920 0.9783
5.1997 1.4819 -0.9920 0.9783
5.1775 1.5577 -0.9920 0.9783
5.0503 1.9316 -0.9921 0.9783
4.9610 2.1511 -0.9921 0.9782
4.9291 2.2234 -0.9921 0.9782
4.8961 2.2953 -0.9921 0.9782
4.8621 2.3666 -0.9921 0.9782
4.7910 2.5077 -0.9922 0.9782
4.7159 2.6467 -0.9922 0.9782
4.6767 2.7154 -0.9922 0.9782
4.5535 2.9179 -0.9923 0.9782
4.4664 3.0498 -0.9923 0.9782
4.3756 3.1791 -0.9923 0.9782
4.3288 3.2427 -0.9924 0.9782
4.2323 3.3680 -0.9924 0.9782
3.9756 3.6683 -0.9925 0.9782
3.8669 3.7830 -0.9925 0.9782
3.7548 3.8946 -0.9926 0.9782
3.5808 4.0557 -0.9927 0.9782
3.5213 4.1077 -0.9927 0.9782
3.3381 4.2583 -0.9927 0.9782
3.1485 4.4009 -0.9928 0.9782
3.0840 4.4465 -0.9928 0.9782
2.8864 4.5777 -0.9929 0.9782
2.8193 4.6196 -0.9930 0.9782
2.7515 4.6604 -0.9930 0.9782
2.6832 4.7002 -0.9930 0.9782
2.6143 4.7391 -0.9930 0.9782
2.5449 4.7769 -0.9931 0.9782
2.4749 4.8136 -0.9931 0.9782
2.4043 4.8495 -0.9931 0.9782
2.3333 4.8842 -0.9931 0.9782
2.0789 4.8918 -0.9752 0.9786
2.0073 4.9218 -0.9753 0.9786
1.8627 4.9787 -0.9753 0.9786
1.7165 5.0313 -0.9754 0.9786
1.6429 5.0560 -0.9754 0.9786
1.5689 5.0796 -0.9754 0.9786
1.3449 5.1439 -0.9755 0.9786
1.2696 5.1632 -0.9756 0.9786
1.0422 5.2143 -0.9756 0.9786
0.9660 5.2292 -0.9757 0.9786
0.8128 5.2555 -0.9757 0.9786
0.5817 5.2865 -0.9758 0.9786
0.5045 5.2946 -0.9759 0.9786
0.1167 5.3181 -0.9760 0.9786
-0.1165 5.3187 -0.9761 0.9786
-0.1942 5.3166 -0.9761 0.9786
-0.2719 5.3133 -0.9762 0.9786
-0.4271 5.3035 -0.9762 0.9786
-0.7499 5.3674 -0.9944 0.9782
-0.9065 5.3436 -0.9944 0.9782
-0.9845 5.3299 -0.9945 0.9782
-1.0623 5.3151 -0.9945 0.9782
-1.1399 5.2992 -0.9945 0.9782
-1.2172 5.2821 -0.9945 0.9782
-1.2943 5.2639 -0.9946 0.9782
-1.3711 5.2446 -0.9946 0.9782
-1.8998 5.0783 -0.9948 0.9782
-2.0475 5.0209 -0.9949 0.9782
-2.1935 4.9592 -0.9949 0.9782
-1.8811 4.0904 -0.8260 0.9819
-1.9323 3.7583 -0.7754 0.9830
-1.9480 3.6565 -0.7601 0.9833
-2.8256 4.6299 -0.9952 0.9782
-0.4679 0.7421 -0.1610 0.9964
-0.4218 0.6479 -0.1419 0.9969
-0.3970 0.5907 -0.1306 0.9971
-0.3889 0.5437 -0.1227 0.9973
-0.3904 0.5293 -0.1207 0.9973
-0.3944 0.4882 -0.1151 0.9975
-0.3965 0.4626 -0.1118 0.9975
-0.3984 0.4382 -0.1087 0.9976
-0.4001 0.4150 -0.1058 0.9977
-0.4008 0.4038 -0.1044 0.9977
-0.4042 0.3730 -0.1009 0.9978
-0.4058 0.3531 -0.0987 0.9978
-0.4066 0.3435 -0.0977 0.9978
-0.4073 0.3340 -0.0966 0.9979
-0.4080 0.3246 -0.0957 0.9979
-0.4096 0.2977 -0.0929 0.9979
-0.4106 0.2893 -0.0921 0.9980
-0.4116 0.2811 -0.0914 0.9980
-0.4125 0.2730 -0.0908 0.9980
-0.4134 0.2650 -0.0901 0.9980
-0.4142 0.2570 -0.0894 0.9980
-0.4150 0.2491 -0.0888 0.9980
-0.4157 0.2414 -0.0882 0.9980
-0.4164 0.2337 -0.0876 0.9981
-0.4175 0.2186 -0.0865 0.9981
-0.4180 0.2111 -0.0859 0.9981
-0.4184 0.2037 -0.0854 0.9981
-0.4192 0.1891 -0.0844 0.9981
-0.4197 0.1820 -0.0839 0.9981
-0.4202 0.1750 -0.0835 0.9982
-0.4207 0.1680 -0.0831 0.9982
-0.4223 0.1407 -0.0817 0.9982
-0.4226 0.1339 -0.0813 0.9982
-0.4229 0.1272 -0.0810 0.9982
-0.4230 0.1206 -0.0807 0.9982
-0.4233 0.1074 -0.0801 0.9982
-0.4234 0.0944 -0.0796 0.9982
-0.4233 0.0814 -0.0791 0.9982
-0.4225 0.0496 -0.0781 0.9983
-0.4222 0.0434 -0.0779 0.9983
-0.4215 0.0309 -0.0775 0.9983
-0.4211 0.0247 -0.0774 0.9983
-0.4206 0.0185 -0.0773 0.9983
-0.4202 0.0123 -0.0771 0.9983
-0.4196 0.0062 -0.0770 0.9983
-0.4078 0.0000 -0.0795 0.9983
-0.4083 -0.0059 -0.0796 0.9983
-0.4101 -0.0300 -0.0802 0.9983
-0.4107 -0.0421 -0.0805 0.9983
-0.4110 -0.0482 -0.0807 0.9983
-0.4114 -0.0605 -0.0811 0.9983
-0.4117 -0.0791 -0.0817 0.9983
-0.4117 -0.0916 -0.0822 0.9983
-0.4116 -0.0980 -0.0825 0.9983
-0.4113 -0.1107 -0.0830 0.9983
-0.4111 -0.1171 -0.0833 0.9983
-0.4103 -0.1366 -0.0843 0.9982
-0.4056 -0.1973 -0.0879 0.9982
-0.4050 -0.2045 -0.0885 0.9982
-0.4031 -0.2341 -0.0909 0.9981
-0.4017 -0.2657 -0.0939 0.9980
-0.4012 -0.2739 -0.0947 0.9980
-0.4001 -0.2907 -0.0964 0.9980
-0.3995 -0.2993 -0.0973 0.9980
-0.3974 -0.3259 -0.1002 0.9979
-0.3958 -0.3443 -0.1023 0.9979
-0.3880 -0.4024 -0.1090 0.9977
-0.3861 -0.4246 -0.1119 0.9977
-0.3850 -0.4361 -0.1134 0.9976
-0.3839 -0.4479 -0.1150 0.9976
-0.3814 -0.4722 -0.1183 0.9975
-0.3737 -0.5387 -0.1278 0.9973
-0.3723 -0.5718 -0.1330 0.9972
-2.5950 -4.3952 -0.9951 0.9794
-1.7264 -3.0241 -0.6789 0.9859
-1.5638 -2.8347 -0.6312 0.9869
-2.3336 -4.5389 -0.9950 0.9794
-1.9958 -4.6965 -0.9949 0.9794
-1.8576 -4.7525 -0.9948 0.9794
-1.7879 -4.7790 -0.9948 0.9794
-1.7178 -4.8045 -0.9947 0.9794
-1.6474 -4.8290 -0.9947 0.9794
-1.5055 -4.8748 -0.9947 0.9794
-1.2903 -4.9356 -0.9946 0.9794
-1.2180 -4.9538 -0.9945 0.9794
-1.1455 -4.9709 -0.9945 0.9794
-0.9997 -5.0020 -0.9945 0.9794
-0.8531 -5.0288 -0.9944 0.9794
-0.7795 -5.0405 -0.9944 0.9794
-0.6318 -5.0609 -0.9943 0.9794
-0.5578 -5.0694 -0.9943 0.9794
-0.4836 -5.0769 -0.9943 0.9794
-0.4094 -5.0833 -0.9942 0.9794
-0.3351 -5.0886 -0.9942 0.9794
-0.1862 -5.0959 -0.9941 0.9794
-0.1118 -5.0980 -0.9941 0.9794
-0.0373 -5.0989 -0.9941 0.9794
0.0373 -5.0987 -0.9940 0.9794
0.1117 -5.0974 -0.9940 0.9794
0.2606 -5.0917 -0.9940 0.9794
0.3350 -5.0872 -0.9939 0.9794
0.4093 -5.0816 -0.9939 0.9794
0.5575 -5.0672 -0.9938 0.9794
0.7790 -5.0375 -0.9938 0.9794
1.0718 -4.9828 -0.9936 0.9794
1.1445 -4.9664 -0.9936 0.9794
1.2169 -4.9490 -0.9936 0.9794
1.2890 -4.9305 -0.9936 0.9794
1.4325 -4.8905 -0.9935 0.9794
1.5747 -4.8463 -0.9934 0.9794
1.7155 -4.7980 -0.9934 0.9794
1.7854 -4.7723 -0.9934 0.9794
1.8549 -4.7455 -0.9933 0.9794
1.9240 -4.7178 -0.9933 0.9795
1.9926 -4.6891 -0.9933 0.9795
2.0609 -4.6593 -0.9933 0.9795
2.2629 -4.5642 -0.9932 0.9795
2.3293 -4.5305 -0.9931 0.9795
2.4606 -4.4603 -0.9931 0.9795
2.5254 -4.4237 -0.9931 0.9795
2.5897 -4.3862 -0.9930 0.9795
2.7792 -4.2682 -0.9930 0.9795
3.0830 -4.0535 -0.9928 0.9795
3.1418 -4.0079 -0.9928 0.9795
3.2000 -3.9614 -0.9928 0.9795
3.2575 -3.9142 -0.9928 0.9795
3.3142 -3.8661 -0.9928 0.9795
3.4256 -3.7674 -0.9927 0.9795
3.4799 -3.6094 -0.9775 0.9798
3.5322 -3.5581 -0.9774 0.9798
2.8569 -2.7949 -0.7792 0.9838
2.9017 -2.7570 -0.7803 0.9838
3.7783 -3.2871 -0.9763 0.9798
3.8258 -3.2314 -0.9763 0.9798
3.9184 -3.1181 -0.9763 0.9798
3.9635 -3.0605 -0.9763 0.9798
4.0078 -3.0022 -0.9762 0.9798
4.0511 -2.9433 -0.9762 0.9798
4.0936 -2.8837 -0.9762 0.9798
4.1352 -2.8235 -0.9762 0.9798
4.1760 -2.7628 -0.9762 0.9798
4.2929 -2.5770 -0.9761 0.9798
4.3662 -2.4504 -0.9761 0.9798
4.4015 -2.3863 -0.9761 0.9798
4.4358 -2.3217 -0.9761 0.9798
4.5016 -2.1910 -0.9760 0.9798
4.5931 -1.9916 -0.9760 0.9798
4.6264 -1.9262 -0.9770 0.9798
4.6540 -1.8584 -0.9770 0.9798
4.7225 -1.8062 -0.9857 0.9796
4.7795 -1.7484 -0.9922 0.9795
4.8045 -1.6783 -0.9922 0.9795
4.8733 -1.4661 -0.9921 0.9795
4.8942 -1.3948 -0.9921 0.9795
4.9140 -1.3231 -0.9921 0.9795
4.9671 -1.1064 -0.9921 0.9795
4.9828 -1.0337 -0.9921 0.9795
4.9972 -0.9609 -0.9921 0.9795
5.0232 -0.8144 -0.9921 0.9795
5.0345 -0.7409 -0.9921 0.9795
5.0448 -0.6673 -0.9921 0.9795
5.0540 -0.5934 -0.9921 0.9795
5.0621 -0.5195 -0.9921 0.9795
5.0800 -0.2972 -0.9921 0.9795
5.0838 -0.2230 -0.9921 0.9795
5.0865 -0.1486 -0.9921 0.9795
5.0886 0.0000 -0.9921 0.9795
5.0800 0.2973 -0.9921 0.9795
5.0540 0.5935 -0.9921 0.9795
4.9828 1.0338 -0.9921 0.9795
4.9671 1.1065 -0.9921 0.9795
4.9505 1.1790 -0.9921 0.9795
4.9327 1.2512 -0.9921 0.9795
4.9140 1.3231 -0.9921 0.9795
4.8942 1.3948 -0.9921 0.9795
4.8733 1.4662 -0.9921 0.9795
4.8285 1.6080 -0.9922 0.9795
