ply
format ascii 1.0
element vertex 1573
property float32 x
property float32 y
property float32 z
property float32 I
end_header
-1.0733 0.3927 0.0586 0.9954
-1.0705 0.3739 0.0582 0.9955
-1.0621 0.3537 0.0574 0.9955
-1.0432 0.2484 0.0550 0.9957
-1.0361 0.1992 0.0541 0.9958
-1.0305 0.1826 0.0537 0.9958
-1.0007 0.1027 0.0516 0.9960
-0.9952 0.0874 0.0512 0.9960
-0.9898 0.0724 0.0509 0.9960
-0.9763 0.0286 0.0501 0.9961
-0.9723 0.0142 0.0499 0.9961
-0.9149 -0.0134 0.0368 0.9963
-0.9184 -0.0269 0.0369 0.9963
-0.9379 -0.0962 0.0379 0.9962
-0.9477 -0.1254 0.0384 0.9962
-0.9528 -0.1402 0.0387 0.9962
-0.9580 -0.1554 0.0390 0.9961
-0.9689 -0.1863 0.0397 0.9961
-0.9729 -0.2019 0.0399 0.9960
-0.9747 -0.2171 0.0401 0.9960
-0.9766 -0.2326 0.0404 0.9960
-0.9787 -0.2482 0.0406 0.9960
-0.9851 -0.2963 0.0413 0.9959
-0.9874 -0.3129 0.0416 0.9959
-0.9938 -0.3309 0.0421 0.9958
-1.0091 -0.3691 0.0432 0.9957
-1.0216 -0.4079 0.0442 0.9956
-1.0229 -0.4259 0.0445 0.9956
-1.0243 -0.4441 0.0449 0.9955
-1.0273 -0.4816 0.0456 0.9955
-1.0288 -0.5008 0.0460 0.9954
-1.0305 -0.5203 0.0464 0.9954
-1.2465 -0.6758 0.0570 0.9943
-1.4130 -0.7930 0.0651 0.9935
-1.4123 -0.8200 0.0656 0.9935
-1.4127 -0.8480 0.0662 0.9934
-45.6924 -30.2298 2.2020 0.8031
-40.9942 -29.7840 2.0366 0.8164
-37.3281 -29.7044 1.9173 0.8262
-35.2861 -30.6989 1.8798 0.8292
-2.9682 -2.6595 0.1602 0.9842
-10.3474 -9.8312 0.5737 0.9445
-10.1546 -9.9344 0.5710 0.9447
-9.8656 -9.9379 0.5628 0.9455
-8.9766 -9.5871 0.5279 0.9488
-8.4576 -9.3016 0.5053 0.9509
-8.2893 -9.3885 0.5034 0.9511
-8.2137 -9.5815 0.5072 0.9507
-8.2257 -10.1832 0.5261 0.9489
-8.0665 -10.2901 0.5255 0.9490
-7.6447 -10.3620 0.5175 0.9498
-7.3237 -10.5594 0.5165 0.9499
-28.1538 -47.6849 2.2257 0.8012
-4.0854 -8.2400 0.3697 0.9639
-3.9344 -8.2358 0.3668 0.9641
-3.7858 -8.2317 0.3642 0.9644
-3.4947 -8.2236 0.3591 0.9649
-2.9294 -8.1930 0.3497 0.9658
-2.8452 -8.3398 0.3542 0.9653
-2.8208 -8.6814 0.3669 0.9641
-13.9163 -47.5114 1.9898 0.8202
-13.8619 -50.0237 2.0863 0.8124
-14.1306 -54.0501 2.2454 0.7996
-2.7142 -11.0386 0.4569 0.9555
-2.5612 -11.1145 0.4584 0.9554
-2.3990 -11.1527 0.4585 0.9554
-2.1929 -11.8719 0.4852 0.9528
-13.2525 -78.1218 3.1847 0.7282
-1.9637 -12.6985 0.5164 0.9499
-12.9384 -92.6066 3.7582 0.6878
-0.0955 -13.0638 0.5251 0.9490
25.4302 -82.3409 3.4637 0.7082
26.7449 -82.3123 3.4785 0.7072
29.4099 -82.2546 3.5109 0.7049
32.1274 -82.1956 3.5470 0.7024
33.5078 -82.1656 3.5664 0.7010
37.7455 -82.0736 3.6308 0.6965
45.1875 -81.9121 3.7599 0.6876
1.7487 -2.7733 0.1318 0.9870
1.7947 -2.7562 0.1322 0.9869
54.9151 -81.7010 3.9566 0.6743
9.1483 -10.6718 0.5649 0.9453
89.0787 -43.3572 3.9818 0.6726
27.4616 -12.8735 1.2190 0.8857
89.3122 -40.2868 3.9379 0.6755
89.2780 -38.7116 3.9111 0.6774
32.9949 -12.6195 1.4198 0.8681
8.9408 -2.6899 0.3753 0.9633
43.2893 -12.3370 1.8092 0.8351
47.9286 -12.9050 1.9950 0.8198
12.9428 -3.0823 0.5347 0.9481
13.3414 -2.7679 0.5476 0.9469
13.1882 -2.5357 0.5398 0.9477
13.3937 -2.3729 0.5467 0.9470
5.3052 -0.7808 0.2155 0.9788
5.3409 -0.7065 0.2165 0.9787
20.9079 -2.1460 0.8447 0.9193
21.0639 -1.8515 0.8499 0.9188
32.0797 -1.8771 1.2916 0.8793
32.3886 -1.4207 1.3030 0.8783
89.2259 -2.6084 3.5877 0.6995
92.2470 9.4684 3.7271 0.6899
53.3503 8.6497 2.1723 0.8054
53.1772 9.4211 2.1706 0.8056
52.1971 10.0362 2.1363 0.8083
42.5967 10.8044 1.7663 0.8387
14.1225 4.2489 0.5927 0.9427
14.2103 4.9641 0.6050 0.9415
14.2595 5.2163 0.6103 0.9410
14.3097 5.4730 0.6158 0.9405
14.4129 6.0010 0.6275 0.9394
18.7426 9.8100 0.8503 0.9188
18.0714 10.4923 0.8399 0.9197
18.4123 11.0531 0.8631 0.9176
5.2767 7.8505 0.3802 0.9628
5.1854 7.9635 0.3819 0.9627
5.1544 8.1747 0.3884 0.9621
-1.1304 9.0542 0.3667 0.9641
-3.0528 5.5339 0.2540 0.9750
-3.0924 5.2377 0.2445 0.9759
-3.1227 4.9525 0.2353 0.9768
-3.1469 4.8330 0.2318 0.9772
-3.1999 4.4726 0.2210 0.9782
-3.2510 4.1472 0.2118 0.9791
-3.2702 4.0484 0.2092 0.9794
-3.2895 3.9527 0.2067 0.9796
-3.4977 3.7356 0.2057 0.9797
-3.7296 3.7569 0.2128 0.9790
-3.8668 3.7829 0.2174 0.9786
-4.4027 3.9448 0.2376 0.9766
-5.7135 4.9707 0.3044 0.9701
-5.7451 4.7105 0.2986 0.9707
-5.7756 4.4598 0.2933 0.9712
-5.8049 4.2175 0.2884 0.9717
-5.8198 4.0998 0.2861 0.9719
-5.8358 3.9848 0.2840 0.9721
-5.8504 3.8706 0.2819 0.9723
-5.8644 3.7578 0.2799 0.9725
-1.4124 0.8200 0.0656 0.9935
-1.2466 0.6759 0.0570 0.9943
-1.0322 0.5402 0.0468 0.9953
-1.0305 0.5203 0.0464 0.9954
-1.0257 0.4627 0.0452 0.9955
-1.0216 0.4079 0.0442 0.9956
-1.0158 0.3886 0.0437 0.9957
-1.0091 0.3691 0.0432 0.9957
-0.9938 0.3310 0.0421 0.9958
-0.9747 0.2171 0.0401 0.9960
-0.9689 0.1863 0.0397 0.9961
-0.9634 0.1707 0.0393 0.9961
-0.9580 0.1554 0.0390 0.9961
-0.9331 0.0820 0.0376 0.9963
-0.9292 0.0680 0.0374 0.9963
-0.9149 0.0134 0.0368 0.9963
-0.8610 0.0000 0.0251 0.9966
-0.8702 -0.0382 0.0253 0.9965
-0.8733 -0.0511 0.0255 0.9965
-0.8765 -0.0641 0.0256 0.9965
-0.8798 -0.0773 0.0257 0.9965
-0.8832 -0.0906 0.0258 0.9965
-0.8868 -0.1041 0.0260 0.9964
-0.8954 -0.1318 0.0263 0.9964
-0.8999 -0.1459 0.0265 0.9964
-0.9092 -0.1748 0.0269 0.9963
-0.9140 -0.1896 0.0272 0.9963
-0.9182 -0.2187 0.0275 0.9962
-0.9230 -0.2630 0.0279 0.9962
-0.9247 -0.2782 0.0281 0.9961
-0.9275 -0.2939 0.0283 0.9961
-0.9403 -0.3285 0.0290 0.9960
-0.9470 -0.3464 0.0293 0.9960
-0.9539 -0.3648 0.0297 0.9959
-0.9597 -0.3832 0.0301 0.9959
-0.9719 -0.4214 0.0308 0.9958
-0.9758 -0.4574 0.0314 0.9957
-0.9792 -0.5125 0.0322 0.9956
-0.9804 -0.5315 0.0324 0.9955
-1.4151 -0.8495 0.0480 0.9934
-46.6729 -29.9073 1.6129 0.8011
-44.2262 -30.1980 1.5582 0.8071
-17.0556 -12.3916 0.6134 0.9191
-13.4250 -10.6832 0.4992 0.9336
-13.3540 -11.2794 0.5086 0.9324
-35.2859 -30.6987 1.3609 0.8293
-2.9669 -2.6583 0.1159 0.9842
-10.1448 -9.9249 0.4130 0.9448
-9.8903 -9.9628 0.4085 0.9454
-9.3029 -9.6491 0.3900 0.9478
-8.9335 -9.5411 0.3803 0.9490
-8.2178 -9.5862 0.3674 0.9507
-8.0902 -9.7214 0.3680 0.9506
-7.8918 -10.0673 0.3722 0.9501
-7.7792 -10.2280 0.3739 0.9499
-7.3135 -10.2223 0.3657 0.9509
-7.3225 -10.5577 0.3739 0.9499
-7.2366 -10.7664 0.3775 0.9494
-30.0932 -47.7271 1.6417 0.7979
-5.0091 -8.2078 0.2798 0.9623
-4.8435 -8.2036 0.2772 0.9626
-4.3634 -8.1902 0.2700 0.9635
-3.6154 -8.1739 0.2601 0.9649
-3.4715 -8.1691 0.2583 0.9651
-3.1877 -8.1554 0.2548 0.9656
-3.0488 -8.1493 0.2532 0.9658
-2.6490 -8.1527 0.2494 0.9663
-2.4160 -8.2484 0.2501 0.9662
-2.3459 -8.4658 0.2556 0.9655
-2.7361 -11.1276 0.3334 0.9552
-2.5629 -11.1218 0.3321 0.9554
-2.2846 -11.4311 0.3392 0.9544
-13.6402 -80.4070 2.3730 0.7215
-1.9599 -12.6738 0.3732 0.9500
24.1264 -82.3692 2.4974 0.7093
25.4302 -82.3409 2.5075 0.7083
28.0712 -82.2836 2.5297 0.7062
29.4099 -82.2545 2.5417 0.7050
30.7618 -82.2252 2.5545 0.7038
36.3159 -82.1046 2.6123 0.6982
37.7456 -82.0736 2.6285 0.6966
40.6605 -82.0104 2.6634 0.6933
42.1478 -81.9781 2.6821 0.6915
45.1875 -81.9121 2.7220 0.6877
48.3217 -81.8441 2.7655 0.6836
49.9274 -81.8093 2.7887 0.6815
1.7487 -2.7734 0.0954 0.9870
54.9152 -81.7010 2.8644 0.6744
9.1484 -10.6719 0.4090 0.9453
88.9755 -38.5804 2.8218 0.6784
91.2178 -36.4245 2.8579 0.6750
8.9410 -2.6899 0.2717 0.9633
47.5727 -12.8092 1.4335 0.8211
13.1799 -2.9359 0.3929 0.9474
13.2934 -2.5560 0.3939 0.9473
13.5536 -2.4012 0.4005 0.9464
5.2920 -0.8580 0.1560 0.9788
5.3332 -0.7849 0.1569 0.9787
17.7232 -2.0812 0.5192 0.9311
20.9902 -2.1545 0.6140 0.9190
21.2743 -1.8700 0.6214 0.9181
24.8752 -1.8206 0.7257 0.9050
28.2146 -1.6510 0.8224 0.8931
32.3001 -1.4168 0.9407 0.8786
32.3545 -0.9458 0.9418 0.8785
89.0526 -1.3013 2.5915 0.7002
70.6450 8.2959 2.0697 0.7523
67.8829 8.9790 1.9924 0.7603
63.3095 9.3172 1.8620 0.7741
57.6200 10.2082 1.7027 0.7912
47.8602 9.9296 1.4222 0.8223
42.8457 10.2036 1.2815 0.8384
15.0213 4.0446 0.4526 0.9396
14.4764 4.1257 0.4380 0.9415
14.1446 4.7105 0.4338 0.9421
14.1722 4.9509 0.4368 0.9417
14.3326 5.9675 0.4517 0.9398
14.3848 6.2374 0.4562 0.9392
20.5183 9.2553 0.6549 0.9139
19.7256 9.2470 0.6339 0.9165
18.3255 9.9355 0.6065 0.9200
5.5701 7.7855 0.2785 0.9624
5.2767 7.8505 0.2752 0.9629
5.1854 7.9635 0.2765 0.9627
-2.9748 5.7859 0.1893 0.9743
-3.0042 5.6391 0.1859 0.9748
-3.0571 5.3550 0.1794 0.9756
-3.0793 5.0456 0.1720 0.9766
-3.0954 4.9092 0.1689 0.9770
-3.1372 4.6674 0.1636 0.9777
-3.1555 4.5496 0.1611 0.9781
-3.1722 4.4340 0.1586 0.9784
-3.2073 4.2170 0.1542 0.9790
-3.2233 4.1118 0.1520 0.9793
-3.2459 4.0184 0.1503 0.9795
-3.2744 3.8197 0.1464 0.9801
-3.4082 3.6400 0.1451 0.9802
-3.5103 3.6409 0.1472 0.9800
-3.6228 3.6494 0.1496 0.9796
-3.7402 3.6591 0.1522 0.9793
-3.8791 3.6856 0.1557 0.9788
-4.0249 3.7137 0.1593 0.9783
-4.4063 3.8334 0.1699 0.9769
-5.7266 4.8370 0.2181 0.9704
-5.7423 4.7082 0.2161 0.9707
-5.7729 4.4577 0.2122 0.9712
-5.7877 4.3356 0.2104 0.9715
-5.8463 3.8679 0.2040 0.9723
-5.8604 3.7552 0.2025 0.9725
-0.9804 0.5315 0.0324 0.9955
-0.9780 0.4938 0.0319 0.9956
-0.9769 0.4755 0.0316 0.9957
-0.9758 0.4574 0.0314 0.9957
-0.9748 0.4397 0.0311 0.9957
-0.9597 0.3832 0.0301 0.9959
-0.9403 0.3285 0.0290 0.9960
-0.9275 0.2939 0.0283 0.9961
-0.9247 0.2782 0.0281 0.9961
-0.9230 0.2630 0.0279 0.9962
-0.9213 0.2481 0.0278 0.9962
-0.9197 0.2333 0.0276 0.9962
-0.9092 0.1748 0.0269 0.9963
-0.9046 0.1602 0.0267 0.9963
-0.8954 0.1318 0.0263 0.9964
-0.8910 0.1179 0.0262 0.9964
-0.8766 0.0642 0.0256 0.9965
-0.8702 0.0382 0.0253 0.9965
-0.8671 0.0254 0.0252 0.9965
-0.8184 -0.0120 0.0147 0.9967
-0.8354 -0.0857 0.0151 0.9966
-0.8384 -0.0984 0.0152 0.9966
-0.8415 -0.1112 0.0153 0.9966
-0.8525 -0.1510 0.0156 0.9965
-0.8606 -0.1785 0.0158 0.9965
-0.8663 -0.2063 0.0160 0.9964
-0.8675 -0.2201 0.0161 0.9964
-0.8862 -0.3096 0.0169 0.9963
-0.9090 -0.3785 0.0177 0.9961
-0.9194 -0.4147 0.0182 0.9960
-0.9299 -0.4526 0.0186 0.9959
-0.9313 -0.4875 0.0189 0.9958
-0.9321 -0.5053 0.0191 0.9958
-0.9337 -0.5421 0.0194 0.9957
-1.1482 -0.6893 0.0241 0.9947
-44.2262 -30.1980 0.9644 0.8072
-17.0668 -12.3998 0.3799 0.9191
-14.0987 -10.5615 0.3172 0.9320
-13.7470 -10.6151 0.3128 0.9329
-13.1970 -10.8204 0.3073 0.9340
-13.1846 -11.1363 0.3108 0.9333
-2.9348 -2.7079 0.0719 0.9842
-9.7119 -9.7831 0.2483 0.9463
-9.3448 -9.6925 0.2425 0.9476
-8.8871 -9.4916 0.2342 0.9493
-8.2732 -9.6510 0.2289 0.9504
-8.1231 -9.7610 0.2287 0.9505
-8.0162 -9.9238 0.2297 0.9502
-7.8190 -9.9745 0.2282 0.9506
-7.3940 -10.3348 0.2289 0.9504
-7.1872 -10.6928 0.2320 0.9498
-4.3360 -8.1388 0.1661 0.9638
-3.8835 -8.1291 0.1622 0.9646
-3.7363 -8.1242 0.1610 0.9649
-3.5918 -8.1205 0.1599 0.9651
-3.3067 -8.1085 0.1577 0.9656
-3.1678 -8.1046 0.1567 0.9658
-2.8946 -8.0956 0.1548 0.9662
-2.7619 -8.0958 0.1541 0.9664
-2.6323 -8.1015 0.1534 0.9665
-2.5040 -8.1077 0.1528 0.9666
-2.3714 -8.0962 0.1519 0.9668
-2.2382 -8.0770 0.1509 0.9670
-2.1763 -8.3246 0.1550 0.9662
-2.1452 -8.7246 0.1618 0.9647
-2.2550 -11.2827 0.2072 0.9550
-0.0955 -13.0623 0.2352 0.9491
24.1806 -87.2612 1.6307 0.6961
25.4302 -82.3409 1.5520 0.7084
28.0712 -82.2836 1.5657 0.7062
30.7618 -82.2252 1.5811 0.7038
32.1274 -82.1956 1.5893 0.7025
34.9037 -82.1353 1.6072 0.6997
37.7455 -82.0736 1.6269 0.6967
39.1934 -82.0422 1.6375 0.6951
42.1478 -81.9781 1.6601 0.6916
43.6564 -81.9454 1.6721 0.6897
46.7422 -81.8784 1.6979 0.6858
49.9274 -81.8093 1.7260 0.6815
89.0796 -43.3576 1.7842 0.6728
19.4928 -9.1379 0.3877 0.9175
19.4678 -8.7815 0.3846 0.9181
19.4860 -8.4492 0.3825 0.9185
20.6943 -8.2635 0.4013 0.9147
25.1766 -8.7949 0.4803 0.8988
25.1212 -8.3657 0.4768 0.8995
8.9412 -2.6900 0.1682 0.9633
52.8489 -13.4048 0.9819 0.8040
13.0213 -3.1010 0.2411 0.9479
13.4242 -2.7852 0.2469 0.9466
5.2990 -0.9387 0.0969 0.9787
5.3561 -0.7882 0.0975 0.9786
17.7580 -2.0854 0.3220 0.9310
21.0634 -2.1620 0.3813 0.9188
28.1027 -2.0569 0.5075 0.8934
32.0263 -1.4048 0.5773 0.8796
92.1477 9.4582 1.6682 0.6903
26.1459 4.6321 0.4782 0.8992
26.1764 5.0331 0.4801 0.8988
14.9411 4.0230 0.2787 0.9400
14.0605 4.2302 0.2644 0.9430
14.0871 4.4637 0.2661 0.9426
14.1413 4.9400 0.2698 0.9418
14.1690 5.1832 0.2717 0.9414
14.3044 6.2025 0.2808 0.9395
14.3565 6.4759 0.2836 0.9389
19.6485 9.2108 0.3908 0.9168
19.2654 9.3770 0.3859 0.9179
18.4894 9.6775 0.3758 0.9199
18.2787 9.9101 0.3745 0.9202
18.3811 10.3159 0.3796 0.9191
18.2893 10.9792 0.3842 0.9182
11.1781 10.0156 0.2703 0.9417
5.5701 7.7855 0.1724 0.9624
5.1546 8.1750 0.1740 0.9621
2.0214 5.1715 0.1000 0.9780
0.6410 9.7346 0.1757 0.9617
-2.8522 5.7527 0.1156 0.9746
-2.9546 5.7467 0.1164 0.9745
-3.0129 5.4615 0.1123 0.9754
-3.1091 4.6257 0.1004 0.9779
-3.1452 4.3962 0.0973 0.9786
-3.1632 4.2875 0.0960 0.9789
-3.1798 4.1808 0.0946 0.9792
-3.1977 4.0792 0.0933 0.9795
-3.2647 3.6977 0.0888 0.9805
-3.3112 3.6416 0.0886 0.9805
-3.3526 3.5806 0.0883 0.9806
-3.5227 3.5486 0.0900 0.9802
-4.0331 3.6137 0.0975 0.9786
-4.2014 3.6553 0.1003 0.9780
-5.7395 4.7059 0.1337 0.9707
-5.7549 4.5796 0.1325 0.9710
-5.7701 4.4555 0.1313 0.9713
-5.8422 3.8652 0.1262 0.9724
-5.8563 3.7526 0.1253 0.9726
-0.9337 0.5421 0.0194 0.9957
-0.9329 0.5235 0.0193 0.9957
-0.9306 0.4699 0.0188 0.9958
-0.9299 0.4526 0.0186 0.9959
-0.9248 0.4335 0.0184 0.9959
-0.9194 0.4147 0.0182 0.9960
-0.9141 0.3964 0.0179 0.9960
-0.9090 0.3784 0.0177 0.9961
-0.9037 0.3609 0.0175 0.9961
-0.8977 0.3434 0.0173 0.9962
-0.8919 0.3262 0.0171 0.9962
-0.8862 0.3096 0.0169 0.9963
-0.8754 0.2774 0.0165 0.9963
-0.8701 0.2479 0.0163 0.9964
-0.8675 0.2200 0.0161 0.9964
-0.8663 0.2063 0.0160 0.9964
-0.8648 0.1926 0.0160 0.9965
-0.8607 0.1786 0.0158 0.9965
-0.8565 0.1647 0.0157 0.9965
-0.8485 0.1376 0.0155 0.9966
-0.8446 0.1243 0.0154 0.9966
-0.8354 0.0857 0.0151 0.9966
-0.8325 0.0732 0.0151 0.9967
-0.8296 0.0607 0.0150 0.9967
-0.8267 0.0484 0.0149 0.9967
-0.7750 0.0000 0.0054 0.9969
-0.7774 -0.0114 0.0054 0.9969
-0.7799 -0.0228 0.0054 0.9969
-0.7926 -0.0814 0.0055 0.9968
-0.7952 -0.0934 0.0055 0.9968
-0.7978 -0.1055 0.0056 0.9968
-0.8061 -0.1428 0.0057 0.9967
-0.8096 -0.1557 0.0057 0.9967
-0.8131 -0.1687 0.0058 0.9967
-0.8201 -0.1953 0.0058 0.9966
-0.8242 -0.2480 0.0060 0.9966
-0.8287 -0.2626 0.0060 0.9965
-0.8334 -0.2775 0.0061 0.9965
-0.8380 -0.2927 0.0061 0.9965
-0.8429 -0.3083 0.0062 0.9964
-0.8529 -0.3405 0.0064 0.9963
-0.8629 -0.3741 0.0065 0.9962
-0.8717 -0.4086 0.0067 0.9962
-0.8763 -0.4265 0.0067 0.9961
-0.8810 -0.4449 0.0068 0.9961
-0.8884 -0.4816 0.0070 0.9960
-0.8887 -0.4988 0.0071 0.9959
-0.8891 -0.5162 0.0071 0.9959
-46.6729 -29.9073 0.3839 0.8011
-44.2262 -30.1980 0.3709 0.8072
-39.7225 -29.7564 0.3437 0.8199
-13.4496 -10.7027 0.1190 0.9336
-13.2601 -11.2001 0.1202 0.9329
-12.9180 -11.2386 0.1186 0.9338
-2.9644 -2.6561 0.0276 0.9842
-2.9218 -2.7761 0.0279 0.9840
-9.8342 -9.6210 0.0953 0.9465
-9.5949 -9.6652 0.0943 0.9470
-8.5865 -9.4433 0.0884 0.9502
-8.2971 -9.3974 0.0868 0.9511
-7.9549 -9.8480 0.0877 0.9506
-7.7443 -9.8791 0.0869 0.9510
-7.6727 -10.0879 0.0878 0.9506
-7.4064 -10.0390 0.0864 0.9513
-7.1286 -10.2780 0.0866 0.9512
-4.7821 -8.0995 0.0651 0.9631
-4.3091 -8.0883 0.0635 0.9640
-4.0067 -8.0814 0.0625 0.9646
-3.8585 -8.0768 0.0620 0.9648
-3.5686 -8.0680 0.0611 0.9653
-3.0124 -8.0521 0.0595 0.9662
-2.7464 -8.0505 0.0589 0.9665
-2.6190 -8.0606 0.0587 0.9667
-2.4906 -8.0643 0.0585 0.9668
-2.3630 -8.0675 0.0582 0.9669
-2.2391 -8.0804 0.0581 0.9670
-2.1351 -8.6834 0.0619 0.9649
-2.1763 -9.4440 0.0671 0.9620
-2.4327 -11.3094 0.0801 0.9548
-2.2681 -11.3482 0.0802 0.9548
-2.1502 -11.6407 0.0820 0.9538
-13.1074 -84.7595 0.5940 0.7096
24.1811 -87.2628 0.6271 0.6961
24.1264 -82.3692 0.5945 0.7094
26.7449 -82.3124 0.5994 0.7074
36.3160 -82.1047 0.6218 0.6983
40.6605 -82.0104 0.6340 0.6934
43.6564 -81.9454 0.6431 0.6898
48.3217 -81.8441 0.6583 0.6837
49.9275 -81.8093 0.6638 0.6816
1.7488 -2.7735 0.0227 0.9870
54.9152 -81.7010 0.6818 0.6745
22.4536 -13.0366 0.1798 0.9014
19.1271 -9.3097 0.1473 0.9184
19.3641 -8.0624 0.1453 0.9195
24.4281 -8.9360 0.1802 0.9012
24.4188 -8.1319 0.1783 0.9022
25.1876 -7.9810 0.1830 0.8997
8.9415 -2.6901 0.0647 0.9633
30.5552 -8.2271 0.2192 0.8811
13.0608 -3.1104 0.0930 0.9477
13.3548 -2.7707 0.0945 0.9469
13.5086 -2.5974 0.0953 0.9465
5.2758 -0.9347 0.0371 0.9788
5.2830 -0.8565 0.0371 0.9788
5.3054 -0.7808 0.0371 0.9788
5.4564 -0.6408 0.0381 0.9783
27.9484 -2.0456 0.1941 0.8940
31.1968 -1.8255 0.2164 0.8825
33.1085 -0.9679 0.2294 0.8759
98.1439 4.3051 0.6804 0.6751
98.3512 5.7551 0.6824 0.6743
44.2463 3.8891 0.3076 0.8372
41.3581 4.2451 0.2880 0.8468
38.0787 4.4716 0.2656 0.8578
29.7629 3.9368 0.2079 0.8868
29.7020 4.3712 0.2079 0.8868
22.6927 4.0203 0.1596 0.9119
22.1156 4.2522 0.1560 0.9139
22.1557 4.5966 0.1567 0.9135
22.2104 4.9475 0.1576 0.9130
22.2734 5.3043 0.1586 0.9125
22.3459 5.6679 0.1597 0.9119
14.0305 4.2212 0.1015 0.9431
14.1105 4.9293 0.1035 0.9420
14.1379 5.1719 0.1043 0.9416
14.1658 5.4180 0.1050 0.9411
14.3280 6.7167 0.1096 0.9387
14.6123 7.1122 0.1126 0.9371
18.7996 9.4925 0.1459 0.9192
18.3415 9.6001 0.1434 0.9205
18.1559 9.8436 0.1430 0.9207
18.6329 10.4572 0.1480 0.9181
18.2986 10.6242 0.1466 0.9188
18.1934 10.9216 0.1470 0.9186
11.1767 10.0144 0.1039 0.9417
5.5701 7.7855 0.0663 0.9624
2.0214 5.1715 0.0385 0.9780
0.6436 9.7739 0.0678 0.9616
-2.7408 5.7371 0.0440 0.9749
-2.8946 5.8382 0.0451 0.9743
-2.9240 5.6873 0.0443 0.9747
-2.9524 5.5419 0.0435 0.9752
-3.0109 5.0996 0.0410 0.9766
-3.0217 4.9512 0.0402 0.9771
-3.0377 4.8177 0.0394 0.9775
-3.0584 4.6970 0.0388 0.9778
-3.1162 4.3555 0.0371 0.9788
-3.1331 4.2468 0.0366 0.9791
-3.1674 4.0405 0.0356 0.9797
-3.1847 3.9426 0.0351 0.9799
-3.2133 3.7484 0.0342 0.9804
-3.4409 3.4661 0.0338 0.9807
-3.6511 3.4689 0.0349 0.9801
-3.7663 3.4752 0.0355 0.9797
-3.9065 3.5002 0.0363 0.9792
-4.2089 3.5550 0.0382 0.9782
-5.7522 4.5774 0.0509 0.9710
-5.7822 4.3316 0.0500 0.9715
-5.6730 3.9964 0.0481 0.9726
-5.6993 3.7706 0.0473 0.9730
-0.9724 0.6032 0.0079 0.9954
-0.8895 0.5340 0.0072 0.9959
-0.8891 0.5162 0.0071 0.9959
-0.8887 0.4988 0.0071 0.9959
-0.8859 0.4637 0.0069 0.9960
-0.8810 0.4449 0.0068 0.9961
-0.8763 0.4266 0.0067 0.9961
-0.8717 0.4086 0.0067 0.9962
-0.8672 0.3912 0.0066 0.9962
-0.8629 0.3741 0.0065 0.9962
-0.8478 0.3242 0.0063 0.9964
-0.8333 0.2775 0.0061 0.9965
-0.8288 0.2626 0.0060 0.9965
-0.8243 0.2480 0.0060 0.9966
-0.8229 0.2345 0.0059 0.9966
-0.8219 0.2213 0.0059 0.9966
-0.8131 0.1687 0.0058 0.9967
-0.7925 0.0814 0.0055 0.9968
-0.7849 0.0459 0.0054 0.9969
-0.7382 0.0000 -0.0031 0.9971
-0.7404 -0.0109 -0.0031 0.9970
-0.7493 -0.0548 -0.0031 0.9970
-0.7516 -0.0660 -0.0031 0.9970
-0.7609 -0.1120 -0.0032 0.9969
-0.7706 -0.1599 -0.0033 0.9969
-0.7737 -0.1723 -0.0033 0.9968
-0.7769 -0.1850 -0.0033 0.9968
-0.7792 -0.1976 -0.0033 0.9968
-0.7805 -0.2225 -0.0034 0.9968
-0.7830 -0.2355 -0.0034 0.9967
-0.7868 -0.2493 -0.0034 0.9967
-0.7908 -0.2634 -0.0035 0.9967
-0.7948 -0.2777 -0.0035 0.9966
-0.8032 -0.3071 -0.0036 0.9966
-0.8118 -0.3380 -0.0037 0.9965
-0.8163 -0.3539 -0.0037 0.9964
-0.8207 -0.3702 -0.0037 0.9964
-0.8321 -0.4202 -0.0039 0.9963
-0.8401 -0.4555 -0.0040 0.9962
-0.8443 -0.4738 -0.0040 0.9961
-0.8486 -0.4927 -0.0041 0.9961
-45.1551 -29.8743 -0.2250 0.8053
-13.2764 -9.3523 -0.0675 0.9371
-12.4781 -9.3473 -0.0648 0.9395
-12.2554 -9.4632 -0.0643 0.9399
-13.4193 -10.6786 -0.0713 0.9337
-13.2160 -11.1629 -0.0719 0.9331
-13.1052 -11.4016 -0.0722 0.9329
-9.9206 -9.7055 -0.0577 0.9460
-9.5560 -9.6261 -0.0564 0.9472
-8.3711 -9.4811 -0.0526 0.9507
-7.6138 -9.7127 -0.0513 0.9518
-7.5565 -9.9353 -0.0519 0.9513
-5.6078 -8.0853 -0.0409 0.9614
-5.4205 -8.0645 -0.0404 0.9619
-5.2499 -8.0625 -0.0400 0.9622
-5.0812 -8.0585 -0.0396 0.9626
-4.9152 -8.0539 -0.0392 0.9630
-4.5922 -8.0441 -0.0385 0.9636
-4.4351 -8.0395 -0.0382 0.9639
-4.2807 -8.0350 -0.0378 0.9642
-4.1288 -8.0306 -0.0375 0.9645
-3.9795 -8.0264 -0.0372 0.9648
-3.6873 -8.0175 -0.0367 0.9653
-3.5444 -8.0133 -0.0364 0.9656
-2.9963 -8.0090 -0.0355 0.9664
-2.6071 -8.0239 -0.0351 0.9668
-2.4826 -8.0384 -0.0350 0.9669
-2.3592 -8.0544 -0.0349 0.9670
-2.2401 -8.0837 -0.0349 0.9670
-2.1677 -8.2914 -0.0356 0.9663
-2.1290 -9.2389 -0.0394 0.9628
-2.2356 -11.1858 -0.0474 0.9554
-2.0087 -11.8413 -0.0499 0.9531
-13.1071 -84.7573 -0.3564 0.7096
-0.6700 -13.0899 -0.0545 0.9489
-0.2912 -13.2884 -0.0552 0.9482
-0.0954 -13.0608 -0.0543 0.9491
24.1264 -82.3692 -0.3567 0.7094
28.0712 -82.2836 -0.3613 0.7063
30.7618 -82.2252 -0.3648 0.7039
32.1274 -82.1956 -0.3667 0.7026
33.5078 -82.1656 -0.3687 0.7012
36.3160 -82.1047 -0.3731 0.6983
37.7456 -82.0737 -0.3754 0.6967
39.1934 -82.0423 -0.3778 0.6951
42.1478 -81.9781 -0.3831 0.6916
45.1875 -81.9121 -0.3888 0.6878
46.7422 -81.8784 -0.3918 0.6858
48.3217 -81.8442 -0.3950 0.6837
9.1487 -10.6722 -0.0584 0.9453
12.3706 -12.8310 -0.0741 0.9312
22.5110 -13.0700 -0.1082 0.9011
18.3461 -8.6003 -0.0842 0.9221
18.3722 -8.2873 -0.0838 0.9225
19.4292 -8.0894 -0.0875 0.9193
20.2003 -8.0662 -0.0904 0.9167
21.0797 -8.0623 -0.0938 0.9137
23.4581 -8.1946 -0.1033 0.9054
8.9417 -2.6902 -0.0387 0.9633
13.1006 -3.1199 -0.0560 0.9476
13.3019 -2.9631 -0.0566 0.9469
13.6188 -2.6186 -0.0576 0.9460
5.2725 -0.9341 -0.0223 0.9788
5.2879 -0.8574 -0.0223 0.9788
5.2815 -0.7773 -0.0222 0.9789
5.3041 -0.7016 -0.0222 0.9788
21.1637 -2.1723 -0.0884 0.9184
24.4239 -2.1468 -0.1019 0.9066
31.1230 -1.8211 -0.1296 0.8828
33.0207 -0.9653 -0.1373 0.8762
98.1183 4.3039 -0.4081 0.6751
72.0831 4.2179 -0.3001 0.7491
50.9658 3.7302 -0.2124 0.8151
38.2694 3.9281 -0.1599 0.8574
29.7573 3.9361 -0.1247 0.8869
23.1044 3.7459 -0.0973 0.9106
21.9689 4.2241 -0.0930 0.9144
14.2606 4.0642 -0.0616 0.9424
14.0799 4.9186 -0.0620 0.9421
14.1071 5.1605 -0.0624 0.9417
14.1346 5.4061 -0.0629 0.9413
14.1626 5.6554 -0.0634 0.9408
14.2198 6.1659 -0.0644 0.9399
14.2790 6.6938 -0.0655 0.9389
14.3094 6.9648 -0.0661 0.9383
18.5478 9.3654 -0.0863 0.9202
18.3195 9.5886 -0.0859 0.9206
18.1113 10.5154 -0.0870 0.9196
18.0782 10.8525 -0.0876 0.9191
18.4778 11.4630 -0.0904 0.9167
11.1817 10.0189 -0.0624 0.9417
5.1854 7.9636 -0.0395 0.9627
2.0214 5.1716 -0.0231 0.9780
0.5002 9.7707 -0.0407 0.9616
-1.1301 9.0521 -0.0379 0.9642
-2.7916 6.3114 -0.0287 0.9728
-2.7946 6.0766 -0.0278 0.9736
-2.8197 5.9023 -0.0272 0.9742
-2.8453 5.7388 -0.0266 0.9747
-2.9019 5.4470 -0.0256 0.9756
-2.9402 5.1504 -0.0246 0.9766
-2.9782 4.8799 -0.0238 0.9774
-3.0199 4.6379 -0.0230 0.9781
-3.0404 4.5234 -0.0226 0.9784
-3.0772 4.3011 -0.0220 0.9791
-3.0936 4.1933 -0.0217 0.9794
-3.1318 3.9951 -0.0211 0.9799
-3.1472 3.8962 -0.0208 0.9802
-3.4834 3.4079 -0.0203 0.9807
-3.7150 3.4279 -0.0210 0.9800
-3.8428 3.4432 -0.0214 0.9796
-3.9823 3.4646 -0.0219 0.9791
-4.1320 3.4901 -0.0225 0.9786
-4.4736 3.5600 -0.0238 0.9774
-5.6572 4.1102 -0.0291 0.9724
-5.8162 4.0973 -0.0296 0.9719
-5.6844 3.8814 -0.0286 0.9728
-0.8487 0.5438 -0.0042 0.9960
-0.8486 0.5095 -0.0041 0.9960
-0.8443 0.4738 -0.0040 0.9961
-0.8401 0.4555 -0.0040 0.9962
-0.8244 0.3864 -0.0038 0.9964
-0.8207 0.3702 -0.0037 0.9964
-0.8163 0.3539 -0.0037 0.9964
-0.8075 0.3224 -0.0036 0.9965
-0.8032 0.3072 -0.0036 0.9966
-0.7990 0.2923 -0.0035 0.9966
-0.7948 0.2777 -0.0035 0.9966
-0.7908 0.2634 -0.0035 0.9967
-0.7830 0.2355 -0.0034 0.9967
-0.7769 0.1850 -0.0033 0.9968
-0.7680 0.1477 -0.0033 0.9969
-0.7656 0.1357 -0.0032 0.9969
-0.7609 0.1120 -0.0032 0.9969
-0.7585 0.1003 -0.0032 0.9969
-0.7562 0.0888 -0.0032 0.9970
-0.7539 0.0774 -0.0031 0.9970
-0.7516 0.0661 -0.0031 0.9970
-0.7493 0.0548 -0.0031 0.9970
-0.7047 0.0000 -0.0107 0.9972
-0.7087 -0.0207 -0.0108 0.9972
-0.7168 -0.0630 -0.0110 0.9971
-0.7188 -0.0738 -0.0110 0.9971
-0.7249 -0.1067 -0.0112 0.9971
-0.7291 -0.1291 -0.0113 0.9970
-0.7354 -0.1638 -0.0115 0.9970
-0.7378 -0.1757 -0.0116 0.9970
-0.7405 -0.1878 -0.0116 0.9969
-0.7419 -0.1998 -0.0117 0.9969
-0.7423 -0.2116 -0.0118 0.9969
-0.7559 -0.2641 -0.0122 0.9968
-0.7630 -0.2918 -0.0124 0.9967
-0.7741 -0.3357 -0.0129 0.9966
-0.7780 -0.3509 -0.0130 0.9966
-0.7851 -0.3821 -0.0133 0.9965
-0.7915 -0.4143 -0.0136 0.9964
-0.7948 -0.4309 -0.0138 0.9964
-0.7982 -0.4480 -0.0139 0.9963
-0.8017 -0.4654 -0.0141 0.9963
-0.8052 -0.4834 -0.0143 0.9963
-0.8104 -0.5362 -0.0148 0.9961
-13.2844 -9.3580 -0.2476 0.9371
-12.8551 -9.3396 -0.2421 0.9384
-12.4624 -9.3355 -0.2373 0.9396
-12.2016 -9.4216 -0.2349 0.9402
-13.3238 -10.6026 -0.2595 0.9342
-13.0536 -10.7028 -0.2572 0.9347
-13.0383 -11.0128 -0.2601 0.9340
-2.9618 -2.6538 -0.0606 0.9842
-2.9248 -2.6987 -0.0606 0.9842
-2.9152 -2.7698 -0.0613 0.9840
-9.5175 -9.5873 -0.2059 0.9474
-8.5548 -9.1366 -0.1907 0.9512
-8.2227 -9.3130 -0.1893 0.9515
-8.3223 -9.7082 -0.1949 0.9501
-7.7636 -9.6111 -0.1883 0.9518
-7.7412 -9.8752 -0.1912 0.9510
-5.9517 -8.0673 -0.1528 0.9607
-5.7446 -8.0295 -0.1504 0.9613
-5.2088 -7.9995 -0.1455 0.9625
-5.0421 -7.9966 -0.1441 0.9629
-3.8054 -7.9657 -0.1345 0.9653
-3.6618 -7.9621 -0.1335 0.9655
-3.5212 -7.9608 -0.1326 0.9658
-2.8519 -7.9763 -0.1291 0.9667
-2.4774 -8.0215 -0.1279 0.9670
-2.3561 -8.0438 -0.1277 0.9670
-2.2410 -8.0871 -0.1279 0.9670
-2.1630 -8.2735 -0.1303 0.9664
-2.0692 -11.2021 -0.1736 0.9555
-1.8498 -11.9614 -0.1844 0.9527
-1.7764 -12.7148 -0.1956 0.9499
-7.9832 -63.9450 -0.9820 0.7728
-7.0454 -64.0307 -0.9816 0.7728
-4.2279 -64.2054 -0.9805 0.7731
-0.4820 -13.1902 -0.2011 0.9486
-0.2915 -13.2978 -0.2027 0.9482
0.4692 -64.2215 -0.9786 0.7734
3.2794 -64.0671 -0.9775 0.7737
4.2135 -63.9878 -0.9772 0.7737
5.1461 -63.8954 -0.9768 0.7738
6.0768 -63.7890 -0.9764 0.7739
7.0057 -63.6701 -0.9761 0.7740
7.9322 -63.5371 -0.9757 0.7740
9.7782 -63.2313 -0.9750 0.7742
10.6970 -63.0581 -0.9746 0.7742
13.4353 -62.4597 -0.9735 0.7745
14.3411 -62.2335 -0.9732 0.7745
16.1420 -61.7437 -0.9725 0.7747
17.9261 -61.2009 -0.9718 0.7748
19.6925 -60.6072 -0.9711 0.7750
22.3060 -59.6231 -0.9700 0.7752
26.5527 -57.7360 -0.9684 0.7755
28.2097 -56.8977 -0.9677 0.7756
29.0283 -56.4607 -0.9674 0.7757
30.6456 -55.5519 -0.9668 0.7758
31.4438 -55.0802 -0.9664 0.7759
32.2348 -54.5971 -0.9661 0.7760
35.3246 -52.5547 -0.9649 0.7762
36.0776 -52.0170 -0.9646 0.7763
36.8222 -51.4680 -0.9643 0.7763
39.0079 -49.7612 -0.9635 0.7765
9.1488 -10.6723 -0.2142 0.9453
41.8002 -47.3432 -0.9624 0.7767
42.4757 -46.7145 -0.9621 0.7768
44.4465 -44.7724 -0.9613 0.7769
45.0838 -44.1064 -0.9611 0.7770
46.3299 -42.7485 -0.9606 0.7771
47.5359 -41.3562 -0.9601 0.7772
51.4280 -36.2285 -0.9586 0.7775
51.9408 -35.4656 -0.9584 0.7776
52.4426 -34.6957 -0.9582 0.7776
52.9334 -33.9189 -0.9580 0.7776
53.4127 -33.1353 -0.9578 0.7777
53.8808 -32.3452 -0.9576 0.7777
18.2473 -9.5508 -0.3138 0.9209
18.2214 -8.2193 -0.3046 0.9231
18.5534 -8.0449 -0.3082 0.9223
19.4064 -8.0800 -0.3203 0.9193
20.1919 -8.0629 -0.3313 0.9167
23.2323 -8.4986 -0.3770 0.9058
23.2829 -8.1334 -0.3758 0.9060
23.5300 -7.8359 -0.3779 0.9055
8.9419 -2.6902 -0.1423 0.9633
29.1210 -8.2992 -0.4614 0.8859
31.0797 -7.8832 -0.4886 0.8796
13.8145 -3.2899 -0.2164 0.9448
13.3430 -2.9723 -0.2083 0.9468
5.3109 -1.0212 -0.0824 0.9786
5.2948 -0.8584 -0.0817 0.9788
31.0406 -1.8163 -0.4738 0.8830
63.5931 0.0000 -0.9690 0.7754
63.5863 0.9292 -0.9690 0.7754
63.5665 1.8582 -0.9690 0.7754
63.4869 3.7149 -0.9691 0.7754
37.9604 3.8964 -0.5815 0.8584
30.0039 3.9687 -0.4612 0.8860
26.3679 3.8805 -0.4061 0.8989
21.9304 3.8852 -0.3394 0.9148
21.8248 4.1964 -0.3387 0.9149
21.9680 4.8936 -0.3430 0.9139
22.0200 5.2440 -0.3449 0.9134
14.7113 3.9612 -0.2322 0.9409
14.1902 4.0441 -0.2248 0.9427
13.9967 4.4351 -0.2237 0.9430
14.0763 5.1493 -0.2284 0.9418
14.1035 5.3942 -0.2301 0.9414
14.1878 6.1520 -0.2356 0.9400
14.1485 6.8865 -0.2398 0.9390
14.3409 7.2413 -0.2448 0.9378
18.0899 9.4683 -0.3111 0.9216
17.9828 9.7497 -0.3117 0.9214
18.3984 10.6821 -0.3242 0.9184
52.4426 34.6957 -0.9582 0.7776
51.9407 35.4655 -0.9584 0.7776
51.4280 36.2284 -0.9586 0.7775
50.3691 37.7320 -0.9590 0.7774
10.8180 9.1374 -0.2158 0.9449
10.5249 9.1567 -0.2126 0.9457
46.3299 42.7485 -0.9606 0.7771
45.7119 43.4319 -0.9608 0.7771
45.0838 44.1063 -0.9611 0.7770
44.4465 44.7724 -0.9613 0.7769
43.1418 46.0761 -0.9618 0.7768
42.4757 46.7145 -0.9621 0.7768
41.8002 47.3432 -0.9624 0.7767
40.4217 48.5717 -0.9629 0.7766
38.2876 50.3402 -0.9638 0.7765
5.4012 7.7875 -0.1444 0.9628
5.2768 7.8506 -0.1441 0.9629
5.1854 7.9636 -0.1448 0.9627
33.0185 54.1027 -0.9658 0.7760
32.2348 54.5971 -0.9661 0.7760
30.6456 55.5517 -0.9668 0.7758
29.0284 56.4605 -0.9674 0.7757
26.5528 57.7360 -0.9684 0.7755
24.0218 58.9047 -0.9694 0.7753
20.5666 60.2853 -0.9706 0.7751
19.6909 60.6024 -0.9710 0.7750
17.9258 61.1998 -0.9718 0.7748
16.1427 61.7463 -0.9725 0.7747
15.2445 61.9992 -0.9729 0.7746
13.4371 62.4680 -0.9737 0.7744
12.5279 62.6825 -0.9741 0.7744
9.7807 63.2472 -0.9752 0.7741
8.8591 63.4089 -0.9756 0.7740
7.9347 63.5567 -0.9760 0.7740
7.0081 63.6914 -0.9764 0.7739
6.0791 63.8122 -0.9768 0.7738
5.1482 63.9204 -0.9772 0.7737
0.5003 9.7747 -0.1491 0.9616
0.4696 64.2552 -0.9792 0.7733
-0.4696 64.2810 -0.9795 0.7732
-5.1710 64.2041 -0.9815 0.7728
-7.0504 64.0770 -0.9823 0.7727
-1.1300 9.0516 -0.1390 0.9642
-8.9268 63.8941 -0.9831 0.7725
-12.6640 63.3640 -0.9846 0.7722
-15.4467 62.8216 -0.9858 0.7720
-17.2891 62.3916 -0.9866 0.7718
-18.2059 62.1565 -0.9869 0.7717
-19.1195 61.9074 -0.9873 0.7717
-20.9361 61.3690 -0.9881 0.7715
-21.8389 61.0797 -0.9884 0.7714
-22.7375 60.7766 -0.9888 0.7714
-23.6319 60.4604 -0.9892 0.7713
-24.5219 60.1309 -0.9895 0.7712
-2.7120 6.3818 -0.1057 0.9726
-2.7485 5.9763 -0.1002 0.9740
-2.7757 5.8104 -0.0981 0.9746
-2.8019 5.6512 -0.0961 0.9751
-2.8531 5.3554 -0.0925 0.9760
-2.8965 5.0738 -0.0890 0.9769
-2.9182 4.9427 -0.0875 0.9773
-2.9392 4.8161 -0.0860 0.9777
-3.0031 4.4679 -0.0820 0.9787
-3.0227 4.3582 -0.0808 0.9790
-3.0966 3.9502 -0.0765 0.9801
-3.1171 3.8589 -0.0756 0.9804
-3.1614 3.6878 -0.0740 0.9808
-3.1801 3.6018 -0.0732 0.9810
-3.2363 3.4565 -0.0722 0.9812
-3.4428 3.3682 -0.0734 0.9809
-3.5438 3.3671 -0.0745 0.9806
-3.7921 3.3977 -0.0776 0.9798
-4.0666 3.4348 -0.0811 0.9789
-4.4043 3.5047 -0.0858 0.9777
-0.8104 0.5361 -0.0148 0.9961
-0.8107 0.5195 -0.0147 0.9962
-0.8052 0.4834 -0.0143 0.9962
-0.7982 0.4480 -0.0139 0.9963
-0.7851 0.3821 -0.0133 0.9965
-0.7780 0.3509 -0.0130 0.9966
-0.7704 0.3208 -0.0127 0.9967
-0.7666 0.3061 -0.0126 0.9967
-0.7630 0.2918 -0.0124 0.9967
-0.7524 0.2505 -0.0121 0.9968
-0.7490 0.2373 -0.0120 0.9969
-0.7456 0.2243 -0.0119 0.9969
-0.7424 0.2116 -0.0118 0.9969
-0.7405 0.1878 -0.0116 0.9969
-0.7333 0.1521 -0.0114 0.9970
-0.7291 0.1292 -0.0113 0.9970
-0.7270 0.1179 -0.0112 0.9971
-0.7188 0.0737 -0.0110 0.9971
-0.7168 0.0630 -0.0110 0.9971
-0.7107 0.0312 -0.0108 0.9972
-0.7087 0.0207 -0.0108 0.9972
-0.6743 0.0000 -0.0177 0.9973
-0.6757 -0.0099 -0.0178 0.9973
-0.6776 -0.0198 -0.0178 0.9973
-0.6794 -0.0298 -0.0179 0.9973
-0.6812 -0.0398 -0.0180 0.9973
-0.6831 -0.0500 -0.0180 0.9973
-0.6886 -0.0809 -0.0183 0.9972
-0.6941 -0.1125 -0.0185 0.9972
-0.7032 -0.1675 -0.0190 0.9971
-0.7051 -0.1788 -0.0191 0.9971
-0.7088 -0.2020 -0.0194 0.9971
-0.7146 -0.2264 -0.0197 0.9970
-0.7176 -0.2389 -0.0199 0.9970
-0.7236 -0.2647 -0.0203 0.9969
-0.7266 -0.2779 -0.0205 0.9969
-0.7297 -0.2914 -0.0207 0.9969
-0.7329 -0.3051 -0.0209 0.9968
-0.7393 -0.3335 -0.0214 0.9968
-0.7569 -0.4248 -0.0228 0.9965
-0.7597 -0.4410 -0.0231 0.9965
-0.7625 -0.4577 -0.0234 0.9964
-0.7654 -0.4748 -0.0237 0.9964
-0.7683 -0.4923 -0.0240 0.9964
-0.7713 -0.5103 -0.0243 0.9963
-0.7743 -0.5287 -0.0247 0.9963
-12.4998 -9.3636 -0.4111 0.9394
-12.1651 -9.3934 -0.4046 0.9404
-12.9396 -10.9295 -0.4459 0.9345
-2.9118 -2.7666 -0.1057 0.9841
-2.9020 -2.8391 -0.1069 0.9839
-9.4793 -9.5487 -0.3542 0.9476
-8.6790 -9.2693 -0.3343 0.9505
-8.4381 -9.2802 -0.3302 0.9510
-8.2389 -9.3315 -0.3277 0.9514
-8.2420 -9.6145 -0.3334 0.9506
-8.0944 -9.7265 -0.3331 0.9506
-7.8318 -9.6956 -0.3281 0.9514
-5.7028 -7.9711 -0.2580 0.9615
-5.3537 -7.9651 -0.2526 0.9623
-5.0084 -7.9432 -0.2472 0.9631
-4.6912 -7.9455 -0.2429 0.9638
-4.5360 -7.9457 -0.2408 0.9641
-4.3835 -7.9460 -0.2389 0.9643
-4.2335 -7.9464 -0.2370 0.9646
-4.0857 -7.9467 -0.2352 0.9649
-3.9409 -7.9486 -0.2335 0.9651
-3.6570 -7.9516 -0.2304 0.9656
-3.2428 -7.9517 -0.2261 0.9662
-2.9762 -7.9554 -0.2236 0.9666
-2.8436 -7.9529 -0.2223 0.9668
-2.7162 -7.9619 -0.2215 0.9669
-2.4729 -8.0070 -0.2206 0.9670
-2.2399 -8.0833 -0.2208 0.9670
-2.4121 -11.2137 -0.3019 0.9551
-2.0909 -11.3199 -0.3030 0.9550
-2.0418 -12.0360 -0.3214 0.9523
-2.9886 -37.1076 -0.9800 0.8616
-0.6703 -13.0956 -0.3452 0.9489
-0.4824 -13.2018 -0.3478 0.9485
-0.0949 -12.9816 -0.3417 0.9494
0.2716 -37.1780 -0.9787 0.8618
1.3573 -37.1381 -0.9783 0.8618
1.8993 -37.1060 -0.9781 0.8619
2.4408 -37.0663 -0.9779 0.8619
2.9814 -37.0187 -0.9777 0.8619
3.5213 -36.9633 -0.9774 0.8619
5.1344 -36.7495 -0.9768 0.8620
5.6696 -36.6626 -0.9766 0.8620
6.7355 -36.4656 -0.9762 0.8621
7.2661 -36.3554 -0.9760 0.8621
8.3217 -36.1123 -0.9756 0.8622
8.8466 -35.9792 -0.9753 0.8622
9.8900 -35.6904 -0.9749 0.8623
10.9241 -35.3713 -0.9745 0.8623
11.9480 -35.0226 -0.9741 0.8624
13.4630 -34.4441 -0.9735 0.8624
13.9621 -34.2369 -0.9733 0.8625
14.4579 -34.0224 -0.9731 0.8625
15.9255 -33.3363 -0.9726 0.8626
16.4077 -33.0937 -0.9724 0.8626
16.8862 -32.8440 -0.9722 0.8626
17.3610 -32.5875 -0.9720 0.8627
19.2205 -31.4941 -0.9713 0.8627
20.5709 -30.6047 -0.9707 0.8628
21.0121 -30.2955 -0.9706 0.8628
21.4487 -29.9798 -0.9704 0.8629
21.8806 -29.6580 -0.9702 0.8629
22.3079 -29.3302 -0.9700 0.8629
22.7300 -28.9960 -0.9699 0.8629
23.5597 -28.3099 -0.9696 0.8630
9.1489 -10.6725 -0.3700 0.9453
12.4043 -12.8659 -0.4705 0.9310
25.9232 -26.1133 -0.9686 0.8631
26.2979 -25.7278 -0.9685 0.8631
27.0304 -24.9410 -0.9682 0.8631
27.3881 -24.5399 -0.9680 0.8632
28.0854 -23.7223 -0.9678 0.8632
28.7587 -22.8852 -0.9675 0.8632
29.4073 -22.0294 -0.9673 0.8633
29.7223 -21.5946 -0.9671 0.8633
30.0308 -21.1552 -0.9670 0.8633
30.3329 -20.7116 -0.9669 0.8633
31.2006 -19.3557 -0.9665 0.8634
32.0082 -17.9639 -0.9662 0.8634
32.2640 -17.4926 -0.9661 0.8634
18.0942 -8.8070 -0.5297 0.9226
18.1094 -8.4893 -0.5265 0.9231
18.1690 -8.1957 -0.5247 0.9233
18.5124 -8.0271 -0.5312 0.9224
23.3071 -8.1419 -0.6499 0.9059
24.5525 -7.7798 -0.6780 0.9021
8.9421 -2.6903 -0.2458 0.9633
32.6394 -9.3019 -0.8934 0.8730
36.2082 -8.6229 -0.9798 0.8616
13.3844 -2.9815 -0.3610 0.9466
13.5573 -2.8127 -0.3645 0.9461
5.3014 -0.9392 -0.1417 0.9787
5.3195 -0.8624 -0.1419 0.9787
5.3238 -0.7042 -0.1414 0.9787
5.4296 -0.6376 -0.1439 0.9784
21.3521 -2.1916 -0.5650 0.9177
31.5648 -2.3102 -0.8331 0.8810
31.3226 -1.3739 -0.8253 0.8821
37.1903 -1.0872 -0.9794 0.8617
37.2020 -0.5437 -0.9794 0.8617
37.2058 -0.0000 -0.9794 0.8617
37.1706 1.6305 -0.9794 0.8617
37.1433 2.1734 -0.9794 0.8617
37.1080 2.7159 -0.9795 0.8617
37.0649 3.2579 -0.9795 0.8617
27.0301 3.9780 -0.7192 0.8964
22.7142 3.6827 -0.6057 0.9120
21.8977 3.8794 -0.5854 0.9149
21.6514 4.1630 -0.5804 0.9156
21.9603 4.8918 -0.5923 0.9139
22.0123 5.2421 -0.5957 0.9134
15.1946 3.8541 -0.4127 0.9392
14.1206 4.0243 -0.3865 0.9429
13.6847 4.5573 -0.3797 0.9439
13.6750 4.7771 -0.3813 0.9437
14.0785 5.3846 -0.3968 0.9415
14.1530 5.8927 -0.4036 0.9405
14.0158 7.0770 -0.4133 0.9391
18.6227 10.4516 -0.5622 0.9181
18.5542 10.7726 -0.5648 0.9177
18.2491 10.9551 -0.5603 0.9184
18.3394 11.3771 -0.5681 0.9173
30.0308 21.1552 -0.9670 0.8633
29.7224 21.5946 -0.9671 0.8633
29.4074 22.0293 -0.9673 0.8633
29.0862 22.4596 -0.9674 0.8633
28.7587 22.8852 -0.9675 0.8632
12.1526 9.9641 -0.4137 0.9391
10.8180 9.1375 -0.3728 0.9449
27.3881 24.5398 -0.9680 0.8632
26.2979 25.7277 -0.9685 0.8631
25.1570 26.8680 -0.9689 0.8631
24.7657 27.2371 -0.9691 0.8630
24.3689 27.6004 -0.9692 0.8630
23.9670 27.9581 -0.9694 0.8630
10.5650 13.4775 -0.4508 0.9338
22.3080 29.3303 -0.9700 0.8629
21.8807 29.6580 -0.9702 0.8629
5.4012 7.7875 -0.2495 0.9628
5.2768 7.8506 -0.2490 0.9629
5.1854 7.9637 -0.2502 0.9627
5.1547 8.1753 -0.2544 0.9621
19.2205 31.4940 -0.9713 0.8627
16.8863 32.8440 -0.9722 0.8626
15.4398 33.5721 -0.9727 0.8626
13.9621 34.2370 -0.9733 0.8625
2.0214 5.1717 -0.1462 0.9780
12.4560 34.8371 -0.9739 0.8624
11.9481 35.0227 -0.9741 0.8624
10.9240 35.3713 -0.9745 0.8623
8.8467 35.9792 -0.9753 0.8622
8.3217 36.1121 -0.9756 0.8622
7.7949 36.2377 -0.9758 0.8622
7.2661 36.3554 -0.9760 0.8621
6.7356 36.4656 -0.9762 0.8621
5.6696 36.6627 -0.9766 0.8620
5.1344 36.7495 -0.9768 0.8620
4.0602 36.8997 -0.9772 0.8620
3.5213 36.9632 -0.9774 0.8619
2.9815 37.0186 -0.9777 0.8619
2.4408 37.0662 -0.9779 0.8619
0.5005 9.7776 -0.2577 0.9616
0.8147 37.1620 -0.9785 0.8618
0.2716 37.1729 -0.9786 0.8618
-0.2717 37.1816 -0.9788 0.8618
-2.9885 37.1057 -0.9800 0.8616
-5.6956 36.8311 -0.9811 0.8615
-6.2346 36.7523 -0.9813 0.8614
-6.7725 36.6656 -0.9815 0.8614
-7.3091 36.5711 -0.9818 0.8614
-7.8445 36.4685 -0.9820 0.8613
-8.3784 36.3582 -0.9822 0.8613
-10.4974 35.8388 -0.9831 0.8612
-12.0656 35.3673 -0.9837 0.8611
-12.5838 35.1950 -0.9839 0.8611
-13.0997 35.0150 -0.9841 0.8611
-2.6427 6.4801 -0.1842 0.9724
-2.7067 6.1194 -0.1761 0.9736
-2.7616 5.7807 -0.1686 0.9747
-2.8132 5.4718 -0.1620 0.9757
-2.8576 5.1800 -0.1557 0.9766
-2.8784 5.0421 -0.1528 0.9770
-2.9178 4.7809 -0.1474 0.9778
-2.9378 4.6593 -0.1450 0.9782
-2.9783 4.4309 -0.1405 0.9789
-2.9985 4.3233 -0.1385 0.9792
-3.0209 4.2225 -0.1367 0.9794
-3.0427 4.1242 -0.1349 0.9797
-3.0794 3.9284 -0.1314 0.9802
-3.1007 3.8385 -0.1299 0.9804
-3.1214 3.7508 -0.1285 0.9807
-3.1836 3.5013 -0.1246 0.9812
-3.2282 3.4477 -0.1243 0.9813
-3.3440 3.3686 -0.1250 0.9812
-3.4385 3.3639 -0.1266 0.9809
-3.6560 3.3734 -0.1310 0.9803
-3.9096 3.4013 -0.1364 0.9795
-4.0543 3.4245 -0.1397 0.9790
-4.2148 3.4558 -0.1435 0.9784
-5.6580 4.3690 -0.1882 0.9718
-5.6234 4.2125 -0.1850 0.9723
-0.7743 0.5288 -0.0247 0.9963
-0.7683 0.4923 -0.0240 0.9964
-0.7654 0.4748 -0.0237 0.9964
-0.7625 0.4578 -0.0234 0.9964
-0.7597 0.4411 -0.0231 0.9965
-0.7569 0.4248 -0.0228 0.9965
-0.7542 0.4089 -0.0226 0.9966
-0.7489 0.3781 -0.0221 0.9966
-0.7460 0.3631 -0.0218 0.9967
-0.7427 0.3481 -0.0216 0.9967
-0.7393 0.3335 -0.0214 0.9968
-0.7361 0.3192 -0.0211 0.9968
-0.7236 0.2647 -0.0203 0.9969
-0.7146 0.2264 -0.0197 0.9970
-0.7088 0.2020 -0.0194 0.9971
-0.7071 0.1904 -0.0193 0.9971
-0.7033 0.1675 -0.0190 0.9971
-0.7014 0.1562 -0.0189 0.9971
-0.6996 0.1452 -0.0188 0.9971
-0.6959 0.1233 -0.0186 0.9972
-0.6941 0.1125 -0.0185 0.9972
-0.6904 0.0913 -0.0183 0.9972
-0.6849 0.0602 -0.0181 0.9973
-0.6813 0.0398 -0.0180 0.9973
-0.6776 0.0198 -0.0178 0.9973
-0.6465 0.0000 -0.0242 0.9974
-0.6479 -0.0095 -0.0242 0.9974
-0.6506 -0.0285 -0.0244 0.9974
-0.6539 -0.0479 -0.0245 0.9974
-0.6555 -0.0576 -0.0246 0.9974
-0.6588 -0.0773 -0.0248 0.9973
-0.6605 -0.0873 -0.0249 0.9973
-0.6653 -0.1179 -0.0253 0.9973
-0.6669 -0.1282 -0.0254 0.9973
-0.6685 -0.1387 -0.0255 0.9973
-0.6701 -0.1493 -0.0257 0.9973
-0.6717 -0.1599 -0.0258 0.9972
-0.6900 -0.2524 -0.0275 0.9971
-0.6929 -0.2650 -0.0278 0.9970
-0.6958 -0.2779 -0.0280 0.9970
-0.7016 -0.3042 -0.0286 0.9969
-0.7043 -0.3177 -0.0289 0.9969
-0.7071 -0.3315 -0.0292 0.9969
-0.7128 -0.3599 -0.0299 0.9968
-0.7196 -0.4039 -0.0309 0.9967
-0.7241 -0.4347 -0.0316 0.9966
-0.7287 -0.4669 -0.0324 0.9965
-0.7310 -0.4836 -0.0328 0.9965
-0.7333 -0.5007 -0.0332 0.9965
-0.7357 -0.5182 -0.0337 0.9964
-0.7540 -0.5648 -0.0353 0.9962
-13.2410 -10.5367 -0.6332 0.9345
-13.0184 -10.9959 -0.6376 0.9341
-13.0700 -11.3709 -0.6482 0.9330
-2.9217 -2.6958 -0.1487 0.9842
-2.9085 -2.7634 -0.1501 0.9841
-2.8986 -2.8358 -0.1517 0.9839
-9.3396 -9.6871 -0.5035 0.9476
-8.4342 -9.2759 -0.4691 0.9511
-8.0705 -9.4145 -0.4640 0.9516
-7.9013 -9.7817 -0.4705 0.9509
-6.2941 -8.0293 -0.3817 0.9600
-6.0621 -7.9705 -0.3747 0.9607
-5.8657 -7.9505 -0.3697 0.9612
-5.6862 -7.9479 -0.3657 0.9616
-5.3387 -7.9427 -0.3581 0.9624
-5.1699 -7.9398 -0.3545 0.9628
-5.0053 -7.9383 -0.3511 0.9631
-4.8451 -7.9391 -0.3480 0.9635
-4.5329 -7.9402 -0.3421 0.9641
-4.2296 -7.9392 -0.3366 0.9646
-4.0820 -7.9396 -0.3340 0.9649
-3.6526 -7.9420 -0.3271 0.9656
-3.3752 -7.9423 -0.3229 0.9660
-3.2389 -7.9423 -0.3209 0.9662
-3.1288 -8.0049 -0.3216 0.9662
-2.9701 -7.9391 -0.3172 0.9666
-2.5869 -7.9616 -0.3132 0.9670
-2.4670 -7.9879 -0.3128 0.9671
-2.3492 -8.0202 -0.3127 0.9671
-2.1575 -8.2524 -0.3192 0.9664
-2.0926 -8.5106 -0.3279 0.9655
-2.0743 -9.0013 -0.3456 0.9637
-2.3825 -11.0760 -0.4239 0.9557
-2.2062 -11.0385 -0.4212 0.9559
-2.0957 -11.3462 -0.4317 0.9549
-2.0389 -12.0187 -0.4561 0.9524
-4.0043 -25.8941 -0.9804 0.9004
-1.7675 -12.6507 -0.4780 0.9502
-3.2450 -25.9920 -0.9801 0.9005
-2.4833 -26.0678 -0.9798 0.9005
-2.1019 -26.0973 -0.9797 0.9005
-1.7201 -26.1212 -0.9795 0.9005
-0.6728 -13.1445 -0.4925 0.9487
-0.4829 -13.2134 -0.4947 0.9485
-0.2965 -13.5267 -0.5062 0.9473
-0.0948 -12.9755 -0.4855 0.9494
0.1911 -26.1570 -0.9788 0.9006
0.5732 -26.1474 -0.9786 0.9006
1.3366 -26.1115 -0.9783 0.9006
1.7177 -26.0853 -0.9782 0.9006
2.0983 -26.0532 -0.9780 0.9007
2.8578 -25.9729 -0.9777 0.9007
3.6144 -25.8705 -0.9774 0.9007
4.3675 -25.7459 -0.9771 0.9007
5.1163 -25.5995 -0.9768 0.9008
8.4179 -24.6748 -0.9755 0.9009
8.7762 -24.5455 -0.9754 0.9009
9.4870 -24.2718 -0.9751 0.9009
10.1892 -23.9773 -0.9748 0.9010
10.5371 -23.8226 -0.9747 0.9010
10.8825 -23.6628 -0.9745 0.9010
11.5661 -23.3282 -0.9743 0.9010
11.9041 -23.1535 -0.9741 0.9010
12.2394 -22.9741 -0.9740 0.9010
12.9021 -22.6006 -0.9737 0.9011
13.2292 -22.4067 -0.9736 0.9011
13.5533 -22.2080 -0.9735 0.9011
15.1287 -21.1460 -0.9729 0.9012
15.7362 -20.6898 -0.9726 0.9012
16.3302 -20.2163 -0.9724 0.9012
9.1490 -10.6726 -0.5260 0.9453
17.4750 -19.2190 -0.9719 0.9012
17.7520 -18.9595 -0.9718 0.9013
18.2945 -18.4286 -0.9716 0.9013
18.5597 -18.1573 -0.9715 0.9013
19.0784 -17.6036 -0.9713 0.9013
13.7008 -12.2759 -0.6883 0.9290
19.5807 -17.0352 -0.9711 0.9013
20.0662 -16.4525 -0.9709 0.9013
20.3024 -16.1560 -0.9708 0.9014
20.5344 -15.8561 -0.9707 0.9014
20.7619 -15.5529 -0.9707 0.9014
21.7706 -13.9504 -0.9675 0.9017
22.1654 -13.3062 -0.9673 0.9017
22.3557 -12.9798 -0.9673 0.9017
22.7221 -12.3192 -0.9671 0.9017
18.4953 -9.6806 -0.7811 0.9198
18.7633 -9.4742 -0.7865 0.9193
23.3965 -10.9679 -0.9668 0.9017
21.2384 -9.5802 -0.8718 0.9110
18.5124 -8.0271 -0.7550 0.9224
24.8342 -8.6753 -0.9843 0.9001
25.0746 -7.9452 -0.9842 0.9001
8.9424 -2.6903 -0.3494 0.9633
25.5825 -6.0924 -0.9840 0.9001
13.4261 -2.9908 -0.5147 0.9464
5.3263 -0.7839 -0.2014 0.9787
5.3928 -0.7133 -0.2035 0.9785
24.4879 -2.5135 -0.9211 0.9062
25.7891 -2.2668 -0.9687 0.9016
25.8190 -1.8897 -0.9687 0.9016
26.2461 -1.5358 -0.9837 0.9001
26.2655 -1.1521 -0.9837 0.9001
26.2795 -0.7682 -0.9837 0.9001
26.2904 0.0000 -0.9837 0.9001
26.2877 0.3841 -0.9837 0.9001
26.2795 0.7682 -0.9837 0.9001
26.2655 1.1521 -0.9837 0.9001
26.2210 1.9191 -0.9837 0.9001
26.1906 2.3021 -0.9838 0.9001
26.1129 3.0665 -0.9838 0.9001
26.0658 3.4478 -0.9838 0.9001
26.0132 3.8283 -0.9838 0.9001
21.8757 3.8755 -0.8313 0.9149
21.6884 4.1701 -0.8264 0.9154
21.7824 4.5192 -0.8324 0.9148
21.9558 4.8909 -0.8417 0.9139
15.3237 4.1260 -0.5938 0.9385
13.9139 4.1861 -0.5437 0.9435
13.7637 4.3612 -0.5402 0.9438
13.6388 4.5420 -0.5379 0.9441
13.6220 4.7586 -0.5399 0.9439
14.0909 5.3894 -0.5645 0.9414
15.5378 6.7373 -0.6337 0.9345
14.1335 6.6255 -0.5841 0.9394
13.9751 7.0564 -0.5858 0.9393
18.4098 9.6358 -0.7775 0.9202
18.5579 10.0615 -0.7899 0.9190
17.3009 10.0449 -0.7486 0.9230
18.3430 11.0114 -0.8005 0.9179
18.3030 11.3545 -0.8059 0.9174
21.6274 14.3086 -0.9703 0.9014
20.9851 15.2466 -0.9706 0.9014
20.5344 15.8561 -0.9707 0.9014
12.1526 9.9641 -0.5880 0.9390
10.8181 9.1374 -0.5299 0.9449
19.0784 17.6036 -0.9713 0.9013
18.5597 18.1573 -0.9715 0.9013
17.4750 19.2189 -0.9719 0.9012
17.1943 19.4745 -0.9721 0.9012
10.6410 13.1733 -0.6336 0.9345
10.5975 13.9334 -0.6550 0.9323
15.4342 20.9202 -0.9728 0.9012
5.5700 7.7855 -0.3582 0.9624
5.4012 7.7875 -0.3546 0.9628
13.2292 22.4067 -0.9736 0.9011
12.5722 22.7897 -0.9739 0.9011
12.2395 22.9740 -0.9740 0.9010
11.5661 23.3283 -0.9743 0.9010
10.8825 23.6627 -0.9745 0.9010
10.1892 23.9773 -0.9748 0.9010
9.8393 24.1271 -0.9750 0.9010
9.1326 24.4112 -0.9752 0.9009
8.7763 24.5455 -0.9754 0.9009
8.4179 24.6748 -0.9755 0.9009
8.0576 24.7987 -0.9757 0.9009
7.6955 24.9175 -0.9758 0.9009
7.3317 25.0309 -0.9759 0.9009
6.9662 25.1391 -0.9761 0.9008
6.2305 25.3395 -0.9764 0.9008
5.8605 25.4316 -0.9765 0.9008
5.4890 25.5183 -0.9767 0.9008
5.1164 25.5995 -0.9768 0.9008
4.7425 25.6755 -0.9770 0.9008
3.6144 25.8704 -0.9774 0.9007
2.8578 25.9729 -0.9777 0.9007
2.4784 26.0159 -0.9779 0.9007
0.4995 9.7581 -0.3656 0.9616
0.5732 26.1474 -0.9786 0.9006
0.1911 26.1570 -0.9788 0.9006
-0.5734 26.1595 -0.9791 0.9006
-1.3380 26.1396 -0.9794 0.9005
-2.1018 26.0973 -0.9797 0.9005
-1.1219 8.9862 -0.3389 0.9644
-4.0043 25.8941 -0.9804 0.9004
-4.3829 25.8366 -0.9806 0.9004
-4.7607 25.7738 -0.9807 0.9004
-5.1375 25.7054 -0.9808 0.9004
-5.5134 25.6314 -0.9810 0.9004
-5.8882 25.5520 -0.9811 0.9004
-6.6343 25.3766 -0.9814 0.9003
-7.7434 25.0728 -0.9819 0.9003
-8.1102 24.9605 -0.9820 0.9003
-8.4752 24.8430 -0.9822 0.9003
-8.8386 24.7200 -0.9823 0.9002
-2.7592 5.7758 -0.2395 0.9747
-2.7852 5.6177 -0.2346 0.9752
-2.8106 5.4666 -0.2300 0.9757
-2.8940 4.9016 -0.2130 0.9775
-2.9133 4.7737 -0.2093 0.9779
-2.9315 4.6493 -0.2057 0.9782
-2.9720 4.4216 -0.1993 0.9789
-3.0129 4.2113 -0.1937 0.9795
-3.0876 3.8223 -0.1839 0.9805
-3.1670 3.5869 -0.1790 0.9810
-3.2775 3.3995 -0.1767 0.9813
-3.3420 3.3666 -0.1775 0.9812
-3.4357 3.3612 -0.1798 0.9809
-3.5348 3.3585 -0.1824 0.9807
-3.6515 3.3693 -0.1859 0.9803
-3.9049 3.3973 -0.1937 0.9795
-4.2084 3.4505 -0.2036 0.9785
-0.8646 0.6676 -0.0409 0.9956
-0.7357 0.5183 -0.0337 0.9964
-0.7333 0.5007 -0.0332 0.9965
-0.7264 0.4506 -0.0320 0.9966
-0.7219 0.4191 -0.0312 0.9967
-0.7196 0.4039 -0.0309 0.9967
-0.7175 0.3890 -0.0305 0.9967
-0.7154 0.3744 -0.0302 0.9968
-0.7016 0.3042 -0.0286 0.9969
-0.6989 0.2910 -0.0283 0.9970
-0.6929 0.2650 -0.0278 0.9970
-0.6871 0.2400 -0.0272 0.9971
-0.6842 0.2279 -0.0270 0.9971
-0.6786 0.2041 -0.0265 0.9972
-0.6749 0.1817 -0.0262 0.9972
-0.6717 0.1600 -0.0258 0.9972
-0.6669 0.1282 -0.0254 0.9973
-0.6637 0.1076 -0.0252 0.9973
-0.6605 0.0874 -0.0249 0.9973
-0.6588 0.0773 -0.0248 0.9973
-0.6572 0.0675 -0.0247 0.9974
-0.6539 0.0479 -0.0245 0.9974
-0.6523 0.0382 -0.0244 0.9974
-0.6492 0.0190 -0.0243 0.9974
-0.6209 0.0000 -0.0301 0.9975
-0.6221 -0.0091 -0.0302 0.9975
-0.6246 -0.0274 -0.0303 0.9975
-0.6258 -0.0366 -0.0304 0.9975
-0.6286 -0.0552 -0.0306 0.9975
-0.6301 -0.0647 -0.0307 0.9975
-0.6315 -0.0742 -0.0309 0.9975
-0.6330 -0.0837 -0.0310 0.9974
-0.6387 -0.1228 -0.0316 0.9974
-0.6414 -0.1429 -0.0319 0.9974
-0.6428 -0.1530 -0.0321 0.9974
-0.6441 -0.1634 -0.0322 0.9973
-0.6468 -0.1843 -0.0326 0.9973
-0.6483 -0.1950 -0.0328 0.9973
-0.6500 -0.2059 -0.0331 0.9973
-0.6589 -0.2520 -0.0342 0.9972
-0.6638 -0.2764 -0.0349 0.9971
-0.6664 -0.2889 -0.0352 0.9971
-0.6767 -0.3416 -0.0368 0.9970
-0.6793 -0.3555 -0.0372 0.9969
-0.6846 -0.3841 -0.0381 0.9969
-0.6862 -0.3984 -0.0385 0.9968
-0.6879 -0.4130 -0.0389 0.9968
-0.6896 -0.4278 -0.0394 0.9968
-0.6913 -0.4430 -0.0398 0.9967
-0.6930 -0.4585 -0.0403 0.9967
-0.6948 -0.4744 -0.0408 0.9966
-0.6965 -0.4907 -0.0413 0.9966
-0.6982 -0.5073 -0.0419 0.9965
-0.7000 -0.5244 -0.0424 0.9965
-0.7017 -0.5419 -0.0430 0.9965
-0.7346 -0.5846 -0.0455 0.9962
-0.8411 -0.6896 -0.0528 0.9957
-13.1090 -11.0725 -0.8326 0.9336
-13.2477 -11.5255 -0.8520 0.9321
-2.9204 -2.6947 -0.1928 0.9842
-2.9052 -2.7603 -0.1944 0.9841
-2.8953 -2.8325 -0.1965 0.9839
-9.3111 -9.6576 -0.6509 0.9477
-8.6519 -9.2404 -0.6142 0.9506
-8.4303 -9.2716 -0.6080 0.9511
-8.2528 -9.6271 -0.6152 0.9505
-7.9342 -9.8223 -0.6126 0.9507
-6.2769 -8.0072 -0.4936 0.9601
-6.0479 -7.9517 -0.4847 0.9608
-5.8692 -7.9553 -0.4797 0.9612
-5.6904 -7.9536 -0.4745 0.9616
-5.5095 -7.9436 -0.4690 0.9620
-5.0038 -7.9359 -0.4552 0.9631
-4.8423 -7.9345 -0.4510 0.9635
-4.2258 -7.9321 -0.4361 0.9646
-3.7900 -7.9335 -0.4266 0.9654
-3.6482 -7.9325 -0.4236 0.9656
-3.5082 -7.9316 -0.4208 0.9659
-3.3709 -7.9324 -0.4182 0.9661
-2.8392 -7.9408 -0.4092 0.9668
-2.3485 -8.0178 -0.4054 0.9671
-2.2392 -8.0806 -0.4068 0.9670
-2.1560 -8.2469 -0.4136 0.9664
-2.0887 -8.4946 -0.4244 0.9656
-3.3787 -19.9168 -0.9802 0.9223
-1.7599 -12.5966 -0.6171 0.9503
-2.2084 -20.0707 -0.9797 0.9223
-1.9147 -20.0984 -0.9796 0.9223
-1.3262 -20.1410 -0.9793 0.9223
-0.0948 -12.9694 -0.6293 0.9494
1.3249 -20.1196 -0.9783 0.9224
1.6185 -20.0957 -0.9782 0.9224
1.9117 -20.0676 -0.9781 0.9224
2.2045 -20.0352 -0.9780 0.9225
2.4967 -19.9984 -0.9778 0.9225
2.7883 -19.9575 -0.9777 0.9225
3.0793 -19.9122 -0.9776 0.9225
3.6589 -19.8091 -0.9774 0.9225
3.9475 -19.7513 -0.9773 0.9225
4.2352 -19.6893 -0.9772 0.9225
4.8076 -19.5526 -0.9769 0.9225
