ply
format ascii 1.0
element vertex 1596
property float32 x
property float32 y
property float32 z
property float32 I
end_header
-0.4161 -2.9782 -0.9780 0.9874
-0.3725 -2.9839 -0.9780 0.9874
-0.2852 -2.9934 -0.9779 0.9874
-0.2414 -2.9972 -0.9779 0.9874
-0.1537 -3.0029 -0.9779 0.9874
-0.0659 -3.0060 -0.9779 0.9874
0.0219 -3.0066 -0.9778 0.9874
0.1537 -3.0025 -0.9778 0.9874
0.1975 -2.9999 -0.9778 0.9874
0.2413 -2.9966 -0.9777 0.9874
0.3288 -2.9882 -0.9777 0.9874
0.4159 -2.9772 -0.9777 0.9874
0.6321 -2.9386 -0.9776 0.9874
0.7177 -2.9188 -0.9775 0.9874
0.7602 -2.9080 -0.9775 0.9874
0.8026 -2.8965 -0.9775 0.9874
0.8449 -2.8844 -0.9775 0.9874
0.8869 -2.8717 -0.9775 0.9874
0.9704 -2.8445 -0.9774 0.9874
1.0119 -2.8299 -0.9774 0.9874
1.0941 -2.7991 -0.9774 0.9874
1.1348 -2.7828 -0.9774 0.9874
1.2156 -2.7483 -0.9774 0.9874
1.2953 -2.7115 -0.9773 0.9874
1.3348 -2.6923 -0.9773 0.9874
1.4129 -2.6521 -0.9773 0.9874
1.4514 -2.6311 -0.9773 0.9874
1.4897 -2.6096 -0.9772 0.9874
1.5277 -2.5875 -0.9772 0.9874
1.5653 -2.5648 -0.9772 0.9874
1.6395 -2.5179 -0.9772 0.9874
1.6761 -2.4937 -0.9772 0.9874
1.7123 -2.4689 -0.9772 0.9874
1.7482 -2.4436 -0.9771 0.9874
1.8188 -2.3914 -0.9771 0.9874
1.8535 -2.3645 -0.9771 0.9874
1.8878 -2.3371 -0.9771 0.9874
1.9883 -2.2521 -0.9770 0.9874
2.0210 -2.2228 -0.9770 0.9874
2.0851 -2.1627 -0.9770 0.9874
2.1164 -2.1319 -0.9770 0.9874
2.1473 -2.1008 -0.9770 0.9874
2.2372 -2.0046 -0.9769 0.9874
2.2662 -1.9717 -0.9769 0.9874
2.3528 -1.8723 -0.9779 0.9874
2.4220 -1.8145 -0.9842 0.9874
2.5217 -1.7218 -0.9931 0.9872
2.5466 -1.6848 -0.9931 0.9872
2.5947 -1.6096 -0.9930 0.9872
2.6179 -1.5715 -0.9930 0.9872
2.6405 -1.5331 -0.9930 0.9872
2.7051 -1.4159 -0.9930 0.9872
2.7255 -1.3763 -0.9930 0.9872
2.7453 -1.3362 -0.9930 0.9872
2.8186 -1.1736 -0.9930 0.9872
2.8516 -1.0907 -0.9929 0.9872
2.8823 -1.0069 -0.9929 0.9872
2.8966 -0.9646 -0.9929 0.9872
2.9104 -0.9222 -0.9929 0.9872
2.9361 -0.8368 -0.9929 0.9872
2.9480 -0.7938 -0.9929 0.9872
2.9699 -0.7073 -0.9929 0.9872
2.9980 -0.5765 -0.9929 0.9872
3.0265 -0.4004 -0.9929 0.9872
3.0320 -0.3561 -0.9929 0.9872
3.0411 -0.2673 -0.9929 0.9872
3.0499 -0.1338 -0.9929 0.9872
3.0515 -0.0893 -0.9929 0.9872
3.0525 -0.0446 -0.9929 0.9872
3.0499 0.1338 -0.9929 0.9872
3.0476 0.1783 -0.9929 0.9872
3.0411 0.2672 -0.9929 0.9872
3.0369 0.3117 -0.9929 0.9872
3.0265 0.4003 -0.9929 0.9872
2.9893 0.6202 -0.9929 0.9872
2.9799 0.6638 -0.9929 0.9872
2.9480 0.7937 -0.9929 0.9872
2.9361 0.8367 -0.9929 0.9872
2.9236 0.8796 -0.9929 0.9872
2.8966 0.9646 -0.9929 0.9872
2.8822 1.0068 -0.9929 0.9872
2.8673 1.0488 -0.9929 0.9872
2.8516 1.0907 -0.9929 0.9872
2.8186 1.1735 -0.9930 0.9872
2.8011 1.2146 -0.9930 0.9872
2.7831 1.2554 -0.9930 0.9872
2.7645 1.2959 -0.9930 0.9872
2.7453 1.3362 -0.9930 0.9872
2.7255 1.3762 -0.9930 0.9872
2.6626 1.4943 -0.9930 0.9872
2.6405 1.5331 -0.9930 0.9872
2.6179 1.5715 -0.9930 0.9872
2.5947 1.6096 -0.9930 0.9872
2.5466 1.6848 -0.9931 0.9872
2.5217 1.7218 -0.9931 0.9872
2.4704 1.7948 -0.9931 0.9872
2.3894 1.9014 -0.9931 0.9872
2.3038 2.0043 -0.9932 0.9872
2.2444 2.0709 -0.9932 0.9872
2.2139 2.1035 -0.9932 0.9872
2.0873 2.2293 -0.9932 0.9872
2.0546 2.2596 -0.9933 0.9872
1.9192 2.3759 -0.9933 0.9872
1.8843 2.4037 -0.9933 0.9872
1.8490 2.4310 -0.9933 0.9872
1.7408 2.5098 -0.9934 0.9872
1.7039 2.5350 -0.9934 0.9872
1.5530 2.6304 -0.9935 0.9872
1.5144 2.6528 -0.9935 0.9872
1.4755 2.6747 -0.9935 0.9872
1.3968 2.7168 -0.9935 0.9872
1.1948 2.8118 -0.9936 0.9872
1.1537 2.8289 -0.9936 0.9872
1.0286 2.8769 -0.9937 0.9872
0.9865 2.8917 -0.9937 0.9872
0.9441 2.9058 -0.9937 0.9872
0.8589 2.9323 -0.9937 0.9872
0.7296 2.9673 -0.9938 0.9872
0.6862 2.9776 -0.9938 0.9872
0.6426 2.9875 -0.9938 0.9872
0.5989 2.9966 -0.9938 0.9872
0.5551 3.0050 -0.9939 0.9872
0.4671 3.0201 -0.9939 0.9872
0.4229 3.0266 -0.9939 0.9872
0.3342 3.0378 -0.9939 0.9872
0.2898 3.0424 -0.9940 0.9872
0.2454 3.0464 -0.9940 0.9872
0.1116 3.0544 -0.9940 0.9872
0.0670 3.0557 -0.9940 0.9872
-0.1116 3.0546 -0.9941 0.9872
-0.1563 3.0527 -0.9941 0.9872
-0.2008 3.0502 -0.9941 0.9872
-0.2454 3.0470 -0.9942 0.9872
-0.3787 3.0334 -0.9942 0.9872
-0.4672 3.0212 -0.9943 0.9872
-0.5992 2.9980 -0.9943 0.9872
-0.7300 2.9690 -0.9944 0.9872
-0.7734 2.9580 -0.9944 0.9872
-0.8165 2.9465 -0.9944 0.9872
-0.8595 2.9343 -0.9944 0.9872
-0.2055 0.6655 -0.2265 0.9971
-0.2019 0.6214 -0.2125 0.9973
-0.2011 0.5622 -0.1942 0.9975
-0.2060 0.5506 -0.1912 0.9975
-0.2198 0.5172 -0.1828 0.9976
-0.2241 0.5065 -0.1801 0.9977
-0.2324 0.4864 -0.1753 0.9977
-0.2366 0.4771 -0.1732 0.9978
-0.2407 0.4680 -0.1712 0.9978
-0.2484 0.4503 -0.1673 0.9978
-0.2521 0.4416 -0.1654 0.9979
-0.2557 0.4330 -0.1636 0.9979
-0.2625 0.4163 -0.1601 0.9979
-0.2658 0.4081 -0.1584 0.9980
-0.2689 0.4000 -0.1568 0.9980
-0.2720 0.3921 -0.1552 0.9980
-0.2749 0.3842 -0.1536 0.9980
-0.2778 0.3765 -0.1522 0.9980
-0.2806 0.3689 -0.1508 0.9981
-0.2834 0.3614 -0.1494 0.9981
-0.2887 0.3468 -0.1467 0.9981
-0.2936 0.3325 -0.1442 0.9981
-0.2997 0.3108 -0.1404 0.9982
-0.3062 0.2825 -0.1355 0.9982
-0.3077 0.2757 -0.1344 0.9983
-0.3091 0.2689 -0.1333 0.9983
-0.3105 0.2623 -0.1322 0.9983
-0.3118 0.2557 -0.1311 0.9983
-0.3154 0.2362 -0.1282 0.9983
-0.3175 0.2236 -0.1263 0.9984
-0.3185 0.2175 -0.1254 0.9984
-0.3220 0.1933 -0.1221 0.9984
-0.3272 0.1652 -0.1192 0.9985
-0.3290 0.1542 -0.1182 0.9985
-0.3310 0.1378 -0.1166 0.9985
-0.3316 0.1324 -0.1161 0.9985
-0.3331 0.1164 -0.1148 0.9985
-0.3336 0.1111 -0.1143 0.9985
-0.3340 0.1058 -0.1139 0.9985
-0.3344 0.1005 -0.1136 0.9985
-0.3350 0.0902 -0.1128 0.9985
-0.3353 0.0850 -0.1125 0.9985
-0.3355 0.0799 -0.1122 0.9986
-0.3359 0.0696 -0.1116 0.9986
-0.3360 0.0646 -0.1113 0.9986
-0.3361 0.0595 -0.1110 0.9986
-0.3363 0.0444 -0.1103 0.9986
-0.3362 0.0395 -0.1101 0.9986
-0.3360 0.0246 -0.1096 0.9986
-0.3359 0.0196 -0.1094 0.9986
-0.3357 0.0147 -0.1093 0.9986
-0.3352 0.0048 -0.1090 0.9986
-0.3296 0.0000 -0.1113 0.9986
-0.3299 -0.0048 -0.1114 0.9986
-0.3301 -0.0096 -0.1115 0.9986
-0.3303 -0.0145 -0.1116 0.9986
-0.3305 -0.0194 -0.1117 0.9986
-0.3306 -0.0243 -0.1119 0.9986
-0.3307 -0.0291 -0.1120 0.9986
-0.3308 -0.0339 -0.1122 0.9986
-0.3305 -0.0636 -0.1136 0.9986
-0.3304 -0.0686 -0.1139 0.9986
-0.3302 -0.0736 -0.1142 0.9986
-0.3300 -0.0786 -0.1145 0.9986
-0.3298 -0.0837 -0.1148 0.9986
-0.3284 -0.1041 -0.1163 0.9985
-0.3271 -0.1197 -0.1175 0.9985
-0.3260 -0.1302 -0.1185 0.9985
-0.3205 -0.1678 -0.1221 0.9985
-0.3195 -0.1732 -0.1227 0.9985
-0.3185 -0.1788 -0.1233 0.9985
-0.3174 -0.1843 -0.1239 0.9985
-0.3163 -0.1898 -0.1245 0.9984
-0.3152 -0.1955 -0.1252 0.9984
-0.3143 -0.2014 -0.1260 0.9984
-0.3092 -0.2316 -0.1304 0.9984
-0.3080 -0.2379 -0.1314 0.9984
-0.3068 -0.2442 -0.1324 0.9983
-0.3029 -0.2635 -0.1355 0.9983
-0.3014 -0.2701 -0.1366 0.9983
-0.2999 -0.2767 -0.1377 0.9983
-0.2968 -0.2903 -0.1401 0.9982
-0.2950 -0.2972 -0.1413 0.9982
-0.2896 -0.3184 -0.1453 0.9982
-0.2873 -0.3254 -0.1465 0.9982
-0.2824 -0.3393 -0.1490 0.9981
-0.2771 -0.3536 -0.1516 0.9981
-0.2744 -0.3608 -0.1530 0.9981
-0.2716 -0.3682 -0.1544 0.9981
-0.2687 -0.3755 -0.1558 0.9981
-0.2657 -0.3830 -0.1573 0.9980
-0.2626 -0.3907 -0.1589 0.9980
-0.2562 -0.4064 -0.1622 0.9980
-0.2495 -0.4225 -0.1656 0.9979
-0.2459 -0.4307 -0.1674 0.9979
-0.2422 -0.4391 -0.1693 0.9979
-0.2385 -0.4476 -0.1712 0.9979
-0.2264 -0.4738 -0.1772 0.9978
-0.2220 -0.4828 -0.1794 0.9978
-0.2176 -0.4920 -0.1816 0.9977
-0.2130 -0.5012 -0.1838 0.9977
-0.2040 -0.5218 -0.1891 0.9976
-0.1993 -0.5325 -0.1919 0.9976
-0.1840 -0.5661 -0.2009 0.9975
-0.1852 -0.6322 -0.2224 0.9972
-0.7330 -2.8037 -0.9781 0.9878
-0.6920 -2.8141 -0.9781 0.9878
-0.6507 -2.8239 -0.9781 0.9878
-0.5263 -2.8495 -0.9780 0.9878
-0.4846 -2.8568 -0.9780 0.9878
-0.4009 -2.8696 -0.9780 0.9878
-0.3169 -2.8801 -0.9780 0.9878
-0.2748 -2.8843 -0.9779 0.9878
-0.1481 -2.8935 -0.9779 0.9878
-0.1058 -2.8953 -0.9779 0.9878
0.1481 -2.8931 -0.9778 0.9878
0.1903 -2.8906 -0.9778 0.9878
0.2326 -2.8874 -0.9777 0.9878
0.2747 -2.8837 -0.9777 0.9878
0.3168 -2.8793 -0.9777 0.9878
0.3588 -2.8743 -0.9777 0.9878
0.4008 -2.8687 -0.9777 0.9878
0.4426 -2.8625 -0.9777 0.9878
0.4844 -2.8557 -0.9776 0.9878
0.5261 -2.8483 -0.9776 0.9878
0.5677 -2.8402 -0.9776 0.9878
0.7326 -2.8020 -0.9775 0.9878
1.0147 -2.7123 -0.9774 0.9878
1.1325 -2.6651 -0.9774 0.9878
1.1713 -2.6482 -0.9774 0.9878
1.2862 -2.5943 -0.9773 0.9879
1.3239 -2.5751 -0.9773 0.9879
1.3986 -2.5353 -0.9773 0.9879
1.4355 -2.5145 -0.9773 0.9879
1.4720 -2.4932 -0.9773 0.9879
1.5083 -2.4714 -0.9772 0.9879
1.5442 -2.4491 -0.9772 0.9879
1.6150 -2.4029 -0.9772 0.9879
1.6500 -2.3790 -0.9772 0.9879
1.7187 -2.3297 -0.9772 0.9879
1.7526 -2.3043 -0.9771 0.9879
1.7860 -2.2784 -0.9771 0.9879
1.8191 -2.2520 -0.9771 0.9879
2.0091 -2.0839 -0.9770 0.9879
2.0393 -2.0543 -0.9770 0.9879
2.1580 -1.9336 -0.9780 0.9878
2.2406 -1.8371 -0.9779 0.9878
2.2816 -1.8156 -0.9842 0.9878
2.3289 -1.7984 -0.9932 0.9877
2.4054 -1.6946 -0.9931 0.9877
2.4299 -1.6592 -0.9931 0.9877
2.4539 -1.6235 -0.9931 0.9877
2.5226 -1.5144 -0.9931 0.9877
2.5657 -1.4400 -0.9931 0.9877
2.6067 -1.3644 -0.9930 0.9877
2.6263 -1.3261 -0.9930 0.9877
2.7160 -1.1308 -0.9930 0.9877
2.7479 -1.0510 -0.9930 0.9877
2.7912 -0.9295 -0.9930 0.9877
2.8045 -0.8886 -0.9930 0.9877
2.8171 -0.8476 -0.9930 0.9877
2.8407 -0.7649 -0.9930 0.9877
2.8715 -0.6396 -0.9929 0.9877
2.8805 -0.5976 -0.9929 0.9877
2.9038 -0.4709 -0.9929 0.9877
2.9264 -0.3004 -0.9929 0.9877
2.9405 -0.0860 -0.9929 0.9877
2.9414 -0.0430 -0.9929 0.9877
2.9417 0.0000 -0.9929 0.9877
2.9405 0.0859 -0.9929 0.9877
2.9389 0.1289 -0.9929 0.9877
2.9264 0.3004 -0.9929 0.9877
2.9217 0.3431 -0.9929 0.9877
2.9039 0.4708 -0.9929 0.9877
2.8967 0.5132 -0.9929 0.9877
2.8889 0.5555 -0.9929 0.9877
2.8805 0.5976 -0.9929 0.9877
2.8516 0.7232 -0.9929 0.9877
2.8292 0.8063 -0.9930 0.9877
2.8171 0.8475 -0.9930 0.9877
2.7912 0.9295 -0.9930 0.9877
2.7478 1.0509 -0.9930 0.9877
2.6639 1.2488 -0.9930 0.9877
2.6263 1.3261 -0.9930 0.9877
2.4773 1.5874 -0.9931 0.9877
2.4538 1.6234 -0.9931 0.9877
2.4054 1.6945 -0.9931 0.9877
2.3549 1.7641 -0.9931 0.9877
2.3024 1.8321 -0.9932 0.9877
2.2754 1.8657 -0.9932 0.9877
2.2200 1.9314 -0.9932 0.9877
2.1627 1.9955 -0.9932 0.9877
2.1035 2.0579 -0.9932 0.9877
2.0113 2.1482 -0.9933 0.9877
1.9798 2.1773 -0.9933 0.9877
1.9478 2.2061 -0.9933 0.9877
1.9154 2.2343 -0.9933 0.9877
1.8825 2.2621 -0.9933 0.9877
1.8157 2.3162 -0.9934 0.9877
1.7473 2.3683 -0.9934 0.9877
1.6774 2.4184 -0.9934 0.9877
1.6419 2.4427 -0.9934 0.9877
1.4218 2.5773 -0.9935 0.9877
1.3840 2.5979 -0.9935 0.9877
1.3459 2.6179 -0.9935 0.9876
1.3076 2.6373 -0.9936 0.9876
1.1514 2.7093 -0.9936 0.9876
1.1116 2.7259 -0.9936 0.9876
1.0315 2.7573 -0.9937 0.9876
0.9098 2.8000 -0.9937 0.9876
0.8688 2.8130 -0.9937 0.9876
0.8276 2.8255 -0.9937 0.9876
0.7863 2.8374 -0.9938 0.9876
0.7030 2.8592 -0.9938 0.9876
0.6612 2.8691 -0.9938 0.9876
0.6191 2.8786 -0.9938 0.9876
0.5771 2.8874 -0.9938 0.9876
0.5348 2.8955 -0.9939 0.9876
0.4500 2.9100 -0.9939 0.9876
0.4075 2.9164 -0.9939 0.9876
0.3648 2.9220 -0.9939 0.9876
0.3221 2.9271 -0.9939 0.9876
0.2793 2.9316 -0.9940 0.9876
0.2364 2.9354 -0.9940 0.9876
0.1935 2.9386 -0.9940 0.9876
0.1075 2.9430 -0.9940 0.9876
-0.0216 2.9451 -0.9941 0.9876
-0.0646 2.9445 -0.9941 0.9876
-0.1076 2.9433 -0.9941 0.9876
-0.1506 2.9415 -0.9941 0.9876
-0.2794 2.9322 -0.9942 0.9876
-0.4076 2.9173 -0.9942 0.9876
-0.4502 2.9111 -0.9942 0.9876
-0.4927 2.9043 -0.9943 0.9876
-0.5351 2.8968 -0.9943 0.9876
-0.6615 2.8707 -0.9943 0.9876
-0.7452 2.8502 -0.9944 0.9876
-0.7867 2.8391 -0.9944 0.9876
-0.1852 0.6323 -0.2224 0.9972
-0.1840 0.5661 -0.2009 0.9975
-0.1993 0.5325 -0.1919 0.9976
-0.2220 0.4828 -0.1794 0.9978
-0.2345 0.4561 -0.1731 0.9978
-0.2422 0.4391 -0.1693 0.9979
-0.2459 0.4307 -0.1674 0.9979
-0.2495 0.4225 -0.1656 0.9979
-0.2595 0.3985 -0.1605 0.9980
-0.2626 0.3907 -0.1589 0.9980
-0.2716 0.3681 -0.1544 0.9981
-0.2744 0.3608 -0.1530 0.9981
-0.2772 0.3535 -0.1516 0.9981
-0.2824 0.3393 -0.1490 0.9981
-0.2874 0.3254 -0.1465 0.9982
-0.2915 0.3112 -0.1439 0.9982
-0.2933 0.3042 -0.1426 0.9982
-0.2950 0.2972 -0.1413 0.9982
-0.3014 0.2701 -0.1366 0.9983
-0.3029 0.2635 -0.1355 0.9983
-0.3043 0.2570 -0.1344 0.9983
-0.3056 0.2505 -0.1334 0.9983
-0.3068 0.2442 -0.1324 0.9983
-0.3081 0.2379 -0.1314 0.9984
-0.3092 0.2316 -0.1304 0.9984
-0.3114 0.2193 -0.1286 0.9984
-0.3124 0.2133 -0.1277 0.9984
-0.3143 0.2014 -0.1260 0.9984
-0.3215 0.1623 -0.1216 0.9985
-0.3225 0.1569 -0.1210 0.9985
-0.3233 0.1515 -0.1205 0.9985
-0.3260 0.1301 -0.1185 0.9985
-0.3280 0.1092 -0.1167 0.9985
-0.3300 0.0786 -0.1145 0.9986
-0.3302 0.0736 -0.1142 0.9986
-0.3306 0.0635 -0.1136 0.9986
-0.3307 0.0586 -0.1133 0.9986
-0.3308 0.0486 -0.1129 0.9986
-0.3308 0.0437 -0.1126 0.9986
-0.3308 0.0388 -0.1124 0.9986
-0.3306 0.0242 -0.1119 0.9986
-0.3303 0.0145 -0.1116 0.9986
-0.3301 0.0096 -0.1115 0.9986
-0.3244 0.0000 -0.1135 0.9986
-0.3247 -0.0047 -0.1136 0.9986
-0.3249 -0.0095 -0.1137 0.9986
-0.3251 -0.0143 -0.1139 0.9986
-0.3254 -0.0238 -0.1141 0.9986
-0.3254 -0.0286 -0.1143 0.9986
-0.3246 -0.0773 -0.1168 0.9986
-0.3241 -0.0873 -0.1174 0.9986
-0.3234 -0.0973 -0.1182 0.9986
-0.3230 -0.1024 -0.1186 0.9986
-0.3221 -0.1125 -0.1194 0.9986
-0.3216 -0.1177 -0.1198 0.9985
-0.3205 -0.1280 -0.1208 0.9985
-0.3193 -0.1384 -0.1218 0.9985
-0.3186 -0.1437 -0.1223 0.9985
-0.3160 -0.1596 -0.1238 0.9985
-0.3107 -0.1865 -0.1268 0.9985
-0.3095 -0.1920 -0.1274 0.9985
-0.3075 -0.2034 -0.1290 0.9984
-0.3055 -0.2152 -0.1307 0.9984
-0.3044 -0.2212 -0.1317 0.9984
-0.3032 -0.2272 -0.1326 0.9984
-0.3021 -0.2332 -0.1335 0.9984
-0.3009 -0.2394 -0.1345 0.9984
-0.2996 -0.2456 -0.1355 0.9984
-0.2954 -0.2646 -0.1388 0.9983
-0.2906 -0.2843 -0.1422 0.9983
-0.2889 -0.2910 -0.1435 0.9983
-0.2684 -0.3529 -0.1551 0.9981
-0.2656 -0.3600 -0.1565 0.9981
-0.2627 -0.3672 -0.1580 0.9981
-0.2534 -0.3893 -0.1625 0.9980
-0.2469 -0.4046 -0.1658 0.9980
-0.2435 -0.4124 -0.1676 0.9980
-0.2363 -0.4284 -0.1712 0.9979
-0.2247 -0.4532 -0.1770 0.9979
-0.2206 -0.4617 -0.1790 0.9978
-0.2074 -0.4880 -0.1855 0.9978
-0.2027 -0.4970 -0.1878 0.9977
-0.1929 -0.5155 -0.1926 0.9977
-0.1880 -0.5258 -0.1954 0.9976
-0.1778 -0.5472 -0.2013 0.9976
-0.1724 -0.5582 -0.2044 0.9975
-0.1668 -0.5694 -0.2076 0.9975
-0.7070 -2.7044 -0.9781 0.9882
-0.5878 -2.7327 -0.9781 0.9882
-0.5478 -2.7409 -0.9780 0.9882
-0.5077 -2.7486 -0.9780 0.9882
-0.4675 -2.7557 -0.9780 0.9882
-0.4271 -2.7621 -0.9780 0.9882
-0.3868 -2.7680 -0.9780 0.9882
-0.3057 -2.7780 -0.9779 0.9882
-0.2650 -2.7821 -0.9779 0.9882
-0.2243 -2.7857 -0.9779 0.9882
-0.1429 -2.7910 -0.9779 0.9882
-0.0204 -2.7945 -0.9778 0.9882
0.0204 -2.7944 -0.9778 0.9882
0.1021 -2.7925 -0.9778 0.9882
0.2243 -2.7852 -0.9777 0.9882
0.3056 -2.7774 -0.9777 0.9882
0.4673 -2.7546 -0.9776 0.9882
0.5875 -2.7314 -0.9776 0.9882
0.6274 -2.7224 -0.9776 0.9882
0.6671 -2.7129 -0.9776 0.9882
0.7066 -2.7029 -0.9776 0.9882
0.7460 -2.6922 -0.9775 0.9882
0.8243 -2.6692 -0.9775 0.9882
0.8632 -2.6568 -0.9775 0.9882
0.9020 -2.6439 -0.9775 0.9882
0.9405 -2.6304 -0.9775 0.9882
0.9788 -2.6163 -0.9774 0.9882
1.0169 -2.6016 -0.9774 0.9882
1.1299 -2.5545 -0.9774 0.9882
1.1671 -2.5377 -0.9774 0.9882
1.3132 -2.4650 -0.9773 0.9882
1.3846 -2.4255 -0.9773 0.9882
1.4896 -2.3624 -0.9772 0.9882
1.5239 -2.3404 -0.9772 0.9882
1.5916 -2.2948 -0.9772 0.9882
1.6579 -2.2472 -0.9772 0.9882
1.7228 -2.1978 -0.9772 0.9882
1.7547 -2.1723 -0.9771 0.9882
1.8482 -2.0933 -0.9771 0.9882
1.8785 -2.0660 -0.9771 0.9882
1.9085 -2.0383 -0.9771 0.9882
1.9381 -2.0102 -0.9771 0.9882
1.9672 -1.9816 -0.9771 0.9882
2.0263 -1.9253 -0.9780 0.9882
2.0816 -1.8652 -0.9780 0.9882
2.1086 -1.8345 -0.9780 0.9882
2.1497 -1.8157 -0.9847 0.9881
2.2210 -1.7674 -0.9932 0.9880
2.2466 -1.7347 -0.9932 0.9880
2.2717 -1.7017 -0.9932 0.9880
2.3439 -1.6005 -0.9931 0.9880
2.4334 -1.4608 -0.9931 0.9880
2.5145 -1.3161 -0.9931 0.9880
2.5334 -1.2793 -0.9931 0.9880
2.5696 -1.2046 -0.9931 0.9880
2.5870 -1.1669 -0.9931 0.9880
2.6356 -1.0524 -0.9930 0.9880
2.6651 -0.9750 -0.9930 0.9880
2.6925 -0.8967 -0.9930 0.9880
2.7053 -0.8572 -0.9930 0.9880
2.7291 -0.7778 -0.9930 0.9880
2.7606 -0.6575 -0.9930 0.9880
2.7699 -0.6170 -0.9930 0.9880
2.7942 -0.4950 -0.9930 0.9880
2.8012 -0.4541 -0.9930 0.9880
2.8183 -0.3310 -0.9930 0.9880
2.8268 -0.2485 -0.9930 0.9880
2.8301 -0.2071 -0.9930 0.9880
2.8374 -0.0415 -0.9930 0.9880
2.8301 0.2071 -0.9930 0.9880
2.8268 0.2484 -0.9930 0.9880
2.8229 0.2897 -0.9930 0.9880
2.8075 0.4132 -0.9930 0.9880
2.7867 0.5358 -0.9930 0.9880
2.7699 0.6170 -0.9930 0.9880
2.7507 0.6977 -0.9930 0.9880
2.7402 0.7379 -0.9930 0.9880
2.7291 0.7777 -0.9930 0.9880
2.7053 0.8571 -0.9930 0.9880
2.6925 0.8966 -0.9930 0.9880
2.6652 0.9749 -0.9930 0.9880
2.6199 1.0908 -0.9930 0.9880
2.6037 1.1290 -0.9930 0.9880
2.5518 1.2420 -0.9931 0.9880
2.5145 1.3161 -0.9931 0.9880
2.4950 1.3527 -0.9931 0.9880
2.4334 1.4607 -0.9931 0.9880
2.4118 1.4962 -0.9931 0.9880
2.3897 1.5312 -0.9931 0.9880
2.3671 1.5660 -0.9931 0.9880
2.3439 1.6004 -0.9931 0.9880
2.3204 1.6346 -0.9932 0.9880
2.2962 1.6683 -0.9932 0.9880
2.2716 1.7017 -0.9932 0.9880
2.2466 1.7347 -0.9932 0.9880
2.2210 1.7674 -0.9932 0.9880
2.1949 1.7996 -0.9932 0.9880
2.1685 1.8316 -0.9932 0.9880
2.1140 1.8942 -0.9932 0.9880
1.9999 2.0145 -0.9933 0.9880
1.9703 2.0436 -0.9933 0.9880
1.9402 2.0721 -0.9933 0.9880
1.9097 2.1003 -0.9933 0.9880
1.8789 2.1280 -0.9933 0.9880
1.8159 2.1821 -0.9934 0.9880
1.7839 2.2084 -0.9934 0.9880
1.7515 2.2343 -0.9934 0.9880
1.7186 2.2596 -0.9934 0.9880
1.6854 2.2845 -0.9934 0.9880
1.6180 2.3329 -0.9934 0.9880
1.5492 2.3792 -0.9935 0.9880
1.5143 2.4016 -0.9935 0.9880
1.4435 2.4449 -0.9935 0.9880
1.3715 2.4861 -0.9935 0.9880
1.3350 2.5059 -0.9935 0.9880
1.2613 2.5439 -0.9936 0.9880
1.2240 2.5621 -0.9936 0.9880
1.1864 2.5798 -0.9936 0.9880
1.0723 2.6294 -0.9936 0.9880
0.9561 2.6740 -0.9937 0.9880
0.9169 2.6877 -0.9937 0.9880
0.8775 2.7009 -0.9937 0.9880
0.8380 2.7134 -0.9937 0.9880
0.7584 2.7368 -0.9938 0.9880
0.7184 2.7477 -0.9938 0.9880
0.6781 2.7579 -0.9938 0.9880
0.6378 2.7677 -0.9938 0.9880
0.4750 2.8003 -0.9939 0.9880
0.3930 2.8131 -0.9939 0.9880
0.3519 2.8186 -0.9939 0.9880
0.3107 2.8235 -0.9939 0.9880
0.2694 2.8278 -0.9940 0.9880
0.1037 2.8389 -0.9940 0.9880
0.0207 2.8407 -0.9941 0.9880
-0.0208 2.8408 -0.9941 0.9880
-0.1038 2.8391 -0.9941 0.9880
-0.1452 2.8373 -0.9941 0.9880
-0.2281 2.8319 -0.9942 0.9880
-0.2695 2.8284 -0.9942 0.9880
-0.4342 2.8080 -0.9942 0.9880
-0.5161 2.7942 -0.9943 0.9880
-0.5976 2.7780 -0.9943 0.9880
-0.7188 2.7493 -0.9944 0.9880
-0.1668 0.5694 -0.2076 0.9975
-0.1724 0.5582 -0.2044 0.9975
-0.1929 0.5155 -0.1926 0.9977
-0.2027 0.4970 -0.1878 0.9977
-0.2163 0.4703 -0.1811 0.9978
-0.2206 0.4617 -0.1790 0.9978
-0.2247 0.4531 -0.1770 0.9979
-0.2287 0.4448 -0.1750 0.9979
-0.2326 0.4365 -0.1731 0.9979
-0.2363 0.4283 -0.1712 0.9979
-0.2400 0.4203 -0.1694 0.9980
-0.2435 0.4124 -0.1676 0.9980
-0.2469 0.4046 -0.1658 0.9980
-0.2502 0.3968 -0.1642 0.9980
-0.2535 0.3892 -0.1625 0.9980
-0.2566 0.3817 -0.1609 0.9981
-0.2627 0.3671 -0.1580 0.9981
-0.2738 0.3389 -0.1525 0.9982
-0.2789 0.3253 -0.1499 0.9982
-0.2813 0.3186 -0.1487 0.9982
-0.2834 0.3116 -0.1474 0.9982
-0.2853 0.3046 -0.1460 0.9982
-0.2871 0.2978 -0.1447 0.9982
-0.2889 0.2910 -0.1435 0.9983
-0.2954 0.2646 -0.1388 0.9983
-0.2968 0.2582 -0.1377 0.9983
-0.2982 0.2519 -0.1366 0.9983
-0.3009 0.2394 -0.1345 0.9984
-0.3021 0.2333 -0.1335 0.9984
-0.3033 0.2271 -0.1326 0.9984
-0.3065 0.2093 -0.1299 0.9984
-0.3095 0.1920 -0.1274 0.9985
-0.3107 0.1865 -0.1268 0.9985
-0.3118 0.1810 -0.1262 0.9985
-0.3129 0.1756 -0.1256 0.9985
-0.3140 0.1702 -0.1250 0.9985
-0.3150 0.1648 -0.1244 0.9985
-0.3169 0.1542 -0.1233 0.9985
-0.3199 0.1332 -0.1212 0.9985
-0.3205 0.1280 -0.1208 0.9985
-0.3211 0.1228 -0.1203 0.9985
-0.3221 0.1125 -0.1194 0.9986
-0.3230 0.1023 -0.1186 0.9986
-0.3238 0.0922 -0.1178 0.9986
-0.3241 0.0872 -0.1174 0.9986
-0.3244 0.0823 -0.1171 0.9986
-0.3254 0.0576 -0.1156 0.9986
-0.3254 0.0527 -0.1154 0.9986
-0.3255 0.0430 -0.1149 0.9986
-0.3254 0.0238 -0.1141 0.9986
-0.3252 0.0190 -0.1140 0.9986
-0.3249 0.0095 -0.1137 0.9986
-0.3200 -0.0141 -0.1161 0.9986
-0.3201 -0.0187 -0.1162 0.9986
-0.3203 -0.0471 -0.1173 0.9986
-0.3198 -0.0664 -0.1184 0.9986
-0.3194 -0.0761 -0.1190 0.9986
-0.3191 -0.0810 -0.1193 0.9986
-0.3185 -0.0907 -0.1200 0.9986
-0.3181 -0.0957 -0.1204 0.9986
-0.3177 -0.1007 -0.1208 0.9986
-0.3163 -0.1157 -0.1220 0.9986
-0.3158 -0.1208 -0.1225 0.9986
-0.3145 -0.1310 -0.1235 0.9986
-0.3139 -0.1361 -0.1240 0.9985
-0.3124 -0.1464 -0.1250 0.9985
-0.3096 -0.1620 -0.1266 0.9985
-0.3086 -0.1673 -0.1272 0.9985
-0.3041 -0.1886 -0.1297 0.9985
-0.2987 -0.2170 -0.1338 0.9984
-0.2975 -0.2229 -0.1347 0.9984
-0.2963 -0.2288 -0.1357 0.9984
-0.2950 -0.2348 -0.1366 0.9984
-0.2924 -0.2470 -0.1387 0.9984
-0.2880 -0.2657 -0.1420 0.9983
-0.2863 -0.2721 -0.1431 0.9983
-0.2846 -0.2785 -0.1443 0.9983
-0.2811 -0.2916 -0.1468 0.9983
-0.2754 -0.3119 -0.1508 0.9982
-0.2730 -0.3186 -0.1520 0.9982
-0.2705 -0.3251 -0.1533 0.9982
-0.2680 -0.3318 -0.1546 0.9982
-0.2539 -0.3661 -0.1615 0.9981
-0.2509 -0.3732 -0.1630 0.9981
-0.2477 -0.3804 -0.1645 0.9981
-0.2445 -0.3877 -0.1661 0.9981
-0.2412 -0.3952 -0.1678 0.9980
-0.2342 -0.4104 -0.1712 0.9980
-0.2269 -0.4259 -0.1749 0.9979
-0.2191 -0.4419 -0.1787 0.9979
-0.2064 -0.4667 -0.1849 0.9978
-0.1826 -0.5106 -0.1965 0.9977
-0.1667 -0.5397 -0.2047 0.9976
-0.1612 -0.5503 -0.2078 0.9976
-0.1554 -0.5611 -0.2110 0.9975
-0.1498 -0.5730 -0.2146 0.9975
-0.1496 -0.6083 -0.2270 0.9973
-0.6060 -2.6299 -0.9781 0.9886
-0.5676 -2.6385 -0.9781 0.9886
-0.3343 -2.6778 -0.9780 0.9886
-0.2952 -2.6823 -0.9779 0.9886
-0.2559 -2.6863 -0.9779 0.9886
-0.0197 -2.6981 -0.9778 0.9886
0.0197 -2.6981 -0.9778 0.9886
0.0591 -2.6975 -0.9778 0.9886
0.1773 -2.6922 -0.9778 0.9886
0.3342 -2.6770 -0.9777 0.9886
0.4122 -2.6661 -0.9777 0.9886
0.6823 -2.6097 -0.9776 0.9886
0.7582 -2.5886 -0.9775 0.9886
0.7959 -2.5772 -0.9775 0.9886
0.8335 -2.5653 -0.9775 0.9886
0.9081 -2.5398 -0.9775 0.9886
1.0185 -2.4974 -0.9774 0.9886
1.0910 -2.4665 -0.9774 0.9886
1.1625 -2.4335 -0.9774 0.9886
1.1979 -2.4162 -0.9774 0.9886
1.3026 -2.3613 -0.9773 0.9886
1.3710 -2.3222 -0.9773 0.9886
1.4382 -2.2811 -0.9773 0.9886
1.5042 -2.2380 -0.9772 0.9886
1.5368 -2.2157 -0.9772 0.9886
1.5690 -2.1930 -0.9772 0.9886
1.6008 -2.1699 -0.9772 0.9886
1.6635 -2.1221 -0.9772 0.9886
1.6943 -2.0975 -0.9772 0.9886
1.8138 -1.9949 -0.9771 0.9886
1.8447 -1.9702 -0.9781 0.9886
1.8732 -1.9430 -0.9781 0.9886
1.9014 -1.9154 -0.9781 0.9886
2.0677 -1.7989 -0.9933 0.9884
2.0938 -1.7685 -0.9932 0.9884
2.1194 -1.7377 -0.9932 0.9884
2.1445 -1.7066 -0.9932 0.9884
2.1934 -1.6432 -0.9932 0.9884
2.2172 -1.6109 -0.9932 0.9884
2.2405 -1.5783 -0.9932 0.9884
2.2633 -1.5454 -0.9932 0.9884
2.2856 -1.5121 -0.9932 0.9884
2.3699 -1.3760 -0.9931 0.9884
2.3898 -1.3412 -0.9931 0.9884
2.4279 -1.2708 -0.9931 0.9884
2.4462 -1.2352 -0.9931 0.9884
2.4979 -1.1268 -0.9931 0.9884
2.5141 -1.0902 -0.9931 0.9884
2.5298 -1.0533 -0.9931 0.9884
2.5594 -0.9789 -0.9931 0.9884
2.5734 -0.9414 -0.9931 0.9884
2.5998 -0.8658 -0.9930 0.9884
2.6560 -0.6737 -0.9930 0.9884
2.6655 -0.6348 -0.9930 0.9884
2.6829 -0.5566 -0.9930 0.9884
2.7047 -0.4386 -0.9930 0.9884
2.7257 -0.2798 -0.9930 0.9884
2.7327 -0.2000 -0.9930 0.9884
2.7374 -0.1201 -0.9930 0.9884
2.7397 -0.0400 -0.9930 0.9884
2.7400 0.0000 -0.9930 0.9884
2.7374 0.1201 -0.9930 0.9884
2.7353 0.1600 -0.9930 0.9884
2.7327 0.2000 -0.9930 0.9884
2.7213 0.3195 -0.9930 0.9884
2.6908 0.5173 -0.9930 0.9884
2.6830 0.5566 -0.9930 0.9884
2.6560 0.6737 -0.9930 0.9884
2.6459 0.7124 -0.9930 0.9884
2.6352 0.7510 -0.9930 0.9884
2.6122 0.8277 -0.9930 0.9884
2.5594 0.9789 -0.9931 0.9884
2.5297 1.0532 -0.9931 0.9884
2.4979 1.1268 -0.9931 0.9884
2.4640 1.1993 -0.9931 0.9884
2.4462 1.2351 -0.9931 0.9884
2.3897 1.3412 -0.9931 0.9884
2.3496 1.4105 -0.9931 0.9884
2.3287 1.4446 -0.9932 0.9884
2.3074 1.4786 -0.9932 0.9884
2.2633 1.5454 -0.9932 0.9884
2.2404 1.5782 -0.9932 0.9884
2.1934 1.6431 -0.9932 0.9884
2.0677 1.7989 -0.9933 0.9884
2.0412 1.8289 -0.9933 0.9884
2.0144 1.8586 -0.9933 0.9884
1.9870 1.8879 -0.9933 0.9884
1.9310 1.9452 -0.9933 0.9884
1.9024 1.9732 -0.9933 0.9884
1.8440 2.0280 -0.9933 0.9884
1.7534 2.1069 -0.9934 0.9884
1.7225 2.1323 -0.9934 0.9884
1.6911 2.1573 -0.9934 0.9884
1.6594 2.1818 -0.9934 0.9884
1.5292 2.2752 -0.9935 0.9884
1.4959 2.2973 -0.9935 0.9884
1.4621 2.3189 -0.9935 0.9884
1.4282 2.3401 -0.9935 0.9884
1.3243 2.4005 -0.9935 0.9884
1.2536 2.4382 -0.9936 0.9884
1.1818 2.4739 -0.9936 0.9884
1.1456 2.4909 -0.9936 0.9884
1.1091 2.5075 -0.9936 0.9884
1.0723 2.5234 -0.9936 0.9884
1.0354 2.5389 -0.9937 0.9884
0.9231 2.5819 -0.9937 0.9884
0.8473 2.6079 -0.9937 0.9884
0.8092 2.6200 -0.9938 0.9884
0.7708 2.6316 -0.9938 0.9884
0.5767 2.6810 -0.9938 0.9884
0.4981 2.6968 -0.9939 0.9884
0.4191 2.7103 -0.9939 0.9884
0.2999 2.7262 -0.9940 0.9884
0.2601 2.7304 -0.9940 0.9884
0.2202 2.7339 -0.9940 0.9884
0.1802 2.7369 -0.9940 0.9884
0.1402 2.7393 -0.9940 0.9884
0.0601 2.7422 -0.9940 0.9884
-0.1803 2.7373 -0.9941 0.9884
-0.2202 2.7344 -0.9942 0.9884
-0.2602 2.7309 -0.9942 0.9884
-0.3399 2.7222 -0.9942 0.9884
-0.4193 2.7112 -0.9942 0.9884
-0.4589 2.7048 -0.9942 0.9884
-0.5770 2.6823 -0.9943 0.9884
-0.1499 0.5731 -0.2147 0.9975
-0.1612 0.5502 -0.2078 0.9976
-0.1667 0.5396 -0.2047 0.9976
-0.1774 0.5198 -0.1991 0.9977
-0.1974 0.4839 -0.1894 0.9978
-0.2020 0.4753 -0.1871 0.9978
-0.2064 0.4667 -0.1850 0.9978
-0.2108 0.4583 -0.1828 0.9979
-0.2150 0.4501 -0.1808 0.9979
-0.2191 0.4418 -0.1787 0.9979
-0.2231 0.4338 -0.1768 0.9979
-0.2269 0.4259 -0.1749 0.9979
-0.2378 0.4026 -0.1695 0.9980
-0.2508 0.3732 -0.1630 0.9981
-0.2569 0.3590 -0.1600 0.9981
-0.2626 0.3453 -0.1572 0.9982
-0.2654 0.3384 -0.1559 0.9982
-0.2706 0.3251 -0.1533 0.9982
-0.2754 0.3118 -0.1508 0.9982
-0.2909 0.2531 -0.1398 0.9984
-0.2951 0.2348 -0.1366 0.9984
-0.2963 0.2288 -0.1357 0.9984
-0.2987 0.2170 -0.1338 0.9984
-0.2997 0.2111 -0.1329 0.9984
-0.3018 0.1996 -0.1311 0.9985
-0.3028 0.1940 -0.1303 0.9985
-0.3041 0.1886 -0.1297 0.9985
-0.3052 0.1832 -0.1290 0.9985
-0.3096 0.1620 -0.1266 0.9985
-0.3105 0.1568 -0.1261 0.9985
-0.3115 0.1516 -0.1255 0.9985
-0.3124 0.1464 -0.1250 0.9985
-0.3157 0.1208 -0.1225 0.9986
-0.3163 0.1157 -0.1221 0.9986
-0.3177 0.1007 -0.1208 0.9986
-0.3185 0.0907 -0.1200 0.9986
-0.3188 0.0858 -0.1197 0.9986
-0.3197 0.0712 -0.1187 0.9986
-0.3199 0.0663 -0.1184 0.9986
-0.3202 0.0567 -0.1178 0.9986
-0.3204 0.0376 -0.1169 0.9986
-0.3204 0.0329 -0.1167 0.9986
-0.3200 0.0140 -0.1161 0.9986
-0.3198 0.0093 -0.1159 0.9986
-0.3146 -0.0046 -0.1180 0.9987
-0.3148 -0.0093 -0.1181 0.9987
-0.3150 -0.0139 -0.1182 0.9987
-0.3151 -0.0184 -0.1184 0.9987
-0.3152 -0.0231 -0.1185 0.9987
-0.3154 -0.0324 -0.1189 0.9986
-0.3154 -0.0371 -0.1191 0.9986
-0.3151 -0.0559 -0.1200 0.9986
-0.3149 -0.0606 -0.1203 0.9986
-0.3148 -0.0653 -0.1205 0.9986
-0.3146 -0.0701 -0.1208 0.9986
-0.3137 -0.0845 -0.1218 0.9986
-0.3134 -0.0893 -0.1222 0.9986
-0.3130 -0.0941 -0.1226 0.9986
-0.3126 -0.0991 -0.1229 0.9986
-0.3116 -0.1089 -0.1238 0.9986
-0.3111 -0.1138 -0.1242 0.9986
-0.3105 -0.1188 -0.1247 0.9986
-0.3093 -0.1288 -0.1256 0.9986
-0.3080 -0.1389 -0.1267 0.9986
-0.3071 -0.1440 -0.1272 0.9986
-0.3063 -0.1491 -0.1277 0.9985
-0.3033 -0.1644 -0.1294 0.9985
-0.2999 -0.1801 -0.1312 0.9985
-0.2975 -0.1907 -0.1325 0.9985
-0.2942 -0.2072 -0.1349 0.9985
-0.2907 -0.2245 -0.1377 0.9984
-0.2881 -0.2362 -0.1397 0.9984
-0.2867 -0.2421 -0.1407 0.9984
-0.2772 -0.2793 -0.1475 0.9983
-0.2735 -0.2921 -0.1501 0.9983
-0.2716 -0.2987 -0.1514 0.9983
-0.2696 -0.3053 -0.1527 0.9983
-0.2542 -0.3446 -0.1606 0.9982
-0.2484 -0.3581 -0.1634 0.9981
-0.2422 -0.3720 -0.1664 0.9981
-0.2389 -0.3789 -0.1680 0.9981
-0.2215 -0.4157 -0.1766 0.9980
-0.2097 -0.4389 -0.1824 0.9979
-0.2013 -0.4549 -0.1865 0.9979
-0.1922 -0.4714 -0.1909 0.9978
-0.1876 -0.4798 -0.1932 0.9978
-0.1726 -0.5057 -0.2004 0.9977
-0.1617 -0.5237 -0.2055 0.9977
-0.1503 -0.5424 -0.2110 0.9976
-0.1445 -0.5527 -0.2142 0.9976
-0.1385 -0.5632 -0.2175 0.9975
-0.5485 -2.5499 -0.9780 0.9889
-0.4362 -2.5714 -0.9780 0.9889
-0.3986 -2.5774 -0.9780 0.9889
-0.3609 -2.5829 -0.9780 0.9889
-0.3231 -2.5879 -0.9780 0.9889
-0.1713 -2.6021 -0.9779 0.9889
-0.1333 -2.6043 -0.9779 0.9889
0.1333 -2.6041 -0.9778 0.9889
0.2473 -2.5956 -0.9777 0.9889
0.2852 -2.5917 -0.9777 0.9889
0.3984 -2.5766 -0.9777 0.9889
0.4360 -2.5704 -0.9777 0.9889
0.4736 -2.5638 -0.9776 0.9889
0.5482 -2.5487 -0.9776 0.9889
0.5854 -2.5405 -0.9776 0.9889
0.7692 -2.4907 -0.9775 0.9889
0.8055 -2.4792 -0.9775 0.9889
0.8776 -2.4545 -0.9775 0.9889
0.9843 -2.4136 -0.9774 0.9889
1.0194 -2.3989 -0.9774 0.9889
1.0891 -2.3680 -0.9774 0.9889
1.1578 -2.3352 -0.9774 0.9889
1.2589 -2.2821 -0.9773 0.9889
1.2921 -2.2634 -0.9773 0.9889
1.3577 -2.2246 -0.9773 0.9889
1.4538 -2.1629 -0.9773 0.9889
1.4853 -2.1414 -0.9772 0.9889
1.5163 -2.1195 -0.9772 0.9889
1.6669 -2.0030 -0.9772 0.9889
1.7264 -1.9554 -0.9782 0.9889
1.7828 -1.9041 -0.9781 0.9889
1.8104 -1.8778 -0.9781 0.9889
1.8376 -1.8511 -0.9781 0.9889
1.9084 -1.8132 -0.9872 0.9888
1.9468 -1.7963 -0.9933 0.9887
1.9728 -1.7677 -0.9933 0.9887
1.9984 -1.7386 -0.9933 0.9887
2.0236 -1.7092 -0.9933 0.9887
2.0483 -1.6795 -0.9933 0.9887
2.0726 -1.6493 -0.9933 0.9887
2.1428 -1.5569 -0.9932 0.9887
2.2089 -1.4614 -0.9932 0.9887
2.2300 -1.4290 -0.9932 0.9887
2.2507 -1.3963 -0.9932 0.9887
2.2708 -1.3632 -0.9932 0.9887
2.2904 -1.3299 -0.9932 0.9887
2.3096 -1.2962 -0.9932 0.9887
2.3813 -1.1591 -0.9931 0.9887
2.4141 -1.0890 -0.9931 0.9887
2.4298 -1.0536 -0.9931 0.9887
2.4449 -1.0180 -0.9931 0.9888
2.4595 -0.9821 -0.9931 0.9888
2.4736 -0.9461 -0.9931 0.9888
2.5002 -0.8734 -0.9931 0.9888
2.5245 -0.8000 -0.9931 0.9888
2.5360 -0.7630 -0.9931 0.9888
2.5468 -0.7259 -0.9931 0.9888
2.5572 -0.6886 -0.9931 0.9888
2.5762 -0.6135 -0.9931 0.9888
2.5848 -0.5758 -0.9931 0.9888
2.5929 -0.5380 -0.9931 0.9888
2.6005 -0.5000 -0.9930 0.9888
2.6076 -0.4620 -0.9930 0.9888
2.6140 -0.4239 -0.9930 0.9888
2.6253 -0.3472 -0.9930 0.9888
2.6343 -0.2704 -0.9930 0.9888
2.6411 -0.1933 -0.9930 0.9888
2.6436 -0.1547 -0.9930 0.9888
2.6456 -0.1161 -0.9930 0.9888
2.6481 -0.0000 -0.9930 0.9888
2.6479 0.0387 -0.9930 0.9888
2.6411 0.1932 -0.9930 0.9888
2.6380 0.2319 -0.9930 0.9888
2.6343 0.2704 -0.9930 0.9888
2.6253 0.3472 -0.9930 0.9888
2.6200 0.3856 -0.9930 0.9888
2.6140 0.4238 -0.9930 0.9888
2.5930 0.5380 -0.9931 0.9888
2.5848 0.5758 -0.9931 0.9888
2.5762 0.6135 -0.9931 0.9888
2.5669 0.6511 -0.9931 0.9888
2.5572 0.6885 -0.9931 0.9888
2.5468 0.7258 -0.9931 0.9888
2.5001 0.8734 -0.9931 0.9888
2.4595 0.9821 -0.9931 0.9888
2.4298 1.0536 -0.9931 0.9888
2.3980 1.1241 -0.9931 0.9887
2.3813 1.1590 -0.9931 0.9887
2.3641 1.1937 -0.9931 0.9887
2.3465 1.2282 -0.9931 0.9887
2.3096 1.2962 -0.9932 0.9887
2.2708 1.3632 -0.9932 0.9887
2.2089 1.4614 -0.9932 0.9887
2.1428 1.5568 -0.9932 0.9887
2.0726 1.6493 -0.9933 0.9887
2.0236 1.7092 -0.9933 0.9887
1.9984 1.7386 -0.9933 0.9887
1.9728 1.7676 -0.9933 0.9887
1.9203 1.8245 -0.9933 0.9887
1.8662 1.8799 -0.9933 0.9887
1.8386 1.9070 -0.9933 0.9887
1.8106 1.9337 -0.9934 0.9887
1.7241 2.0112 -0.9934 0.9887
1.6646 2.0608 -0.9934 0.9887
1.6344 2.0849 -0.9934 0.9887
1.6037 2.1086 -0.9934 0.9887
1.5415 2.1546 -0.9935 0.9887
1.5099 2.1770 -0.9935 0.9887
1.4457 2.2202 -0.9935 0.9887
1.4131 2.2411 -0.9935 0.9887
1.3136 2.3010 -0.9936 0.9887
1.2458 2.3385 -0.9936 0.9887
1.1770 2.3739 -0.9936 0.9887
1.1422 2.3909 -0.9936 0.9887
1.1071 2.4073 -0.9936 0.9887
1.0006 2.4536 -0.9937 0.9887
0.9647 2.4680 -0.9937 0.9887
0.8921 2.4952 -0.9937 0.9887
0.8556 2.5081 -0.9937 0.9887
0.8189 2.5204 -0.9937 0.9887
0.7450 2.5433 -0.9938 0.9887
0.6703 2.5640 -0.9938 0.9887
0.4814 2.6063 -0.9939 0.9887
0.2899 2.6346 -0.9940 0.9887
0.1741 2.6450 -0.9940 0.9887
0.1355 2.6473 -0.9940 0.9887
0.0968 2.6490 -0.9940 0.9887
0.0580 2.6502 -0.9940 0.9887
0.0194 2.6508 -0.9941 0.9887
-0.0194 2.6509 -0.9941 0.9887
-0.0968 2.6493 -0.9941 0.9887
-0.1742 2.6454 -0.9941 0.9887
-0.2514 2.6392 -0.9942 0.9887
-0.4435 2.6140 -0.9942 0.9887
-0.4816 2.6073 -0.9943 0.9887
-0.5196 2.6000 -0.9943 0.9887
-0.1561 0.5329 -0.2082 0.9976
-0.1672 0.5146 -0.2029 0.9977
-0.1725 0.5057 -0.2004 0.9977
-0.1777 0.4969 -0.1979 0.9977
-0.2013 0.4549 -0.1865 0.9979
-0.2097 0.4389 -0.1824 0.9979
-0.2177 0.4233 -0.1785 0.9980
-0.2215 0.4157 -0.1766 0.9980
-0.2252 0.4082 -0.1748 0.9980
-0.2288 0.4007 -0.1730 0.9980
-0.2422 0.3719 -0.1664 0.9981
-0.2454 0.3649 -0.1649 0.9981
-0.2513 0.3513 -0.1620 0.9982
-0.2542 0.3446 -0.1606 0.9982
-0.2570 0.3379 -0.1592 0.9982
-0.2624 0.3248 -0.1566 0.9982
-0.2716 0.2986 -0.1514 0.9983
-0.2754 0.2856 -0.1488 0.9983
-0.2772 0.2792 -0.1475 0.9983
-0.2790 0.2729 -0.1463 0.9983
-0.2806 0.2666 -0.1451 0.9983
-0.2822 0.2604 -0.1440 0.9984
-0.2838 0.2543 -0.1429 0.9984
-0.2907 0.2244 -0.1377 0.9984
-0.2931 0.2129 -0.1358 0.9985
-0.2942 0.2072 -0.1349 0.9985
-0.2963 0.1960 -0.1332 0.9985
-0.2975 0.1906 -0.1325 0.9985
-0.3011 0.1748 -0.1306 0.9985
-0.3033 0.1644 -0.1294 0.9985
-0.3053 0.1541 -0.1282 0.9985
-0.3062 0.1490 -0.1277 0.9985
-0.3071 0.1439 -0.1272 0.9986
-0.3079 0.1389 -0.1267 0.9986
-0.3086 0.1338 -0.1261 0.9986
-0.3099 0.1238 -0.1251 0.9986
-0.3106 0.1188 -0.1247 0.9986
-0.3111 0.1138 -0.1242 0.9986
-0.3121 0.1039 -0.1234 0.9986
-0.3126 0.0990 -0.1229 0.9986
-0.3133 0.0893 -0.1222 0.9986
-0.3143 0.0749 -0.1212 0.9986
-0.3150 0.0605 -0.1203 0.9986
-0.3151 0.0558 -0.1200 0.9986
-0.3154 0.0417 -0.1193 0.9986
-0.3148 0.0092 -0.1181 0.9987
-0.3146 0.0046 -0.1180 0.9987
-0.3095 0.0000 -0.1200 0.9987
-0.3101 -0.0136 -0.1203 0.9987
-0.3102 -0.0182 -0.1205 0.9987
-0.3103 -0.0227 -0.1206 0.9987
-0.3104 -0.0273 -0.1208 0.9987
-0.3104 -0.0319 -0.1210 0.9987
-0.3104 -0.0364 -0.1212 0.9987
-0.3104 -0.0457 -0.1216 0.9987
-0.3101 -0.0550 -0.1221 0.9986
-0.3100 -0.0596 -0.1224 0.9986
-0.3098 -0.0643 -0.1227 0.9986
-0.3093 -0.0737 -0.1233 0.9986
-0.3090 -0.0784 -0.1236 0.9986
-0.3087 -0.0832 -0.1239 0.9986
-0.3079 -0.0927 -0.1247 0.9986
-0.3075 -0.0975 -0.1251 0.9986
-0.3060 -0.1119 -0.1263 0.9986
-0.3043 -0.1267 -0.1278 0.9986
-0.3035 -0.1316 -0.1283 0.9986
-0.3029 -0.1366 -0.1288 0.9986
-0.3020 -0.1416 -0.1293 0.9986
-0.3011 -0.1465 -0.1298 0.9986
-0.3002 -0.1516 -0.1304 0.9986
-0.2992 -0.1566 -0.1309 0.9986
-0.2982 -0.1617 -0.1315 0.9985
-0.2971 -0.1667 -0.1321 0.9985
-0.2959 -0.1718 -0.1327 0.9985
-0.2948 -0.1770 -0.1333 0.9985
-0.2899 -0.1979 -0.1361 0.9985
-0.2852 -0.2202 -0.1397 0.9985
-0.2826 -0.2317 -0.1417 0.9984
-0.2812 -0.2375 -0.1427 0.9984
-0.2797 -0.2434 -0.1437 0.9984
-0.2767 -0.2553 -0.1459 0.9984
-0.2734 -0.2675 -0.1483 0.9984
-0.2698 -0.2798 -0.1507 0.9983
-0.2619 -0.3055 -0.1560 0.9983
-0.2595 -0.3118 -0.1573 0.9983
-0.2543 -0.3245 -0.1598 0.9982
-0.2488 -0.3373 -0.1625 0.9982
-0.2460 -0.3438 -0.1639 0.9982
-0.2430 -0.3504 -0.1653 0.9982
-0.2337 -0.3705 -0.1698 0.9981
-0.2303 -0.3774 -0.1714 0.9981
-0.2235 -0.3914 -0.1747 0.9981
-0.2163 -0.4059 -0.1783 0.9980
-0.2005 -0.4359 -0.1860 0.9979
-0.1962 -0.4436 -0.1881 0.9979
-0.1874 -0.4594 -0.1923 0.9979
-0.1779 -0.4756 -0.1969 0.9978
-0.1730 -0.4839 -0.1992 0.9978
-0.1627 -0.5007 -0.2041 0.9977
-0.1573 -0.5094 -0.2067 0.9977
-0.1518 -0.5182 -0.2093 0.9977
-0.1402 -0.5361 -0.2148 0.9976
-0.1278 -0.5546 -0.2206 0.9976
-0.1215 -0.5648 -0.2239 0.9975
-0.1162 -0.5811 -0.2298 0.9975
-0.4582 -2.4807 -0.9780 0.9892
-0.4219 -2.4871 -0.9780 0.9892
-0.3125 -2.5031 -0.9780 0.9892
-0.2759 -2.5074 -0.9779 0.9892
-0.2025 -2.5143 -0.9779 0.9892
-0.1657 -2.5170 -0.9779 0.9892
-0.1289 -2.5191 -0.9779 0.9892
-0.0921 -2.5207 -0.9779 0.9892
-0.0185 -2.5222 -0.9778 0.9892
0.0184 -2.5221 -0.9778 0.9892
0.1289 -2.5188 -0.9778 0.9892
0.2392 -2.5106 -0.9777 0.9892
0.3489 -2.4976 -0.9777 0.9892
0.3854 -2.4922 -0.9777 0.9892
0.4218 -2.4863 -0.9777 0.9892
0.4581 -2.4798 -0.9776 0.9892
0.5662 -2.4573 -0.9776 0.9892
0.6734 -2.4300 -0.9776 0.9892
0.7088 -2.4199 -0.9775 0.9892
0.7440 -2.4093 -0.9775 0.9892
0.7792 -2.3981 -0.9775 0.9892
0.8141 -2.3864 -0.9775 0.9892
0.8835 -2.3615 -0.9775 0.9892
0.9179 -2.3483 -0.9775 0.9892
0.9521 -2.3346 -0.9775 0.9892
0.9861 -2.3204 -0.9774 0.9892
1.0534 -2.2905 -0.9774 0.9892
1.2177 -2.2074 -0.9774 0.9892
1.2498 -2.1894 -0.9773 0.9892
1.3133 -2.1518 -0.9773 0.9892
1.3445 -2.1324 -0.9773 0.9892
1.4062 -2.0921 -0.9773 0.9892
1.4366 -2.0713 -0.9773 0.9892
1.4667 -2.0501 -0.9773 0.9892
1.5551 -1.9838 -0.9772 0.9892
1.5855 -1.9628 -0.9782 0.9892
1.6699 -1.8914 -0.9782 0.9892
1.6974 -1.8668 -0.9782 0.9892
1.7245 -1.8418 -0.9782 0.9892
1.8575 -1.7649 -0.9933 0.9891
1.9082 -1.7098 -0.9933 0.9891
1.9813 -1.6245 -0.9933 0.9891
2.0048 -1.5954 -0.9933 0.9891
2.0505 -1.5361 -0.9933 0.9891
2.0945 -1.4755 -0.9932 0.9891
2.1367 -1.4136 -0.9932 0.9891
2.1571 -1.3822 -0.9932 0.9891
2.1770 -1.3506 -0.9932 0.9891
2.1965 -1.3186 -0.9932 0.9891
2.2341 -1.2539 -0.9932 0.9891
2.2521 -1.2211 -0.9932 0.9891
2.2868 -1.1547 -0.9932 0.9891
2.3196 -1.0874 -0.9932 0.9891
2.3352 -1.0534 -0.9932 0.9891
2.3503 -1.0191 -0.9931 0.9891
2.3790 -0.9500 -0.9931 0.9891
2.3927 -0.9152 -0.9931 0.9891
2.4304 -0.8094 -0.9931 0.9891
2.4420 -0.7738 -0.9931 0.9891
2.4530 -0.7380 -0.9931 0.9891
2.4635 -0.7021 -0.9931 0.9891
2.4829 -0.6298 -0.9931 0.9891
2.5082 -0.5204 -0.9931 0.9891
2.5285 -0.4099 -0.9931 0.9891
2.5343 -0.3730 -0.9931 0.9891
2.5440 -0.2988 -0.9931 0.9891
2.5481 -0.2616 -0.9931 0.9891
2.5517 -0.2243 -0.9931 0.9891
2.5571 -0.1496 -0.9931 0.9891
2.5591 -0.1122 -0.9931 0.9891
2.5604 -0.0748 -0.9931 0.9891
2.5612 0.0375 -0.9931 0.9891
2.5604 0.0749 -0.9931 0.9891
2.5591 0.1122 -0.9931 0.9891
2.5571 0.1496 -0.9931 0.9891
2.5517 0.2243 -0.9931 0.9891
2.5481 0.2615 -0.9931 0.9891
2.5441 0.2987 -0.9931 0.9891
2.5395 0.3359 -0.9931 0.9891
2.5223 0.4468 -0.9931 0.9891
2.5081 0.5204 -0.9931 0.9891
2.4919 0.5934 -0.9931 0.9891
2.4830 0.6297 -0.9931 0.9891
2.4735 0.6660 -0.9931 0.9891
2.4635 0.7021 -0.9931 0.9891
2.4530 0.7380 -0.9931 0.9891
2.4304 0.8093 -0.9931 0.9891
2.4184 0.8448 -0.9931 0.9891
2.4058 0.8800 -0.9931 0.9891
2.3649 0.9846 -0.9931 0.9891
2.3503 1.0191 -0.9931 0.9891
2.3352 1.0533 -0.9932 0.9891
2.3196 1.0873 -0.9932 0.9891
2.3034 1.1211 -0.9932 0.9891
2.2697 1.1880 -0.9932 0.9891
2.2521 1.2210 -0.9932 0.9891
2.1965 1.3186 -0.9932 0.9891
2.1367 1.4136 -0.9932 0.9891
2.1158 1.4446 -0.9932 0.9891
2.0945 1.4754 -0.9932 0.9891
2.0727 1.5059 -0.9933 0.9891
2.0048 1.5954 -0.9933 0.9891
1.9812 1.6245 -0.9933 0.9891
1.9573 1.6532 -0.9933 0.9891
1.8831 1.7375 -0.9933 0.9891
1.8575 1.7648 -0.9933 0.9891
1.8315 1.7918 -0.9933 0.9891
1.8052 1.8184 -0.9934 0.9891
1.7784 1.8446 -0.9934 0.9891
1.7238 1.8958 -0.9934 0.9891
1.6959 1.9208 -0.9934 0.9891
1.6677 1.9454 -0.9934 0.9891
1.6102 1.9934 -0.9934 0.9891
1.5809 2.0167 -0.9934 0.9891
1.5214 2.0621 -0.9935 0.9891
1.4911 2.0841 -0.9935 0.9891
1.4605 2.1057 -0.9935 0.9891
1.3350 2.1875 -0.9935 0.9891
1.3029 2.2069 -0.9936 0.9891
1.0709 2.3286 -0.9936 0.9891
0.9679 2.3734 -0.9937 0.9891
0.9331 2.3873 -0.9937 0.9891
0.8276 2.4260 -0.9937 0.9891
0.7921 2.4379 -0.9938 0.9891
0.7205 2.4600 -0.9938 0.9891
0.6846 2.4704 -0.9938 0.9891
0.6121 2.4893 -0.9938 0.9891
0.5024 2.5139 -0.9939 0.9891
0.3918 2.5336 -0.9939 0.9891
0.3547 2.5391 -0.9939 0.9891
0.2804 2.5484 -0.9940 0.9891
0.2431 2.5523 -0.9940 0.9891
0.2058 2.5556 -0.9940 0.9891
0.1311 2.5607 -0.9940 0.9891
0.0562 2.5635 -0.9940 0.9891
0.0187 2.5640 -0.9941 0.9891
-0.0188 2.5640 -0.9941 0.9891
-0.0562 2.5636 -0.9941 0.9891
-0.0936 2.5625 -0.9941 0.9891
-0.1685 2.5587 -0.9941 0.9891
-0.2432 2.5528 -0.9942 0.9891
-0.4289 2.5284 -0.9942 0.9891
-0.4659 2.5219 -0.9943 0.9891
-0.1162 0.5812 -0.2298 0.9975
-0.1780 0.4756 -0.1969 0.9978
-0.1873 0.4594 -0.1923 0.9979
-0.1919 0.4515 -0.1902 0.9979
-0.2046 0.4282 -0.1840 0.9980
-0.2125 0.4132 -0.1802 0.9980
-0.2199 0.3986 -0.1765 0.9980
-0.2235 0.3914 -0.1747 0.9981
-0.2303 0.3774 -0.1714 0.9981
-0.2400 0.3570 -0.1668 0.9982
-0.2516 0.3308 -0.1611 0.9982
-0.2570 0.3181 -0.1585 0.9982
-0.2619 0.3055 -0.1560 0.9983
-0.2679 0.2861 -0.1520 0.9983
-0.2698 0.2798 -0.1507 0.9983
-0.2716 0.2736 -0.1495 0.9983
-0.2751 0.2613 -0.1471 0.9984
-0.2767 0.2553 -0.1459 0.9984
-0.2782 0.2493 -0.1448 0.9984
-0.2864 0.2146 -0.1387 0.9985
-0.2877 0.2089 -0.1378 0.9985
-0.2888 0.2034 -0.1369 0.9985
-0.2898 0.1979 -0.1361 0.9985
-0.2924 0.1873 -0.1346 0.9985
-0.2936 0.1821 -0.1339 0.9985
-0.2948 0.1770 -0.1333 0.9985
-0.2971 0.1667 -0.1321 0.9985
-0.2982 0.1616 -0.1315 0.9985
-0.2992 0.1565 -0.1309 0.9986
-0.3011 0.1466 -0.1298 0.9986
-0.3029 0.1366 -0.1288 0.9986
-0.3036 0.1316 -0.1283 0.9986
-0.3049 0.1217 -0.1273 0.9986
-0.3071 0.1023 -0.1255 0.9986
-0.3079 0.0927 -0.1247 0.9986
-0.3084 0.0879 -0.1243 0.9986
-0.3090 0.0784 -0.1236 0.9986
-0.3093 0.0736 -0.1233 0.9986
-0.3098 0.0643 -0.1227 0.9986
-0.3100 0.0596 -0.1224 0.9986
-0.3101 0.0549 -0.1221 0.9986
-0.3104 0.0364 -0.1212 0.9987
-0.3104 0.0318 -0.1210 0.9987
-0.3104 0.0227 -0.1206 0.9987
-0.3102 0.0181 -0.1205 0.9987
-0.3100 0.0090 -0.1202 0.9987
-0.3050 -0.0045 -0.1222 0.9987
-0.3054 -0.0179 -0.1225 0.9987
-0.3055 -0.0224 -0.1227 0.9987
-0.3056 -0.0269 -0.1229 0.9987
-0.3056 -0.0359 -0.1232 0.9987
-0.3053 -0.0541 -0.1242 0.9987
-0.3051 -0.0587 -0.1244 0.9987
-0.3047 -0.0679 -0.1250 0.9987
-0.3044 -0.0725 -0.1253 0.9987
-0.3041 -0.0771 -0.1257 0.9986
-0.3035 -0.0865 -0.1264 0.9986
-0.3030 -0.0912 -0.1267 0.9986
-0.3026 -0.0959 -0.1271 0.9986
-0.3017 -0.1054 -0.1280 0.9986
-0.3011 -0.1102 -0.1284 0.9986
-0.3005 -0.1150 -0.1289 0.9986
-0.2993 -0.1246 -0.1298 0.9986
-0.2951 -0.1490 -0.1324 0.9986
-0.2942 -0.1540 -0.1330 0.9986
-0.2931 -0.1589 -0.1335 0.9986
-0.2898 -0.1739 -0.1353 0.9985
-0.2860 -0.1892 -0.1373 0.9985
-0.2847 -0.1944 -0.1380 0.9985
-0.2812 -0.2106 -0.1407 0.9985
-0.2786 -0.2217 -0.1426 0.9985
-0.2773 -0.2273 -0.1436 0.9985
-0.2759 -0.2330 -0.1446 0.9984
-0.2729 -0.2445 -0.1467 0.9984
-0.2697 -0.2562 -0.1490 0.9984
-0.2680 -0.2622 -0.1501 0.9984
-0.2662 -0.2682 -0.1513 0.9984
-0.2644 -0.2743 -0.1526 0.9984
-0.2625 -0.2804 -0.1538 0.9983
-0.2491 -0.3178 -0.1617 0.9983
-0.2464 -0.3240 -0.1630 0.9982
-0.2408 -0.3366 -0.1657 0.9982
-0.2379 -0.3429 -0.1671 0.9982
-0.2348 -0.3494 -0.1686 0.9982
-0.2318 -0.3559 -0.1701 0.9982
-0.2286 -0.3625 -0.1716 0.9982
-0.2112 -0.3965 -0.1799 0.9981
-0.1997 -0.4180 -0.1855 0.9980
-0.1914 -0.4328 -0.1895 0.9980
-0.1827 -0.4479 -0.1937 0.9979
-0.1686 -0.4714 -0.2005 0.9978
-0.1635 -0.4794 -0.2028 0.9978
-0.1584 -0.4875 -0.2053 0.9978
-0.1531 -0.4957 -0.2078 0.9978
-0.1363 -0.5212 -0.2157 0.9977
-0.1241 -0.5387 -0.2214 0.9976
-0.1178 -0.5477 -0.2243 0.9976
-0.1113 -0.5568 -0.2274 0.9976
-0.1046 -0.5661 -0.2305 0.9975
-0.3732 -2.4133 -0.9780 0.9895
-0.3379 -2.4185 -0.9780 0.9895
-0.2671 -2.4272 -0.9779 0.9895
-0.1961 -2.4339 -0.9779 0.9895
-0.1604 -2.4365 -0.9779 0.9895
-0.1248 -2.4386 -0.9779 0.9895
-0.0535 -2.4411 -0.9778 0.9895
0.0178 -2.4416 -0.9778 0.9895
0.0535 -2.4410 -0.9778 0.9895
0.1248 -2.4383 -0.9778 0.9895
0.1604 -2.4362 -0.9778 0.9895
0.2670 -2.4267 -0.9777 0.9895
0.3378 -2.4178 -0.9777 0.9895
0.4434 -2.4006 -0.9777 0.9895
0.5133 -2.3866 -0.9776 0.9895
0.5481 -2.3787 -0.9776 0.9895
0.6174 -2.3616 -0.9776 0.9895
0.6518 -2.3523 -0.9776 0.9895
0.6861 -2.3425 -0.9776 0.9895
0.7203 -2.3322 -0.9775 0.9895
0.8218 -2.2983 -0.9775 0.9895
0.8553 -2.2861 -0.9775 0.9895
0.8885 -2.2733 -0.9775 0.9895
0.9216 -2.2600 -0.9775 0.9895
0.9546 -2.2462 -0.9775 0.9895
1.0198 -2.2174 -0.9774 0.9895
1.0841 -2.1865 -0.9774 0.9895
1.2713 -2.0831 -0.9773 0.9895
1.3316 -2.0450 -0.9773 0.9895
1.3613 -2.0253 -0.9773 0.9895
1.4502 -1.9656 -0.9783 0.9895
1.4787 -1.9442 -0.9782 0.9895
1.5070 -1.9224 -0.9782 0.9895
1.5348 -1.9002 -0.9782 0.9895
1.5897 -1.8544 -0.9782 0.9895
1.7216 -1.7857 -0.9934 0.9894
1.8229 -1.6821 -0.9934 0.9894
1.8473 -1.6552 -0.9933 0.9894
1.8948 -1.6004 -0.9933 0.9894
1.9631 -1.5159 -0.9933 0.9894
2.0276 -1.4284 -0.9933 0.9894
2.0482 -1.3986 -0.9933 0.9894
2.0684 -1.3684 -0.9933 0.9894
2.1447 -1.2453 -0.9932 0.9894
2.1802 -1.1821 -0.9932 0.9894
2.2298 -1.0854 -0.9932 0.9894
2.2455 -1.0526 -0.9932 0.9894
2.3031 -0.9196 -0.9932 0.9894
2.3640 -0.7491 -0.9931 0.9894
2.4037 -0.6097 -0.9931 0.9894
2.4123 -0.5745 -0.9931 0.9894
2.4204 -0.5392 -0.9931 0.9894
2.4280 -0.5038 -0.9931 0.9894
2.4352 -0.4682 -0.9931 0.9894
2.4417 -0.4326 -0.9931 0.9894
2.4478 -0.3968 -0.9931 0.9894
2.4533 -0.3611 -0.9931 0.9894
2.4628 -0.2893 -0.9931 0.9894
2.4667 -0.2532 -0.9931 0.9894
2.4731 -0.1811 -0.9931 0.9894
2.4773 -0.1087 -0.9931 0.9894
2.4787 -0.0725 -0.9931 0.9894
2.4794 -0.0362 -0.9931 0.9894
2.4787 0.0725 -0.9931 0.9894
2.4773 0.1086 -0.9931 0.9894
2.4755 0.1448 -0.9931 0.9894
2.4731 0.1810 -0.9931 0.9894
2.4583 0.3252 -0.9931 0.9894
2.4533 0.3611 -0.9931 0.9894
2.4352 0.4682 -0.9931 0.9894
2.4205 0.5391 -0.9931 0.9894
2.3640 0.7491 -0.9931 0.9894
2.3289 0.8520 -0.9932 0.9894
2.3162 0.8859 -0.9932 0.9894
2.3030 0.9196 -0.9932 0.9894
2.2752 0.9865 -0.9932 0.9894
2.2606 1.0197 -0.9932 0.9894
2.2454 1.0526 -0.9932 0.9894
2.2138 1.1178 -0.9932 0.9894
2.1627 1.2138 -0.9932 0.9894
2.1075 1.3074 -0.9932 0.9894
2.0276 1.4283 -0.9933 0.9894
1.9850 1.4870 -0.9933 0.9894
1.9631 1.5159 -0.9933 0.9894
1.8948 1.6005 -0.9933 0.9894
1.7475 1.7603 -0.9934 0.9894
1.6954 1.8107 -0.9934 0.9894
1.6687 1.8353 -0.9934 0.9894
1.6418 1.8595 -0.9934 0.9894
1.6145 1.8833 -0.9934 0.9894
1.5868 1.9067 -0.9934 0.9894
1.5587 1.9297 -0.9935 0.9894
1.5304 1.9523 -0.9935 0.9894
1.4727 1.9962 -0.9935 0.9894
1.4434 2.0175 -0.9935 0.9894
1.3839 2.0589 -0.9935 0.9894
1.2924 2.1177 -0.9936 0.9894
1.2613 2.1364 -0.9936 0.9894
1.2300 2.1546 -0.9936 0.9894
1.1021 2.2229 -0.9936 0.9894
1.0695 2.2388 -0.9936 0.9894
0.9033 2.3110 -0.9937 0.9894
0.8694 2.3240 -0.9937 0.9894
0.8012 2.3485 -0.9938 0.9894
0.7668 2.3600 -0.9938 0.9894
0.7322 2.3709 -0.9938 0.9894
0.6626 2.3914 -0.9938 0.9894
0.5219 2.4261 -0.9939 0.9894
0.4150 2.4468 -0.9939 0.9894
0.2353 2.4707 -0.9940 0.9894
0.1269 2.4787 -0.9940 0.9894
0.0906 2.4804 -0.9940 0.9894
0.0544 2.4814 -0.9940 0.9894
0.0181 2.4821 -0.9941 0.9894
-0.0182 2.4821 -0.9941 0.9894
-0.0544 2.4816 -0.9941 0.9894
-0.0907 2.4805 -0.9941 0.9894
-0.1631 2.4770 -0.9941 0.9894
-0.1993 2.4743 -0.9941 0.9894
-0.2354 2.4712 -0.9942 0.9894
-0.2715 2.4675 -0.9942 0.9894
-0.3075 2.4634 -0.9942 0.9894
-0.3435 2.4586 -0.9942 0.9894
-0.1113 0.5568 -0.2274 0.9976
-0.1363 0.5211 -0.2157 0.9977
-0.1584 0.4875 -0.2053 0.9978
-0.1635 0.4793 -0.2028 0.9978
-0.1685 0.4713 -0.2005 0.9978
-0.1781 0.4556 -0.1959 0.9979
-0.1871 0.4403 -0.1916 0.9979
-0.1956 0.4254 -0.1875 0.9980
-0.1997 0.4180 -0.1855 0.9980
-0.2112 0.3964 -0.1799 0.9981
-0.2149 0.3895 -0.1781 0.9981
-0.2184 0.3825 -0.1764 0.9981
-0.2219 0.3758 -0.1748 0.9981
-0.2253 0.3691 -0.1732 0.9981
-0.2317 0.3558 -0.1701 0.9982
-0.2348 0.3494 -0.1686 0.9982
-0.2379 0.3429 -0.1671 0.9982
-0.2464 0.3239 -0.1630 0.9982
-0.2543 0.3055 -0.1592 0.9983
-0.2586 0.2928 -0.1564 0.9983
-0.2606 0.2865 -0.1551 0.9983
-0.2625 0.2804 -0.1538 0.9983
-0.2759 0.2330 -0.1446 0.9984
-0.2824 0.2051 -0.1398 0.9985
-0.2860 0.1892 -0.1373 0.9985
-0.2909 0.1689 -0.1347 0.9986
-0.2920 0.1639 -0.1341 0.9986
-0.2931 0.1589 -0.1335 0.9986
-0.2951 0.1490 -0.1324 0.9986
-0.2961 0.1441 -0.1319 0.9986
-0.2979 0.1343 -0.1309 0.9986
-0.2986 0.1295 -0.1303 0.9986
-0.2993 0.1246 -0.1298 0.9986
-0.3017 0.1054 -0.1280 0.9986
-0.3030 0.0911 -0.1267 0.9986
-0.3034 0.0864 -0.1264 0.9986
-0.3044 0.0725 -0.1253 0.9987
-0.3050 0.0632 -0.1247 0.9987
-0.3055 0.0450 -0.1237 0.9987
-0.3056 0.0404 -0.1234 0.9987
-0.3056 0.0269 -0.1229 0.9987
-0.3055 0.0223 -0.1227 0.9987
-0.3054 0.0179 -0.1225 0.9987
-0.3050 0.0045 -0.1222 0.9987
-0.3009 -0.0264 -0.1249 0.9987
-0.3009 -0.0309 -0.1251 0.9987
-0.3009 -0.0398 -0.1255 0.9987
-0.3007 -0.0488 -0.1259 0.9987
-0.3006 -0.0533 -0.1262 0.9987
-0.3004 -0.0578 -0.1265 0.9987
-0.3002 -0.0623 -0.1267 0.9987
-0.2994 -0.0759 -0.1277 0.9987
-0.2982 -0.0897 -0.1288 0.9987
-0.2978 -0.0944 -0.1291 0.9986
-0.2963 -0.1084 -0.1304 0.9986
-0.2957 -0.1131 -0.1309 0.9986
-0.2951 -0.1179 -0.1313 0.9986
-0.2937 -0.1274 -0.1323 0.9986
-0.2893 -0.1514 -0.1350 0.9986
-0.2882 -0.1562 -0.1355 0.9986
-0.2871 -0.1612 -0.1361 0.9986
-0.2849 -0.1710 -0.1374 0.9986
-0.2837 -0.1760 -0.1380 0.9986
-0.2824 -0.1810 -0.1387 0.9985
-0.2798 -0.1911 -0.1400 0.9985
-0.2761 -0.2068 -0.1426 0.9985
-0.2748 -0.2121 -0.1435 0.9985
-0.2692 -0.2343 -0.1475 0.9985
-0.2661 -0.2455 -0.1497 0.9984
