ply
format ascii 1.0
element vertex 1598
property float32 x
property float32 y
property float32 z
property float32 I
end_header
-1.3303 -3.8995 -0.9946 0.9832
-1.2731 -3.9184 -0.9946 0.9832
-1.2157 -3.9365 -0.9945 0.9832
-1.1001 -3.9702 -0.9945 0.9832
-1.0420 -3.9857 -0.9945 0.9832
-0.8663 -4.0273 -0.9944 0.9832
-0.5699 -4.0793 -0.9943 0.9832
-0.3306 -4.1052 -0.9942 0.9832
-0.0604 -2.7572 -0.6657 0.9887
-0.0301 -4.1180 -0.9941 0.9832
0.3905 -4.0988 -0.9939 0.9832
0.4503 -4.0926 -0.9939 0.9832
0.5101 -4.0854 -0.9939 0.9832
0.5697 -4.0775 -0.9938 0.9832
0.6292 -4.0686 -0.9938 0.9832
0.7478 -4.0483 -0.9938 0.9832
0.8657 -4.0246 -0.9937 0.9832
0.9244 -4.0114 -0.9937 0.9832
1.0412 -3.9825 -0.9937 0.9832
1.1570 -3.9502 -0.9936 0.9832
1.2146 -3.9328 -0.9936 0.9832
1.2719 -3.9145 -0.9936 0.9832
1.3289 -3.8954 -0.9935 0.9832
1.3857 -3.8755 -0.9935 0.9832
1.5540 -3.8108 -0.9935 0.9832
1.6647 -3.7636 -0.9934 0.9832
1.7194 -3.7388 -0.9934 0.9832
1.7739 -3.7132 -0.9934 0.9832
1.8527 -3.6035 -0.9781 0.9835
1.9051 -3.5759 -0.9781 0.9835
2.1586 -3.4235 -0.9770 0.9835
2.2083 -3.3916 -0.9770 0.9835
2.2576 -3.3589 -0.9769 0.9835
2.3064 -3.3254 -0.9769 0.9835
2.4025 -3.2565 -0.9769 0.9835
2.4965 -3.1848 -0.9769 0.9835
2.5428 -3.1479 -0.9768 0.9835
2.5885 -3.1104 -0.9768 0.9835
2.6336 -3.0721 -0.9768 0.9835
2.6781 -3.0333 -0.9768 0.9835
2.7655 -2.9536 -0.9767 0.9835
2.6890 -2.7087 -0.9214 0.9844
2.6872 -2.6290 -0.9075 0.9846
2.7296 -2.5935 -0.9089 0.9846
2.8941 -2.5931 -0.9380 0.9841
3.1656 -2.5191 -0.9766 0.9835
3.2020 -2.4725 -0.9766 0.9835
3.3408 -2.2812 -0.9765 0.9835
3.3737 -2.2321 -0.9765 0.9835
3.4059 -2.1825 -0.9765 0.9835
3.4374 -2.1324 -0.9765 0.9835
3.5274 -1.9797 -0.9764 0.9835
3.5596 -1.9299 -0.9774 0.9835
3.6144 -1.8251 -0.9774 0.9835
3.6785 -1.7904 -0.9876 0.9833
3.5661 -1.5463 -0.9383 0.9841
3.8404 -1.4688 -0.9926 0.9832
3.8817 -1.3560 -0.9926 0.9832
3.9010 -1.2991 -0.9925 0.9832
3.9196 -1.2420 -0.9925 0.9832
3.9373 -1.1845 -0.9925 0.9832
3.9701 -1.0690 -0.9925 0.9832
3.9997 -0.9525 -0.9925 0.9832
4.0131 -0.8940 -0.9925 0.9832
4.0257 -0.8353 -0.9925 0.9832
4.0584 -0.6580 -0.9925 0.9832
4.0676 -0.5986 -0.9925 0.9832
4.0758 -0.5392 -0.9925 0.9832
4.0955 -0.3600 -0.9925 0.9832
4.1074 -0.1802 -0.9925 0.9832
4.1096 -0.1202 -0.9925 0.9832
4.1109 -0.0602 -0.9925 0.9832
4.1113 0.0000 -0.9925 0.9832
4.1074 0.1801 -0.9925 0.9832
4.1004 0.3001 -0.9925 0.9832
4.0955 0.3600 -0.9925 0.9832
4.0899 0.4198 -0.9925 0.9832
4.0759 0.5391 -0.9925 0.9832
4.0584 0.6580 -0.9925 0.9832
4.0257 0.8352 -0.9925 0.9832
3.9997 0.9525 -0.9925 0.9832
3.9853 1.0109 -0.9925 0.9832
3.9541 1.1269 -0.9925 0.9832
3.9372 1.1845 -0.9925 0.9832
3.9196 1.2420 -0.9925 0.9832
3.9010 1.2991 -0.9925 0.9832
3.8817 1.3559 -0.9926 0.9832
3.8404 1.4688 -0.9926 0.9832
3.8186 1.5248 -0.9926 0.9832
3.7725 1.6358 -0.9926 0.9832
3.7482 1.6907 -0.9926 0.9832
3.6432 1.9068 -0.9926 0.9832
3.5860 2.0125 -0.9927 0.9832
3.3963 2.3189 -0.9927 0.9832
3.2915 2.4657 -0.9928 0.9832
3.2182 2.5609 -0.9928 0.9832
3.1804 2.6077 -0.9928 0.9832
3.1030 2.6996 -0.9929 0.9832
3.0228 2.7891 -0.9929 0.9832
2.9818 2.8330 -0.9929 0.9832
2.9402 2.8764 -0.9929 0.9832
2.8979 2.9191 -0.9929 0.9832
2.8549 2.9612 -0.9930 0.9832
2.7673 3.0434 -0.9930 0.9832
2.7226 3.0837 -0.9930 0.9832
2.6773 3.1231 -0.9930 0.9832
2.5850 3.2002 -0.9931 0.9832
2.4904 3.2744 -0.9931 0.9832
2.3938 3.3459 -0.9931 0.9832
2.3447 3.3806 -0.9932 0.9832
2.2951 3.4146 -0.9932 0.9832
2.2450 3.4478 -0.9932 0.9832
2.1434 3.5121 -0.9932 0.9832
2.0919 3.5431 -0.9933 0.9832
1.9347 3.6316 -0.9933 0.9832
1.8815 3.6595 -0.9933 0.9832
1.8279 3.6867 -0.9934 0.9832
1.7739 3.7131 -0.9934 0.9832
1.5541 3.8107 -0.9935 0.9832
1.4982 3.8331 -0.9935 0.9832
1.4421 3.8547 -0.9935 0.9832
1.3856 3.8754 -0.9935 0.9832
1.2719 3.9145 -0.9936 0.9832
1.2146 3.9327 -0.9936 0.9832
1.1570 3.9501 -0.9936 0.9832
1.0992 3.9667 -0.9936 0.9832
1.0412 3.9824 -0.9937 0.9832
0.9244 4.0113 -0.9937 0.9832
0.8657 4.0245 -0.9937 0.9832
0.7478 4.0483 -0.9938 0.9832
0.5697 4.0774 -0.9938 0.9832
0.4503 4.0925 -0.9939 0.9832
0.3905 4.0988 -0.9939 0.9832
0.3306 4.1041 -0.9939 0.9832
0.2105 4.1122 -0.9940 0.9832
0.1504 4.1150 -0.9940 0.9832
0.0903 4.1168 -0.9940 0.9832
-0.0301 4.1179 -0.9941 0.9832
-0.1504 4.1154 -0.9941 0.9832
-0.2706 4.1095 -0.9942 0.9832
-0.3306 4.1052 -0.9942 0.9832
-0.3906 4.1000 -0.9942 0.9832
-0.5103 4.0870 -0.9943 0.9832
-0.5699 4.0792 -0.9943 0.9832
-0.6889 4.0611 -0.9943 0.9832
-0.7482 4.0506 -0.9944 0.9832
-0.8073 4.0394 -0.9944 0.9832
-0.9250 4.0143 -0.9944 0.9832
-1.0420 3.9857 -0.9945 0.9832
-1.1581 3.9537 -0.9945 0.9832
-1.2157 3.9365 -0.9945 0.9832
-1.2732 3.9183 -0.9946 0.9832
-1.4437 3.8591 -0.9946 0.9832
-1.5560 3.8154 -0.9947 0.9832
-1.6669 3.7684 -0.9947 0.9832
-1.7218 3.7438 -0.9947 0.9832
-0.3560 0.7452 -0.1994 0.9966
-0.3387 0.6831 -0.1841 0.9969
-0.3237 0.6295 -0.1709 0.9971
-0.3105 0.5829 -0.1594 0.9973
-0.3143 0.5323 -0.1492 0.9975
-0.3171 0.5195 -0.1469 0.9975
-0.3246 0.4829 -0.1405 0.9976
-0.3269 0.4713 -0.1385 0.9976
-0.3331 0.4380 -0.1329 0.9977
-0.3377 0.4180 -0.1297 0.9978
-0.3446 0.3903 -0.1257 0.9979
-0.3468 0.3814 -0.1244 0.9979
-0.3511 0.3641 -0.1221 0.9979
-0.3574 0.3298 -0.1174 0.9980
-0.3598 0.3130 -0.1151 0.9980
-0.3609 0.3048 -0.1140 0.9981
-0.3620 0.2968 -0.1130 0.9981
-0.3630 0.2888 -0.1120 0.9981
-0.3679 0.2434 -0.1065 0.9982
-0.3685 0.2361 -0.1057 0.9982
-0.3697 0.2219 -0.1041 0.9982
-0.3702 0.2149 -0.1033 0.9982
-0.3711 0.2012 -0.1019 0.9983
-0.3722 0.1879 -0.1007 0.9983
-0.3738 0.1752 -0.0997 0.9983
-0.3744 0.1688 -0.0991 0.9983
-0.3749 0.1625 -0.0986 0.9983
-0.3753 0.1562 -0.0981 0.9983
-0.3766 0.1377 -0.0968 0.9984
-0.3769 0.1316 -0.0964 0.9984
-0.3772 0.1256 -0.0960 0.9984
-0.3776 0.1196 -0.0956 0.9984
-0.3780 0.1077 -0.0949 0.9984
-0.3782 0.1018 -0.0946 0.9984
-0.3785 0.0901 -0.0939 0.9984
-0.3787 0.0728 -0.0931 0.9984
-0.3786 0.0557 -0.0924 0.9984
-0.3785 0.0500 -0.0922 0.9984
-0.3784 0.0444 -0.0920 0.9984
-0.3783 0.0388 -0.0918 0.9984
-0.3701 -0.0000 -0.0937 0.9985
-0.3704 -0.0054 -0.0938 0.9985
-0.3707 -0.0109 -0.0939 0.9985
-0.3710 -0.0163 -0.0940 0.9985
-0.3712 -0.0218 -0.0941 0.9985
-0.3719 -0.0437 -0.0948 0.9985
-0.3720 -0.0492 -0.0950 0.9985
-0.3721 -0.0603 -0.0954 0.9984
-0.3720 -0.0772 -0.0962 0.9984
-0.3719 -0.0829 -0.0965 0.9984
-0.3717 -0.0943 -0.0971 0.9984
-0.3708 -0.1175 -0.0985 0.9984
-0.3704 -0.1234 -0.0988 0.9984
-0.3701 -0.1293 -0.0993 0.9984
-0.3697 -0.1353 -0.0997 0.9984
-0.3693 -0.1413 -0.1001 0.9984
-0.3679 -0.1595 -0.1015 0.9983
-0.3660 -0.1782 -0.1030 0.9983
-0.3652 -0.1844 -0.1036 0.9983
-0.3637 -0.1973 -0.1047 0.9983
-0.3632 -0.2039 -0.1055 0.9983
-0.3621 -0.2174 -0.1069 0.9983
-0.3616 -0.2243 -0.1077 0.9982
-0.3602 -0.2383 -0.1093 0.9982
-0.3587 -0.2527 -0.1111 0.9982
-0.3578 -0.2600 -0.1120 0.9982
-0.3569 -0.2675 -0.1129 0.9982
-0.3550 -0.2826 -0.1149 0.9981
-0.3540 -0.2903 -0.1159 0.9981
-0.3505 -0.3141 -0.1191 0.9981
-0.3492 -0.3223 -0.1203 0.9980
-0.3479 -0.3306 -0.1215 0.9980
-0.3429 -0.3557 -0.1251 0.9980
-0.3408 -0.3640 -0.1262 0.9979
-0.3386 -0.3725 -0.1274 0.9979
-0.3364 -0.3810 -0.1287 0.9979
-0.3341 -0.3897 -0.1299 0.9979
-0.3317 -0.3987 -0.1313 0.9979
-0.3268 -0.4169 -0.1341 0.9978
-0.3215 -0.4358 -0.1371 0.9978
-0.3192 -0.4461 -0.1389 0.9977
-0.3145 -0.4680 -0.1427 0.9977
-0.2978 -0.5398 -0.1561 0.9975
-0.3430 -0.7755 -0.2146 0.9965
-1.4609 -3.5823 -0.9794 0.9842
-1.4083 -3.6032 -0.9794 0.9842
-1.3024 -3.6427 -0.9793 0.9842
-1.2685 -3.7183 -0.9946 0.9839
-1.2140 -3.7363 -0.9945 0.9839
-1.1592 -3.7536 -0.9945 0.9839
-1.0490 -3.7857 -0.9945 0.9839
-0.9936 -3.8005 -0.9945 0.9839
-0.7698 -3.8517 -0.9944 0.9839
-0.6569 -3.8724 -0.9943 0.9839
-0.6002 -3.8815 -0.9943 0.9839
-0.3724 -3.9096 -0.9942 0.9839
-0.2580 -3.9187 -0.9942 0.9839
-0.0604 -2.7572 -0.6982 0.9887
0.0287 -3.9266 -0.9941 0.9839
0.0861 -3.9256 -0.9940 0.9839
0.1434 -3.9239 -0.9940 0.9839
0.3152 -3.9136 -0.9939 0.9839
0.3723 -3.9085 -0.9939 0.9839
0.5432 -3.8881 -0.9939 0.9839
0.6566 -3.8704 -0.9938 0.9839
0.7130 -3.8604 -0.9938 0.9839
0.8815 -3.8252 -0.9937 0.9839
0.9372 -3.8118 -0.9937 0.9839
1.0482 -3.7826 -0.9937 0.9839
1.1033 -3.7668 -0.9936 0.9839
1.1582 -3.7502 -0.9936 0.9839
1.2128 -3.7328 -0.9936 0.9839
1.3213 -3.6956 -0.9936 0.9839
1.3541 -3.6195 -0.9783 0.9842
1.5113 -3.5564 -0.9782 0.9842
1.6639 -3.4830 -0.9772 0.9842
1.7649 -3.4327 -0.9771 0.9842
1.9622 -3.3235 -0.9771 0.9842
2.0105 -3.2945 -0.9770 0.9842
2.1058 -3.2341 -0.9770 0.9842
2.1529 -3.2030 -0.9770 0.9842
2.2454 -3.1386 -0.9770 0.9842
2.3807 -3.0370 -0.9769 0.9842
2.5114 -2.9296 -0.9768 0.9842
2.5538 -2.8925 -0.9768 0.9842
2.5958 -2.8548 -0.9768 0.9842
2.7177 -2.6588 -0.9625 0.9844
2.7456 -2.6087 -0.9588 0.9845
2.8355 -2.6164 -0.9767 0.9842
2.8734 -2.5746 -0.9767 0.9842
2.9107 -2.5323 -0.9767 0.9842
2.9474 -2.4895 -0.9767 0.9842
3.0535 -2.3578 -0.9766 0.9842
3.0876 -2.3129 -0.9766 0.9842
3.1210 -2.2675 -0.9766 0.9842
3.2172 -2.1285 -0.9766 0.9842
3.2479 -2.0812 -0.9766 0.9842
3.3073 -1.9854 -0.9765 0.9842
3.3672 -1.8898 -0.9775 0.9842
3.4399 -1.8005 -0.9829 0.9841
3.5258 -1.7161 -0.9927 0.9840
3.5975 -1.5600 -0.9927 0.9840
3.6199 -1.5072 -0.9927 0.9840
3.6415 -1.4541 -0.9926 0.9840
3.6623 -1.4007 -0.9926 0.9840
3.6824 -1.3470 -0.9926 0.9840
3.7016 -1.2931 -0.9926 0.9840
3.7201 -1.2389 -0.9926 0.9840
3.7378 -1.1844 -0.9926 0.9840
3.7546 -1.1297 -0.9926 0.9840
3.7707 -1.0746 -0.9926 0.9840
3.7860 -1.0195 -0.9926 0.9840
3.8270 -0.8525 -0.9926 0.9840
3.8390 -0.7965 -0.9926 0.9840
3.8606 -0.6840 -0.9926 0.9840
3.8702 -0.6275 -0.9926 0.9840
3.8869 -0.5141 -0.9925 0.9840
3.8939 -0.4573 -0.9925 0.9840
3.9002 -0.4004 -0.9925 0.9840
3.9056 -0.3433 -0.9925 0.9840
3.9206 -0.0000 -0.9925 0.9840
3.9203 0.0573 -0.9925 0.9840
3.9190 0.1146 -0.9925 0.9840
3.9002 0.4003 -0.9925 0.9840
3.8789 0.5709 -0.9926 0.9840
3.8702 0.6274 -0.9926 0.9840
3.8606 0.6839 -0.9926 0.9840
3.8503 0.7403 -0.9926 0.9840
3.8004 0.9639 -0.9926 0.9840
3.7546 1.1296 -0.9926 0.9840
3.7378 1.1843 -0.9926 0.9840
3.7201 1.2388 -0.9926 0.9840
3.6824 1.3470 -0.9926 0.9840
3.6623 1.4007 -0.9926 0.9840
3.6415 1.4541 -0.9926 0.9840
3.6198 1.5071 -0.9927 0.9840
3.5975 1.5599 -0.9927 0.9840
3.5744 1.6123 -0.9927 0.9840
3.5504 1.6643 -0.9927 0.9840
3.5258 1.7161 -0.9927 0.9840
3.5004 1.7674 -0.9927 0.9840
3.4197 1.9192 -0.9927 0.9839
3.3622 2.0183 -0.9928 0.9839
3.3324 2.0673 -0.9928 0.9839
3.3019 2.1157 -0.9928 0.9839
3.2387 2.2114 -0.9928 0.9839
3.2061 2.2585 -0.9928 0.9839
3.1728 2.3052 -0.9928 0.9839
3.1388 2.3513 -0.9928 0.9839
3.0688 2.4421 -0.9929 0.9839
3.0329 2.4867 -0.9929 0.9839
2.9590 2.5743 -0.9929 0.9839
2.8826 2.6598 -0.9929 0.9839
2.8435 2.7016 -0.9930 0.9839
2.7634 2.7837 -0.9930 0.9839
2.6810 2.8633 -0.9930 0.9839
2.6389 2.9022 -0.9930 0.9839
2.5530 2.9782 -0.9931 0.9839
2.4650 3.0516 -0.9931 0.9839
2.4202 3.0874 -0.9931 0.9839
2.3749 3.1225 -0.9931 0.9839
2.3290 3.1569 -0.9932 0.9839
2.1886 3.2562 -0.9932 0.9839
1.9948 3.3786 -0.9933 0.9839
1.8953 3.4357 -0.9933 0.9839
1.8449 3.4630 -0.9933 0.9839
1.6915 3.5407 -0.9934 0.9839
1.6396 3.5652 -0.9934 0.9839
1.5874 3.5888 -0.9934 0.9839
1.5348 3.6117 -0.9935 0.9839
1.4819 3.6338 -0.9935 0.9839
1.3751 3.6757 -0.9935 0.9839
1.2672 3.7145 -0.9936 0.9839
1.2128 3.7327 -0.9936 0.9839
1.1033 3.7667 -0.9936 0.9839
0.9928 3.7975 -0.9937 0.9839
0.9372 3.8117 -0.9937 0.9839
0.7130 3.8603 -0.9938 0.9839
0.5432 3.8880 -0.9939 0.9839
0.4864 3.8957 -0.9939 0.9839
0.2580 3.9178 -0.9940 0.9839
0.0287 3.9265 -0.9941 0.9839
-0.0287 3.9266 -0.9941 0.9839
-0.0861 3.9259 -0.9941 0.9839
-0.3725 3.9095 -0.9942 0.9839
-0.4295 3.9038 -0.9942 0.9839
-0.4866 3.8971 -0.9943 0.9839
-0.5434 3.8897 -0.9943 0.9839
-0.6003 3.8814 -0.9943 0.9839
-0.6569 3.8724 -0.9943 0.9839
-0.7134 3.8624 -0.9943 0.9839
-0.7698 3.8516 -0.9944 0.9839
-0.8821 3.8277 -0.9944 0.9839
-0.9936 3.8005 -0.9945 0.9839
-1.1043 3.7700 -0.9945 0.9839
-1.1592 3.7535 -0.9945 0.9839
-1.2685 3.7182 -0.9946 0.9839
-1.3227 3.6994 -0.9946 0.9839
-1.5367 3.6161 -0.9947 0.9839
-0.3266 0.7102 -0.1979 0.9968
-0.3125 0.6541 -0.1835 0.9970
-0.2911 0.5662 -0.1612 0.9974
-0.2978 0.5398 -0.1561 0.9975
-0.3095 0.4908 -0.1469 0.9976
-0.3121 0.4792 -0.1448 0.9976
-0.3145 0.4679 -0.1427 0.9977
-0.3268 0.4168 -0.1341 0.9978
-0.3408 0.3640 -0.1262 0.9979
-0.3450 0.3475 -0.1240 0.9980
-0.3465 0.3390 -0.1227 0.9980
-0.3479 0.3305 -0.1215 0.9980
-0.3492 0.3222 -0.1203 0.9980
-0.3517 0.3060 -0.1180 0.9981
-0.3529 0.2980 -0.1169 0.9981
-0.3540 0.2902 -0.1159 0.9981
-0.3578 0.2599 -0.1120 0.9982
-0.3587 0.2527 -0.1111 0.9982
-0.3602 0.2383 -0.1093 0.9982
-0.3609 0.2312 -0.1085 0.9982
-0.3622 0.2173 -0.1069 0.9983
-0.3628 0.2105 -0.1062 0.9983
-0.3637 0.1972 -0.1047 0.9983
-0.3643 0.1907 -0.1041 0.9983
-0.3668 0.1719 -0.1025 0.9983
-0.3674 0.1657 -0.1020 0.9983
-0.3684 0.1534 -0.1010 0.9984
-0.3689 0.1473 -0.1006 0.9984
-0.3701 0.1293 -0.0993 0.9984
-0.3710 0.1116 -0.0981 0.9984
-0.3713 0.1058 -0.0977 0.9984
-0.3717 0.0943 -0.0971 0.9984
-0.3718 0.0885 -0.0968 0.9984
-0.3720 0.0771 -0.0962 0.9984
-0.3721 0.0715 -0.0959 0.9984
-0.3721 0.0603 -0.0954 0.9984
-0.3721 0.0548 -0.0952 0.9984
-0.3720 0.0492 -0.0950 0.9985
-0.3718 0.0381 -0.0946 0.9985
-0.3716 0.0327 -0.0944 0.9985
-0.3714 0.0272 -0.0943 0.9985
-0.3710 0.0162 -0.0940 0.9985
-0.3638 0.0000 -0.0964 0.9985
-0.3641 -0.0054 -0.0965 0.9985
-0.3644 -0.0107 -0.0966 0.9985
-0.3651 -0.0268 -0.0970 0.9985
-0.3653 -0.0322 -0.0972 0.9985
-0.3654 -0.0375 -0.0973 0.9985
-0.3655 -0.0430 -0.0975 0.9985
-0.3656 -0.0538 -0.0979 0.9985
-0.3656 -0.0703 -0.0987 0.9985
-0.3655 -0.0759 -0.0989 0.9985
-0.3653 -0.0870 -0.0995 0.9984
-0.3652 -0.0927 -0.0998 0.9984
-0.3649 -0.0983 -0.1002 0.9984
-0.3642 -0.1155 -0.1012 0.9984
-0.3635 -0.1270 -0.1020 0.9984
-0.3627 -0.1387 -0.1029 0.9984
-0.3622 -0.1447 -0.1033 0.9984
-0.3600 -0.1688 -0.1054 0.9984
-0.3583 -0.1810 -0.1064 0.9983
-0.3561 -0.1998 -0.1082 0.9983
-0.3542 -0.2198 -0.1105 0.9983
-0.3528 -0.2335 -0.1121 0.9983
-0.3503 -0.2545 -0.1147 0.9982
-0.3494 -0.2618 -0.1157 0.9982
-0.3463 -0.2840 -0.1187 0.9981
-0.3439 -0.2993 -0.1208 0.9981
-0.3427 -0.3071 -0.1219 0.9981
-0.3414 -0.3150 -0.1231 0.9981
-0.3400 -0.3230 -0.1243 0.9981
-0.3370 -0.3395 -0.1268 0.9980
-0.3330 -0.3557 -0.1291 0.9980
-0.3285 -0.3721 -0.1315 0.9979
-0.3261 -0.3804 -0.1328 0.9979
-0.3237 -0.3891 -0.1341 0.9979
-0.3213 -0.3978 -0.1355 0.9979
-0.3187 -0.4066 -0.1369 0.9979
-0.3161 -0.4156 -0.1384 0.9978
-0.3024 -0.4645 -0.1469 0.9977
-0.2998 -0.4755 -0.1489 0.9977
-0.2970 -0.4868 -0.1511 0.9976
-0.2941 -0.4982 -0.1533 0.9976
-0.2879 -0.5220 -0.1580 0.9975
-0.2846 -0.5343 -0.1604 0.9975
-0.2783 -0.5826 -0.1711 0.9973
-0.2999 -0.6780 -0.1964 0.9969
-0.3129 -0.7364 -0.2120 0.9967
-1.3942 -3.4189 -0.9784 0.9848
-1.3441 -3.4388 -0.9784 0.9848
-1.2937 -3.4580 -0.9783 0.9848
-1.2430 -3.4765 -0.9783 0.9848
-1.1921 -3.4942 -0.9783 0.9848
-1.1421 -3.5148 -0.9793 0.9848
-1.0905 -3.5310 -0.9793 0.9848
-0.7771 -3.6125 -0.9791 0.9848
-0.7242 -3.6234 -0.9791 0.9848
-0.6711 -3.6335 -0.9791 0.9848
-0.6180 -3.6429 -0.9791 0.9848
-0.5734 -3.7082 -0.9943 0.9846
-0.4648 -3.7232 -0.9943 0.9846
-0.3012 -3.7398 -0.9942 0.9846
-0.2465 -3.7437 -0.9942 0.9846
-0.1918 -3.7469 -0.9941 0.9846
-0.1370 -3.7492 -0.9941 0.9846
-0.0604 -2.7572 -0.7308 0.9887
0.1370 -3.7487 -0.9940 0.9846
0.1918 -3.7463 -0.9940 0.9846
0.2465 -3.7430 -0.9940 0.9846
0.3011 -3.7390 -0.9940 0.9846
0.4102 -3.7284 -0.9939 0.9846
0.6273 -3.6977 -0.9938 0.9846
0.6708 -3.6315 -0.9786 0.9848
0.7237 -3.6213 -0.9785 0.9848
0.8817 -3.5859 -0.9785 0.9848
0.9340 -3.5725 -0.9785 0.9848
1.0896 -3.5279 -0.9784 0.9848
1.1410 -3.5116 -0.9784 0.9848
1.1909 -3.4909 -0.9774 0.9849
1.2418 -3.4730 -0.9773 0.9849
1.3427 -3.4352 -0.9773 0.9849
1.3927 -3.4151 -0.9773 0.9849
1.4918 -3.3728 -0.9772 0.9849
1.5897 -3.3277 -0.9772 0.9849
1.7339 -3.2546 -0.9772 0.9849
1.7812 -3.2288 -0.9771 0.9849
1.9209 -3.1475 -0.9771 0.9849
1.9666 -3.1191 -0.9771 0.9849
2.0120 -3.0899 -0.9770 0.9849
2.1453 -2.9986 -0.9770 0.9849
2.1889 -2.9669 -0.9770 0.9849
2.2746 -2.9016 -0.9769 0.9849
2.3994 -2.7990 -0.9769 0.9849
2.4400 -2.7636 -0.9769 0.9849
2.5587 -2.6539 -0.9768 0.9849
2.5971 -2.6162 -0.9768 0.9849
2.6350 -2.5779 -0.9768 0.9849
2.6723 -2.5391 -0.9768 0.9849
2.7453 -2.4598 -0.9768 0.9849
2.7809 -2.4194 -0.9767 0.9849
2.8159 -2.3785 -0.9767 0.9849
2.8504 -2.3371 -0.9767 0.9849
2.9174 -2.2527 -0.9767 0.9849
2.9499 -2.2098 -0.9767 0.9849
3.0438 -2.0784 -0.9766 0.9849
3.1032 -1.9885 -0.9766 0.9849
3.1351 -1.9449 -0.9776 0.9848
3.1631 -1.8988 -0.9776 0.9848
3.2225 -1.8086 -0.9792 0.9848
3.2922 -1.7850 -0.9924 0.9846
3.3194 -1.7374 -0.9928 0.9846
3.3444 -1.6887 -0.9928 0.9846
3.3922 -1.5902 -0.9927 0.9846
3.4151 -1.5405 -0.9927 0.9846
3.4371 -1.4904 -0.9927 0.9846
3.4792 -1.3893 -0.9927 0.9846
3.4991 -1.3383 -0.9927 0.9846
3.5367 -1.2355 -0.9927 0.9846
3.5543 -1.1837 -0.9927 0.9846
3.5712 -1.1316 -0.9927 0.9846
3.5873 -1.0793 -0.9927 0.9846
3.6027 -1.0268 -0.9927 0.9846
3.6442 -0.8679 -0.9926 0.9846
3.6564 -0.8145 -0.9926 0.9846
3.6679 -0.7610 -0.9926 0.9846
3.6787 -0.7073 -0.9926 0.9846
3.6977 -0.5995 -0.9926 0.9846
3.7204 -0.4370 -0.9926 0.9846
3.7264 -0.3825 -0.9926 0.9846
3.7316 -0.3280 -0.9926 0.9846
3.7359 -0.2735 -0.9926 0.9846
3.7395 -0.2189 -0.9926 0.9846
3.7423 -0.1642 -0.9926 0.9846
3.7459 0.0000 -0.9926 0.9846
3.7455 0.0547 -0.9926 0.9846
3.7443 0.1095 -0.9926 0.9846
3.7360 0.2734 -0.9926 0.9846
3.7316 0.3280 -0.9926 0.9846
3.7264 0.3824 -0.9926 0.9846
3.7204 0.4369 -0.9926 0.9846
3.7137 0.4912 -0.9926 0.9846
3.6886 0.6534 -0.9926 0.9846
3.6787 0.7073 -0.9926 0.9846
3.6679 0.7610 -0.9926 0.9846
3.6565 0.8145 -0.9926 0.9846
3.6173 0.9739 -0.9927 0.9846
3.6027 1.0267 -0.9927 0.9846
3.5873 1.0792 -0.9927 0.9846
3.5366 1.2354 -0.9927 0.9846
3.4792 1.3893 -0.9927 0.9846
3.4585 1.4400 -0.9927 0.9846
3.4151 1.5404 -0.9927 0.9846
3.3922 1.5902 -0.9927 0.9846
3.3687 1.6396 -0.9928 0.9846
3.3444 1.6886 -0.9928 0.9846
3.3194 1.7373 -0.9928 0.9846
3.2937 1.7857 -0.9928 0.9846
3.2123 1.9284 -0.9928 0.9846
3.1838 1.9751 -0.9928 0.9846
3.1249 2.0673 -0.9928 0.9846
3.0944 2.1128 -0.9929 0.9846
2.9321 2.3332 -0.9929 0.9846
2.8977 2.3758 -0.9929 0.9846
2.8271 2.4596 -0.9930 0.9846
2.7909 2.5007 -0.9930 0.9846
2.6788 2.6207 -0.9930 0.9846
2.6402 2.6595 -0.9930 0.9846
2.6011 2.6979 -0.9931 0.9846
2.5614 2.7356 -0.9931 0.9846
2.5213 2.7728 -0.9931 0.9846
2.4393 2.8455 -0.9931 0.9846
2.3974 2.8808 -0.9931 0.9846
2.3552 2.9156 -0.9931 0.9846
2.2690 2.9833 -0.9932 0.9846
2.2252 3.0162 -0.9932 0.9846
2.1362 3.0800 -0.9932 0.9846
2.0910 3.1109 -0.9933 0.9846
2.0454 3.1412 -0.9933 0.9846
1.9993 3.1708 -0.9933 0.9846
1.9528 3.1997 -0.9933 0.9846
1.9059 3.2280 -0.9933 0.9846
1.8585 3.2555 -0.9933 0.9846
1.7627 3.3086 -0.9934 0.9846
1.7142 3.3341 -0.9934 0.9846
1.6653 3.3588 -0.9934 0.9846
1.6161 3.3828 -0.9934 0.9846
1.5665 3.4062 -0.9935 0.9846
1.4158 3.4717 -0.9935 0.9846
1.3138 3.5118 -0.9936 0.9846
1.2624 3.5307 -0.9936 0.9846
1.2107 3.5488 -0.9936 0.9846
1.1587 3.5662 -0.9936 0.9846
1.1065 3.5828 -0.9936 0.9846
1.0541 3.5987 -0.9937 0.9846
1.0014 3.6138 -0.9937 0.9846
0.9485 3.6280 -0.9937 0.9846
0.8954 3.6416 -0.9937 0.9846
0.8421 3.6544 -0.9937 0.9846
0.7887 3.6664 -0.9938 0.9846
0.6273 3.6977 -0.9938 0.9846
0.5732 3.7065 -0.9938 0.9846
0.5190 3.7146 -0.9939 0.9846
0.4646 3.7218 -0.9939 0.9846
0.3011 3.7389 -0.9940 0.9846
0.2465 3.7430 -0.9940 0.9846
0.1370 3.7487 -0.9940 0.9846
0.0822 3.7504 -0.9940 0.9846
0.0274 3.7513 -0.9941 0.9846
-0.0274 3.7514 -0.9941 0.9846
-0.0822 3.7506 -0.9941 0.9846
-0.1371 3.7491 -0.9941 0.9846
-0.2465 3.7437 -0.9942 0.9846
-0.3558 3.7351 -0.9942 0.9846
-0.4648 3.7232 -0.9943 0.9846
-0.5192 3.7161 -0.9943 0.9846
-0.6276 3.6995 -0.9943 0.9846
-0.7354 3.6798 -0.9944 0.9846
-0.8427 3.6569 -0.9944 0.9846
-0.9492 3.6308 -0.9944 0.9846
-1.0022 3.6166 -0.9945 0.9846
-1.3664 3.4959 -0.9946 0.9846
-1.4174 3.4756 -0.9946 0.9846
-0.2998 0.6779 -0.1964 0.9969
-0.2783 0.5825 -0.1711 0.9973
-0.2812 0.5469 -0.1629 0.9975
-0.2846 0.5342 -0.1604 0.9975
-0.2879 0.5219 -0.1580 0.9975
-0.2970 0.4867 -0.1511 0.9976
-0.2998 0.4754 -0.1489 0.9977
-0.3024 0.4645 -0.1469 0.9977
-0.3076 0.4435 -0.1430 0.9978
-0.3106 0.4340 -0.1414 0.9978
-0.3161 0.4156 -0.1384 0.9978
-0.3187 0.4066 -0.1369 0.9979
-0.3237 0.3890 -0.1341 0.9979
-0.3308 0.3638 -0.1303 0.9980
-0.3330 0.3557 -0.1291 0.9980
-0.3351 0.3476 -0.1280 0.9980
-0.3400 0.3230 -0.1243 0.9981
-0.3413 0.3150 -0.1231 0.9981
-0.3439 0.2992 -0.1208 0.9981
-0.3451 0.2916 -0.1197 0.9981
-0.3463 0.2839 -0.1187 0.9981
-0.3494 0.2617 -0.1157 0.9982
-0.3503 0.2545 -0.1147 0.9982
-0.3520 0.2404 -0.1130 0.9982
-0.3536 0.2265 -0.1113 0.9983
-0.3542 0.2197 -0.1105 0.9983
-0.3549 0.2130 -0.1097 0.9983
-0.3561 0.1998 -0.1082 0.9983
-0.3575 0.1871 -0.1069 0.9983
-0.3600 0.1688 -0.1054 0.9984
-0.3627 0.1387 -0.1029 0.9984
-0.3635 0.1270 -0.1020 0.9984
-0.3645 0.1096 -0.1009 0.9984
-0.3647 0.1039 -0.1005 0.9984
-0.3652 0.0926 -0.0998 0.9984
-0.3653 0.0870 -0.0995 0.9984
-0.3655 0.0759 -0.0989 0.9985
-0.3656 0.0703 -0.0987 0.9985
-0.3656 0.0648 -0.0984 0.9985
-0.3657 0.0593 -0.0982 0.9985
-0.3656 0.0483 -0.0977 0.9985
-0.3655 0.0429 -0.0975 0.9985
-0.3651 0.0267 -0.0970 0.9985
-0.3580 -0.0053 -0.0991 0.9985
-0.3583 -0.0105 -0.0993 0.9985
-0.3585 -0.0158 -0.0994 0.9985
-0.3590 -0.0263 -0.0997 0.9985
-0.3592 -0.0369 -0.1000 0.9985
-0.3593 -0.0422 -0.1002 0.9985
-0.3594 -0.0475 -0.1004 0.9985
-0.3594 -0.0637 -0.1011 0.9985
-0.3593 -0.0691 -0.1013 0.9985
-0.3593 -0.0746 -0.1016 0.9985
-0.3588 -0.0911 -0.1025 0.9985
-0.3574 -0.1191 -0.1043 0.9984
-0.3571 -0.1248 -0.1047 0.9984
-0.3557 -0.1421 -0.1061 0.9984
-0.3546 -0.1538 -0.1070 0.9984
-0.3540 -0.1598 -0.1075 0.9984
-0.3517 -0.1777 -0.1091 0.9984
-0.3499 -0.1897 -0.1102 0.9983
-0.3491 -0.1959 -0.1108 0.9983
-0.3485 -0.2023 -0.1116 0.9983
-0.3479 -0.2088 -0.1123 0.9983
-0.3472 -0.2154 -0.1131 0.9983
-0.3449 -0.2355 -0.1156 0.9983
-0.3431 -0.2493 -0.1174 0.9982
-0.3411 -0.2634 -0.1193 0.9982
-0.3400 -0.2706 -0.1203 0.9982
-0.3377 -0.2852 -0.1224 0.9982
-0.3365 -0.2927 -0.1235 0.9982
-0.3352 -0.3003 -0.1246 0.9981
-0.3338 -0.3080 -0.1258 0.9981
-0.3324 -0.3159 -0.1269 0.9981
-0.3233 -0.3555 -0.1330 0.9980
-0.3210 -0.3635 -0.1343 0.9980
-0.3185 -0.3716 -0.1355 0.9980
-0.3161 -0.3798 -0.1368 0.9980
-0.3110 -0.3968 -0.1396 0.9979
-0.3056 -0.4143 -0.1425 0.9979
-0.2998 -0.4323 -0.1457 0.9978
-0.2968 -0.4416 -0.1473 0.9978
-0.2879 -0.4717 -0.1530 0.9977
-0.2849 -0.4826 -0.1552 0.9977
-0.2819 -0.4938 -0.1574 0.9976
-0.2787 -0.5052 -0.1597 0.9976
-0.2718 -0.5288 -0.1646 0.9975
-0.2682 -0.5409 -0.1672 0.9975
-0.2644 -0.5535 -0.1698 0.9975
-0.2604 -0.5663 -0.1726 0.9974
-0.2857 -0.7005 -0.2095 0.9969
-1.1896 -3.3270 -0.9783 0.9854
-1.1408 -3.3440 -0.9783 0.9854
-1.0918 -3.3603 -0.9783 0.9854
-0.9931 -3.3907 -0.9782 0.9854
-0.9435 -3.4047 -0.9782 0.9854
-0.7933 -3.4426 -0.9781 0.9854
-0.5908 -3.4827 -0.9781 0.9854
-0.4380 -3.5087 -0.9790 0.9854
-0.3353 -3.5198 -0.9790 0.9854
-0.2838 -3.5243 -0.9789 0.9854
-0.1291 -3.5331 -0.9789 0.9854
-0.0604 -2.7573 -0.7636 0.9886
0.1291 -3.5327 -0.9788 0.9854
0.1808 -3.5304 -0.9788 0.9854
0.2323 -3.5273 -0.9787 0.9854
0.2838 -3.5235 -0.9787 0.9854
0.3352 -3.5189 -0.9787 0.9854
0.3867 -3.5135 -0.9787 0.9854
0.4886 -3.4970 -0.9776 0.9855
0.5396 -3.4895 -0.9776 0.9855
0.5905 -3.4811 -0.9776 0.9855
0.6920 -3.4622 -0.9776 0.9855
0.7425 -3.4516 -0.9775 0.9855
0.7928 -3.4404 -0.9775 0.9855
0.8929 -3.4157 -0.9775 0.9855
1.0417 -3.3730 -0.9774 0.9855
1.0909 -3.3573 -0.9774 0.9855
1.2369 -3.3061 -0.9773 0.9855
1.2850 -3.2876 -0.9773 0.9855
1.3805 -3.2486 -0.9773 0.9855
1.4278 -3.2280 -0.9773 0.9855
1.6595 -3.1148 -0.9772 0.9855
1.8822 -2.9852 -0.9771 0.9855
1.9256 -2.9573 -0.9771 0.9855
2.0112 -2.8996 -0.9770 0.9855
2.0949 -2.8395 -0.9770 0.9855
2.1362 -2.8086 -0.9770 0.9855
2.1769 -2.7770 -0.9770 0.9855
2.2172 -2.7449 -0.9770 0.9855
2.2571 -2.7122 -0.9769 0.9855
2.3353 -2.6450 -0.9769 0.9855
2.3736 -2.6105 -0.9769 0.9855
2.4115 -2.5755 -0.9769 0.9855
2.4488 -2.5400 -0.9769 0.9855
2.4856 -2.5039 -0.9769 0.9855
2.5577 -2.4301 -0.9768 0.9855
2.5929 -2.3925 -0.9768 0.9855
2.6616 -2.3156 -0.9768 0.9855
2.7280 -2.2368 -0.9768 0.9855
2.7604 -2.1967 -0.9767 0.9855
2.7921 -2.1561 -0.9767 0.9855
2.9449 -1.9484 -0.9777 0.9855
2.9730 -1.9051 -0.9777 0.9855
3.0274 -1.8174 -0.9776 0.9855
3.1523 -1.7091 -0.9928 0.9852
3.2467 -1.5220 -0.9928 0.9852
3.3490 -1.2809 -0.9928 0.9852
3.3849 -1.1825 -0.9927 0.9852
3.4018 -1.1329 -0.9927 0.9852
3.4334 -1.0330 -0.9927 0.9852
3.4481 -0.9827 -0.9927 0.9852
3.4621 -0.9322 -0.9927 0.9852
3.4753 -0.8815 -0.9927 0.9852
3.4996 -0.7796 -0.9927 0.9852
3.5208 -0.6770 -0.9927 0.9852
3.5303 -0.6255 -0.9927 0.9852
3.5543 -0.4702 -0.9927 0.9852
3.5608 -0.4182 -0.9927 0.9852
3.5665 -0.3661 -0.9927 0.9852
3.5715 -0.3139 -0.9927 0.9852
3.5791 -0.2095 -0.9927 0.9852
3.5818 -0.1571 -0.9927 0.9852
3.5849 0.0523 -0.9927 0.9852
3.5837 0.1047 -0.9927 0.9852
3.5791 0.2094 -0.9927 0.9852
3.5757 0.2616 -0.9927 0.9852
3.5715 0.3139 -0.9927 0.9852
3.5471 0.5220 -0.9927 0.9852
3.5391 0.5737 -0.9927 0.9852
3.5106 0.7283 -0.9927 0.9852
3.4753 0.8814 -0.9927 0.9852
3.4481 0.9827 -0.9927 0.9852
3.4334 1.0330 -0.9927 0.9852
3.3490 1.2809 -0.9928 0.9852
3.3101 1.3782 -0.9928 0.9852
3.2897 1.4264 -0.9928 0.9852
3.2685 1.4743 -0.9928 0.9852
3.2467 1.5220 -0.9928 0.9852
3.2009 1.6162 -0.9928 0.9852
3.1770 1.6629 -0.9928 0.9852
3.1523 1.7091 -0.9928 0.9852
3.1271 1.7550 -0.9928 0.9852
3.1011 1.8005 -0.9929 0.9852
2.9616 2.0221 -0.9929 0.9852
2.8062 2.2331 -0.9930 0.9852
2.7733 2.2739 -0.9930 0.9852
2.7058 2.3540 -0.9930 0.9852
2.5269 2.5454 -0.9931 0.9852
2.4895 2.5821 -0.9931 0.9852
2.4515 2.6183 -0.9931 0.9852
2.4130 2.6538 -0.9931 0.9852
2.3740 2.6888 -0.9931 0.9852
2.3346 2.7233 -0.9932 0.9852
2.2946 2.7571 -0.9932 0.9852
2.2130 2.8231 -0.9932 0.9852
2.1716 2.8552 -0.9932 0.9852
2.1297 2.8867 -0.9932 0.9852
2.0873 2.9175 -0.9933 0.9852
2.0445 2.9478 -0.9933 0.9852
2.0013 2.9773 -0.9933 0.9852
1.9576 3.0063 -0.9933 0.9852
1.8240 3.0894 -0.9934 0.9852
1.7787 3.1158 -0.9934 0.9852
1.7331 3.1415 -0.9934 0.9852
1.5467 3.2376 -0.9935 0.9852
1.4992 3.2599 -0.9935 0.9852
1.4034 3.3025 -0.9935 0.9852
1.3550 3.3227 -0.9935 0.9852
1.2082 3.3791 -0.9936 0.9852
1.1587 3.3964 -0.9936 0.9852
1.0590 3.4290 -0.9937 0.9852
0.9584 3.4586 -0.9937 0.9852
0.9078 3.4723 -0.9937 0.9852
0.7548 3.5089 -0.9938 0.9852
0.6003 3.5389 -0.9938 0.9852
0.4967 3.5550 -0.9939 0.9852
0.1835 3.5853 -0.9940 0.9852
0.1312 3.5877 -0.9940 0.9852
0.0787 3.5893 -0.9940 0.9852
-0.0787 3.5895 -0.9941 0.9852
-0.1836 3.5859 -0.9941 0.9852
-0.3405 3.5746 -0.9942 0.9852
-0.4449 3.5632 -0.9942 0.9852
-0.5488 3.5488 -0.9943 0.9852
-0.6006 3.5405 -0.9943 0.9852
-0.6523 3.5314 -0.9943 0.9852
-0.7552 3.5111 -0.9944 0.9852
-0.8575 3.4876 -0.9944 0.9852
-0.9592 3.4612 -0.9944 0.9852
-1.0096 3.4469 -0.9945 0.9852
-1.0599 3.4318 -0.9945 0.9852
-1.1099 3.4160 -0.9945 0.9852
-1.1597 3.3995 -0.9945 0.9852
-1.3077 3.3456 -0.9946 0.9852
-0.2753 0.6479 -0.1949 0.9971
-0.2662 0.6017 -0.1822 0.9973
-0.2604 0.5662 -0.1726 0.9974
-0.2644 0.5534 -0.1698 0.9975
-0.2682 0.5409 -0.1672 0.9975
-0.2753 0.5168 -0.1621 0.9976
-0.2787 0.5051 -0.1597 0.9976
-0.2819 0.4937 -0.1574 0.9976
-0.2879 0.4716 -0.1530 0.9977
-0.2907 0.4610 -0.1509 0.9977
-0.2968 0.4416 -0.1473 0.9978
-0.3056 0.4142 -0.1425 0.9979
-0.3186 0.3716 -0.1355 0.9980
-0.3233 0.3555 -0.1330 0.9980
-0.3255 0.3476 -0.1319 0.9980
-0.3276 0.3398 -0.1307 0.9980
-0.3309 0.3237 -0.1282 0.9981
-0.3352 0.3003 -0.1246 0.9981
-0.3364 0.2927 -0.1235 0.9982
-0.3389 0.2778 -0.1213 0.9982
-0.3400 0.2705 -0.1203 0.9982
-0.3421 0.2562 -0.1183 0.9982
-0.3431 0.2492 -0.1174 0.9982
-0.3448 0.2354 -0.1156 0.9983
-0.3464 0.2220 -0.1139 0.9983
-0.3479 0.2088 -0.1123 0.9983
-0.3499 0.1897 -0.1102 0.9983
-0.3517 0.1776 -0.1091 0.9984
-0.3534 0.1657 -0.1081 0.9984
-0.3546 0.1538 -0.1070 0.9984
-0.3552 0.1479 -0.1065 0.9984
-0.3562 0.1362 -0.1056 0.9984
-0.3567 0.1304 -0.1052 0.9984
-0.3571 0.1247 -0.1047 0.9984
-0.3578 0.1133 -0.1039 0.9984
-0.3586 0.0965 -0.1028 0.9985
-0.3588 0.0910 -0.1025 0.9985
-0.3592 0.0800 -0.1019 0.9985
-0.3593 0.0745 -0.1016 0.9985
-0.3595 0.0582 -0.1008 0.9985
-0.3594 0.0529 -0.1006 0.9985
-0.3594 0.0475 -0.1004 0.9985
-0.3593 0.0422 -0.1002 0.9985
-0.3592 0.0368 -0.1000 0.9985
-0.3587 0.0209 -0.0995 0.9985
-0.3583 0.0104 -0.0993 0.9985
-0.3580 0.0052 -0.0991 0.9985
-0.3518 -0.0000 -0.1016 0.9985
-0.3526 -0.0155 -0.1019 0.9985
-0.3528 -0.0207 -0.1021 0.9985
-0.3530 -0.0259 -0.1022 0.9985
-0.3531 -0.0311 -0.1024 0.9985
-0.3532 -0.0362 -0.1026 0.9985
-0.3534 -0.0573 -0.1034 0.9985
-0.3533 -0.0680 -0.1039 0.9985
-0.3530 -0.0787 -0.1045 0.9985
-0.3527 -0.0895 -0.1051 0.9985
-0.3525 -0.0949 -0.1054 0.9985
-0.3522 -0.1004 -0.1058 0.9985
-0.3519 -0.1059 -0.1061 0.9985
-0.3508 -0.1226 -0.1073 0.9985
-0.3504 -0.1282 -0.1078 0.9984
-0.3483 -0.1511 -0.1097 0.9984
-0.3477 -0.1569 -0.1102 0.9984
-0.3471 -0.1627 -0.1107 0.9984
-0.3444 -0.1803 -0.1123 0.9984
-0.3434 -0.1863 -0.1128 0.9984
-0.3411 -0.2048 -0.1149 0.9983
-0.3396 -0.2176 -0.1165 0.9983
-0.3361 -0.2442 -0.1200 0.9983
-0.3351 -0.2510 -0.1209 0.9983
-0.3340 -0.2579 -0.1219 0.9982
-0.3305 -0.2792 -0.1250 0.9982
-0.3279 -0.2938 -0.1272 0.9982
-0.3265 -0.3013 -0.1283 0.9982
-0.3251 -0.3089 -0.1295 0.9981
-0.3235 -0.3166 -0.1307 0.9981
-0.3220 -0.3243 -0.1320 0.9981
-0.3183 -0.3399 -0.1345 0.9981
-0.3088 -0.3711 -0.1394 0.9980
-0.3036 -0.3873 -0.1422 0.9980
-0.2954 -0.4129 -0.1466 0.9979
-0.2924 -0.4216 -0.1482 0.9979
-0.2894 -0.4305 -0.1498 0.9978
-0.2862 -0.4396 -0.1515 0.9978
-0.2795 -0.4581 -0.1550 0.9978
-0.2699 -0.4893 -0.1614 0.9977
-0.2630 -0.5116 -0.1662 0.9976
-0.2594 -0.5232 -0.1687 0.9976
-0.2556 -0.5350 -0.1713 0.9975
-0.2475 -0.5595 -0.1767 0.9975
-0.2457 -0.5781 -0.1814 0.9974
-0.2529 -0.6201 -0.1934 0.9972
-0.2609 -0.6676 -0.2070 0.9970
-1.1403 -3.1891 -0.9783 0.9860
-1.0466 -3.2210 -0.9782 0.9860
-0.9519 -3.2501 -0.9782 0.9860
-0.8565 -3.2764 -0.9782 0.9860
-0.8086 -3.2885 -0.9781 0.9860
-0.5663 -3.3384 -0.9781 0.9860
-0.4685 -3.3534 -0.9780 0.9860
-0.3703 -3.3655 -0.9780 0.9860
-0.2224 -3.3783 -0.9779 0.9860
-0.1730 -3.3811 -0.9779 0.9860
-0.1237 -3.3832 -0.9779 0.9860
-0.0605 -2.7573 -0.7966 0.9886
-0.0247 -3.3852 -0.9778 0.9860
0.1731 -3.3807 -0.9778 0.9860
0.3210 -3.3696 -0.9777 0.9860
0.3702 -3.3645 -0.9777 0.9860
0.4193 -3.3587 -0.9777 0.9860
0.5173 -3.3448 -0.9776 0.9860
0.5661 -3.3369 -0.9776 0.9860
0.6147 -3.3282 -0.9776 0.9860
0.6633 -3.3188 -0.9776 0.9860
0.8081 -3.2863 -0.9775 0.9860
0.8560 -3.2741 -0.9775 0.9860
0.9986 -3.2333 -0.9774 0.9860
1.0457 -3.2183 -0.9774 0.9860
1.0926 -3.2026 -0.9774 0.9860
1.1392 -3.1862 -0.9774 0.9860
1.2777 -3.1331 -0.9773 0.9860
1.4137 -3.0739 -0.9773 0.9860
1.5470 -3.0088 -0.9772 0.9860
1.6342 -2.9623 -0.9772 0.9860
1.7623 -2.8877 -0.9771 0.9860
1.8458 -2.8348 -0.9771 0.9860
1.8871 -2.8075 -0.9771 0.9860
1.9278 -2.7796 -0.9771 0.9860
1.9682 -2.7511 -0.9771 0.9860
2.0082 -2.7220 -0.9770 0.9860
2.0868 -2.6621 -0.9770 0.9860
2.1254 -2.6312 -0.9770 0.9860
2.2386 -2.5355 -0.9770 0.9860
2.3117 -2.4689 -0.9769 0.9860
2.3827 -2.4002 -0.9769 0.9860
2.4175 -2.3651 -0.9769 0.9860
2.4518 -2.3295 -0.9769 0.9860
2.4855 -2.2934 -0.9769 0.9860
2.5514 -2.2197 -0.9768 0.9860
2.5836 -2.1822 -0.9768 0.9860
2.7065 -2.0275 -0.9768 0.9860
2.7358 -1.9877 -0.9768 0.9860
2.7673 -1.9495 -0.9777 0.9860
2.7955 -1.9088 -0.9777 0.9860
2.8230 -1.8677 -0.9777 0.9860
2.9728 -1.7260 -0.9929 0.9858
3.0219 -1.6384 -0.9929 0.9858
3.0455 -1.5941 -0.9929 0.9858
3.0907 -1.5043 -0.9929 0.9858
3.1536 -1.3675 -0.9928 0.9858
3.1732 -1.3212 -0.9928 0.9858
3.2104 -1.2279 -0.9928 0.9858
3.2765 -1.0382 -0.9928 0.9858
3.2913 -0.9902 -0.9928 0.9858
3.3188 -0.8937 -0.9928 0.9858
3.3315 -0.8450 -0.9928 0.9858
3.3435 -0.7963 -0.9928 0.9858
3.3751 -0.6490 -0.9927 0.9858
3.3843 -0.5996 -0.9927 0.9858
3.4003 -0.5004 -0.9927 0.9858
3.4134 -0.4009 -0.9927 0.9858
3.4189 -0.3509 -0.9927 0.9858
3.4310 -0.2008 -0.9927 0.9858
3.4354 -0.1005 -0.9927 0.9858
3.4365 0.0502 -0.9927 0.9858
3.4354 0.1004 -0.9927 0.9858
3.4310 0.2007 -0.9927 0.9858
3.4278 0.2509 -0.9927 0.9858
3.4237 0.3009 -0.9927 0.9858
3.4135 0.4008 -0.9927 0.9858
3.4072 0.4506 -0.9927 0.9858
3.3751 0.6489 -0.9927 0.9858
3.3653 0.6982 -0.9928 0.9858
3.3547 0.7473 -0.9928 0.9858
3.3435 0.7962 -0.9928 0.9858
3.3188 0.8936 -0.9928 0.9858
3.2913 0.9902 -0.9928 0.9858
3.2765 1.0382 -0.9928 0.9858
3.2279 1.1808 -0.9928 0.9858
3.2104 1.2279 -0.9928 0.9858
3.1921 1.2746 -0.9928 0.9858
3.1732 1.3211 -0.9928 0.9858
3.1536 1.3673 -0.9928 0.9858
3.1123 1.4589 -0.9929 0.9858
3.0684 1.5493 -0.9929 0.9858
2.9728 1.7260 -0.9929 0.9858
2.9473 1.7692 -0.9929 0.9858
2.9212 1.8121 -0.9929 0.9858
2.8944 1.8546 -0.9929 0.9858
2.8670 1.8968 -0.9929 0.9858
2.8390 1.9385 -0.9930 0.9858
2.8104 1.9797 -0.9930 0.9858
2.7812 2.0207 -0.9930 0.9858
2.5938 2.2566 -0.9931 0.9858
2.5606 2.2943 -0.9931 0.9858
2.5268 2.3315 -0.9931 0.9858
2.4925 2.3682 -0.9931 0.9858
2.4577 2.4044 -0.9931 0.9858
2.4223 2.4401 -0.9931 0.9858
2.3864 2.4752 -0.9931 0.9858
2.3132 2.5440 -0.9932 0.9858
2.2757 2.5775 -0.9932 0.9858
2.1607 2.6749 -0.9932 0.9858
2.1214 2.7062 -0.9932 0.9858
2.0817 2.7370 -0.9933 0.9858
1.9599 2.8257 -0.9933 0.9858
1.8765 2.8819 -0.9933 0.9858
1.7051 2.9868 -0.9934 0.9858
1.6171 3.0354 -0.9934 0.9858
1.5278 3.0815 -0.9935 0.9858
1.4826 3.1035 -0.9935 0.9858
1.4371 3.1249 -0.9935 0.9858
1.3453 3.1657 -0.9935 0.9858
1.2053 3.2218 -0.9936 0.9858
1.0630 3.2716 -0.9937 0.9858
1.0151 3.2870 -0.9937 0.9858
0.9187 3.3153 -0.9937 0.9858
0.8702 3.3285 -0.9937 0.9858
0.8215 3.3409 -0.9937 0.9858
0.7726 3.3526 -0.9938 0.9858
0.7235 3.3636 -0.9938 0.9858
0.4761 3.4077 -0.9939 0.9858
0.4263 3.4144 -0.9939 0.9858
0.3763 3.4203 -0.9939 0.9858
0.0754 3.4406 -0.9940 0.9858
-0.0251 3.4414 -0.9941 0.9858
-0.1257 3.4394 -0.9941 0.9858
-0.3764 3.4214 -0.9942 0.9858
-0.4264 3.4155 -0.9942 0.9858
-0.5260 3.4018 -0.9943 0.9858
-0.6253 3.3851 -0.9943 0.9858
-0.6747 3.3757 -0.9943 0.9858
-0.9193 3.3177 -0.9944 0.9858
-1.0159 3.2896 -0.9945 0.9858
-1.1592 3.2420 -0.9945 0.9858
-0.2528 0.6200 -0.1934 0.9972
-0.2456 0.5780 -0.1814 0.9974
-0.2475 0.5594 -0.1767 0.9975
-0.2594 0.5231 -0.1687 0.9976
-0.2630 0.5116 -0.1662 0.9976
-0.2665 0.5003 -0.1637 0.9976
-0.2762 0.4678 -0.1569 0.9977
-0.2795 0.4580 -0.1550 0.9978
-0.2862 0.4395 -0.1515 0.9978
-0.2893 0.4305 -0.1498 0.9978
-0.2924 0.4216 -0.1482 0.9979
-0.2954 0.4128 -0.1466 0.9979
-0.2982 0.4042 -0.1451 0.9979
-0.3010 0.3957 -0.1436 0.9979
-0.3037 0.3873 -0.1422 0.9980
-0.3062 0.3791 -0.1408 0.9980
-0.3088 0.3710 -0.1394 0.9980
-0.3113 0.3631 -0.1382 0.9980
-0.3137 0.3553 -0.1369 0.9980
-0.3220 0.3243 -0.1320 0.9981
-0.3279 0.2938 -0.1272 0.9982
-0.3305 0.2791 -0.1250 0.9982
-0.3317 0.2720 -0.1239 0.9982
-0.3351 0.2510 -0.1209 0.9983
-0.3361 0.2441 -0.1200 0.9983
-0.3396 0.2176 -0.1165 0.9983
-0.3417 0.1984 -0.1141 0.9984
-0.3424 0.1921 -0.1134 0.9984
-0.3435 0.1862 -0.1128 0.9984
-0.3444 0.1802 -0.1123 0.9984
-0.3453 0.1744 -0.1117 0.9984
-0.3462 0.1685 -0.1112 0.9984
-0.3477 0.1568 -0.1102 0.9984
-0.3494 0.1395 -0.1087 0.9984
-0.3504 0.1282 -0.1078 0.9984
-0.3512 0.1170 -0.1069 0.9985
-0.3516 0.1114 -0.1065 0.9985
-0.3522 0.1004 -0.1058 0.9985
-0.3534 0.0520 -0.1032 0.9985
-0.3534 0.0467 -0.1030 0.9985
-0.3531 0.0310 -0.1024 0.9985
-0.3529 0.0258 -0.1022 0.9985
-0.3466 -0.0102 -0.1043 0.9986
-0.3468 -0.0152 -0.1045 0.9986
-0.3470 -0.0204 -0.1046 0.9985
-0.3472 -0.0254 -0.1047 0.9985
-0.3473 -0.0305 -0.1049 0.9985
-0.3475 -0.0409 -0.1053 0.9985
-0.3471 -0.0774 -0.1070 0.9985
-0.3462 -0.0987 -0.1083 0.9985
-0.3455 -0.1095 -0.1091 0.9985
-0.3452 -0.1150 -0.1095 0.9985
-0.3438 -0.1315 -0.1108 0.9985
-0.3433 -0.1371 -0.1112 0.9985
-0.3428 -0.1427 -0.1117 0.9985
-0.3422 -0.1484 -0.1122 0.9984
-0.3408 -0.1598 -0.1133 0.9984
-0.3362 -0.1887 -0.1160 0.9984
-0.3352 -0.1946 -0.1166 0.9984
-0.3329 -0.2134 -0.1190 0.9983
-0.3321 -0.2198 -0.1198 0.9983
-0.3312 -0.2262 -0.1207 0.9983
-0.3303 -0.2327 -0.1216 0.9983
-0.3272 -0.2527 -0.1244 0.9983
-0.3261 -0.2595 -0.1254 0.9983
-0.3236 -0.2733 -0.1275 0.9982
-0.3223 -0.2804 -0.1285 0.9982
-0.3209 -0.2876 -0.1297 0.9982
-0.3195 -0.2948 -0.1308 0.9982
-0.3180 -0.3021 -0.1320 0.9982
-0.3132 -0.3248 -0.1358 0.9981
-0.3113 -0.3325 -0.1371 0.9981
-0.3091 -0.3399 -0.1382 0.9981
-0.3043 -0.3550 -0.1407 0.9980
-0.2938 -0.3864 -0.1461 0.9980
-0.2911 -0.3946 -0.1475 0.9980
-0.2882 -0.4029 -0.1491 0.9979
-0.2853 -0.4114 -0.1506 0.9979
-0.2724 -0.4465 -0.1574 0.9978
-0.2654 -0.4648 -0.1610 0.9978
-0.2583 -0.4848 -0.1653 0.9977
-0.2547 -0.4955 -0.1676 0.9977
-0.2511 -0.5065 -0.1701 0.9976
-0.2473 -0.5177 -0.1726 0.9976
-0.2433 -0.5291 -0.1752 0.9976
-0.2392 -0.5408 -0.1779 0.9975
-1.0497 -3.0771 -0.9782 0.9865
-1.0046 -3.0920 -0.9782 0.9865
-0.9593 -3.1063 -0.9782 0.9865
-0.9138 -3.1199 -0.9782 0.9865
-0.8681 -3.1329 -0.9782 0.9865
-0.8222 -3.1452 -0.9782 0.9865
-0.7762 -3.1568 -0.9781 0.9865
-0.7300 -3.1677 -0.9781 0.9865
-0.6836 -3.1780 -0.9781 0.9865
-0.6371 -3.1876 -0.9781 0.9865
-0.5904 -3.1965 -0.9781 0.9865
-0.5436 -3.2047 -0.9780 0.9865
-0.4968 -3.2123 -0.9780 0.9865
-0.3555 -3.2307 -0.9780 0.9865
-0.3083 -3.2355 -0.9780 0.9865
-0.1661 -3.2458 -0.9779 0.9865
-0.0237 -3.2498 -0.9778 0.9865
0.0237 -3.2497 -0.9778 0.9865
0.1187 -3.2475 -0.9778 0.9865
0.2135 -3.2425 -0.9777 0.9865
0.2609 -3.2390 -0.9777 0.9865
0.3081 -3.2348 -0.9777 0.9865
0.4025 -3.2243 -0.9777 0.9865
0.4496 -3.2180 -0.9777 0.9865
0.4966 -3.2110 -0.9776 0.9865
0.5901 -3.1950 -0.9776 0.9865
0.6368 -3.1859 -0.9776 0.9865
0.6832 -3.1762 -0.9776 0.9865
0.7295 -3.1659 -0.9775 0.9865
0.7757 -3.1548 -0.9775 0.9865
0.9132 -3.1177 -0.9775 0.9865
0.9586 -3.1039 -0.9775 0.9865
1.0038 -3.0895 -0.9774 0.9865
1.0488 -3.0745 -0.9774 0.9865
1.0937 -3.0587 -0.9774 0.9865
1.1825 -3.0254 -0.9774 0.9865
1.4001 -2.9307 -0.9773 0.9865
1.4428 -2.9099 -0.9773 0.9865
1.5271 -2.8664 -0.9772 0.9865
1.5688 -2.8438 -0.9772 0.9865
1.6101 -2.8205 -0.9772 0.9865
1.6918 -2.7722 -0.9772 0.9865
1.7321 -2.7471 -0.9772 0.9865
1.7720 -2.7214 -0.9771 0.9865
1.8507 -2.6684 -0.9771 0.9865
1.9279 -2.6131 -0.9771 0.9865
1.9658 -2.5846 -0.9771 0.9865
2.0033 -2.5555 -0.9770 0.9865
2.0771 -2.4959 -0.9770 0.9865
2.1133 -2.4653 -0.9770 0.9865
2.1491 -2.4341 -0.9770 0.9865
2.2536 -2.3375 -0.9769 0.9865
2.2874 -2.3043 -0.9769 0.9865
2.3537 -2.2364 -0.9769 0.9865
2.3862 -2.2017 -0.9769 0.9865
2.4180 -2.1666 -0.9769 0.9865
2.4494 -2.1310 -0.9769 0.9865
2.5403 -2.0215 -0.9768 0.9865
2.5696 -1.9842 -0.9768 0.9865
2.6009 -1.9484 -0.9778 0.9865
2.6291 -1.9102 -0.9778 0.9865
2.6567 -1.8715 -0.9778 0.9865
2.6837 -1.8325 -0.9778 0.9865
2.7787 -1.7805 -0.9930 0.9863
2.8294 -1.6985 -0.9930 0.9863
2.8539 -1.6570 -0.9930 0.9863
2.9457 -1.4874 -0.9929 0.9863
2.9671 -1.4442 -0.9929 0.9863
3.0080 -1.3568 -0.9929 0.9863
3.0275 -1.3127 -0.9929 0.9863
3.0463 -1.2684 -0.9929 0.9863
3.0645 -1.2237 -0.9929 0.9863
3.1455 -0.9967 -0.9928 0.9863
3.1597 -0.9507 -0.9928 0.9863
3.1733 -0.9044 -0.9928 0.9863
3.1983 -0.8113 -0.9928 0.9863
3.2098 -0.7645 -0.9928 0.9863
3.2206 -0.7174 -0.9928 0.9863
3.2308 -0.6703 -0.9928 0.9863
3.2402 -0.6230 -0.9928 0.9863
3.2489 -0.5756 -0.9928 0.9863
3.2570 -0.5281 -0.9928 0.9863
3.2710 -0.4327 -0.9928 0.9863
3.2770 -0.3848 -0.9928 0.9863
3.2822 -0.3370 -0.9928 0.9863
3.2938 -0.1928 -0.9928 0.9863
3.2963 -0.1446 -0.9928 0.9863
3.2981 -0.0965 -0.9928 0.9863
3.2991 -0.0483 -0.9928 0.9863
3.2995 0.0000 -0.9928 0.9863
3.2980 0.0964 -0.9928 0.9863
3.2963 0.1446 -0.9928 0.9863
3.2938 0.1927 -0.9928 0.9863
3.2907 0.2408 -0.9928 0.9863
3.2770 0.3848 -0.9928 0.9863
3.2710 0.4326 -0.9928 0.9863
3.2643 0.4804 -0.9928 0.9863
3.2570 0.5280 -0.9928 0.9863
3.2489 0.5756 -0.9928 0.9863
3.2402 0.6230 -0.9928 0.9863
3.2206 0.7174 -0.9928 0.9863
3.2098 0.7644 -0.9928 0.9863
3.1861 0.8578 -0.9928 0.9863
3.1598 0.9505 -0.9928 0.9863
3.1151 1.0882 -0.9929 0.9863
3.0989 1.1336 -0.9929 0.9863
3.0463 1.2683 -0.9929 0.9863
3.0275 1.3127 -0.9929 0.9863
2.9457 1.4873 -0.9929 0.9863
2.9011 1.5728 -0.9929 0.9863
2.8043 1.7397 -0.9930 0.9863
2.7786 1.7805 -0.9930 0.9863
2.7255 1.8610 -0.9930 0.9863
2.6980 1.9006 -0.9930 0.9863
2.6414 1.9787 -0.9930 0.9863
2.5523 2.0926 -0.9931 0.9863
2.5214 2.1296 -0.9931 0.9863
2.4582 2.2025 -0.9931 0.9863
2.4258 2.2382 -0.9931 0.9863
2.3928 2.2734 -0.9931 0.9863
2.3254 2.3424 -0.9932 0.9863
2.2560 2.4095 -0.9932 0.9863
2.2207 2.4422 -0.9932 0.9863
2.1484 2.5061 -0.9932 0.9863
2.0743 2.5679 -0.9933 0.9863
2.0366 2.5980 -0.9933 0.9863
1.9985 2.6275 -0.9933 0.9863
1.9209 2.6848 -0.9933 0.9863
1.8815 2.7127 -0.9933 0.9863
1.6786 2.8430 -0.9934 0.9863
1.5948 2.8909 -0.9934 0.9863
1.5525 2.9140 -0.9935 0.9863
1.4667 2.9582 -0.9935 0.9863
1.4233 2.9794 -0.9935 0.9863
1.3797 2.9999 -0.9935 0.9863
1.2915 3.0390 -0.9936 0.9863
1.2021 3.0756 -0.9936 0.9863
1.0205 3.1408 -0.9937 0.9863
0.8354 3.1953 -0.9937 0.9863
0.7886 3.2072 -0.9938 0.9863
0.6946 3.2290 -0.9938 0.9863
0.5524 3.2565 -0.9939 0.9863
0.4092 3.2778 -0.9939 0.9863
0.2171 3.2963 -0.9940 0.9863
0.1689 3.2992 -0.9940 0.9863
0.1206 3.3014 -0.9940 0.9863
0.0724 3.3029 -0.9940 0.9863
0.0241 3.3036 -0.9941 0.9863
-0.0241 3.3037 -0.9941 0.9863
-0.1207 3.3017 -0.9941 0.9863
-0.2653 3.2934 -0.9942 0.9863
-0.3133 3.2893 -0.9942 0.9863
-0.3614 3.2844 -0.9942 0.9863
-0.4572 3.2725 -0.9942 0.9863
-0.5050 3.2655 -0.9943 0.9863
-0.6476 3.2405 -0.9943 0.9863
-0.8825 3.1849 -0.9944 0.9863
-1.0213 3.1433 -0.9945 0.9863
-0.2451 0.6854 -0.2190 0.9970
-0.2321 0.5939 -0.1919 0.9973
-0.2349 0.5527 -0.1807 0.9975
-0.2433 0.5290 -0.1752 0.9976
-0.2511 0.5064 -0.1701 0.9976
-0.2583 0.4847 -0.1653 0.9977
-0.2724 0.4464 -0.1574 0.9978
-0.2791 0.4286 -0.1539 0.9979
-0.2822 0.4198 -0.1522 0.9979
-0.2853 0.4113 -0.1506 0.9979
-0.2882 0.4029 -0.1491 0.9979
-0.2911 0.3945 -0.1475 0.9980
-0.2966 0.3783 -0.1446 0.9980
-0.3018 0.3627 -0.1420 0.9980
-0.3043 0.3550 -0.1407 0.9980
-0.3113 0.3325 -0.1371 0.9981
-0.3148 0.3171 -0.1345 0.9981
-0.3165 0.3096 -0.1332 0.9982
-0.3180 0.3021 -0.1320 0.9982
-0.3195 0.2948 -0.1308 0.9982
-0.3209 0.2876 -0.1297 0.9982
-0.3223 0.2804 -0.1285 0.9982
-0.3249 0.2663 -0.1264 0.9982
-0.3293 0.2392 -0.1225 0.9983
-0.3303 0.2327 -0.1216 0.9983
-0.3312 0.2261 -0.1207 0.9983
-0.3329 0.2133 -0.1190 0.9983
-0.3352 0.1946 -0.1166 0.9984
-0.3372 0.1828 -0.1154 0.9984
-0.3391 0.1712 -0.1143 0.9984
-0.3421 0.1483 -0.1122 0.9984
-0.3438 0.1314 -0.1108 0.9985
-0.3443 0.1259 -0.1103 0.9985
-0.3455 0.1095 -0.1091 0.9985
-0.3467 0.0879 -0.1076 0.9985
-0.3469 0.0826 -0.1073 0.9985
-0.3471 0.0773 -0.1070 0.9985
-0.3472 0.0720 -0.1067 0.9985
-0.3475 0.0615 -0.1062 0.9985
-0.3475 0.0563 -0.1059 0.9985
-0.3475 0.0459 -0.1055 0.9985
-0.3475 0.0408 -0.1053 0.9985
-0.3474 0.0356 -0.1051 0.9985
-0.3473 0.0305 -0.1049 0.9985
-0.3468 0.0152 -0.1045 0.9986
-0.3466 0.0101 -0.1043 0.9986
-0.3463 0.0050 -0.1042 0.9986
-0.3404 -0.0000 -0.1066 0.9986
-0.3407 -0.0050 -0.1067 0.9986
-0.3409 -0.0100 -0.1068 0.9986
-0.3417 -0.0351 -0.1075 0.9986
-0.3418 -0.0402 -0.1077 0.9986
-0.3418 -0.0555 -0.1084 0.9985
-0.3417 -0.0605 -0.1086 0.9985
-0.3415 -0.0709 -0.1092 0.9985
-0.3413 -0.0761 -0.1095 0.9985
-0.3411 -0.0812 -0.1098 0.9985
-0.3406 -0.0918 -0.1104 0.9985
-0.3397 -0.1077 -0.1115 0.9985
-0.3393 -0.1130 -0.1119 0.9985
-0.3388 -0.1184 -0.1124 0.9985
-0.3379 -0.1293 -0.1132 0.9985
-0.3374 -0.1348 -0.1137 0.9985
-0.3362 -0.1458 -0.1147 0.9985
-0.3340 -0.1626 -0.1163 0.9984
-0.3330 -0.1682 -0.1168 0.9984
-0.3311 -0.1795 -0.1179 0.9984
-0.3273 -0.2031 -0.1206 0.9984
-0.3257 -0.2155 -0.1222 0.9984
-0.3228 -0.2345 -0.1249 0.9983
-0.3217 -0.2410 -0.1258 0.9983
-0.3194 -0.2542 -0.1278 0.9983
-0.3142 -0.2815 -0.1321 0.9982
-0.3112 -0.2957 -0.1344 0.9982
-0.3096 -0.3030 -0.1356 0.9982
-0.3063 -0.3177 -0.1381 0.9982
-0.3000 -0.3398 -0.1419 0.9981
-0.2951 -0.3546 -0.1444 0.9981
-0.2871 -0.3775 -0.1484 0.9980
-0.2814 -0.3934 -0.1514 0.9980
-0.2785 -0.4015 -0.1529 0.9980
-0.2722 -0.4182 -0.1562 0.9979
-0.2690 -0.4267 -0.1579 0.9979
-0.2548 -0.4620 -0.1652 0.9978
-0.2510 -0.4712 -0.1671 0.9978
-0.2471 -0.4805 -0.1691 0.9977
-0.2433 -0.4907 -0.1714 0.9977
-0.2355 -0.5121 -0.1764 0.9976
-0.2314 -0.5231 -0.1790 0.9976
-0.2226 -0.5460 -0.1846 0.9975
-0.2180 -0.5577 -0.1874 0.9975
-0.2132 -0.5699 -0.1904 0.9975
-0.2225 -0.6521 -0.2157 0.9971
-0.9222 -2.9859 -0.9782 0.9870
-0.8784 -2.9990 -0.9782 0.9870
-0.7461 -3.0345 -0.9781 0.9870
-0.6124 -3.0641 -0.9781 0.9870
-0.5226 -3.0805 -0.9780 0.9870
-0.4323 -3.0945 -0.9780 0.9870
-0.3871 -3.1003 -0.9780 0.9870
-0.3417 -3.1056 -0.9780 0.9870
-0.1597 -3.1200 -0.9779 0.9870
-0.0228 -3.1239 -0.9778 0.9870
0.1141 -3.1217 -0.9778 0.9870
0.1597 -3.1196 -0.9778 0.9870
0.2508 -3.1136 -0.9777 0.9870
0.3870 -3.0994 -0.9777 0.9870
0.4322 -3.0934 -0.9777 0.9870
0.5673 -3.0712 -0.9776 0.9870
0.6568 -3.0533 -0.9776 0.9870
0.7457 -3.0327 -0.9775 0.9870
0.7899 -3.0214 -0.9775 0.9870
0.8339 -3.0095 -0.9775 0.9870
0.9215 -2.9837 -0.9775 0.9870
0.9650 -2.9699 -0.9775 0.9870
1.0083 -2.9554 -0.9774 0.9870
1.0513 -2.9403 -0.9774 0.9870
1.1367 -2.9082 -0.9774 0.9870
1.2630 -2.8555 -0.9773 0.9870
1.3046 -2.8367 -0.9773 0.9870
1.5080 -2.7337 -0.9772 0.9870
1.5478 -2.7113 -0.9772 0.9870
1.5872 -2.6884 -0.9772 0.9870
1.6650 -2.6407 -0.9772 0.9870
1.7414 -2.5909 -0.9771 0.9870
1.9258 -2.4567 -0.9771 0.9870
1.9615 -2.4282 -0.9771 0.9870
1.9967 -2.3993 -0.9770 0.9870
2.1333 -2.2784 -0.9770 0.9870
2.2627 -2.1498 -0.9769 0.9870
2.3842 -2.0139 -0.9769 0.9870
2.4134 -1.9788 -0.9769 0.9870
2.5273 -1.8362 -0.9778 0.9870
2.6200 -1.7889 -0.9930 0.9868
2.6711 -1.7116 -0.9930 0.9868
2.6958 -1.6724 -0.9930 0.9868
2.7199 -1.6328 -0.9930 0.9868
2.7435 -1.5929 -0.9930 0.9868
2.7664 -1.5526 -0.9930 0.9868
2.8317 -1.4298 -0.9930 0.9868
2.8723 -1.3465 -0.9929 0.9868
2.9285 -1.2193 -0.9929 0.9868
2.9459 -1.1763 -0.9929 0.9868
2.9628 -1.1332 -0.9929 0.9868
2.9790 -1.0898 -0.9929 0.9868
2.9945 -1.0462 -0.9929 0.9868
3.0095 -1.0023 -0.9929 0.9868
3.0238 -0.9582 -0.9929 0.9868
3.0505 -0.8694 -0.9929 0.9868
3.0629 -0.8247 -0.9929 0.9868
3.0856 -0.7348 -0.9929 0.9868
3.0960 -0.6897 -0.9929 0.9868
3.1232 -0.5534 -0.9928 0.9868
3.1310 -0.5077 -0.9928 0.9868
3.1381 -0.4619 -0.9928 0.9868
3.1597 -0.2777 -0.9928 0.9868
3.1715 -0.0464 -0.9928 0.9868
3.1718 -0.0000 -0.9928 0.9868
3.1715 0.0463 -0.9928 0.9868
3.1597 0.2777 -0.9928 0.9868
3.1553 0.3238 -0.9928 0.9868
3.1380 0.4618 -0.9928 0.9868
3.1232 0.5533 -0.9928 0.9868
3.1058 0.6443 -0.9929 0.9868
3.0856 0.7348 -0.9929 0.9868
3.0505 0.8693 -0.9929 0.9868
3.0375 0.9138 -0.9929 0.9868
3.0238 0.9581 -0.9929 0.9868
2.9946 1.0461 -0.9929 0.9868
2.9790 1.0897 -0.9929 0.9868
2.9460 1.1763 -0.9929 0.9868
2.9284 1.2192 -0.9929 0.9868
2.9103 1.2619 -0.9929 0.9868
2.8723 1.3464 -0.9929 0.9868
2.8523 1.3883 -0.9930 0.9868
2.8317 1.4298 -0.9930 0.9868
2.7664 1.5525 -0.9930 0.9868
2.7435 1.5928 -0.9930 0.9868
2.7199 1.6327 -0.9930 0.9868
2.6958 1.6724 -0.9930 0.9868
2.6711 1.7116 -0.9930 0.9868
2.6458 1.7505 -0.9930 0.9868
2.6200 1.7889 -0.9930 0.9868
2.5936 1.8270 -0.9931 0.9868
2.5667 1.8648 -0.9931 0.9868
2.5392 1.9021 -0.9931 0.9868
2.4535 2.0116 -0.9931 0.9868
2.4238 2.0472 -0.9931 0.9868
2.3937 2.0825 -0.9931 0.9868
2.3630 2.1172 -0.9931 0.9868
2.3002 2.1855 -0.9932 0.9868
2.2354 2.2518 -0.9932 0.9868
2.0653 2.4091 -0.9933 0.9868
2.0298 2.4391 -0.9933 0.9868
1.9940 2.4686 -0.9933 0.9868
1.9578 2.4974 -0.9933 0.9868
1.9211 2.5258 -0.9933 0.9868
1.8086 2.6077 -0.9934 0.9868
1.7704 2.6339 -0.9934 0.9868
1.7317 2.6595 -0.9934 0.9868
1.6927 2.6845 -0.9934 0.9868
1.6136 2.7330 -0.9934 0.9868
1.5331 2.7790 -0.9935 0.9868
1.4924 2.8012 -0.9935 0.9868
1.4513 2.8227 -0.9935 0.9868
1.3682 2.8640 -0.9935 0.9868
1.3262 2.8837 -0.9936 0.9868
1.2840 2.9029 -0.9936 0.9868
1.1556 2.9565 -0.9936 0.9868
0.9810 3.0192 -0.9937 0.9868
0.9368 3.0332 -0.9937 0.9868
0.7129 3.0938 -0.9938 0.9868
0.5767 3.1223 -0.9938 0.9868
0.4853 3.1379 -0.9939 0.9868
0.4394 3.1447 -0.9939 0.9868
0.3934 3.1508 -0.9939 0.9868
0.3473 3.1562 -0.9939 0.9868
0.3012 3.1611 -0.9940 0.9868
0.2087 3.1686 -0.9940 0.9868
0.0232 3.1757 -0.9941 0.9868
-0.0232 3.1757 -0.9941 0.9868
-0.0696 3.1751 -0.9941 0.9868
-0.1160 3.1737 -0.9941 0.9868
-0.2550 3.1659 -0.9942 0.9868
-0.3012 3.1618 -0.9942 0.9868
-0.5312 3.1317 -0.9943 0.9868
