ply
format ascii 1.0
element vertex 1556
property float32 x
property float32 y
property float32 z
property float32 I
end_header
-0.8032 0.1302 0.0056 0.9968
-0.8005 0.1178 0.0056 0.9968
-0.7978 0.1055 0.0056 0.9968
-0.7899 0.0694 0.0055 0.9968
-0.7874 0.0576 0.0055 0.9968
-0.7848 0.0459 0.0054 0.9969
-0.7823 0.0343 0.0054 0.9969
-0.7403 -0.0108 -0.0031 0.9970
-0.7448 -0.0327 -0.0031 0.9970
-0.7470 -0.0437 -0.0031 0.9970
-0.7493 -0.0548 -0.0031 0.9970
-0.7562 -0.0888 -0.0032 0.9970
-0.7632 -0.1237 -0.0032 0.9969
-0.7656 -0.1356 -0.0032 0.9969
-0.7680 -0.1477 -0.0032 0.9969
-0.7769 -0.1850 -0.0033 0.9968
-0.7798 -0.2100 -0.0034 0.9968
-0.7829 -0.2355 -0.0034 0.9967
-0.7868 -0.2493 -0.0034 0.9967
-0.7948 -0.2777 -0.0035 0.9966
-0.7989 -0.2923 -0.0035 0.9966
-0.8074 -0.3224 -0.0036 0.9965
-0.8118 -0.3380 -0.0037 0.9965
-0.8163 -0.3539 -0.0037 0.9964
-0.8207 -0.3702 -0.0037 0.9964
-0.8244 -0.3865 -0.0038 0.9964
-0.8360 -0.4376 -0.0039 0.9962
-0.8401 -0.4555 -0.0040 0.9962
-0.8442 -0.4738 -0.0040 0.9961
-0.8485 -0.4927 -0.0041 0.9961
-0.8486 -0.5264 -0.0041 0.9960
-15.9917 -11.6187 -0.0821 0.9240
-12.6833 -9.5012 -0.0659 0.9386
-11.5029 -9.1537 -0.0611 0.9429
-11.4292 -9.6536 -0.0622 0.9419
-10.9730 -9.5466 -0.0604 0.9435
-10.9433 -9.8053 -0.0611 0.9429
-8.7648 -8.0872 -0.0496 0.9534
-8.4830 -8.0599 -0.0486 0.9543
-7.5244 -8.0362 -0.0457 0.9569
-7.3012 -8.0298 -0.0451 0.9575
-7.0843 -8.0237 -0.0445 0.9581
-6.6671 -8.0113 -0.0433 0.9592
-6.4683 -8.0077 -0.0428 0.9597
-6.2726 -8.0018 -0.0423 0.9601
-5.9071 -8.0068 -0.0413 0.9610
-5.7354 -8.0166 -0.0410 0.9613
-5.4184 -8.0613 -0.0404 0.9619
-5.2872 -8.1199 -0.0403 0.9620
-5.2420 -8.3137 -0.0408 0.9614
-5.2082 -8.5340 -0.0415 0.9608
-5.1894 -8.7894 -0.0424 0.9600
-5.9601 -11.1874 -0.0527 0.9506
-5.4949 -11.0829 -0.0514 0.9517
-1.3170 -2.7570 -0.0127 0.9879
-4.9693 -12.7135 -0.0567 0.9469
-17.0981 -45.7028 -0.2028 0.8227
-16.9478 -49.6782 -0.2181 0.8106
-3.6428 -13.1461 -0.0567 0.9469
-3.2083 -13.0480 -0.0558 0.9477
-15.9805 -94.2035 -0.3971 0.6824
21.5313 -82.3582 -0.3537 0.7114
22.8143 -82.3303 -0.3550 0.7105
25.4095 -82.2740 -0.3578 0.7086
26.7232 -82.2454 -0.3594 0.7076
28.0484 -82.2166 -0.3610 0.7065
29.3860 -82.1876 -0.3627 0.7053
36.2863 -82.0377 -0.3728 0.6985
37.7148 -82.0066 -0.3751 0.6969
42.1133 -81.9111 -0.3827 0.6918
43.6207 -81.8784 -0.3855 0.6900
45.1505 -81.8451 -0.3884 0.6880
46.7040 -81.8113 -0.3915 0.6860
48.2821 -81.7771 -0.3946 0.6840
2.0927 -2.4412 -0.0134 0.9872
2.0991 -2.3774 -0.0132 0.9874
2.1333 -2.3463 -0.0132 0.9874
2.1579 -2.3046 -0.0131 0.9875
2.1550 -2.2352 -0.0129 0.9877
2.0917 -2.0464 -0.0122 0.9884
2.1780 -2.0096 -0.0123 0.9882
2.2954 -1.9970 -0.0126 0.9879
2.3704 -2.0021 -0.0129 0.9877
15.2928 -9.1804 -0.0741 0.9311
15.2643 -8.8625 -0.0733 0.9318
15.3028 -8.2967 -0.0723 0.9327
16.6160 -8.0875 -0.0768 0.9287
5.8163 -2.7266 -0.0267 0.9746
17.8771 -8.0640 -0.0815 0.9246
21.4777 -7.8568 -0.0950 0.9126
23.4293 -7.8023 -0.1026 0.9059
26.3997 -8.3650 -0.1151 0.8951
10.2648 -2.9254 -0.0444 0.9582
10.5764 -2.6826 -0.0453 0.9573
10.2977 -2.4523 -0.0440 0.9585
10.4663 -2.3315 -0.0446 0.9580
10.6728 -2.2143 -0.0453 0.9573
14.7524 -2.1712 -0.0620 0.9421
17.9551 -2.3750 -0.0753 0.9301
21.3472 -2.1911 -0.0892 0.9177
24.9376 -2.1920 -0.1040 0.9047
28.1546 -2.0607 -0.1173 0.8932
28.4043 -1.2459 -0.1182 0.8925
45.8027 -0.6693 -0.1904 0.8326
95.0183 4.1680 -0.3952 0.6836
73.1320 4.2793 -0.3044 0.7460
50.4226 3.6905 -0.2101 0.8169
41.4286 3.6415 -0.1728 0.8467
34.7953 4.0861 -0.1456 0.8692
28.0692 3.7127 -0.1177 0.8929
22.8888 4.0551 -0.0966 0.9112
18.9205 3.9255 -0.0803 0.9256
18.8972 4.2095 -0.0804 0.9255
18.9158 4.5047 -0.0808 0.9252
19.0100 5.1185 -0.0818 0.9243
19.0579 5.4313 -0.0823 0.9238
19.1066 5.7483 -0.0829 0.9233
11.8818 3.9569 -0.0520 0.9511
11.1370 4.0741 -0.0493 0.9537
10.9183 4.1759 -0.0486 0.9543
10.9841 4.7628 -0.0498 0.9532
11.0068 4.9650 -0.0502 0.9528
11.0773 5.5933 -0.0516 0.9516
11.1016 5.8107 -0.0521 0.9511
11.1519 6.2587 -0.0531 0.9501
11.2313 6.9675 -0.0549 0.9485
15.0482 9.9558 -0.0750 0.9304
14.9687 10.8754 -0.0769 0.9287
8.1123 10.0428 -0.0536 0.9497
2.4016 7.7760 -0.0338 0.9680
2.0905 7.9963 -0.0343 0.9675
-1.0359 5.1834 -0.0220 0.9791
-4.1675 9.0619 -0.0414 0.9609
-5.8660 6.2649 -0.0357 0.9663
-5.8700 6.0885 -0.0351 0.9667
-5.8903 5.9335 -0.0347 0.9671
-5.9643 5.5033 -0.0337 0.9681
-5.9917 5.3685 -0.0334 0.9683
-6.0075 5.2265 -0.0331 0.9687
-6.0413 4.9534 -0.0325 0.9692
-6.1058 4.5739 -0.0317 0.9699
-6.1275 4.4519 -0.0315 0.9702
-6.1472 4.3304 -0.0312 0.9704
-0.8486 0.5437 -0.0042 0.9960
-0.8486 0.5264 -0.0041 0.9960
-0.8486 0.5094 -0.0041 0.9960
-0.8442 0.4738 -0.0040 0.9961
-0.8321 0.4202 -0.0039 0.9963
-0.8244 0.3865 -0.0038 0.9964
-0.8207 0.3702 -0.0037 0.9964
-0.8163 0.3539 -0.0037 0.9964
-0.8118 0.3380 -0.0037 0.9965
-0.8074 0.3224 -0.0036 0.9965
-0.8031 0.3071 -0.0036 0.9966
-0.7948 0.2777 -0.0035 0.9966
-0.7829 0.2355 -0.0034 0.9967
-0.7798 0.2100 -0.0034 0.9968
-0.7791 0.1976 -0.0033 0.9968
-0.7769 0.1850 -0.0033 0.9968
-0.7706 0.1599 -0.0033 0.9969
-0.7656 0.1357 -0.0032 0.9969
-0.7585 0.1003 -0.0032 0.9969
-0.7562 0.0888 -0.0032 0.9970
-0.7538 0.0773 -0.0031 0.9970
-0.7516 0.0661 -0.0031 0.9970
-0.7066 -0.0103 -0.0108 0.9972
-0.7127 -0.0417 -0.0109 0.9971
-0.7188 -0.0738 -0.0110 0.9971
-0.7208 -0.0847 -0.0111 0.9971
-0.7229 -0.0956 -0.0111 0.9971
-0.7291 -0.1292 -0.0113 0.9970
-0.7312 -0.1406 -0.0113 0.9970
-0.7333 -0.1521 -0.0114 0.9970
-0.7354 -0.1638 -0.0115 0.9970
-0.7377 -0.1757 -0.0116 0.9970
-0.7419 -0.1998 -0.0117 0.9969
-0.7423 -0.2116 -0.0118 0.9969
-0.7456 -0.2243 -0.0119 0.9969
-0.7489 -0.2373 -0.0120 0.9969
-0.7524 -0.2506 -0.0121 0.9968
-0.7594 -0.2778 -0.0123 0.9968
-0.7629 -0.2918 -0.0124 0.9967
-0.7666 -0.3061 -0.0126 0.9967
-0.7703 -0.3207 -0.0127 0.9967
-0.7780 -0.3509 -0.0130 0.9966
-0.7819 -0.3666 -0.0132 0.9966
-0.7883 -0.3980 -0.0135 0.9965
-0.7948 -0.4310 -0.0138 0.9964
-0.7982 -0.4480 -0.0139 0.9963
-0.8017 -0.4655 -0.0141 0.9963
-0.8052 -0.4834 -0.0143 0.9963
-0.8088 -0.5018 -0.0145 0.9962
-0.8103 -0.5361 -0.0148 0.9961
-0.8550 -0.5838 -0.0158 0.9959
-13.1564 -9.2680 -0.2452 0.9376
-12.6347 -9.4648 -0.2406 0.9388
-12.2544 -9.4626 -0.2359 0.9399
-11.6513 -9.2718 -0.2269 0.9422
-11.2260 -9.2044 -0.2212 0.9436
-11.1958 -9.4566 -0.2233 0.9431
-9.3622 -8.1452 -0.1891 0.9516
-8.9692 -8.0364 -0.1835 0.9530
-8.6626 -7.9930 -0.1796 0.9539
-8.1573 -7.9805 -0.1739 0.9554
-7.9181 -7.9762 -0.1713 0.9560
-7.6848 -7.9709 -0.1687 0.9567
-6.8206 -7.9565 -0.1597 0.9589
-6.6228 -7.9582 -0.1578 0.9594
-5.5614 -8.0185 -0.1487 0.9617
-5.2809 -8.1102 -0.1475 0.9620
-5.1832 -9.0793 -0.1593 0.9590
-5.7009 -11.0884 -0.1900 0.9513
-1.3171 -2.7570 -0.0466 0.9879
-1.2779 -2.7786 -0.0466 0.9878
-5.1421 -11.6255 -0.1937 0.9504
-18.6518 -45.7365 -0.7527 0.8207
-17.8702 -45.7195 -0.7480 0.8217
-4.7940 -12.8141 -0.2085 0.9467
-16.9943 -47.5301 -0.7692 0.8172
-16.9476 -49.6776 -0.7998 0.8106
-16.8421 -54.5336 -0.8697 0.7959
-3.4631 -13.2466 -0.2086 0.9467
-11.7234 -63.4693 -0.9835 0.7724
-9.8562 -63.7355 -0.9828 0.7726
-5.1676 -64.1625 -0.9809 0.7730
-2.3482 -64.2533 -0.9798 0.7732
-1.4086 -64.2556 -0.9794 0.7733
0.4692 -64.2201 -0.9786 0.7734
2.3438 -64.1298 -0.9779 0.7736
3.2793 -64.0641 -0.9775 0.7737
5.1459 -63.8920 -0.9768 0.7738
8.8558 -63.3859 -0.9753 0.7741
9.7773 -63.2255 -0.9749 0.7742
10.6961 -63.0524 -0.9745 0.7743
11.6118 -62.8653 -0.9742 0.7743
12.5245 -62.6656 -0.9738 0.7744
13.4339 -62.4530 -0.9734 0.7745
14.3396 -62.2269 -0.9731 0.7746
17.9236 -61.1925 -0.9716 0.7749
18.8088 -60.9014 -0.9713 0.7749
19.6895 -60.5979 -0.9709 0.7750
24.0176 -58.8944 -0.9692 0.7753
24.8668 -58.5163 -0.9689 0.7754
25.7100 -58.1260 -0.9685 0.7755
26.5476 -57.7250 -0.9682 0.7756
28.2034 -56.8849 -0.9675 0.7757
29.8335 -55.9989 -0.9669 0.7758
30.6385 -55.5390 -0.9665 0.7759
31.4359 -55.0662 -0.9662 0.7760
32.2267 -54.5834 -0.9659 0.7760
33.0103 -54.0895 -0.9656 0.7761
34.5546 -53.0679 -0.9650 0.7762
36.0679 -52.0030 -0.9644 0.7763
38.9963 -49.7464 -0.9632 0.7766
40.4093 -48.5569 -0.9626 0.7767
41.1028 -47.9476 -0.9623 0.7767
2.1375 -2.3508 -0.0484 0.9874
2.1514 -2.2978 -0.0480 0.9875
2.0784 -2.0936 -0.0450 0.9883
2.0972 -2.0518 -0.0447 0.9883
2.1939 -2.0243 -0.0455 0.9881
2.2422 -2.0091 -0.0459 0.9880
2.2905 -1.9927 -0.0463 0.9879
2.3614 -1.9946 -0.0471 0.9877
49.2493 -39.1910 -0.9591 0.7774
50.3503 -37.7178 -0.9586 0.7775
51.4080 -36.2144 -0.9582 0.7776
51.9210 -35.4521 -0.9580 0.7776
52.4226 -34.6825 -0.9578 0.7777
15.1230 -9.3818 -0.2712 0.9313
15.0859 -9.0562 -0.2681 0.9320
15.0809 -8.7560 -0.2657 0.9326
15.1719 -8.2257 -0.2630 0.9333
15.4004 -8.0607 -0.2649 0.9328
16.5965 -8.0780 -0.2813 0.9288
20.5100 -7.8445 -0.3346 0.9159
22.2457 -7.7711 -0.3591 0.9100
23.3317 -7.7698 -0.3747 0.9063
26.0581 -8.2568 -0.4165 0.8964
10.1436 -3.0518 -0.1614 0.9585
10.2952 -2.9340 -0.1631 0.9581
10.4025 -2.8009 -0.1642 0.9578
10.3916 -2.4747 -0.1628 0.9582
10.2865 -2.2914 -0.1606 0.9587
14.6697 -2.5990 -0.2270 0.9421
14.5925 -2.3659 -0.2253 0.9426
14.8279 -2.1823 -0.2284 0.9418
18.0967 -2.3937 -0.2782 0.9296
21.4010 -2.1966 -0.3278 0.9175
27.9359 -2.0447 -0.4268 0.8940
28.2476 -1.2391 -0.4309 0.8931
30.0443 -0.8783 -0.4580 0.8867
63.5636 -0.0000 -0.9686 0.7755
63.5574 0.9288 -0.9686 0.7755
63.5375 1.8573 -0.9686 0.7755
63.4580 3.7132 -0.9686 0.7755
34.6757 4.0720 -0.5320 0.8696
26.9434 3.9652 -0.4150 0.8968
23.6498 3.8344 -0.3651 0.9086
22.6842 4.0188 -0.3510 0.9120
19.5174 3.7527 -0.3029 0.9236
18.8279 4.4838 -0.2949 0.9255
18.9185 5.0939 -0.2985 0.9246
18.9646 5.4047 -0.3005 0.9241
19.0113 5.7196 -0.3025 0.9237
12.2358 3.8771 -0.1956 0.9499
11.0892 4.0566 -0.1799 0.9539
10.8943 4.1668 -0.1777 0.9544
10.9359 4.5532 -0.1805 0.9537
10.9818 4.9537 -0.1836 0.9529
11.0046 5.1588 -0.1852 0.9525
11.0278 5.3675 -0.1869 0.9521
11.0514 5.5802 -0.1887 0.9517
11.0755 5.7970 -0.1905 0.9512
11.1250 6.2437 -0.1944 0.9502
11.1771 6.7097 -0.1986 0.9492
11.2516 7.2098 -0.2036 0.9479
14.7487 9.7577 -0.2695 0.9317
14.3897 9.8254 -0.2655 0.9327
15.2344 10.7318 -0.2840 0.9282
15.0350 10.9236 -0.2832 0.9284
15.1355 11.3381 -0.2882 0.9271
15.1382 11.6893 -0.2914 0.9263
46.9212 42.0415 -0.9600 0.7772
46.3140 42.7338 -0.9603 0.7772
45.6959 43.4166 -0.9605 0.7771
45.0691 44.0919 -0.9608 0.7771
9.3149 9.9484 -0.2077 0.9469
9.0609 9.9651 -0.2052 0.9475
7.6113 9.1459 -0.1813 0.9535
7.3991 9.1599 -0.1794 0.9540
38.9963 49.7463 -0.9632 0.7766
38.2766 50.3256 -0.9635 0.7765
30.6387 55.5389 -0.9665 0.7759
29.8335 55.9988 -0.9669 0.7758
28.2035 56.8849 -0.9675 0.7757
26.5478 57.7249 -0.9682 0.7756
25.7100 58.1260 -0.9685 0.7755
24.8668 58.5163 -0.9689 0.7754
24.0177 58.8944 -0.9692 0.7753
23.1625 59.2592 -0.9695 0.7753
22.3023 59.6130 -0.9699 0.7752
21.4364 59.9539 -0.9702 0.7751
20.5617 60.2710 -0.9704 0.7751
2.4015 7.7760 -0.1240 0.9680
2.2845 7.7995 -0.1238 0.9680
15.2415 61.9869 -0.9727 0.7746
13.4346 62.4562 -0.9735 0.7745
11.6132 62.8723 -0.9743 0.7743
9.7790 63.2362 -0.9751 0.7742
8.8576 63.3983 -0.9755 0.7741
7.9336 63.5470 -0.9759 0.7740
7.0071 63.6823 -0.9763 0.7739
6.0782 63.8036 -0.9767 0.7738
4.2149 64.0069 -0.9775 0.7737
3.2804 64.0874 -0.9779 0.7736
1.4076 64.2089 -0.9787 0.7734
0.4695 64.2484 -0.9791 0.7733
-1.4092 64.2873 -0.9799 0.7732
-2.3494 64.2866 -0.9803 0.7731
-5.1707 64.2005 -0.9815 0.7729
-7.0501 64.0737 -0.9823 0.7727
-7.9888 63.9905 -0.9827 0.7726
-8.9266 63.8924 -0.9831 0.7725
-10.7984 63.6556 -0.9839 0.7724
-14.5215 63.0165 -0.9854 0.7721
-2.5562 9.7779 -0.1540 0.9604
-17.2897 62.3939 -0.9866 0.7718
-18.2066 62.1588 -0.9870 0.7717
-20.9371 61.3718 -0.9881 0.7715
-21.8401 61.0830 -0.9885 0.7714
-22.7389 60.7804 -0.9889 0.7714
-25.4093 59.7930 -0.9900 0.7711
-4.1673 9.0613 -0.1520 0.9609
-28.9012 58.2924 -0.9914 0.7708
-30.6140 57.4641 -0.9922 0.7707
-31.4612 57.0302 -0.9925 0.7706
-32.3028 56.5848 -0.9929 0.7705
-33.1375 56.1261 -0.9932 0.7705
-34.7873 55.1718 -0.9939 0.7703
-36.4092 54.1684 -0.9946 0.7702
-37.2089 53.6481 -0.9949 0.7701
-38.7859 52.5722 -0.9955 0.7700
-39.5622 52.0159 -0.9958 0.7699
-41.0915 50.8703 -0.9965 0.7698
-5.7922 6.7567 -0.1356 0.9650
-5.7519 6.5147 -0.1324 0.9658
-5.7672 6.3427 -0.1306 0.9663
-5.8045 6.0205 -0.1274 0.9671
-5.8535 5.7266 -0.1248 0.9678
-5.8772 5.5841 -0.1235 0.9681
-5.9225 5.3066 -0.1212 0.9687
-5.9429 5.1703 -0.1200 0.9690
-6.0026 4.7767 -0.1169 0.9698
-6.0252 4.6525 -0.1160 0.9700
-6.0474 4.5302 -0.1151 0.9702
-0.8103 0.5361 -0.0148 0.9961
-0.8088 0.5018 -0.0145 0.9962
-0.8052 0.4834 -0.0143 0.9963
-0.7982 0.4480 -0.0139 0.9963
-0.7948 0.4309 -0.0138 0.9964
-0.7915 0.4143 -0.0136 0.9964
-0.7883 0.3980 -0.0135 0.9965
-0.7703 0.3207 -0.0127 0.9967
-0.7666 0.3061 -0.0126 0.9967
-0.7594 0.2778 -0.0123 0.9968
-0.7524 0.2505 -0.0121 0.9968
-0.7456 0.2243 -0.0119 0.9969
-0.7354 0.1638 -0.0115 0.9970
-0.7333 0.1521 -0.0114 0.9970
-0.7270 0.1179 -0.0112 0.9971
-0.7249 0.1067 -0.0112 0.9971
-0.7229 0.0956 -0.0111 0.9971
-0.7208 0.0846 -0.0111 0.9971
-0.7188 0.0737 -0.0110 0.9971
-0.7107 0.0312 -0.0108 0.9972
-0.7066 0.0103 -0.0108 0.9972
-0.6742 0.0000 -0.0177 0.9973
-0.6775 -0.0198 -0.0178 0.9973
-0.6794 -0.0298 -0.0179 0.9973
-0.6812 -0.0399 -0.0180 0.9973
-0.6867 -0.0705 -0.0182 0.9972
-0.6904 -0.0914 -0.0183 0.9972
-0.6922 -0.1019 -0.0184 0.9972
-0.6959 -0.1233 -0.0186 0.9972
-0.6977 -0.1341 -0.0187 0.9972
-0.6996 -0.1452 -0.0188 0.9971
-0.7014 -0.1562 -0.0189 0.9971
-0.7032 -0.1675 -0.0190 0.9971
-0.7071 -0.1904 -0.0193 0.9971
-0.7088 -0.2020 -0.0194 0.9971
-0.7146 -0.2264 -0.0197 0.9970
-0.7205 -0.2517 -0.0201 0.9970
-0.7235 -0.2647 -0.0203 0.9969
-0.7297 -0.2914 -0.0207 0.9969
-0.7329 -0.3052 -0.0209 0.9968
-0.7393 -0.3335 -0.0214 0.9968
-0.7460 -0.3631 -0.0218 0.9967
-0.7597 -0.4411 -0.0231 0.9965
-0.7683 -0.4923 -0.0240 0.9964
-0.7713 -0.5103 -0.0243 0.9963
-0.8869 -0.6444 -0.0289 0.9956
-11.8036 -9.3929 -0.3971 0.9414
-9.2226 -8.0237 -0.3218 0.9523
-8.6149 -7.9490 -0.3086 0.9542
-8.3600 -7.9430 -0.3036 0.9549
-8.1164 -7.9405 -0.2989 0.9556
-7.4369 -7.9428 -0.2864 0.9574
-7.2226 -7.9434 -0.2826 0.9580
-7.0152 -7.9455 -0.2790 0.9585
-6.4205 -7.9484 -0.2690 0.9599
-6.0431 -7.9454 -0.2628 0.9608
-5.2269 -8.2898 -0.2580 0.9615
-5.1824 -8.4916 -0.2619 0.9610
-5.1648 -9.0472 -0.2742 0.9592
-5.2287 -9.4782 -0.2850 0.9576
-1.3171 -2.7570 -0.0804 0.9878
-1.2779 -2.7786 -0.0805 0.9878
-5.1116 -12.0286 -0.3441 0.9490
-4.8563 -11.9084 -0.3385 0.9498
-4.7640 -12.7341 -0.3579 0.9471
-11.5443 -35.5297 -0.9834 0.8612
-3.6455 -13.1559 -0.3594 0.9468
-3.4659 -13.2573 -0.3607 0.9466
-3.1919 -12.9816 -0.3519 0.9479
-8.3782 -36.3573 -0.9822 0.8613
-6.7725 -36.6655 -0.9815 0.8614
-5.1557 -36.9026 -0.9809 0.8615
-4.0735 -37.0212 -0.9804 0.8615
-2.9887 -37.1079 -0.9800 0.8616
-1.3587 -37.1783 -0.9794 0.8617
-0.8152 -37.1859 -0.9791 0.8617
-0.2717 -37.1858 -0.9789 0.8617
0.2716 -37.1775 -0.9787 0.8618
1.3572 -37.1371 -0.9783 0.8618
2.4407 -37.0652 -0.9778 0.8619
2.9814 -37.0173 -0.9776 0.8619
4.0600 -36.8982 -0.9772 0.8620
6.7351 -36.4633 -0.9761 0.8621
7.7943 -36.2351 -0.9757 0.8622
8.3211 -36.1095 -0.9755 0.8622
8.8460 -35.9764 -0.9753 0.8622
9.3687 -35.8356 -0.9751 0.8622
10.4073 -35.5313 -0.9746 0.8623
11.4363 -35.1973 -0.9742 0.8624
11.9469 -35.0192 -0.9740 0.8624
12.9596 -34.6406 -0.9736 0.8624
13.4616 -34.4404 -0.9734 0.8625
15.9235 -33.3321 -0.9724 0.8626
16.4056 -33.0893 -0.9722 0.8626
17.3586 -32.5830 -0.9719 0.8627
17.8294 -32.3196 -0.9717 0.8627
21.4452 -29.9748 -0.9702 0.8629
22.3041 -29.3251 -0.9699 0.8629
22.7261 -28.9908 -0.9697 0.8630
23.1433 -28.6509 -0.9695 0.8630
2.1608 -2.3765 -0.0846 0.9872
2.0517 -2.0667 -0.0767 0.9884
2.1203 -2.0743 -0.0781 0.9882
2.2061 -2.0355 -0.0790 0.9881
2.2434 -2.0101 -0.0793 0.9880
29.0796 -22.4545 -0.9672 0.8633
30.3260 -20.7069 -0.9667 0.8633
19.5759 -12.9513 -0.6179 0.9104
14.9988 -8.7084 -0.4566 0.9330
15.1000 -8.1867 -0.4522 0.9336
15.4083 -8.0648 -0.4578 0.9328
15.8774 -8.0170 -0.4682 0.9313
16.5884 -8.0741 -0.4857 0.9288
17.7936 -8.0263 -0.5139 0.9249
21.2477 -7.7727 -0.5956 0.9134
22.2317 -7.7662 -0.6199 0.9101
23.3232 -7.7670 -0.6471 0.9063
29.3673 -9.3053 -0.8110 0.8840
10.4813 -2.8222 -0.2857 0.9575
10.6405 -2.6989 -0.2890 0.9570
10.4872 -2.4975 -0.2838 0.9578
10.7543 -2.3956 -0.2900 0.9569
10.7284 -2.2259 -0.2884 0.9571
10.8346 -2.0832 -0.2904 0.9568
14.6556 -2.3762 -0.3908 0.9423
17.9416 -2.3732 -0.4764 0.9301
25.3497 -2.2282 -0.6699 0.9032
28.2656 -1.6540 -0.7453 0.8929
28.1812 -1.2362 -0.7426 0.8933
37.1916 -0.5435 -0.9792 0.8617
37.1954 0.0000 -0.9792 0.8617
37.1800 1.0869 -0.9792 0.8617
37.1603 1.6300 -0.9792 0.8617
37.0041 3.7982 -0.9792 0.8617
28.0786 4.1323 -0.7471 0.8926
18.8071 3.9019 -0.5056 0.9260
18.9578 5.4027 -0.5189 0.9242
19.0057 5.7179 -0.5225 0.9237
11.7772 3.9220 -0.3268 0.9515
11.3987 3.9819 -0.3178 0.9528
10.8704 4.1576 -0.3064 0.9545
10.8915 4.3491 -0.3087 0.9542
10.7208 4.4637 -0.3057 0.9546
10.6420 4.6144 -0.3053 0.9546
10.6587 4.8079 -0.3078 0.9543
10.9795 5.1470 -0.3192 0.9526
11.0257 5.5672 -0.3251 0.9518
11.0512 5.7843 -0.3284 0.9513
11.0843 6.0095 -0.3319 0.9508
11.1528 6.4753 -0.3395 0.9497
11.1156 6.6728 -0.3413 0.9494
10.9905 6.8181 -0.3405 0.9496
11.4029 7.5441 -0.3599 0.9468
15.1230 10.9875 -0.4921 0.9279
15.2474 11.4219 -0.5015 0.9266
15.1079 11.6659 -0.5025 0.9265
28.4188 23.3010 -0.9674 0.8632
28.0793 23.7171 -0.9676 0.8632
27.3823 24.5346 -0.9678 0.8632
26.2927 25.7227 -0.9683 0.8631
25.5378 26.4881 -0.9686 0.8631
9.3149 9.9484 -0.3588 0.9469
9.0609 9.9651 -0.3546 0.9475
7.6113 9.1460 -0.3132 0.9535
22.7261 28.9909 -0.9697 0.8630
22.3041 29.3251 -0.9699 0.8629
21.8770 29.6529 -0.9701 0.8629
21.4452 29.9748 -0.9702 0.8629
21.0087 30.2905 -0.9704 0.8629
18.7590 31.7727 -0.9713 0.8627
7.7652 13.6021 -0.4123 0.9393
16.8840 32.8396 -0.9721 0.8626
16.4057 33.0894 -0.9722 0.8626
14.9487 33.7965 -0.9728 0.8625
14.4563 34.0184 -0.9730 0.8625
12.9597 34.6406 -0.9736 0.8624
12.4547 34.8335 -0.9738 0.8624
2.5344 7.8000 -0.2159 0.9677
2.2845 7.7995 -0.2139 0.9680
2.0906 7.9964 -0.2176 0.9675
8.8460 35.9764 -0.9753 0.8622
8.3211 36.1095 -0.9755 0.8622
7.7943 36.2351 -0.9757 0.8622
6.2030 36.5658 -0.9763 0.8621
5.1342 36.7475 -0.9768 0.8620
4.5977 36.8268 -0.9770 0.8620
4.0599 36.8982 -0.9772 0.8620
3.5212 36.9617 -0.9774 0.8619
2.9814 37.0173 -0.9776 0.8619
1.8993 37.1050 -0.9781 0.8619
0.2717 37.1775 -0.9787 0.8618
-1.3587 37.1783 -0.9794 0.8617
-2.9882 37.1029 -0.9799 0.8616
-3.5309 37.0642 -0.9801 0.8616
-4.6145 36.9623 -0.9806 0.8615
-5.1553 36.8996 -0.9808 0.8615
-6.7721 36.6639 -0.9815 0.8614
-8.3781 36.3570 -0.9822 0.8613
-8.9104 36.2389 -0.9824 0.8613
-10.4971 35.8378 -0.9831 0.8612
-11.5449 35.5318 -0.9835 0.8611
-12.0656 35.3671 -0.9837 0.8611
-12.5838 35.1948 -0.9839 0.8611
-13.0996 35.0148 -0.9841 0.8611
-14.6310 34.4296 -0.9848 0.8610
-15.1356 34.2194 -0.9850 0.8609
-17.1230 33.3046 -0.9858 0.8608
-18.0963 32.8034 -0.9862 0.8608
-18.5774 32.5421 -0.9864 0.8608
-19.0548 32.2737 -0.9866 0.8607
-19.9976 31.7157 -0.9870 0.8607
-20.4629 31.4262 -0.9872 0.8607
-20.9238 31.1298 -0.9874 0.8606
-21.3805 30.8266 -0.9876 0.8606
-22.7235 29.8767 -0.9881 0.8605
-5.6826 6.8284 -0.2339 0.9651
-5.7508 6.3247 -0.2250 0.9664
-5.7776 6.1706 -0.2225 0.9667
-5.8029 6.0189 -0.2201 0.9671
-5.8259 5.8686 -0.2177 0.9675
-5.8494 5.7226 -0.2154 0.9678
-5.8732 5.5803 -0.2133 0.9681
-5.9182 5.3028 -0.2092 0.9687
-5.9365 5.1648 -0.2071 0.9690
-5.9758 4.8996 -0.2034 0.9696
-6.0139 4.6438 -0.2000 0.9701
-6.0355 4.5212 -0.1985 0.9703
-0.7740 0.5452 -0.0249 0.9962
-0.7712 0.5103 -0.0243 0.9963
-0.7625 0.4577 -0.0234 0.9964
-0.7596 0.4411 -0.0231 0.9965
-0.7542 0.4089 -0.0226 0.9966
-0.7515 0.3933 -0.0223 0.9966
-0.7488 0.3781 -0.0221 0.9966
-0.7426 0.3481 -0.0216 0.9967
-0.7361 0.3191 -0.0211 0.9968
-0.7297 0.2914 -0.0207 0.9969
-0.7235 0.2646 -0.0203 0.9969
-0.7205 0.2517 -0.0201 0.9970
-0.7175 0.2389 -0.0199 0.9970
-0.7146 0.2264 -0.0197 0.9970
-0.7088 0.2020 -0.0194 0.9971
-0.7032 0.1675 -0.0190 0.9971
-0.7014 0.1562 -0.0189 0.9971
-0.6959 0.1232 -0.0186 0.9972
-0.6941 0.1125 -0.0185 0.9972
-0.6886 0.0808 -0.0183 0.9972
-0.6867 0.0705 -0.0182 0.9972
-0.6849 0.0602 -0.0181 0.9973
-0.6831 0.0500 -0.0180 0.9973
-0.6794 0.0298 -0.0179 0.9973
-0.6464 0.0000 -0.0242 0.9974
-0.6492 -0.0190 -0.0243 0.9974
-0.6506 -0.0286 -0.0244 0.9974
-0.6522 -0.0382 -0.0244 0.9974
-0.6572 -0.0675 -0.0247 0.9974
-0.6669 -0.1282 -0.0254 0.9973
-0.6701 -0.1493 -0.0257 0.9973
-0.6717 -0.1600 -0.0258 0.9972
-0.6733 -0.1708 -0.0260 0.9972
-0.6785 -0.2041 -0.0265 0.9972
-0.6871 -0.2400 -0.0272 0.9971
-0.6929 -0.2650 -0.0278 0.9970
-0.6958 -0.2779 -0.0280 0.9970
-0.7016 -0.3042 -0.0286 0.9969
-0.7043 -0.3177 -0.0289 0.9969
-0.7071 -0.3315 -0.0292 0.9969
-0.7099 -0.3455 -0.0295 0.9968
-0.7196 -0.4039 -0.0309 0.9967
-0.7241 -0.4347 -0.0316 0.9966
-0.7263 -0.4506 -0.0320 0.9966
-0.7310 -0.4836 -0.0328 0.9965
-0.7357 -0.5182 -0.0337 0.9964
-0.7540 -0.5648 -0.0353 0.9962
-11.3236 -9.2844 -0.5479 0.9431
-9.1687 -7.9767 -0.4547 0.9525
-8.8775 -7.9543 -0.4460 0.9534
-8.3569 -7.9401 -0.4313 0.9549
-7.8781 -7.9359 -0.4184 0.9562
-7.6523 -7.9371 -0.4125 0.9568
-7.4296 -7.9349 -0.4067 0.9574
-7.2148 -7.9348 -0.4013 0.9580
-7.0079 -7.9372 -0.3962 0.9585
-6.6037 -7.9353 -0.3863 0.9595
-6.4110 -7.9367 -0.3818 0.9600
-5.5364 -7.9824 -0.3635 0.9619
-5.4006 -8.0349 -0.3622 0.9620
-12.7015 -23.0242 -0.9839 0.9001
-5.8184 -11.3168 -0.4761 0.9503
-1.3171 -2.7570 -0.1143 0.9878
-5.2131 -11.7859 -0.4822 0.9497
-9.9182 -24.3209 -0.9828 0.9002
-4.7481 -12.6915 -0.5070 0.9472
-8.4756 -24.8442 -0.9822 0.9003
-7.7437 -25.0736 -0.9819 0.9003
-7.3754 -25.1803 -0.9818 0.9003
-3.6484 -13.1664 -0.5112 0.9468
-3.1904 -12.9753 -0.5000 0.9479
-5.5135 -25.6320 -0.9810 0.9004
-2.8644 -26.0328 -0.9800 0.9005
-2.4833 -26.0679 -0.9798 0.9005
-2.1019 -26.0973 -0.9797 0.9005
-1.3380 -26.1395 -0.9793 0.9005
-0.9558 -26.1521 -0.9792 0.9005
-0.5735 -26.1592 -0.9790 0.9006
-0.1911 -26.1607 -0.9789 0.9006
0.9550 -26.1316 -0.9784 0.9006
1.7176 -26.0845 -0.9781 0.9007
2.0983 -26.0526 -0.9780 0.9007
3.6143 -25.8694 -0.9774 0.9007
3.9913 -25.8098 -0.9772 0.9007
4.3673 -25.7448 -0.9771 0.9008
5.1161 -25.5984 -0.9768 0.9008
5.8601 -25.4301 -0.9765 0.9008
6.5987 -25.2404 -0.9762 0.9008
7.6950 -24.9158 -0.9757 0.9009
8.4172 -24.6729 -0.9754 0.9009
9.1319 -24.4093 -0.9752 0.9009
9.4863 -24.2698 -0.9750 0.9010
9.8384 -24.1250 -0.9749 0.9010
10.5361 -23.8204 -0.9746 0.9010
10.8815 -23.6606 -0.9745 0.9010
11.5650 -23.3260 -0.9742 0.9010
11.9029 -23.1512 -0.9740 0.9010
12.5708 -22.7873 -0.9738 0.9011
13.8731 -22.0023 -0.9733 0.9011
14.5062 -21.5819 -0.9730 0.9011
14.8181 -21.3650 -0.9729 0.9012
9.4691 -12.8348 -0.5968 0.9382
15.7343 -20.6872 -0.9725 0.9012
16.3280 -20.2137 -0.9723 0.9012
16.6196 -19.9705 -0.9722 0.9012
2.0397 -2.3794 -0.1173 0.9875
2.0710 -2.3456 -0.1171 0.9876
2.0046 -2.0791 -0.1081 0.9885
2.1639 -2.1170 -0.1133 0.9880
2.2121 -2.0411 -0.1126 0.9880
2.3837 -2.0134 -0.1167 0.9876
20.2992 -16.1534 -0.9707 0.9014
20.5311 -15.8536 -0.9706 0.9014
20.7586 -15.5505 -0.9705 0.9014
20.9817 -15.2441 -0.9704 0.9014
21.2003 -14.9345 -0.9703 0.9014
21.4143 -14.6218 -0.9702 0.9014
19.4956 -12.8982 -0.8747 0.9107
15.0638 -9.3450 -0.6633 0.9315
15.0263 -9.0204 -0.6558 0.9323
16.5254 -8.0434 -0.6877 0.9291
5.8166 -2.7267 -0.2404 0.9746
18.3646 -7.9630 -0.7490 0.9230
23.8458 -9.9284 -0.9665 0.9018
23.6803 -9.4558 -0.9541 0.9030
24.7014 -9.0360 -0.9842 0.9001
24.8294 -8.6737 -0.9841 0.9001
23.5833 -7.8537 -0.9301 0.9053
10.3447 -2.9481 -0.4025 0.9579
10.4522 -2.8143 -0.4050 0.9576
10.7961 -2.4049 -0.4139 0.9567
10.7565 -2.2316 -0.4110 0.9570
10.8844 -2.0928 -0.4147 0.9566
14.7403 -2.6115 -0.5601 0.9418
18.0885 -2.6621 -0.6841 0.9294
18.0593 -2.3887 -0.6816 0.9297
21.4066 -2.5138 -0.8065 0.9173
25.0425 -2.5704 -0.9419 0.9041
25.7839 -2.2664 -0.9685 0.9016
26.2603 -1.1519 -0.9835 0.9001
26.2825 -0.3841 -0.9835 0.9001
26.2853 -0.0000 -0.9835 0.9001
26.2824 0.3840 -0.9835 0.9001
26.2741 0.7680 -0.9835 0.9001
26.2603 1.1519 -0.9835 0.9001
26.2408 1.5355 -0.9835 0.9001
26.1854 2.3016 -0.9836 0.9001
26.1078 3.0659 -0.9836 0.9001
20.2274 3.5836 -0.7686 0.9211
18.7963 3.8997 -0.7183 0.9260
18.5780 4.1384 -0.7122 0.9266
18.5795 4.4247 -0.7146 0.9264
18.8597 4.7836 -0.7280 0.9251
18.9550 5.4020 -0.7375 0.9241
19.0035 5.7173 -0.7425 0.9236
12.1240 3.8416 -0.4759 0.9504
10.9956 4.0223 -0.4381 0.9542
10.8065 4.3152 -0.4354 0.9545
10.5720 4.5841 -0.4312 0.9549
10.5682 4.7670 -0.4338 0.9547
11.0292 5.5690 -0.4623 0.9517
11.0951 6.0154 -0.4722 0.9507
10.9364 6.7845 -0.4816 0.9498
10.8953 6.9815 -0.4842 0.9495
15.1449 10.0198 -0.6795 0.9299
14.2362 10.0287 -0.6516 0.9327
20.2992 16.1534 -0.9707 0.9014
20.0630 16.4499 -0.9708 0.9014
19.5777 17.0325 -0.9710 0.9013
19.3287 17.3185 -0.9711 0.9013
19.0755 17.6009 -0.9712 0.9013
18.8183 17.8796 -0.9713 0.9013
18.2918 18.4259 -0.9715 0.9013
18.0226 18.6933 -0.9716 0.9013
9.3149 9.9484 -0.5099 0.9469
7.3991 9.1599 -0.4406 0.9540
16.0329 20.4526 -0.9724 0.9012
15.7343 20.6872 -0.9725 0.9012
15.1268 21.1434 -0.9728 0.9012
8.0122 13.1286 -0.5755 0.9403
7.6175 13.3435 -0.5749 0.9404
7.4590 13.5210 -0.5778 0.9401
12.2382 22.9716 -0.9739 0.9011
11.9029 23.1512 -0.9740 0.9010
11.5650 23.3260 -0.9742 0.9010
9.8384 24.1250 -0.9749 0.9010
9.4863 24.2698 -0.9750 0.9010
9.1320 24.4093 -0.9752 0.9009
8.7756 24.5438 -0.9753 0.9009
2.2845 7.7995 -0.3041 0.9680
4.7423 25.6743 -0.9769 0.9008
3.9913 25.8098 -0.9772 0.9007
3.2364 25.9235 -0.9775 0.9007
1.3365 26.1108 -0.9783 0.9006
0.5732 26.1469 -0.9786 0.9006
0.1911 26.1566 -0.9787 0.9006
-0.5734 26.1592 -0.9790 0.9006
-0.9558 26.1521 -0.9792 0.9005
-2.1019 26.0974 -0.9797 0.9005
-2.4833 26.0679 -0.9798 0.9005
-2.8644 26.0329 -0.9800 0.9005
-3.2450 25.9923 -0.9801 0.9005
-4.3829 25.8371 -0.9806 0.9004
-4.7607 25.7743 -0.9807 0.9004
-1.0360 5.1837 -0.1978 0.9791
-5.8884 25.5527 -0.9812 0.9004
-6.2621 25.4679 -0.9813 0.9003
-2.5517 9.7605 -0.3775 0.9604
-7.3754 25.1804 -0.9818 0.9003
-8.1105 24.9616 -0.9821 0.9003
-9.2006 24.5931 -0.9825 0.9002
-4.2913 8.9829 -0.3725 0.9609
-11.6754 23.5488 -0.9835 0.9001
-12.0200 23.3791 -0.9836 0.9001
-12.3620 23.2043 -0.9838 0.9001
-13.7039 22.4546 -0.9843 0.9001
-14.6806 21.8412 -0.9847 0.9000
-15.3164 21.4086 -0.9849 0.9000
-16.2460 20.7245 -0.9853 0.9000
-5.6784 7.0298 -0.3381 0.9645
-5.6613 6.8028 -0.3312 0.9652
-5.6784 6.6241 -0.3265 0.9657
-5.7522 6.3263 -0.3199 0.9664
-5.7772 6.1701 -0.3163 0.9667
-5.8474 5.7207 -0.3061 0.9678
-5.9141 5.2991 -0.2971 0.9687
-5.9324 5.1612 -0.2942 0.9690
-5.9504 5.0260 -0.2914 0.9693
-5.9884 4.7654 -0.2864 0.9698
-0.8644 0.6675 -0.0409 0.9956
-0.7540 0.5648 -0.0353 0.9962
-0.7381 0.5362 -0.0341 0.9964
-0.7356 0.5183 -0.0337 0.9964
-0.7333 0.5007 -0.0332 0.9965
-0.7309 0.4836 -0.0328 0.9965
-0.7286 0.4669 -0.0324 0.9965
-0.7241 0.4347 -0.0316 0.9966
-0.7218 0.4191 -0.0312 0.9967
-0.7196 0.4039 -0.0309 0.9967
-0.7174 0.3890 -0.0305 0.9967
-0.7153 0.3744 -0.0302 0.9968
-0.7127 0.3599 -0.0299 0.9968
-0.7099 0.3455 -0.0295 0.9968
-0.7043 0.3177 -0.0289 0.9969
-0.7015 0.3042 -0.0286 0.9969
-0.6988 0.2910 -0.0283 0.9970
-0.6958 0.2779 -0.0280 0.9970
-0.6786 0.2041 -0.0265 0.9972
-0.6765 0.1928 -0.0263 0.9972
-0.6701 0.1493 -0.0257 0.9973
-0.6669 0.1282 -0.0254 0.9973
-0.6637 0.1076 -0.0252 0.9973
-0.6621 0.0974 -0.0250 0.9973
-0.6572 0.0674 -0.0247 0.9974
-0.6555 0.0576 -0.0246 0.9974
-0.6522 0.0381 -0.0244 0.9974
-0.6506 0.0286 -0.0244 0.9974
-0.6478 0.0095 -0.0242 0.9974
-0.6208 0.0000 -0.0301 0.9975
-0.6221 -0.0091 -0.0302 0.9975
-0.6246 -0.0274 -0.0303 0.9975
-0.6258 -0.0366 -0.0304 0.9975
-0.6300 -0.0647 -0.0307 0.9975
-0.6330 -0.0837 -0.0310 0.9974
-0.6358 -0.1031 -0.0313 0.9974
-0.6386 -0.1228 -0.0316 0.9974
-0.6400 -0.1328 -0.0317 0.9974
-0.6414 -0.1429 -0.0319 0.9974
-0.6441 -0.1634 -0.0322 0.9973
-0.6454 -0.1737 -0.0324 0.9973
-0.6482 -0.1950 -0.0328 0.9973
-0.6517 -0.2170 -0.0333 0.9973
-0.6539 -0.2284 -0.0336 0.9972
-0.6638 -0.2764 -0.0349 0.9971
-0.6663 -0.2889 -0.0352 0.9971
-0.6689 -0.3017 -0.0356 0.9971
-0.6879 -0.4130 -0.0389 0.9968
-0.6896 -0.4278 -0.0394 0.9968
-0.6930 -0.4585 -0.0403 0.9967
-0.6965 -0.4906 -0.0413 0.9966
-0.6999 -0.5243 -0.0424 0.9965
-0.7346 -0.5846 -0.0456 0.9962
-11.4020 -9.6306 -0.7241 0.9420
-9.1410 -7.9527 -0.5879 0.9526
-8.1100 -7.9342 -0.5505 0.9556
-7.4236 -7.9286 -0.5270 0.9574
-7.2072 -7.9265 -0.5198 0.9580
-6.7940 -7.9255 -0.5065 0.9591
-6.4047 -7.9290 -0.4945 0.9600
-6.0448 -7.9476 -0.4845 0.9608
-5.8586 -7.9411 -0.4788 0.9613
-5.2297 -8.2942 -0.4757 0.9615
-5.1774 -8.4834 -0.4822 0.9610
-5.8982 -11.0713 -0.6087 0.9510
-5.7844 -11.2508 -0.6138 0.9506
-5.4390 -10.9702 -0.5941 0.9521
-1.2779 -2.7786 -0.1484 0.9878
-5.2222 -11.8065 -0.6264 0.9496
-7.6417 -18.7385 -0.9819 0.9222
-7.3663 -18.8460 -0.9818 0.9222
-6.5311 -19.1442 -0.9814 0.9222
-6.2499 -19.2354 -0.9813 0.9222
-3.6518 -13.1784 -0.6635 0.9467
-3.9601 -19.8145 -0.9804 0.9223
-2.7946 -20.0024 -0.9799 0.9223
-2.5017 -20.0387 -0.9798 0.9223
-1.9147 -20.0985 -0.9796 0.9223
-1.6206 -20.1219 -0.9795 0.9223
-1.3262 -20.1410 -0.9793 0.9223
-0.1474 -20.1744 -0.9789 0.9224
0.4421 -20.1652 -0.9786 0.9224
1.0309 -20.1388 -0.9784 0.9224
1.3249 -20.1191 -0.9783 0.9224
1.6185 -20.0952 -0.9782 0.9224
1.9117 -20.0671 -0.9780 0.9224
2.7882 -19.9568 -0.9777 0.9225
3.0792 -19.9115 -0.9776 0.9225
3.3694 -19.8621 -0.9775 0.9225
4.5217 -19.6221 -0.9770 0.9225
4.8074 -19.5516 -0.9769 0.9225
5.3754 -19.3983 -0.9767 0.9226
5.6576 -19.3154 -0.9765 0.9226
6.4964 -19.0424 -0.9762 0.9226
7.3221 -18.7331 -0.9759 0.9226
7.8646 -18.5070 -0.9757 0.9226
8.1333 -18.3881 -0.9756 0.9226
8.4002 -18.2653 -0.9754 0.9226
8.6652 -18.1386 -0.9753 0.9227
9.1896 -17.8738 -0.9751 0.9227
9.4488 -17.7358 -0.9750 0.9227
9.7059 -17.5940 -0.9749 0.9227
11.4434 -16.4992 -0.9742 0.9227
11.6821 -16.3286 -0.9741 0.9227
12.1519 -15.9772 -0.9739 0.9228
12.3829 -15.7964 -0.9739 0.9228
12.6111 -15.6123 -0.9738 0.9228
2.0367 -2.3758 -0.1518 0.9875
2.1333 -2.3462 -0.1539 0.9874
1.9950 -2.0692 -0.1395 0.9886
2.0410 -2.0560 -0.1406 0.9885
2.2635 -2.0280 -0.1475 0.9879
2.3188 -2.0173 -0.1491 0.9878
15.2719 -12.8994 -0.9699 0.9231
15.4575 -12.6739 -0.9699 0.9231
15.6399 -12.4458 -0.9698 0.9231
15.8189 -12.2150 -0.9697 0.9231
16.3355 -11.5076 -0.9695 0.9231
16.8207 -10.7785 -0.9693 0.9231
15.7781 -9.4717 -0.8929 0.9290
17.2737 -10.0292 -0.9691 0.9231
15.4115 -8.0665 -0.8440 0.9327
15.8775 -8.0170 -0.8630 0.9312
18.2859 -8.9002 -0.9867 0.9218
5.8166 -2.7267 -0.3117 0.9746
18.3646 -7.9630 -0.9712 0.9230
18.7708 -7.8153 -0.9865 0.9218
18.8821 -7.5399 -0.9865 0.9218
18.9895 -7.2629 -0.9864 0.9218
19.0928 -6.9843 -0.9864 0.9218
19.1920 -6.7043 -0.9864 0.9218
19.3783 -6.1402 -0.9863 0.9218
10.2334 -3.0788 -0.5185 0.9581
10.3873 -2.9603 -0.5241 0.9577
10.5446 -2.8392 -0.5298 0.9572
10.6470 -2.7005 -0.5329 0.9570
10.7367 -2.5569 -0.5355 0.9568
19.8378 -4.4190 -0.9861 0.9218
19.9574 -3.8373 -0.9861 0.9218
19.7042 -3.4909 -0.9709 0.9230
14.9043 -2.4165 -0.7326 0.9413
19.9048 -2.0431 -0.9708 0.9230
19.9323 -1.7520 -0.9708 0.9230
20.2663 -1.4833 -0.9859 0.9218
20.2856 -1.1870 -0.9859 0.9218
20.3007 -0.8905 -0.9859 0.9218
20.3114 -0.5938 -0.9859 0.9218
20.3200 -0.0000 -0.9859 0.9218
20.3179 0.2969 -0.9859 0.9218
20.3007 0.8905 -0.9859 0.9218
20.2855 1.1870 -0.9859 0.9218
20.2663 1.4833 -0.9859 0.9218
20.2426 1.7793 -0.9859 0.9218
20.2147 2.0749 -0.9860 0.9218
20.1461 2.6647 -0.9860 0.9218
20.1052 2.9589 -0.9860 0.9218
20.0602 3.2524 -0.9860 0.9218
20.0110 3.5452 -0.9860 0.9218
18.7010 4.1658 -0.9296 0.9261
18.7920 4.4753 -0.9373 0.9256
19.7013 4.9971 -0.9862 0.9218
19.5481 5.5710 -0.9862 0.9218
19.4652 5.8562 -0.9863 0.9218
12.1526 4.2453 -0.6246 0.9498
12.1628 4.6519 -0.6318 0.9492
10.7733 4.3020 -0.5628 0.9546
10.6223 4.4227 -0.5583 0.9550
10.5391 4.7540 -0.5610 0.9548
10.6954 5.0138 -0.5731 0.9538
12.4694 6.7605 -0.6882 0.9448
16.2002 9.0920 -0.9014 0.9283
11.0482 6.6323 -0.6252 0.9497
14.9424 10.2027 -0.8779 0.9301
14.2304 10.0246 -0.8446 0.9327
15.0891 10.9629 -0.9049 0.9280
15.1865 11.3763 -0.9207 0.9268
15.6842 12.4809 -0.9725 0.9229
15.5014 12.7098 -0.9726 0.9229
15.3152 12.9359 -0.9727 0.9229
14.7371 13.5978 -0.9729 0.9228
14.5380 13.8129 -0.9730 0.9228
14.3358 14.0250 -0.9731 0.9228
14.1305 14.2341 -0.9732 0.9228
13.9223 14.4403 -0.9732 0.9228
9.3149 9.9484 -0.6612 0.9469
7.8281 9.1317 -0.5836 0.9530
11.6821 16.3286 -0.9741 0.9227
11.4434 16.4992 -0.9742 0.9227
11.2022 16.6662 -0.9743 0.9227
10.9586 16.8298 -0.9744 0.9227
10.7126 16.9898 -0.9745 0.9227
7.7395 13.1086 -0.7386 0.9409
7.5209 13.1743 -0.7360 0.9411
7.4173 13.4454 -0.7450 0.9404
9.4487 17.7357 -0.9750 0.9227
9.1895 17.8737 -0.9751 0.9227
8.9282 18.0079 -0.9752 0.9227
8.4001 18.2652 -0.9754 0.9226
7.5943 18.6220 -0.9758 0.9226
6.7732 18.9433 -0.9761 0.9226
6.4964 19.0424 -0.9762 0.9226
2.0906 7.9966 -0.4010 0.9674
4.8074 19.5516 -0.9769 0.9225
4.2351 19.6884 -0.9771 0.9225
1.9117 20.0671 -0.9780 0.9224
1.6186 20.0953 -0.9782 0.9224
1.3249 20.1192 -0.9783 0.9224
1.0309 20.1388 -0.9784 0.9224
0.7366 20.1541 -0.9785 0.9224
0.4421 20.1651 -0.9786 0.9224
-0.1474 20.1743 -0.9789 0.9224
-0.4422 20.1724 -0.9790 0.9224
-0.7370 20.1663 -0.9791 0.9224
-1.0317 20.1558 -0.9792 0.9224
-1.6206 20.1219 -0.9795 0.9223
-1.9146 20.0985 -0.9796 0.9223
-2.2084 20.0707 -0.9797 0.9223
-2.5017 20.0387 -0.9798 0.9223
-3.3787 19.9170 -0.9802 0.9223
-3.6698 19.8679 -0.9803 0.9223
-1.0361 5.1838 -0.2565 0.9791
-4.2497 19.7569 -0.9805 0.9223
-4.8264 19.6288 -0.9807 0.9222
-5.3991 19.4840 -0.9810 0.9222
-6.2499 19.2354 -0.9813 0.9222
-6.5311 19.1441 -0.9814 0.9222
-7.9156 18.6269 -0.9820 0.9221
-4.2891 8.9783 -0.4828 0.9609
-9.7836 17.7348 -0.9827 0.9221
-10.8073 17.1402 -0.9831 0.9221
-11.0578 16.9822 -0.9832 0.9221
-11.3058 16.8205 -0.9833 0.9220
-11.5515 16.6552 -0.9834 0.9220
-12.5096 15.9582 -0.9838 0.9220
-5.6441 6.9873 -0.4358 0.9647
-5.7775 6.1705 -0.4101 0.9667
-5.8474 5.7205 -0.3969 0.9678
-5.8692 5.5765 -0.3928 0.9681
-5.8907 5.4354 -0.3889 0.9684
-5.9288 5.1581 -0.3813 0.9690
-0.8411 0.6896 -0.0528 0.9957
-0.7346 0.5846 -0.0456 0.9962
-0.7017 0.5418 -0.0430 0.9965
-0.6999 0.5244 -0.0424 0.9965
-0.6947 0.4744 -0.0408 0.9966
-0.6930 0.4585 -0.0403 0.9967
-0.6862 0.3984 -0.0385 0.9968
-0.6846 0.3842 -0.0381 0.9969
-0.6793 0.3555 -0.0372 0.9969
-0.6767 0.3416 -0.0368 0.9970
-0.6663 0.2889 -0.0352 0.9971
-0.6613 0.2641 -0.0346 0.9972
-0.6588 0.2520 -0.0342 0.9972
-0.6564 0.2401 -0.0339 0.9972
-0.6539 0.2284 -0.0336 0.9972
-0.6517 0.2171 -0.0333 0.9973
-0.6500 0.2060 -0.0331 0.9973
-0.6482 0.1950 -0.0328 0.9973
-0.6468 0.1843 -0.0326 0.9973
-0.6454 0.1738 -0.0324 0.9973
-0.6414 0.1429 -0.0319 0.9974
-0.6286 0.0553 -0.0306 0.9975
-0.6221 0.0091 -0.0302 0.9975
-0.5995 -0.0175 -0.0358 0.9976
-0.6006 -0.0264 -0.0359 0.9976
-0.6017 -0.0352 -0.0359 0.9976
-0.6028 -0.0441 -0.0360 0.9976
-0.6063 -0.0712 -0.0364 0.9976
-0.6076 -0.0804 -0.0366 0.9975
-0.6089 -0.0896 -0.0367 0.9975
-0.6102 -0.0989 -0.0369 0.9975
-0.6114 -0.1083 -0.0370 0.9975
-0.6138 -0.1273 -0.0374 0.9975
-0.6185 -0.1666 -0.0382 0.9974
-0.6207 -0.1867 -0.0387 0.9974
-0.6249 -0.2183 -0.0395 0.9974
-0.6322 -0.2632 -0.0408 0.9973
-0.6342 -0.2750 -0.0412 0.9972
-0.6406 -0.3118 -0.0425 0.9971
-0.6448 -0.3375 -0.0434 0.9971
-0.6470 -0.3508 -0.0439 0.9971
-0.6513 -0.3782 -0.0449 0.9970
-0.6536 -0.3924 -0.0455 0.9969
-0.6569 -0.4210 -0.0465 0.9969
-0.6594 -0.4502 -0.0476 0.9968
-0.6618 -0.4808 -0.0488 0.9967
-0.6630 -0.4966 -0.0494 0.9967
-0.6641 -0.5129 -0.0500 0.9966
-0.6654 -0.5295 -0.0507 0.9966
-0.7163 -0.6050 -0.0559 0.9962
-0.8167 -0.7105 -0.0646 0.9957
-8.8824 -7.9587 -0.7112 0.9533
-8.1185 -7.9425 -0.6773 0.9555
-7.4277 -7.9329 -0.6481 0.9574
-6.6002 -7.9311 -0.6153 0.9595
-6.4073 -7.9321 -0.6081 0.9600
-6.0483 -7.9522 -0.5958 0.9608
-5.8610 -7.9443 -0.5887 0.9612
-5.2952 -8.1321 -0.5787 0.9619
-5.1894 -8.5032 -0.5940 0.9609
-6.2840 -11.7954 -0.7970 0.9479
-5.7508 -11.1854 -0.7500 0.9509
-5.5344 -11.1627 -0.7430 0.9513
-1.3171 -2.7571 -0.1822 0.9878
-6.4365 -15.1462 -0.9814 0.9362
-5.0827 -15.6430 -0.9808 0.9362
-4.8531 -15.7141 -0.9808 0.9362
-4.6226 -15.7818 -0.9807 0.9362
-3.1873 -12.9626 -0.7960 0.9479
-2.2733 -16.2711 -0.9797 0.9363
-1.3184 -16.3697 -0.9793 0.9363
-0.8393 -16.3980 -0.9791 0.9363
-0.5996 -16.4069 -0.9791 0.9363
-0.3597 -16.4123 -0.9790 0.9363
-0.1199 -16.4143 -0.9789 0.9363
0.1199 -16.4127 -0.9788 0.9363
0.8388 -16.3868 -0.9785 0.9364
1.5556 -16.3295 -0.9782 0.9364
2.2691 -16.2409 -0.9779 0.9364
2.5059 -16.2044 -0.9778 0.9364
2.7421 -16.1645 -0.9777 0.9364
2.9777 -16.1212 -0.9776 0.9364
3.2126 -16.0744 -0.9775 0.9364
3.4469 -16.0241 -0.9774 0.9364
4.8340 -15.6519 -0.9769 0.9365
5.7379 -15.3371 -0.9765 0.9365
5.9608 -15.2503 -0.9764 0.9365
7.2693 -14.6619 -0.9759 0.9365
7.4821 -14.5529 -0.9758 0.9365
7.6933 -14.4408 -0.9757 0.9365
8.2931 -14.0463 -0.9727 0.9367
8.4968 -13.9225 -0.9726 0.9367
8.6986 -13.7957 -0.9726 0.9367
10.2417 -12.6790 -0.9719 0.9368
2.0223 -2.4300 -0.1885 0.9874
2.0342 -2.3730 -0.1864 0.9876
1.9532 -2.1481 -0.1731 0.9884
2.2372 -2.0643 -0.1815 0.9879
2.2781 -2.0412 -0.1824 0.9878
2.3519 -2.0461 -0.1859 0.9876
12.7403 -10.1384 -0.9709 0.9368
12.8863 -9.9505 -0.9709 0.9368
13.2699 -9.9406 -0.9887 0.9357
13.6905 -9.3480 -0.9886 0.9357
13.8248 -9.1464 -0.9885 0.9357
13.9562 -8.9430 -0.9885 0.9357
14.0847 -8.7377 -0.9884 0.9357
14.2102 -8.5305 -0.9884 0.9357
14.3325 -8.3215 -0.9883 0.9357
14.4519 -8.1108 -0.9883 0.9357
14.6814 -7.6843 -0.9882 0.9358
14.7914 -7.4687 -0.9881 0.9358
5.8168 -2.7268 -0.3831 0.9746
15.1999 -6.5908 -0.9880 0.9358
15.2940 -6.3677 -0.9879 0.9358
15.4724 -5.9177 -0.9879 0.9358
15.6377 -5.4627 -0.9878 0.9358
15.9925 -4.3060 -0.9876 0.9358
10.5928 -2.6868 -0.6517 0.9572
10.7366 -2.5569 -0.6582 0.9567
15.9666 -3.3126 -0.9724 0.9367
16.0129 -3.0789 -0.9724 0.9367
16.0560 -2.8445 -0.9724 0.9367
14.9042 -2.4164 -0.9004 0.9413
16.1318 -2.3741 -0.9724 0.9368
16.1645 -2.1381 -0.9723 0.9368
16.1938 -1.9016 -0.9723 0.9368
16.4381 -1.6873 -0.9854 0.9359
16.4950 -1.4499 -0.9874 0.9358
16.5143 -1.2087 -0.9874 0.9358
16.5301 -0.9673 -0.9874 0.9358
16.5424 -0.7256 -0.9874 0.9358
16.5564 -0.2420 -0.9874 0.9358
16.5582 -0.0000 -0.9874 0.9358
16.5565 0.2419 -0.9874 0.9358
16.5512 0.4838 -0.9874 0.9358
16.4950 1.4498 -0.9874 0.9358
16.4722 1.6907 -0.9875 0.9358
16.3829 2.4111 -0.9875 0.9358
16.1646 3.6008 -0.9876 0.9358
16.1106 3.8367 -0.9876 0.9358
16.0532 4.0718 -0.9876 0.9358
15.8606 4.7718 -0.9877 0.9358
12.3480 4.1121 -0.7761 0.9492
12.2453 4.6834 -0.7818 0.9488
10.5592 4.5786 -0.6863 0.9549
15.0021 7.0327 -0.9880 0.9358
14.8983 7.2515 -0.9881 0.9358
12.7363 6.4310 -0.8508 0.9444
12.5794 6.5841 -0.8467 0.9447
11.3695 6.6011 -0.7840 0.9487
11.0887 6.6566 -0.7713 0.9495
10.9649 6.8022 -0.7695 0.9496
10.9339 7.0062 -0.7744 0.9493
13.4425 9.1784 -0.9707 0.9369
13.3077 9.3744 -0.9707 0.9369
13.1700 9.5684 -0.9708 0.9369
12.8863 9.9503 -0.9709 0.9368
12.7404 10.1381 -0.9709 0.9368
12.4402 10.5073 -0.9711 0.9368
12.3209 10.7191 -0.9739 0.9367
11.8417 11.2510 -0.9741 0.9366
11.6768 11.4236 -0.9741 0.9366
9.3149 9.9484 -0.8127 0.9469
8.8128 9.9814 -0.7940 0.9480
7.3991 9.1599 -0.7022 0.9539
10.0846 12.8645 -0.9748 0.9366
9.7059 13.1558 -0.9749 0.9366
9.5134 13.2972 -0.9750 0.9366
9.3189 13.4360 -0.9751 0.9366
8.9237 13.7047 -0.9752 0.9366
8.0366 13.1684 -0.9200 0.9401
7.5328 13.1952 -0.9061 0.9409
7.4695 13.5400 -0.9222 0.9399
7.6933 14.4407 -0.9757 0.9365
7.2694 14.6619 -0.9759 0.9365
7.0550 14.7679 -0.9760 0.9365
6.1822 15.1599 -0.9763 0.9365
5.9606 15.2500 -0.9764 0.9365
5.5137 15.4208 -0.9766 0.9365
2.5344 7.7999 -0.4891 0.9677
2.4016 7.7761 -0.4853 0.9679
2.2846 7.7995 -0.4847 0.9680
2.0906 7.9966 -0.4929 0.9674
3.6803 15.9705 -0.9773 0.9364
3.2127 16.0744 -0.9775 0.9364
2.7421 16.1645 -0.9777 0.9364
1.5556 16.3295 -0.9782 0.9364
1.0780 16.3712 -0.9784 0.9364
0.8388 16.3868 -0.9785 0.9364
0.3597 16.4075 -0.9787 0.9364
0.1199 16.4126 -0.9788 0.9363
-0.5996 16.4069 -0.9791 0.9363
-0.8394 16.3980 -0.9791 0.9363
-1.0790 16.3856 -0.9792 0.9363
-1.3184 16.3697 -0.9793 0.9363
-1.5576 16.3503 -0.9794 0.9363
-2.2733 16.2711 -0.9797 0.9363
-2.5110 16.2377 -0.9798 0.9363
-2.7483 16.2008 -0.9799 0.9363
-2.9850 16.1605 -0.9800 0.9363
-2.5341 9.6930 -0.5975 0.9606
-4.6226 15.7818 -0.9807 0.9362
-4.8531 15.7141 -0.9808 0.9362
-5.0827 15.6430 -0.9808 0.9362
-5.5387 15.4907 -0.9810 0.9362
-5.7649 15.4096 -0.9811 0.9362
-5.9900 15.3250 -0.9812 0.9362
-6.2138 15.2373 -0.9813 0.9362
-6.4364 15.1462 -0.9814 0.9362
-4.0647 9.1896 -0.5992 0.9605
-7.5282 14.6425 -0.9818 0.9362
-7.9542 14.4188 -0.9820 0.9361
-8.1647 14.3023 -0.9821 0.9361
-8.7859 13.9342 -0.9823 0.9361
-8.9893 13.8055 -0.9824 0.9361
-9.1908 13.6738 -0.9825 0.9361
-9.5880 13.4016 -0.9827 0.9361
-9.9771 13.1179 -0.9828 0.9361
-5.6275 6.9667 -0.5341 0.9647
-5.7036 6.4599 -0.5139 0.9661
-5.7283 6.2998 -0.5078 0.9665
-5.8245 5.8672 -0.4930 0.9674
-5.8718 5.5789 -0.4830 0.9681
-5.8933 5.4378 -0.4782 0.9684
-5.9131 5.2982 -0.4735 0.9687
-0.8166 0.7104 -0.0645 0.9957
-0.6653 0.5295 -0.0507 0.9966
-0.6642 0.5129 -0.0500 0.9966
-0.6618 0.4808 -0.0488 0.9967
-0.6606 0.4653 -0.0482 0.9968
-0.6581 0.4354 -0.0471 0.9968
-0.6513 0.3782 -0.0449 0.9970
-0.6491 0.3643 -0.0444 0.9970
-0.6470 0.3508 -0.0439 0.9971
-0.6427 0.3245 -0.0429 0.9971
-0.6406 0.3118 -0.0425 0.9971
-0.6364 0.2870 -0.0416 0.9972
-0.6342 0.2750 -0.0412 0.9972
-0.6321 0.2632 -0.0408 0.9973
-0.6301 0.2516 -0.0405 0.9973
-0.6249 0.2184 -0.0395 0.9974
-0.6219 0.1971 -0.0389 0.9974
-0.6207 0.1868 -0.0387 0.9974
-0.6184 0.1666 -0.0382 0.9974
-0.6173 0.1566 -0.0380 0.9975
-0.6162 0.1467 -0.0378 0.9975
-0.6126 0.1178 -0.0372 0.9975
-0.6102 0.0989 -0.0369 0.9975
-0.6089 0.0896 -0.0367 0.9975
-0.6076 0.0804 -0.0366 0.9975
-0.6050 0.0621 -0.0363 0.9976
-0.6038 0.0531 -0.0361 0.9976
-0.6028 0.0441 -0.0360 0.9976
-0.6006 0.0263 -0.0359 0.9976
-0.5983 0.0088 -0.0357 0.9976
-0.5763 -0.0084 -0.0408 0.9977
-0.5773 -0.0169 -0.0409 0.9977
-0.5783 -0.0254 -0.0410 0.9977
-0.5822 -0.0598 -0.0414 0.9977
-0.5854 -0.0861 -0.0419 0.9976
-0.5876 -0.1041 -0.0422 0.9976
-0.5896 -0.1223 -0.0426 0.9976
-0.5917 -0.1409 -0.0430 0.9976
-0.5936 -0.1598 -0.0435 0.9975
-0.5946 -0.1695 -0.0437 0.9975
-0.5963 -0.1890 -0.0443 0.9975
-0.5975 -0.1990 -0.0446 0.9975
-0.5987 -0.2091 -0.0449 0.9975
-0.6023 -0.2405 -0.0459 0.9974
-0.6035 -0.2512 -0.0463 0.9974
-0.6051 -0.2624 -0.0467 0.9974
-0.6068 -0.2737 -0.0471 0.9973
-0.6119 -0.3090 -0.0485 0.9973
-0.6154 -0.3337 -0.0495 0.9972
-0.6171 -0.3463 -0.0501 0.9972
-0.6222 -0.3860 -0.0518 0.9971
-0.6240 -0.3999 -0.0524 0.9970
-0.6282 -0.4425 -0.0544 0.9969
-0.6289 -0.4570 -0.0550 0.9969
-0.6311 -0.5022 -0.0571 0.9968
-0.6970 -0.6246 -0.0662 0.9963
-0.7909 -0.7298 -0.0762 0.9957
-9.9365 -10.0095 -0.9980 0.9450
-9.4640 -10.1079 -0.9798 0.9460
-6.8036 -7.9366 -0.7397 0.9589
-6.6044 -7.9360 -0.7306 0.9594
-6.4098 -7.9352 -0.7218 0.9599
-5.6736 -7.9303 -0.6900 0.9617
-5.5281 -7.9704 -0.6864 0.9619
-5.7805 -9.4718 -0.7852 0.9565
-6.6808 -12.1106 -0.9787 0.9460
-5.8531 -11.3844 -0.9058 0.9500
-1.2779 -2.7787 -0.2164 0.9878
-5.1853 -11.7231 -0.9071 0.9499
-5.4065 -12.7229 -0.9782 0.9461
-4.8884 -12.5066 -0.9502 0.9476
-4.4617 -13.0786 -0.9778 0.9461
-4.0770 -13.2013 -0.9777 0.9461
-3.1012 -13.4583 -0.9773 0.9461
-2.9040 -13.5011 -0.9772 0.9461
-2.7062 -13.5409 -0.9771 0.9461
-1.9100 -13.6714 -0.9768 0.9461
-1.7099 -13.6967 -0.9767 0.9462
-0.9066 -13.7687 -0.9764 0.9462
-0.7053 -13.7794 -0.9763 0.9462
-0.1007 -13.7936 -0.9761 0.9462
0.5037 -13.7814 -0.9758 0.9462
0.7050 -13.7714 -0.9758 0.9462
1.3075 -13.7239 -0.9755 0.9462
1.7076 -13.6776 -0.9754 0.9462
2.1062 -13.6196 -0.9752 0.9462
3.0935 -13.4241 -0.9748 0.9463
3.2891 -13.3764 -0.9747 0.9463
3.8711 -13.2162 -0.9745 0.9463
4.0636 -13.1573 -0.9744 0.9463
4.2550 -13.0955 -0.9743 0.9463
4.8237 -12.8934 -0.9741 0.9463
5.1975 -12.7449 -0.9740 0.9463
5.5668 -12.5857 -0.9738 0.9463
5.7497 -12.5021 -0.9737 0.9463
6.1117 -12.3270 -0.9736 0.9463
6.6446 -12.0446 -0.9734 0.9463
7.5033 -11.5234 -0.9730 0.9464
7.6704 -11.4118 -0.9730 0.9464
7.9995 -11.1812 -0.9728 0.9464
8.6367 -10.6920 -0.9726 0.9464
1.9655 -2.1617 -0.2067 0.9884
1.9606 -2.0939 -0.2030 0.9886
1.9905 -2.0645 -0.2029 0.9886
2.0512 -2.0663 -0.2060 0.9884
2.2057 -2.0957 -0.2153 0.9879
2.2326 -2.0600 -0.2150 0.9879
2.2732 -2.0367 -0.2160 0.9878
10.6857 -9.0257 -0.9898 0.9455
10.9437 -8.7086 -0.9897 0.9455
11.0692 -8.5474 -0.9896 0.9455
11.1924 -8.3843 -0.9896 0.9455
11.4315 -8.0529 -0.9895 0.9455
11.6608 -7.7147 -0.9894 0.9455
11.9861 -7.1954 -0.9893 0.9455
12.1902 -6.8415 -0.9892 0.9455
12.2884 -6.6624 -0.9891 0.9455
12.5671 -6.1168 -0.9890 0.9455
5.8168 -2.7268 -0.4546 0.9746
12.7396 -5.7466 -0.9890 0.9455
12.8218 -5.5596 -0.9889 0.9455
13.1231 -4.8005 -0.9888 0.9455
13.4368 -3.8293 -0.9887 0.9455
10.5927 -2.6868 -0.7733 0.9571
13.4274 -2.9911 -0.9734 0.9463
13.4695 -2.7945 -0.9734 0.9463
13.5783 -2.2015 -0.9734 0.9463
13.6088 -2.0028 -0.9734 0.9463
13.6365 -1.8037 -0.9734 0.9463
13.8740 -1.6293 -0.9885 0.9455
13.8962 -1.4264 -0.9885 0.9455
13.9317 -1.0197 -0.9885 0.9455
13.9450 -0.8161 -0.9885 0.9455
13.9673 -0.2041 -0.9885 0.9455
13.9688 0.0000 -0.9885 0.9455
13.9554 0.6121 -0.9885 0.9455
13.9450 0.8160 -0.9885 0.9455
13.9317 1.0196 -0.9885 0.9455
13.8488 1.8318 -0.9885 0.9455
13.8207 2.0340 -0.9885 0.9455
13.5909 3.2366 -0.9886 0.9455
13.5424 3.4349 -0.9886 0.9455
13.3797 4.0254 -0.9887 0.9455
13.3198 4.2205 -0.9887 0.9455
13.2570 4.4148 -0.9887 0.9455
10.8914 4.3491 -0.8299 0.9541
10.6156 4.6030 -0.8188 0.9547
10.6306 4.7952 -0.8252 0.9543
12.6547 5.9323 -0.9890 0.9455
12.5671 6.1168 -0.9890 0.9455
12.4769 6.3000 -0.9891 0.9455
12.3840 6.4819 -0.9891 0.9455
12.2884 6.6623 -0.9891 0.9455
12.1903 6.8414 -0.9892 0.9455
12.0895 7.0191 -0.9892 0.9455
11.2246 6.7382 -0.9264 0.9489
11.0776 6.8721 -0.9225 0.9491
11.7718 7.5432 -0.9893 0.9455
11.5474 7.8846 -0.9894 0.9455
11.4315 8.0529 -0.9895 0.9455
11.1083 8.0704 -0.9716 0.9464
10.9897 8.2322 -0.9716 0.9464
10.8688 8.3923 -0.9717 0.9464
10.7455 8.5507 -0.9717 0.9464
10.4922 8.8620 -0.9718 0.9464
10.2299 9.1658 -0.9719 0.9464
10.0954 9.3148 -0.9720 0.9464
9.9588 9.4618 -0.9721 0.9464
9.8200 9.6068 -0.9721 0.9464
9.6792 9.7498 -0.9722 0.9464
9.5362 9.8908 -0.9722 0.9464
9.3149 9.9484 -0.9644 0.9468
8.8128 9.9814 -0.9422 0.9480
7.8281 9.1317 -0.8511 0.9529
7.3991 9.1599 -0.8332 0.9539
8.5041 10.8484 -0.9754 0.9462
8.1846 11.0935 -0.9755 0.9462
8.0221 11.2129 -0.9756 0.9462
7.5246 11.5560 -0.9758 0.9462
7.3554 11.6655 -0.9759 0.9462
7.1847 11.7726 -0.9759 0.9462
7.0124 11.8771 -0.9760 0.9462
6.6634 12.0787 -0.9761 0.9462
6.3085 12.2700 -0.9763 0.9462
5.9481 12.4509 -0.9764 0.9462
5.7660 12.5375 -0.9765 0.9462
5.5826 12.6213 -0.9766 0.9462
5.2122 12.7810 -0.9767 0.9462
5.0253 12.8568 -0.9768 0.9462
4.6482 13.0001 -0.9770 0.9461
4.4581 13.0677 -0.9770 0.9461
2.2845 7.7995 -0.5751 0.9679
2.1795 7.8651 -0.5775 0.9678
2.0906 7.9966 -0.5849 0.9674
2.7080 13.5492 -0.9777 0.9461
2.3113 13.6247 -0.9779 0.9461
1.9125 13.6887 -0.9780 0.9461
1.7124 13.7162 -0.9781 0.9461
1.5120 13.7409 -0.9782 0.9461
0.9086 13.7975 -0.9784 0.9461
0.5051 13.8204 -0.9786 0.9461
0.1011 13.8315 -0.9788 0.9460
-0.3032 13.8309 -0.9789 0.9460
-0.5053 13.8261 -0.9790 0.9460
-0.7073 13.8184 -0.9791 0.9460
-1.1109 13.7941 -0.9793 0.9460
-1.5138 13.7580 -0.9794 0.9460
-2.9123 13.5393 -0.9800 0.9460
-3.6994 13.3503 -0.9803 0.9460
-3.8944 13.2959 -0.9804 0.9460
-4.0886 13.2386 -0.9805 0.9460
-4.2819 13.1785 -0.9805 0.9460
-4.4744 13.1155 -0.9806 0.9459
-5.0460 12.9099 -0.9808 0.9459
-5.2345 12.8358 -0.9809 0.9459
-4.0597 9.1783 -0.7102 0.9606
-4.1265 8.9726 -0.6988 0.9612
-6.3412 12.3337 -0.9814 0.9459
-6.5212 12.2407 -0.9814 0.9459
-6.8771 12.0466 -0.9816 0.9459
-7.2272 11.8422 -0.9817 0.9459
-7.7408 11.5166 -0.9819 0.9459
-8.2397 11.1685 -0.9821 0.9459
-8.5637 10.9245 -0.9822 0.9459
-5.6524 6.7920 -0.6253 0.9652
-5.7742 6.1669 -0.5978 0.9667
-5.8212 5.8639 -0.5847 0.9674
-5.8688 5.5761 -0.5728 0.9681
-0.7909 0.7298 -0.0762 0.9957
-0.6970 0.6245 -0.0662 0.9963
-0.6311 0.5022 -0.0571 0.9968
-0.6297 0.4717 -0.0557 0.9968
-0.6258 0.4140 -0.0531 0.9970
-0.6222 0.3860 -0.0518 0.9971
-0.6204 0.3725 -0.0512 0.9971
-0.6085 0.2852 -0.0476 0.9973
-0.6023 0.2405 -0.0459 0.9974
-0.5946 0.1694 -0.0437 0.9975
