ply
format ascii 1.0
element vertex 1589
property float32 x
property float32 y
property float32 z
property float32 I
end_header
-1.2497 -0.2403 0.1363 0.9949
-1.2530 -0.2791 0.1374 0.9948
-1.2548 -0.2988 0.1381 0.9948
-1.2567 -0.3187 0.1388 0.9948
-1.2659 -0.4011 0.1422 0.9947
-1.2692 -0.4227 0.1432 0.9946
-1.2737 -0.4659 0.1452 0.9946
-1.2760 -0.4880 0.1463 0.9945
-1.2785 -0.5105 0.1474 0.9945
-25.6719 -12.9626 3.0791 0.8907
-26.1338 -13.6786 3.1581 0.8881
-53.1659 -28.8248 6.4750 0.7840
-21.0762 -12.6522 2.6319 0.9058
-20.1836 -12.9333 2.5665 0.9081
-18.0396 -12.7079 2.3625 0.9151
-15.7024 -12.1250 2.1241 0.9233
-35.1285 -29.6712 4.9231 0.8311
-34.6263 -30.1249 4.9139 0.8314
-34.3093 -32.5980 5.0670 0.8266
-33.8306 -33.0971 5.0672 0.8266
-33.3446 -33.5891 5.0674 0.8266
-11.3805 -12.1545 1.7827 0.9352
-8.2594 -9.6348 1.3587 0.9502
-8.0444 -9.6664 1.3464 0.9507
-7.8870 -9.7639 1.3438 0.9508
-7.8927 -10.0684 1.3697 0.9498
-7.5963 -10.2962 1.3699 0.9498
-7.5735 -10.5859 1.3936 0.9490
-7.3866 -10.6501 1.3877 0.9492
-7.2367 -10.7665 1.3889 0.9492
-24.6725 -40.4275 5.0708 0.8265
-24.0803 -40.7855 5.0710 0.8265
-23.4829 -41.1350 5.0713 0.8265
-22.8804 -41.4756 5.0715 0.8265
-6.1614 -12.4273 1.4851 0.9457
-5.9407 -12.9175 1.5223 0.9444
-17.8939 -43.8782 5.0735 0.8264
-17.2517 -44.1371 5.0737 0.8264
-15.9562 -44.6269 5.0742 0.8264
-14.6469 -45.0786 5.0747 0.8264
-13.9874 -45.2901 5.0750 0.8264
-13.3249 -45.4920 5.0753 0.8264
-12.6593 -45.6842 5.0755 0.8264
-11.9911 -45.8667 5.0758 0.8264
-11.6070 -50.3686 5.5341 0.8123
-11.5363 -53.6314 5.8734 0.8020
-11.4564 -57.3214 6.2585 0.7904
-11.3652 -61.5302 6.6992 0.7775
-11.2602 -66.3778 7.2083 0.7627
-11.1380 -72.0239 7.8029 0.7459
-10.9936 -78.6871 8.5065 0.7264
-10.8207 -86.6727 9.3517 0.7037
-1.1745 -12.3281 1.3259 0.9514
-1.0052 -12.4804 1.3405 0.9509
-0.6336 -12.3786 1.3271 0.9514
0.4791 -13.1081 1.4044 0.9486
24.5324 -83.7553 9.3440 0.7039
25.4347 -82.3554 9.2284 0.7070
26.7105 -82.2066 9.2544 0.7063
28.0352 -82.1778 9.2963 0.7052
29.3722 -82.1488 9.3406 0.7040
32.2106 -82.4084 9.4731 0.7005
36.4100 -82.3173 9.6370 0.6962
39.2003 -82.0567 9.7365 0.6936
40.6677 -82.0248 9.8021 0.6919
43.7695 -82.1576 9.9667 0.6876
45.3045 -82.1243 10.0419 0.6857
48.3303 -81.8586 10.1778 0.6822
50.0567 -82.0212 10.2878 0.6794
53.3991 -82.0086 10.4776 0.6746
54.9249 -81.7155 10.5415 0.6729
2.4230 -2.8265 0.3986 0.9851
9.8395 -10.5087 1.5413 0.9437
12.7419 -13.2161 1.9655 0.9288
13.0605 -12.7774 1.9562 0.9291
13.1506 -12.4947 1.9421 0.9296
13.2395 -12.2161 1.9287 0.9301
17.4467 -13.8834 2.3872 0.9142
17.2246 -13.3004 2.3300 0.9162
17.6859 -12.4588 2.3162 0.9167
17.9035 -12.2247 2.3211 0.9165
18.9788 -12.1613 2.4134 0.9133
23.0139 -14.2769 2.8996 0.8968
23.0448 -12.0618 2.7848 0.9007
26.8929 -12.6069 3.1800 0.8874
28.5054 -12.8581 3.3481 0.8818
28.2468 -11.2793 3.2565 0.8848
13.7809 -3.4954 1.5222 0.9444
14.0153 -2.0626 1.5167 0.9446
14.0271 -1.8554 1.5149 0.9447
14.1613 -1.6630 1.5266 0.9443
14.5043 -1.4888 1.5611 0.9430
6.0787 -0.5343 0.6533 0.9758
6.1489 -0.4500 0.6601 0.9755
25.3913 -1.4858 2.7232 0.9027
30.4660 8.6825 3.3917 0.8803
29.0361 9.2004 3.2611 0.8847
24.9463 8.7145 2.8292 0.8992
23.4447 8.5763 2.6728 0.9045
23.5926 9.4208 2.7199 0.9029
23.3450 10.1225 2.7243 0.9027
23.2204 10.4742 2.7273 0.9026
19.5137 9.1476 2.3074 0.9170
19.3130 9.7518 2.3164 0.9166
18.4550 9.6595 2.2302 0.9196
11.8765 10.0315 1.6644 0.9394
2.6639 5.1813 0.6238 0.9768
1.2277 9.8338 1.0610 0.9609
-0.4637 9.0598 0.9713 0.9642
-4.9468 7.1324 0.9293 0.9657
-4.9687 6.9450 0.9143 0.9662
-4.9895 6.7630 0.8998 0.9668
-4.9432 5.7664 0.8132 0.9699
-4.9643 5.6226 0.8030 0.9703
-4.9831 5.4804 0.7930 0.9706
-5.0014 5.3416 0.7835 0.9710
-5.0193 5.2062 0.7743 0.9713
-5.0539 4.9444 0.7570 0.9720
-5.0707 4.8178 0.7489 0.9723
-5.0871 4.6938 0.7411 0.9725
-5.1345 4.3368 0.7196 0.9733
-5.1810 4.0007 0.7008 0.9740
-5.1959 3.8923 0.6951 0.9742
-5.2247 3.6805 0.6842 0.9746
-5.2385 3.5769 0.6791 0.9748
-5.2520 3.4747 0.6742 0.9750
-5.2653 3.3740 0.6695 0.9752
-5.2785 3.2746 0.6651 0.9753
-5.2915 3.1766 0.6608 0.9755
-5.3044 3.0798 0.6567 0.9756
-5.8695 2.8569 0.6989 0.9741
-1.2939 0.5837 0.1520 0.9943
-1.2839 0.5567 0.1498 0.9944
-1.2760 0.4880 0.1463 0.9945
-1.2659 0.4011 0.1422 0.9947
-1.2609 0.3593 0.1404 0.9947
-1.2587 0.3389 0.1396 0.9948
-1.2567 0.3187 0.1388 0.9948
-1.2530 0.2791 0.1374 0.9948
-1.2513 0.2596 0.1368 0.9949
-1.2497 0.2403 0.1363 0.9949
-1.2482 0.2212 0.1357 0.9949
-1.2442 0.1831 0.1346 0.9950
-1.2421 0.1643 0.1341 0.9950
-1.2381 0.1271 0.1332 0.9950
-1.2245 0.0358 0.1312 0.9951
-1.2211 0.0179 0.1307 0.9951
-1.1772 0.0000 0.1129 0.9953
-1.1803 -0.0172 0.1132 0.9953
-1.1903 -0.0696 0.1143 0.9952
-1.2016 -0.1411 0.1160 0.9952
-1.2034 -0.1592 0.1164 0.9951
-1.2054 -0.1774 0.1168 0.9951
-1.2074 -0.1957 0.1173 0.9951
-1.2104 -0.2327 0.1182 0.9951
-1.2148 -0.2893 0.1197 0.9950
-1.2164 -0.3085 0.1203 0.9950
-1.2182 -0.3280 0.1209 0.9949
-1.2200 -0.3477 0.1216 0.9949
-1.2219 -0.3676 0.1223 0.9949
-1.2331 -0.4511 0.1259 0.9947
-1.2351 -0.4724 0.1268 0.9947
-1.2372 -0.4941 0.1277 0.9947
-1.2418 -0.5384 0.1298 0.9946
-26.1398 -12.7229 2.7871 0.8897
-20.7632 -12.8807 2.3425 0.9065
-20.2405 -12.9698 2.3046 0.9079
-44.0458 -29.1404 5.0631 0.8088
-18.4191 -12.5766 2.1382 0.9143
-17.9868 -12.6708 2.1093 0.9154
-16.2521 -12.1746 1.9468 0.9216
-37.3468 -29.7194 4.5757 0.8255
-36.2170 -29.6948 4.4900 0.8285
-36.8355 -33.9880 4.8050 0.8176
-36.8140 -34.9778 4.8684 0.8154
-36.7920 -35.9943 4.9345 0.8132
-36.6779 -36.9468 4.9911 0.8112
-11.4294 -12.2068 1.6032 0.9350
-8.3722 -9.4823 1.2127 0.9504
-2.2917 -2.6734 0.3376 0.9860
-8.1007 -9.7340 1.2141 0.9504
-7.6923 -9.8128 1.1953 0.9511
-28.2028 -44.7290 5.0694 0.8086
-26.2197 -45.9290 5.0702 0.8085
-25.5471 -46.3096 5.0704 0.8085
-15.0308 -29.2351 3.1515 0.8763
-6.1237 -12.3511 1.3216 0.9461
-6.0134 -12.5877 1.3374 0.9455
-5.9034 -12.8362 1.3545 0.9448
-5.7904 -13.0912 1.3723 0.9441
-20.2507 -47.6539 4.9640 0.8122
-19.4264 -47.6361 4.9320 0.8132
-13.3867 -45.7033 4.5657 0.8258
-13.1811 -50.4183 4.9960 0.8111
-11.8891 -51.5929 5.0758 0.8084
-11.5361 -53.6304 5.2591 0.8022
-11.2600 -66.3762 6.4544 0.7630
-11.1377 -72.0219 6.9868 0.7461
-1.1820 -12.4079 1.1949 0.9511
24.7946 -84.6504 8.4564 0.7016
28.0762 -82.2981 8.3364 0.7051
29.4152 -82.2691 8.3761 0.7039
32.1331 -82.2100 8.4621 0.7014
34.9098 -82.1498 8.5573 0.6986
36.3224 -82.1192 8.6085 0.6971
39.2004 -82.0567 8.7183 0.6939
40.6677 -82.0249 8.7771 0.6922
43.6641 -81.9598 8.9030 0.6886
45.1955 -81.9266 8.9701 0.6866
48.3303 -81.8586 9.1135 0.6825
49.9363 -81.8237 9.1899 0.6803
53.1542 -81.6327 9.3389 0.6761
54.9250 -81.7155 9.4392 0.6732
9.8465 -10.8291 1.4032 0.9429
13.3489 -13.4467 1.8165 0.9267
17.4563 -13.4793 2.1144 0.9152
17.5930 -13.1791 2.1074 0.9155
17.6709 -12.0659 2.0514 0.9176
18.3481 -12.1390 2.1091 0.9154
22.4801 -13.0520 2.4921 0.9008
23.0294 -12.9247 2.5318 0.8993
22.8259 -12.3755 2.4892 0.9009
23.5307 -12.3162 2.5462 0.8988
27.4795 -11.9154 2.8715 0.8866
28.1022 -11.7005 2.9183 0.8849
38.6204 -12.8612 3.9024 0.8491
39.4448 -12.4985 3.9669 0.8468
9.5698 -2.7273 0.9540 0.9608
13.8392 -3.5102 1.3688 0.9442
13.6560 -2.8332 1.3371 0.9455
13.5942 -2.4084 1.3236 0.9460
14.0732 -2.0711 1.3637 0.9444
14.5214 -1.7053 1.4017 0.9429
6.0748 -0.4446 0.5839 0.9758
25.4297 -1.4880 2.4421 0.9027
25.3160 -1.1104 2.4294 0.9032
30.5692 8.7119 3.0473 0.8801
28.9113 9.1609 2.9075 0.8853
29.4126 9.7949 2.9720 0.8829
25.0536 8.7520 2.5442 0.8988
23.3763 8.5513 2.3863 0.9048
23.6621 9.0500 2.4287 0.9032
23.4465 10.1666 2.4500 0.9024
23.3637 10.5388 2.4572 0.9021
19.7214 9.2450 2.0881 0.9162
18.6244 9.7481 2.0153 0.9190
17.7275 9.9491 1.9489 0.9216
-0.4637 9.0593 0.8696 0.9642
-4.6093 7.3102 0.8285 0.9659
-4.9206 7.3206 0.8456 0.9652
-4.9576 6.9295 0.8168 0.9663
-4.9784 6.7480 0.8039 0.9669
-5.0019 6.5764 0.7921 0.9673
-4.9193 5.9111 0.7373 0.9696
-4.9408 5.7636 0.7278 0.9700
-4.9601 5.6178 0.7185 0.9703
-5.0151 5.2018 0.6927 0.9714
-5.0666 4.8139 0.6700 0.9723
-5.0992 4.5689 0.6564 0.9729
-5.1151 4.4502 0.6500 0.9731
-5.1619 4.1077 0.6324 0.9738
-5.1770 3.9976 0.6271 0.9741
-5.2331 3.5732 0.6075 0.9749
-5.2600 3.3705 0.5989 0.9752
-5.3244 2.8867 0.5806 0.9760
-6.1711 2.8929 0.6534 0.9730
-1.2418 0.5385 0.1298 0.9946
-1.2395 0.5161 0.1287 0.9946
-1.2372 0.4940 0.1277 0.9947
-1.2331 0.4511 0.1259 0.9947
-1.2300 0.4297 0.1249 0.9948
-1.2200 0.3477 0.1216 0.9949
-1.2182 0.3280 0.1209 0.9949
-1.2118 0.2514 0.1186 0.9950
-1.2035 0.1592 0.1164 0.9951
-1.2016 0.1411 0.1160 0.9952
-1.1998 0.1232 0.1156 0.9952
-1.1903 0.0696 0.1143 0.9952
-1.1869 0.0521 0.1139 0.9952
-1.1804 0.0173 0.1132 0.9953
-1.1395 0.0000 0.0965 0.9954
-1.1484 -0.0504 0.0974 0.9954
-1.1516 -0.0674 0.0977 0.9954
-1.1582 -0.1018 0.0985 0.9953
-1.1616 -0.1192 0.0989 0.9953
-1.1672 -0.1544 0.0997 0.9953
-1.1690 -0.1721 0.1001 0.9953
-1.1736 -0.2256 0.1012 0.9952
-1.1760 -0.2620 0.1021 0.9952
-1.1773 -0.2804 0.1025 0.9952
-1.1787 -0.2990 0.1030 0.9951
-1.1802 -0.3177 0.1035 0.9951
-1.1818 -0.3368 0.1041 0.9951
-1.1834 -0.3560 0.1047 0.9951
-1.1851 -0.3755 0.1053 0.9950
-1.1929 -0.4364 0.1076 0.9949
-1.1957 -0.4573 0.1084 0.9949
-1.1986 -0.4786 0.1093 0.9948
-1.2004 -0.4998 0.1101 0.9948
-26.0089 -12.6593 2.4500 0.8904
-26.2045 -13.2315 2.4864 0.8888
-22.1533 -11.5952 2.1178 0.9045
-21.3050 -12.3697 2.0866 0.9058
-20.6695 -12.8226 2.0602 0.9070
-43.7280 -29.8578 4.4847 0.8085
-42.3419 -29.8278 4.3868 0.8123
-41.0148 -29.7990 4.2939 0.8159
-17.1575 -12.8528 1.8157 0.9175
-38.5208 -29.7448 4.1221 0.8225
-37.3468 -29.7194 4.0425 0.8256
-34.6259 -30.1245 3.8873 0.8317
-36.7918 -35.9941 4.3594 0.8133
-36.7692 -37.0388 4.4204 0.8110
-11.4786 -12.2593 1.4224 0.9348
-8.3213 -9.4248 1.0649 0.9508
-2.2907 -2.6722 0.2981 0.9860
-7.4655 -10.4349 1.0867 0.9498
-26.3619 -47.7866 4.6224 0.8033
-15.5814 -29.2471 2.8068 0.8754
-15.0308 -29.2351 2.7842 0.8764
-13.6311 -29.6392 2.7631 0.8773
-17.8083 -47.6009 4.3046 0.8154
-16.2275 -47.5666 4.2568 0.8173
-14.8603 -45.7353 4.0730 0.8244
-13.1808 -50.4174 4.4138 0.8112
-13.1173 -53.3481 4.6530 0.8021
-13.0465 -56.6156 4.9209 0.7920
-12.6019 -58.5853 5.0755 0.7862
-11.3647 -61.5275 5.2994 0.7779
-11.1374 -72.0203 6.1725 0.7464
-10.9930 -78.6828 6.7290 0.7269
-10.8200 -86.6675 7.3975 0.7043
-1.1796 -12.3829 1.0536 0.9513
0.4789 -13.1049 1.1107 0.9487
28.0762 -82.2981 7.3649 0.7053
29.4152 -82.2691 7.4000 0.7042
30.7672 -82.2397 7.4370 0.7029
32.1331 -82.2101 7.4760 0.7016
34.9098 -82.1498 7.5601 0.6989
37.7523 -82.0881 7.6527 0.6958
43.6642 -81.9599 7.8655 0.6888
45.1955 -81.9266 7.9248 0.6869
48.3303 -81.8586 8.0515 0.6828
49.9363 -81.8237 8.1190 0.6806
54.9250 -81.7155 8.3393 0.6735
2.4231 -2.8266 0.3153 0.9852
9.7706 -10.7456 1.2301 0.9434
18.0312 -14.3486 1.9517 0.9116
18.1881 -14.0444 1.9463 0.9119
18.0125 -13.4933 1.9062 0.9136
18.0996 -12.7502 1.8752 0.9150
18.0995 -12.3584 1.8563 0.9158
18.2810 -12.0946 1.8566 0.9158
22.4706 -13.4893 2.2198 0.9001
22.4912 -13.0584 2.2028 0.9009
23.4447 -12.2712 2.2413 0.8992
26.7479 -13.0189 2.5196 0.8874
27.1837 -12.7432 2.5428 0.8865
28.1526 -11.2417 2.5675 0.8854
32.6943 -12.5045 2.9648 0.8689
34.2529 -12.5300 3.0892 0.8638
38.4990 -12.1988 3.4206 0.8503
14.0559 -3.5652 1.2282 0.9435
13.6980 -2.8420 1.1849 0.9454
13.6518 -2.6249 1.1775 0.9457
13.7547 -2.4369 1.1831 0.9455
14.1284 -2.0793 1.2095 0.9443
14.0973 -1.8647 1.2044 0.9445
14.4712 -1.6994 1.2341 0.9432
37.4274 8.9132 3.2587 0.8569
37.8627 10.1947 3.3211 0.8544
30.3916 9.1434 2.6881 0.8804
29.2334 9.2630 2.5973 0.8842
29.3641 9.7787 2.6214 0.8832
23.2992 10.1027 2.1509 0.9031
23.5085 10.6041 2.1843 0.9017
19.2252 9.7074 1.8241 0.9172
17.8310 9.6674 1.7179 0.9218
2.6640 5.1816 0.4935 0.9769
1.2221 9.7882 0.8355 0.9612
-4.6093 7.3102 0.7320 0.9659
-4.8973 7.5212 0.7602 0.9646
-4.9243 7.0999 0.7318 0.9659
-4.9467 6.9142 0.7201 0.9664
-4.9674 6.7331 0.7087 0.9670
-5.0176 6.4009 0.6889 0.9679
-4.9166 5.9079 0.6510 0.9696
-4.9559 5.6131 0.6342 0.9704
-5.0306 5.0675 0.6048 0.9717
-5.0482 4.9388 0.5982 0.9720
-5.0654 4.8128 0.5918 0.9723
-5.0988 4.5686 0.5799 0.9729
-5.1139 4.4491 0.5741 0.9732
-5.1281 4.3314 0.5685 0.9734
-5.1431 4.2170 0.5633 0.9737
-5.1738 3.9951 0.5537 0.9741
-5.2160 3.6744 0.5404 0.9747
-5.2285 3.5700 0.5362 0.9749
-5.2413 3.4676 0.5323 0.9751
-5.2547 3.3671 0.5286 0.9753
-5.2679 3.2680 0.5251 0.9754
-5.3316 2.7907 0.5097 0.9761
-1.2298 0.5765 0.1150 0.9946
-1.2044 0.5434 0.1119 0.9947
-1.2024 0.5214 0.1110 0.9948
-1.1986 0.4786 0.1093 0.9948
-1.1958 0.4573 0.1084 0.9949
-1.1929 0.4364 0.1076 0.9949
-1.1902 0.4158 0.1068 0.9950
-1.1802 0.3178 0.1035 0.9951
-1.1760 0.2620 0.1021 0.9952
-1.1485 0.0504 0.0974 0.9954
-1.1454 0.0335 0.0971 0.9954
-1.1068 -0.0162 0.0814 0.9956
-1.1096 -0.0324 0.0816 0.9956
-1.1184 -0.0818 0.0825 0.9955
-1.1215 -0.0986 0.0828 0.9955
-1.1247 -0.1154 0.0832 0.9955
-1.1279 -0.1324 0.0835 0.9955
-1.1346 -0.1670 0.0843 0.9954
-1.1365 -0.1842 0.0847 0.9954
-1.1434 -0.2900 0.0868 0.9953
-1.1460 -0.3266 0.0876 0.9952
-1.1488 -0.3640 0.0886 0.9952
-1.1508 -0.3832 0.0892 0.9951
-1.1530 -0.4028 0.0898 0.9951
-1.1603 -0.4633 0.0919 0.9950
-1.1629 -0.4842 0.0926 0.9950
-1.1690 -0.5480 0.0950 0.9948
-1.2434 -0.6052 0.1017 0.9945
-1.4718 -0.7704 0.1222 0.9934
-21.4114 -12.4315 1.8209 0.9055
-21.0355 -12.6278 1.8045 0.9063
-46.6962 -29.9222 4.0789 0.8006
-45.1777 -29.8893 3.9840 0.8047
-43.7280 -29.8579 3.8942 0.8087
-42.3419 -29.8277 3.8092 0.8124
-39.7424 -29.7713 3.6521 0.8194
-37.3468 -29.7194 3.5103 0.8258
-36.2170 -29.6949 3.4445 0.8287
-35.1285 -29.6712 3.3819 0.8316
-34.6257 -30.1244 3.3755 0.8319
-34.6066 -31.0076 3.4174 0.8300
-36.8351 -33.9877 3.6861 0.8179
-36.7689 -37.0386 3.8384 0.8111
-36.7456 -38.1130 3.8937 0.8087
-36.7216 -39.2193 3.9515 0.8061
-8.3259 -9.4300 0.9252 0.9508
-2.2897 -2.6710 0.2588 0.9860
-7.9183 -9.5148 0.9104 0.9516
-7.7791 -9.6304 0.9105 0.9516
-7.6086 -10.0037 0.9244 0.9508
-7.5096 -10.1789 0.9303 0.9505
-7.1637 -10.6579 0.9445 0.9498
-7.0423 -10.8153 0.9492 0.9496
-6.8175 -10.8123 0.9401 0.9500
-29.2013 -47.8482 4.1227 0.7987
-28.2379 -47.8273 4.0849 0.8003
-27.2916 -47.8067 4.0486 0.8019
-15.5814 -29.2471 2.4372 0.8755
-15.0308 -29.2351 2.4177 0.8765
-13.9552 -29.2118 2.3810 0.8782
-20.2507 -47.6539 3.8081 0.8125
-17.8083 -47.6009 3.7379 0.8156
-14.8603 -45.7353 3.5368 0.8246
-14.1199 -45.7192 3.5192 0.8254
-13.3868 -45.7033 3.5026 0.8261
-13.2379 -47.7721 3.6459 0.8197
-13.1806 -50.4166 3.8326 0.8114
-13.1171 -53.3473 4.0404 0.8022
-13.0463 -56.6145 4.2729 0.7921
-12.9668 -60.2818 4.5349 0.7809
-12.5351 -67.8634 5.0756 0.7582
-11.5430 -68.0446 5.0760 0.7582
-1.2193 -12.7988 0.9456 0.9497
25.2457 -86.1906 6.6054 0.6975
26.7820 -82.4262 6.3742 0.7064
29.4825 -82.4573 6.4405 0.7038
33.5137 -82.1802 6.5274 0.7005
34.9099 -82.1498 6.5648 0.6991
37.8706 -82.3456 6.6660 0.6952
39.2004 -82.0567 6.6883 0.6944
40.6677 -82.0249 6.7334 0.6927
43.7168 -82.0587 6.8382 0.6887
46.7505 -81.8929 6.9353 0.6851
48.3303 -81.8586 6.9914 0.6830
51.5698 -81.7883 7.1112 0.6785
53.2322 -81.7522 7.1749 0.6762
2.4341 -2.7569 0.2705 0.9854
9.7704 -10.7454 1.0681 0.9434
18.1526 -14.0170 1.6868 0.9121
17.9097 -13.4163 1.6458 0.9142
23.3874 -14.0396 2.0062 0.8964
27.3309 -12.8123 2.2200 0.8860
27.7761 -12.5291 2.2411 0.8850
27.8985 -12.0970 2.2364 0.8852
28.7863 -11.9854 2.2933 0.8824
37.5066 -12.4903 2.9074 0.8534
37.5650 -11.9029 2.8982 0.8538
38.3698 -11.5437 2.9469 0.8515
45.0131 -12.1200 3.4285 0.8295
13.9972 -3.5503 1.0620 0.9437
13.9187 -2.4659 1.0396 0.9449
14.1639 -2.0845 1.0529 0.9442
14.1326 -1.8694 1.0485 0.9444
6.0720 -0.6232 0.4489 0.9758
6.0526 -0.5320 0.4469 0.9759
6.0949 -0.4461 0.4495 0.9758
24.7548 -1.4485 1.8237 0.9053
54.3226 9.6240 4.0575 0.8015
53.8059 10.3455 4.0297 0.8027
37.9815 9.0453 2.8715 0.8550
37.4269 9.4931 2.8398 0.8565
37.1599 10.0055 2.8303 0.8570
37.4694 10.6784 2.8655 0.8553
28.8377 10.0738 2.2466 0.8847
23.6037 9.4252 1.8693 0.9031
24.3409 10.9796 1.9639 0.8984
6.2450 7.9666 0.7445 0.9602
6.0576 7.9644 0.7359 0.9607
2.6641 5.1816 0.4285 0.9769
-4.3363 9.4290 0.7633 0.9592
-2.5404 5.1239 0.4206 0.9773
-2.5457 4.9514 0.4095 0.9779
-2.5861 4.6878 0.3938 0.9788
-2.6172 4.4328 0.3786 0.9796
-2.7906 4.0236 0.3601 0.9806
-2.8533 3.9882 0.3607 0.9805
-2.9513 4.0003 0.3656 0.9803
-5.0354 6.2337 0.5894 0.9684
-4.9157 5.9068 0.5652 0.9696
-4.9360 5.7580 0.5578 0.9700
-4.9559 5.6130 0.5507 0.9704
-5.0482 4.9387 0.5194 0.9721
-5.1113 4.4469 0.4983 0.9732
-5.1255 4.3293 0.4934 0.9734
-5.1994 3.7776 0.4727 0.9746
-5.2247 3.5675 0.4653 0.9749
-5.2370 3.4648 0.4618 0.9751
-5.2626 3.2648 0.4555 0.9755
-5.2886 3.0705 0.4498 0.9758
-5.3013 2.9753 0.4471 0.9759
-1.4753 0.7998 0.1234 0.9933
-1.2434 0.6052 0.1017 0.9945
-1.1690 0.5480 0.0950 0.9948
-1.1655 0.5054 0.0934 0.9949
-1.1578 0.4428 0.0912 0.9950
-1.1530 0.4028 0.0898 0.9951
-1.1508 0.3832 0.0892 0.9951
-1.1488 0.3640 0.0886 0.9952
-1.1473 0.3452 0.0881 0.9952
-1.1460 0.3266 0.0876 0.9952
-1.1447 0.3082 0.0872 0.9953
-1.1435 0.2900 0.0868 0.9953
-1.1423 0.2720 0.0864 0.9953
-1.1346 0.1670 0.0843 0.9954
-1.1279 0.1325 0.0835 0.9955
-1.1247 0.1154 0.0832 0.9955
-1.1185 0.0819 0.0825 0.9955
-1.1154 0.0653 0.0822 0.9955
-1.1096 0.0325 0.0816 0.9956
-1.1068 0.0162 0.0814 0.9956
-1.0375 -0.0152 0.0648 0.9959
-1.0421 -0.0304 0.0651 0.9958
-1.0538 -0.0616 0.0659 0.9958
-1.0598 -0.0776 0.0663 0.9958
-1.0725 -0.1101 0.0673 0.9957
-1.0792 -0.1267 0.0678 0.9957
-1.0860 -0.1436 0.0684 0.9956
-1.1057 -0.1958 0.0701 0.9955
-1.1074 -0.2297 0.0706 0.9955
-1.1092 -0.2642 0.0712 0.9954
-1.1113 -0.2992 0.0718 0.9954
-1.1124 -0.3170 0.0722 0.9954
-1.1135 -0.3350 0.0726 0.9954
-1.1147 -0.3532 0.0730 0.9953
-1.1202 -0.4098 0.0744 0.9952
-1.1245 -0.4490 0.0756 0.9952
-1.1290 -0.4895 0.0768 0.9951
-1.1315 -0.5104 0.0775 0.9950
-1.1716 -0.5702 0.0813 0.9948
-1.2578 -0.6351 0.0879 0.9944
-1.4516 -0.8428 0.1048 0.9933
-46.6962 -29.9223 3.4615 0.8007
-45.1778 -29.8893 3.3810 0.8048
-42.3420 -29.8278 3.2326 0.8126
-41.0148 -29.7989 3.1642 0.8161
-38.5209 -29.7449 3.0376 0.8228
-37.3468 -29.7194 2.9789 0.8259
-36.2170 -29.6948 2.9231 0.8289
-35.1285 -29.6712 2.8700 0.8317
-34.6064 -31.0075 2.9001 0.8301
-36.8348 -33.9874 3.1282 0.8180
-36.6247 -34.7980 3.1532 0.8167
-36.5803 -36.8485 3.2407 0.8121
-36.5571 -37.9175 3.2874 0.8097
-8.3995 -9.5134 0.7921 0.9504
-2.2887 -2.6699 0.2195 0.9860
-2.2710 -2.7289 0.2216 0.9859
-7.7808 -9.6323 0.7728 0.9516
-7.6809 -9.7982 0.7771 0.9513
-7.5157 -9.8816 0.7749 0.9515
-7.4062 -10.0387 0.7786 0.9512
-7.2843 -10.1816 0.7814 0.9511
-7.2219 -10.4126 0.7909 0.9505
-7.1731 -10.6719 0.8026 0.9498
-6.7624 -10.7250 0.7913 0.9505
-27.2916 -47.8067 3.4358 0.8020
-26.3619 -47.7866 3.4063 0.8035
-14.4889 -29.2234 2.0358 0.8775
-13.9552 -29.2118 2.0206 0.8783
-13.6308 -29.6386 2.0361 0.8774
-13.6064 -30.7620 2.0994 0.8739
-20.1859 -47.5012 3.2213 0.8131
-17.0135 -47.5837 3.1540 0.8167
-14.8603 -45.7353 3.0014 0.8247
-14.1199 -45.7193 2.9865 0.8255
-13.2377 -47.7714 3.0940 0.8198
-13.1169 -53.3463 3.4287 0.8024
-13.0461 -56.6135 3.6261 0.7923
-12.4280 -80.3663 5.0756 0.7219
-11.2535 -80.5467 5.0761 0.7218
-10.6081 -96.4096 6.0536 0.6779
26.5807 -95.9222 6.2125 0.6710
25.2279 -86.1299 5.6016 0.6979
28.1440 -82.4968 5.4403 0.7052
30.8415 -82.4382 5.4936 0.7027
32.2106 -82.4085 5.5224 0.7014
33.5137 -82.1802 5.5393 0.7007
34.9099 -82.1498 5.5710 0.6993
37.8433 -82.2862 5.6529 0.6956
39.2004 -82.0567 5.6759 0.6946
40.6677 -82.0249 5.7142 0.6929
42.1553 -81.9927 5.7542 0.6911
43.7696 -82.1577 5.8101 0.6886
45.3046 -82.1243 5.8539 0.6867
56.6498 -81.6781 6.2040 0.6714
2.4342 -2.7569 0.2295 0.9854
9.7701 -10.7451 0.9064 0.9435
24.4298 -14.1840 1.7631 0.8930
23.1902 -13.0150 1.6598 0.8989
23.8473 -12.9292 1.6931 0.8970
27.9055 -12.5876 1.9107 0.8845
28.0377 -12.1573 1.9074 0.8847
33.1903 -13.2533 2.2306 0.8666
33.1430 -12.6762 2.2147 0.8674
34.3966 -12.5826 2.2860 0.8635
38.0826 -13.3034 2.5177 0.8507
37.7201 -12.5614 2.4814 0.8527
9.5696 -2.7272 0.6211 0.9609
47.7431 -12.1098 3.0742 0.8209
13.3726 -3.1846 0.8580 0.9464
14.0051 -2.4812 0.8877 0.9446
14.0516 -2.2782 0.8885 0.9445
14.1415 -1.8705 0.8903 0.9444
18.2924 -2.1481 1.1495 0.9288
6.0669 -0.5333 0.3801 0.9759
6.0176 -0.4404 0.3766 0.9761
25.1745 -1.4731 1.5739 0.9039
90.3908 -2.6424 5.6441 0.6960
90.4431 -1.3217 5.6455 0.6959
58.8345 9.5389 3.7200 0.7875
48.6161 10.0864 3.0989 0.8196
38.3633 8.5458 2.4531 0.8543
37.6123 10.7191 2.4410 0.8549
37.6951 11.3408 2.4569 0.8541
29.7884 9.9200 1.9596 0.8818
29.4535 10.2890 1.9472 0.8825
23.9123 9.9560 1.6167 0.9014
20.1278 9.7968 1.3972 0.9142
19.3377 10.1215 1.3623 0.9162
18.0970 9.8116 1.2848 0.9208
6.1325 7.8230 0.6204 0.9609
5.8956 7.9913 0.6198 0.9610
-0.4636 9.0579 0.5661 0.9643
-2.4503 5.3280 0.3660 0.9768
-2.4693 5.1689 0.3575 0.9773
-2.4953 5.0328 0.3506 0.9777
-2.5203 4.9020 0.3440 0.9782
-2.5757 4.5120 0.3243 0.9794
-2.5915 4.3893 0.3181 0.9798
-2.6089 4.2748 0.3126 0.9801
-2.6790 4.1144 0.3064 0.9805
-2.7017 4.0195 0.3023 0.9808
-2.7790 3.8843 0.2981 0.9810
-3.0713 3.9180 0.3107 0.9802
-3.1817 3.9389 0.3160 0.9799
-3.3066 3.9734 0.3226 0.9795
-3.6000 4.0775 0.3395 0.9784
-4.9941 5.3337 0.4560 0.9711
-5.0125 5.1991 0.4507 0.9715
-5.0482 4.9387 0.4408 0.9721
-5.0643 4.8117 0.4360 0.9724
-5.0794 4.6868 0.4314 0.9727
-5.1367 4.2117 0.4146 0.9737
-5.1523 4.1000 0.4110 0.9740
-5.1957 3.7749 0.4008 0.9746
-5.2085 3.6691 0.3976 0.9748
-5.2210 3.5650 0.3946 0.9750
-5.2574 3.2615 0.3861 0.9755
-5.2704 3.1639 0.3837 0.9757
-1.4446 0.8108 0.1034 0.9934
-1.2578 0.6351 0.0879 0.9944
-1.1290 0.4895 0.0768 0.9951
-1.1267 0.4691 0.0762 0.9951
-1.1147 0.3532 0.0730 0.9953
-1.1135 0.3350 0.0726 0.9954
-1.1123 0.3170 0.0722 0.9954
-1.1102 0.2816 0.0715 0.9954
-1.1074 0.2298 0.0706 0.9955
-1.1065 0.2128 0.0703 0.9955
-1.1057 0.1959 0.0701 0.9955
-1.0860 0.1437 0.0684 0.9956
-1.0792 0.1267 0.0678 0.9957
-1.0725 0.1101 0.0673 0.9957
-1.0661 0.0937 0.0668 0.9957
-1.0599 0.0776 0.0663 0.9958
-1.0421 0.0304 0.0651 0.9958
-1.0375 0.0152 0.0648 0.9959
-0.9762 -0.0285 0.0501 0.9961
-0.9845 -0.0576 0.0506 0.9961
-0.9897 -0.0724 0.0509 0.9960
-1.0006 -0.1027 0.0516 0.9960
-1.0063 -0.1182 0.0520 0.9960
-1.0180 -0.1498 0.0528 0.9959
-1.0242 -0.1661 0.0532 0.9959
-1.0305 -0.1826 0.0537 0.9958
-1.0361 -0.1992 0.0541 0.9958
-1.0384 -0.2154 0.0544 0.9958
-1.0407 -0.2318 0.0547 0.9957
-1.0483 -0.2822 0.0557 0.9957
-1.0569 -0.3349 0.0569 0.9956
-1.0621 -0.3537 0.0574 0.9955
-1.0733 -0.3927 0.0586 0.9954
-1.0767 -0.4300 0.0595 0.9954
-1.0867 -0.5289 0.0620 0.9952
-1.1839 -0.5978 0.0680 0.9947
-1.4171 -0.8228 0.0841 0.9935
-1.4185 -0.8516 0.0849 0.9934
-1.4486 -0.8986 0.0874 0.9932
-46.6963 -29.9223 2.8449 0.8008
-42.8455 -30.1825 2.6884 0.8107
-37.3468 -29.7194 2.4483 0.8260
-36.2170 -29.6949 2.4024 0.8290
-34.6062 -31.0073 2.3835 0.8302
-36.8346 -33.9873 2.5709 0.8181
-36.8132 -34.9770 2.6048 0.8160
-36.7911 -35.9934 2.6402 0.8137
-9.5094 -9.8633 0.7028 0.9466
-8.3538 -9.4616 0.6475 0.9507
-2.2878 -2.6687 0.1803 0.9860
-2.2682 -2.7255 0.1819 0.9859
-7.8203 -9.6814 0.6384 0.9514
-7.4118 -10.0463 0.6404 0.9512
-14.4889 -29.2234 1.6732 0.8775
-13.6307 -29.6383 1.6734 0.8775
-3.7047 -8.3757 0.4698 0.9640
-3.2593 -8.3386 0.4593 0.9648
-3.1252 -8.3536 0.4575 0.9649
-2.9917 -8.3673 0.4558 0.9650
-2.8593 -8.3814 0.4543 0.9652
-2.6145 -8.4655 0.4545 0.9651
-13.3867 -45.7033 2.4429 0.8263
-13.0459 -56.6125 2.9801 0.7924
-12.9663 -60.2795 3.1629 0.7812
-12.3559 -88.4372 4.5806 0.6993
-10.8232 -98.3647 5.0762 0.6728
-1.2144 -12.7475 0.6569 0.9500
0.4788 -13.1002 0.6724 0.9488
24.6468 -88.9435 4.7344 0.6910
24.7962 -84.6562 4.5250 0.7024
25.4347 -82.3555 4.4214 0.7081
26.7496 -82.3270 4.4404 0.7070
30.7672 -82.2397 4.5042 0.7035
32.1331 -82.2101 4.5278 0.7022
37.7523 -82.0882 4.6348 0.6964
40.6677 -82.0249 4.6964 0.6930
42.1553 -81.9927 4.7293 0.6912
45.1295 -81.8069 4.7926 0.6878
46.7505 -81.8929 4.8371 0.6854
48.3303 -81.8586 4.8763 0.6834
53.3606 -81.9495 5.0164 0.6759
54.9250 -81.7155 5.0506 0.6741
56.6498 -81.6780 5.0989 0.6716
2.4342 -2.7570 0.1887 0.9854
9.7699 -10.7449 0.7450 0.9435
24.0965 -13.0643 1.4060 0.8960
28.3195 -11.7910 1.5736 0.8844
34.1054 -12.4761 1.8629 0.8646
38.2759 -12.7465 2.0694 0.8508
44.0573 -11.8627 2.3405 0.8330
13.9744 -2.6869 0.7300 0.9446
14.0673 -2.4923 0.7328 0.9444
14.1140 -2.2884 0.7335 0.9443
14.1607 -2.0840 0.7342 0.9443
14.2036 -1.8787 0.7349 0.9442
18.3418 -2.1539 0.9473 0.9287
6.1447 -0.6307 0.3169 0.9756
5.9806 -0.5257 0.3080 0.9762
5.9619 -0.4363 0.3066 0.9763
6.0063 -0.3515 0.3086 0.9762
89.7206 -2.6228 4.6043 0.6980
90.2168 -1.3184 4.6283 0.6967
71.5830 9.4684 3.7040 0.7489
54.1032 8.7718 2.8116 0.8029
38.4853 8.5730 2.0225 0.8539
37.9082 10.8034 2.0220 0.8540
21.0911 9.5137 1.1869 0.9115
19.4820 9.8371 1.1195 0.9163
19.1879 10.0431 1.1109 0.9169
18.9456 10.2717 1.1055 0.9173
6.1034 7.7859 0.5075 0.9612
5.8688 7.9548 0.5071 0.9612
5.8305 8.1496 0.5140 0.9607
1.2190 9.7643 0.5048 0.9614
-2.3854 5.6134 0.3129 0.9759
-2.4105 5.4497 0.3057 0.9764
-2.4336 5.2917 0.2988 0.9769
-2.4702 4.9822 0.2853 0.9780
-2.4954 4.8536 0.2800 0.9784
-2.5336 4.5927 0.2691 0.9792
-2.5847 4.2352 0.2545 0.9803
-2.6018 4.1263 0.2502 0.9807
-2.6434 3.9327 0.2431 0.9812
-2.7986 3.7934 0.2418 0.9813
-2.9876 3.8111 0.2484 0.9808
-5.0125 5.1991 0.3705 0.9715
-5.0462 4.9369 0.3621 0.9721
-5.0769 4.6844 0.3543 0.9727
-5.1062 4.4424 0.3472 0.9733
-5.1205 4.3250 0.3438 0.9735
-5.1342 4.2096 0.3406 0.9738
-5.1643 3.9878 0.3347 0.9742
-5.1786 3.8794 0.3319 0.9744
-5.1919 3.7722 0.3292 0.9746
-5.2047 3.6665 0.3266 0.9748
-5.2172 3.5624 0.3241 0.9750
-5.2417 3.3588 0.3193 0.9754
-1.4486 0.8987 0.0874 0.9932
-1.4185 0.8516 0.0849 0.9934
-1.4171 0.7954 0.0834 0.9935
-1.4187 0.7692 0.0828 0.9936
-1.1839 0.5979 0.0680 0.9947
-1.0867 0.5289 0.0620 0.9952
-1.0845 0.5084 0.0614 0.9952
-1.0804 0.4685 0.0604 0.9953
-1.0767 0.4300 0.0595 0.9954
-1.0704 0.3739 0.0582 0.9955
-1.0569 0.3349 0.0569 0.9956
-1.0539 0.3171 0.0565 0.9956
-1.0457 0.2652 0.0553 0.9957
-1.0431 0.2484 0.0550 0.9957
-1.0407 0.2318 0.0547 0.9957
-1.0361 0.1992 0.0541 0.9958
-1.0181 0.1498 0.0528 0.9959
-1.0006 0.1027 0.0516 0.9960
-0.9951 0.0875 0.0512 0.9960
-0.9845 0.0576 0.0506 0.9961
-0.9803 0.0430 0.0503 0.9961
-0.9723 0.0142 0.0499 0.9961
-0.9115 0.0000 0.0366 0.9964
-0.9219 -0.0404 0.0371 0.9963
-0.9255 -0.0541 0.0373 0.9963
-0.9292 -0.0680 0.0374 0.9963
-0.9331 -0.0820 0.0376 0.9963
-0.9379 -0.0962 0.0379 0.9962
-0.9634 -0.1707 0.0393 0.9961
-0.9729 -0.2018 0.0399 0.9960
-0.9851 -0.2963 0.0413 0.9959
-0.9874 -0.3128 0.0416 0.9959
-0.9938 -0.3309 0.0421 0.9958
-1.0158 -0.3886 0.0437 0.9957
-1.0229 -0.4259 0.0445 0.9956
-1.0243 -0.4441 0.0449 0.9955
-1.0257 -0.4627 0.0452 0.9955
-1.0305 -0.5203 0.0464 0.9954
-1.0322 -0.5402 0.0468 0.9953
-1.2465 -0.6758 0.0570 0.9943
-1.4129 -0.7930 0.0651 0.9935
-1.4123 -0.8200 0.0656 0.9935
-1.4127 -0.8480 0.0662 0.9934
-1.4222 -0.8823 0.0673 0.9933
-46.6963 -29.9223 2.2291 0.8009
-44.2481 -30.2130 2.1534 0.8070
-41.5026 -30.1534 2.0618 0.8143
-37.3468 -29.7194 1.9183 0.8261
-34.6252 -30.1239 1.8446 0.8322
-36.8344 -33.9871 2.0144 0.8182
-36.8130 -34.9768 2.0409 0.8160
-36.7909 -35.9932 2.0686 0.8138
-9.5502 -9.9055 0.5530 0.9464
-9.2900 -9.9219 0.5463 0.9470
-8.7136 -9.5832 0.5206 0.9495
-2.2653 -2.7220 0.1423 0.9859
-7.6153 -10.0125 0.5056 0.9509
-6.6641 -10.5691 0.5022 0.9512
-28.1625 -47.6997 2.2263 0.8011
-26.2916 -47.6591 2.1876 0.8042
-15.5814 -29.2471 1.3319 0.8758
-6.3491 -12.3491 0.5581 0.9459
-4.0889 -8.2470 0.3700 0.9638
-3.9379 -8.2430 0.3672 0.9641
-3.3577 -8.2334 0.3574 0.9650
-2.9397 -8.2218 0.3509 0.9656
-2.8033 -8.2171 0.3490 0.9658
-2.2693 -8.1894 0.3416 0.9666
-2.1628 -8.2729 0.3437 0.9663
-12.9661 -60.2783 2.4781 0.7813
-1.6682 -11.9402 0.4846 0.9529
-1.4814 -11.8662 0.4806 0.9533
24.7967 -84.6576 3.5455 0.7025
28.0763 -82.2981 3.4949 0.7060
29.4152 -82.2691 3.5115 0.7049
32.1331 -82.2101 3.5476 0.7023
34.9098 -82.1499 3.5875 0.6995
40.6677 -82.0249 3.6797 0.6932
42.1553 -81.9927 3.7055 0.6914
43.6642 -81.9599 3.7324 0.6895
45.1956 -81.9267 3.7606 0.6876
49.9363 -81.8238 3.8527 0.6813
51.5697 -81.7883 3.8861 0.6790
54.9250 -81.7155 3.9573 0.6743
2.4233 -2.8268 0.1496 0.9852
9.7700 -10.7449 0.5837 0.9435
90.0271 -42.2030 3.9962 0.6716
89.6210 -37.3142 3.9018 0.6780
33.1001 -13.2173 1.4325 0.8670
38.7226 -13.5269 1.6486 0.8486
38.0523 -12.6720 1.6120 0.8517
9.5698 -2.7273 0.3999 0.9609
48.2171 -12.9827 2.0070 0.8188
14.0413 -3.3439 0.5801 0.9439
13.8675 -2.8771 0.5692 0.9449
14.0823 -2.7077 0.5764 0.9442
14.1300 -2.5033 0.5768 0.9442
14.1770 -2.2986 0.5772 0.9441
14.2240 -2.0934 0.5778 0.9441
14.2392 -1.8834 0.5773 0.9441
5.9533 -0.5233 0.2402 0.9764
5.9518 -0.4356 0.2399 0.9764
89.8802 -2.6274 3.6140 0.6977
90.3978 -1.3211 3.6336 0.6963
92.9349 9.5391 3.7549 0.6880
68.5246 9.0639 2.7781 0.7583
58.6315 8.6287 2.3819 0.7888
54.0045 8.7559 2.1989 0.8033
53.8292 9.5366 2.1972 0.8034
52.8193 10.1558 2.1618 0.8063
48.3768 10.0368 1.9858 0.8205
42.9059 10.2180 1.7727 0.8381
14.8518 4.7060 0.6262 0.9395
14.8939 4.9599 0.6309 0.9391
15.0492 5.7559 0.6476 0.9375
20.2355 9.4860 0.8982 0.9144
19.6807 9.5792 0.8797 0.9161
19.3580 9.7745 0.8716 0.9168
18.9492 9.9182 0.8596 0.9179
19.0739 11.0743 0.8865 0.9155
11.8236 9.9868 0.6220 0.9399
5.9633 7.8405 0.3959 0.9613
5.8656 7.9505 0.3971 0.9612
5.8236 8.1400 0.4023 0.9607
1.2175 9.7524 0.3950 0.9614
-0.4636 9.0568 0.3645 0.9643
-2.4138 5.2485 0.2322 0.9771
-2.4230 5.0720 0.2259 0.9777
-2.4702 4.8046 0.2171 0.9786
-2.4897 4.6734 0.2128 0.9790
-2.5082 4.5466 0.2087 0.9794
-2.5250 4.4232 0.2047 0.9798
-2.5431 4.3073 0.2010 0.9802
-2.5610 4.1964 0.1976 0.9805
-2.5776 4.0880 0.1942 0.9808
-2.5981 3.9901 0.1914 0.9811
-2.6709 3.7332 0.1845 0.9818
-2.8179 3.7050 0.1871 0.9815
-3.0055 3.7208 0.1922 0.9810
-3.1077 3.7343 0.1953 0.9807
-3.3400 3.7829 0.2028 0.9800
-3.4737 3.8204 0.2075 0.9795
-3.6244 3.8709 0.2131 0.9790
-5.0116 5.1980 0.2902 0.9715
-5.0278 5.0646 0.2868 0.9718
-5.0436 4.9343 0.2836 0.9721
-5.0743 4.6820 0.2775 0.9727
-5.0891 4.5599 0.2746 0.9730
-5.1317 4.2076 0.2667 0.9738
-5.1459 4.0950 0.2643 0.9740
-5.1749 3.8766 0.2599 0.9744
-5.2135 3.5598 0.2537 0.9750
-1.4127 0.8481 0.0662 0.9934
-1.4130 0.7930 0.0651 0.9935
-1.2466 0.6759 0.0570 0.9943
-1.0305 0.5204 0.0464 0.9954
-1.0288 0.5008 0.0460 0.9954
-1.0272 0.4816 0.0456 0.9955
-1.0258 0.4627 0.0452 0.9955
-1.0216 0.4079 0.0442 0.9956
-1.0158 0.3885 0.0437 0.9957
-1.0091 0.3691 0.0432 0.9957
-1.0015 0.3499 0.0426 0.9958
-0.9851 0.2964 0.0413 0.9959
-0.9786 0.2482 0.0406 0.9960
-0.9766 0.2326 0.0404 0.9960
-0.9728 0.2019 0.0399 0.9960
-0.9477 0.1254 0.0384 0.9962
-0.9427 0.1107 0.0381 0.9962
-0.9331 0.0820 0.0376 0.9963
-0.9255 0.0542 0.0373 0.9963
-0.9219 0.0404 0.0371 0.9963
-0.9184 0.0269 0.0369 0.9963
-0.8670 -0.0253 0.0252 0.9965
-0.8701 -0.0381 0.0253 0.9965
-0.8733 -0.0511 0.0255 0.9965
-0.8765 -0.0641 0.0256 0.9965
-0.8798 -0.0773 0.0257 0.9965
-0.8832 -0.0906 0.0258 0.9965
-0.8999 -0.1459 0.0265 0.9964
-0.9045 -0.1602 0.0267 0.9963
-0.9092 -0.1748 0.0269 0.9963
-0.9166 -0.2041 0.0273 0.9962
-0.9182 -0.2186 0.0275 0.9962
-0.9197 -0.2333 0.0276 0.9962
-0.9230 -0.2630 0.0279 0.9962
-0.9247 -0.2782 0.0281 0.9961
-0.9338 -0.3110 0.0286 0.9961
-0.9403 -0.3285 0.0290 0.9960
-0.9538 -0.3648 0.0297 0.9959
-0.9657 -0.4021 0.0304 0.9958
-0.9719 -0.4214 0.0308 0.9958
-0.9747 -0.4396 0.0311 0.9957
-0.9758 -0.4574 0.0314 0.9957
-0.9792 -0.5125 0.0322 0.9956
-0.9804 -0.5315 0.0324 0.9955
-1.1000 -0.6173 0.0367 0.9950
-1.4151 -0.8495 0.0480 0.9934
-42.8456 -30.1825 1.5250 0.8108
-16.4262 -12.3050 0.5972 0.9212
-38.5209 -29.7448 1.4161 0.8230
-13.0618 -10.7096 0.4915 0.9346
-12.6554 -10.6894 0.4820 0.9359
-12.6900 -11.0403 0.4894 0.9349
-36.7907 -35.9930 1.4976 0.8139
-36.7680 -37.0376 1.5185 0.8115
-9.5416 -9.8966 0.4000 0.9465
-9.2049 -9.8309 0.3919 0.9475
-2.2624 -2.7186 0.1029 0.9859
-7.4087 -9.7408 0.3561 0.9522
-7.2838 -9.8729 0.3570 0.9521
-7.2135 -10.0827 0.3607 0.9516
-6.6888 -10.2725 0.3567 0.9521
-6.6970 -10.6213 0.3654 0.9510
-6.5745 -10.7727 0.3672 0.9508
-28.1625 -47.6997 1.6118 0.8012
-4.3706 -8.2037 0.2705 0.9635
-3.9138 -8.1925 0.2642 0.9643
-3.0574 -8.1723 0.2539 0.9657
-2.2558 -8.1407 0.2458 0.9668
-2.1286 -8.1420 0.2449 0.9669
-1.7579 -8.1725 0.2432 0.9671
-1.6137 -11.5497 0.3393 0.9544
-1.4833 -11.8809 0.3484 0.9532
0.4787 -13.0970 0.3813 0.9489
26.5449 -95.7933 2.8923 0.6718
25.4347 -82.3555 2.5080 0.7083
26.7497 -82.3269 2.5187 0.7072
30.7672 -82.2398 2.5549 0.7037
36.3225 -82.1192 2.6127 0.6981
39.2004 -82.0568 2.6461 0.6950
42.1553 -81.9926 2.6826 0.6915
46.7505 -81.8929 2.7438 0.6857
48.3303 -81.8586 2.7660 0.6836
49.9363 -81.8238 2.7892 0.6814
51.5698 -81.7884 2.8134 0.6791
54.9250 -81.7155 2.8649 0.6744
2.4234 -2.8269 0.1083 0.9852
2.4342 -2.7570 0.1070 0.9854
9.7702 -10.7452 0.4226 0.9435
18.1889 -12.8132 0.6474 0.9148
89.7598 -43.6886 2.9047 0.6707
89.7244 -42.0611 2.8833 0.6726
89.6896 -40.4571 2.8629 0.6745
89.6214 -37.3144 2.8247 0.6781
33.3263 -13.3076 1.0441 0.8662
43.5874 -13.1134 1.3244 0.8335
53.7195 -12.7932 1.6068 0.8017
13.6997 -3.0517 0.4084 0.9454
13.9206 -2.6766 0.4125 0.9449
14.2404 -2.3088 0.4198 0.9439
14.1850 -2.0876 0.4172 0.9442
5.9474 -0.6104 0.1740 0.9764
5.9722 -0.4371 0.1742 0.9763
32.9143 -1.4438 0.9586 0.8765
33.0253 -0.9654 0.9613 0.8762
71.3244 8.3757 2.0896 0.7502
68.5528 9.0675 2.0121 0.7583
58.2267 10.3157 1.7206 0.7893
53.3979 10.2671 1.5822 0.8045
43.4923 10.3576 1.3009 0.8362
15.8985 4.0326 0.4772 0.9365
14.7781 4.2117 0.4471 0.9404
14.7916 4.4502 0.4494 0.9401
14.8773 5.1971 0.4585 0.9389
15.0733 6.2759 0.4751 0.9368
20.4405 9.2203 0.6525 0.9142
19.9791 9.3658 0.6420 0.9155
19.6016 9.5406 0.6343 0.9165
19.3799 9.7855 0.6317 0.9168
18.8007 10.5515 0.6273 0.9173
11.8440 10.0040 0.4511 0.9398
6.3070 7.8079 0.2920 0.9606
6.1001 7.7817 0.2877 0.9612
5.9633 7.8405 0.2866 0.9613
5.8656 7.9506 0.2875 0.9612
5.8237 8.1400 0.2912 0.9607
1.2159 9.7394 0.2856 0.9615
-2.3183 5.6846 0.1786 0.9757
-2.4215 4.8841 0.1586 0.9784
-2.4445 4.7545 0.1556 0.9788
-2.4833 4.5016 0.1496 0.9796
-2.5008 4.3808 0.1468 0.9800
-2.5196 4.2675 0.1442 0.9804
-2.5885 3.8511 0.1350 0.9816
-2.6043 3.7549 0.1330 0.9819
-2.6834 3.6373 0.1315 0.9821
-3.0232 3.6327 0.1375 0.9813
-3.2377 3.6670 0.1423 0.9806
-3.3558 3.6907 0.1451 0.9802
-3.4878 3.7250 0.1485 0.9798
-5.0410 4.9317 0.2052 0.9722
-5.0565 4.8043 0.2029 0.9725
-5.0717 4.6796 0.2008 0.9728
-5.1011 4.4380 0.1967 0.9733
-5.1154 4.3207 0.1948 0.9736
-5.1292 4.2055 0.1930 0.9738
-5.1428 4.0925 0.1912 0.9740
-5.1712 3.8737 0.1880 0.9745
-5.2099 3.5573 0.1836 0.9751
-5.2222 3.4550 0.1822 0.9753
-5.2344 3.3541 0.1809 0.9754
-1.4147 0.8214 0.0476 0.9935
-1.1001 0.6175 0.0367 0.9950
-0.9791 0.5125 0.0322 0.9956
-0.9780 0.4938 0.0319 0.9956
-0.9747 0.4397 0.0311 0.9957
-0.9719 0.4214 0.0308 0.9958
-0.9657 0.4021 0.0304 0.9958
-0.9470 0.3464 0.0293 0.9960
-0.9403 0.3285 0.0290 0.9960
-0.9338 0.3110 0.0286 0.9961
-0.9275 0.2939 0.0283 0.9961
-0.9247 0.2782 0.0281 0.9961
-0.9197 0.2333 0.0276 0.9962
-0.9181 0.2187 0.0275 0.9962
-0.9166 0.2042 0.0273 0.9962
-0.9140 0.1897 0.0272 0.9963
-0.9092 0.1748 0.0269 0.9963
-0.8999 0.1459 0.0265 0.9964
-0.8954 0.1318 0.0263 0.9964
-0.8910 0.1179 0.0262 0.9964
-0.8832 0.0907 0.0258 0.9965
-0.8798 0.0773 0.0257 0.9965
-0.8765 0.0641 0.0256 0.9965
-0.8157 0.0000 0.0147 0.9967
-0.8211 -0.0240 0.0148 0.9967
-0.8239 -0.0361 0.0149 0.9967
-0.8267 -0.0484 0.0149 0.9967
-0.8325 -0.0732 0.0150 0.9967
-0.8384 -0.0984 0.0152 0.9966
-0.8414 -0.1113 0.0153 0.9966
-0.8565 -0.1646 0.0157 0.9965
-0.8663 -0.2063 0.0160 0.9964
-0.8676 -0.2200 0.0161 0.9964
-0.8688 -0.2339 0.0162 0.9964
-0.8713 -0.2621 0.0164 0.9964
-0.8807 -0.2933 0.0167 0.9963
-0.8862 -0.3096 0.0169 0.9963
-0.8919 -0.3262 0.0171 0.9962
-0.8977 -0.3434 0.0173 0.9962
-0.9037 -0.3608 0.0175 0.9961
-0.9090 -0.3785 0.0177 0.9961
-0.9141 -0.3964 0.0179 0.9960
-0.9194 -0.4147 0.0182 0.9960
-0.9299 -0.4526 0.0186 0.9959
-0.9313 -0.4875 0.0189 0.9958
-0.9329 -0.5235 0.0193 0.9957
-48.2892 -29.9569 1.0234 0.7966
-42.8456 -30.1825 0.9439 0.8109
-41.5026 -30.1534 0.9239 0.8145
-16.4541 -12.3259 0.3702 0.9210
-38.5209 -29.7449 0.8765 0.8231
-13.0192 -10.6746 0.3032 0.9349
-12.6755 -10.7063 0.2988 0.9358
-12.5905 -10.9537 0.3005 0.9354
-36.7905 -35.9928 0.9269 0.8139
-9.2220 -9.8492 0.2430 0.9475
-8.7104 -9.5796 0.2332 0.9495
-8.6436 -9.7897 0.2352 0.9491
-2.2848 -2.6653 0.0632 0.9861
-2.2596 -2.7152 0.0636 0.9860
-7.7083 -9.5428 0.2209 0.9521
-7.5840 -9.6747 0.2214 0.9520
-6.9382 -10.0035 0.2192 0.9525
-6.8687 -10.2191 0.2217 0.9519
-6.6496 -10.2123 0.2195 0.9524
-6.5187 -10.6812 0.2254 0.9512
-28.1625 -47.6997 0.9976 0.8012
-27.2188 -47.6792 0.9887 0.8028
-4.3435 -8.1529 0.1664 0.9637
-4.1899 -8.1493 0.1650 0.9640
-3.8899 -8.1426 0.1625 0.9645
-3.4560 -8.1327 0.1591 0.9653
-2.6338 -8.1062 0.1535 0.9665
-2.5025 -8.1027 0.1527 0.9666
-2.3719 -8.0979 0.1520 0.9668
-1.7433 -8.1043 0.1493 0.9674
-1.5217 -8.2386 0.1509 0.9670
-1.4726 -8.6810 0.1586 0.9654
-1.7412 -11.2593 0.2052 0.9554
-1.5780 -11.2946 0.2054 0.9554
-1.4471 -11.5909 0.2104 0.9543
-1.2918 -11.7402 0.2127 0.9538
0.4786 -13.0954 0.2360 0.9489
26.5454 -95.7951 1.7902 0.6719
24.7975 -84.6604 1.5887 0.7026
25.4347 -82.3555 1.5523 0.7083
34.9099 -82.1498 1.6075 0.6997
36.3224 -82.1192 1.6171 0.6982
37.7523 -82.0882 1.6272 0.6967
40.6677 -82.0250 1.6488 0.6933
43.6642 -81.9599 1.6724 0.6897
45.1955 -81.9267 1.6851 0.6878
46.7505 -81.8929 1.6982 0.6857
49.9363 -81.8238 1.7263 0.6815
51.5698 -81.7883 1.7413 0.6792
54.9250 -81.7156 1.7732 0.6744
2.4342 -2.7570 0.0662 0.9854
9.7704 -10.7453 0.2616 0.9436
18.1769 -12.8047 0.4004 0.9149
23.2120 -13.0272 0.4794 0.8990
89.7602 -43.6888 1.7978 0.6707
20.1803 -9.1029 0.3987 0.9152
20.1597 -8.7414 0.3957 0.9158
20.1850 -8.4041 0.3938 0.9162
20.6992 -8.2655 0.4014 0.9147
26.0799 -8.2637 0.4927 0.8963
13.7417 -3.0611 0.2535 0.9452
13.9536 -2.8950 0.2566 0.9446
14.0131 -2.6944 0.2570 0.9445
13.9122 -2.4648 0.2545 0.9450
14.3044 -2.3192 0.2610 0.9437
14.7591 -1.9522 0.2681 0.9422
6.0022 -0.4393 0.1084 0.9762
6.0628 -0.3547 0.1094 0.9760
32.5377 -1.4273 0.5865 0.8778
48.8385 -1.4277 0.8799 0.8224
48.9619 -0.7155 0.8819 0.8221
31.2882 4.1386 0.5684 0.8814
30.6145 4.5055 0.5573 0.8836
30.7794 4.9903 0.5615 0.8827
30.9712 5.4870 0.5665 0.8818
26.9024 5.1727 0.4934 0.8962
31.3107 6.4961 0.5759 0.8799
15.7769 4.0018 0.2931 0.9370
15.1885 4.0896 0.2833 0.9390
14.7324 4.1986 0.2759 0.9406
14.7600 4.4406 0.2776 0.9402
14.7879 4.6858 0.2794 0.9398
14.9035 5.7001 0.2874 0.9382
14.9372 5.9646 0.2897 0.9377
15.0436 6.5230 0.2953 0.9365
20.3329 9.1717 0.4017 0.9146
18.9604 9.9240 0.3854 0.9179
17.9546 10.0766 0.3708 0.9209
18.8777 11.3324 0.3965 0.9157
6.3069 7.8079 0.1808 0.9606
6.1001 7.7816 0.1781 0.9612
5.9633 7.8405 0.1774 0.9614
5.8657 7.9506 0.1779 0.9612
2.6644 5.1823 0.1049 0.9770
-2.0554 5.7486 0.1099 0.9759
-2.1506 5.7487 0.1105 0.9757
-2.3005 5.6412 0.1097 0.9759
-2.3612 5.3384 0.1051 0.9769
-2.4193 4.7056 0.0953 0.9791
-2.4394 4.5790 0.0934 0.9795
-2.4776 4.3399 0.0900 0.9802
-2.5123 4.1166 0.0869 0.9809
-2.5513 3.9182 0.0842 0.9815
-2.6172 3.6582 0.0810 0.9822
-2.6569 3.6013 0.0806 0.9823
-2.7729 3.5373 0.0809 0.9822
-2.9465 3.5405 0.0830 0.9817
-3.0405 3.5468 0.0841 0.9815
-3.3713 3.6007 0.0888 0.9805
-3.5017 3.6320 0.0909 0.9800
-5.0384 4.9291 0.1269 0.9722
-5.0539 4.8019 0.1255 0.9725
-5.0692 4.6773 0.1242 0.9728
-5.0840 4.5553 0.1229 0.9731
-5.1129 4.3186 0.1205 0.9736
-5.1267 4.2035 0.1194 0.9738
-5.1403 4.0905 0.1183 0.9741
-5.1539 3.9797 0.1173 0.9743
-5.1674 3.8709 0.1163 0.9745
-5.1936 3.6586 0.1144 0.9749
-5.2061 3.5548 0.1135 0.9751
-5.2428 3.2524 0.1111 0.9756
-0.9313 0.4875 0.0189 0.9958
-0.9306 0.4699 0.0188 0.9958
-0.9299 0.4527 0.0186 0.9959
-0.9141 0.3964 0.0179 0.9960
-0.9037 0.3609 0.0175 0.9961
-0.8977 0.3434 0.0173 0.9962
-0.8919 0.3262 0.0171 0.9962
-0.8807 0.2933 0.0167 0.9963
-0.8753 0.2774 0.0165 0.9963
-0.8688 0.2339 0.0162 0.9964
-0.8675 0.2201 0.0161 0.9964
-0.8565 0.1647 0.0157 0.9965
-0.8524 0.1511 0.0156 0.9965
-0.8446 0.1243 0.0154 0.9966
-0.8414 0.1113 0.0153 0.9966
-0.8384 0.0985 0.0152 0.9966
-0.8325 0.0732 0.0150 0.9967
-0.8296 0.0607 0.0150 0.9967
-0.8267 0.0484 0.0149 0.9967
-0.8239 0.0362 0.0149 0.9967
-0.8211 0.0240 0.0148 0.9967
-0.8184 0.0120 0.0147 0.9967
-0.7823 -0.0343 0.0054 0.9969
-0.7849 -0.0459 0.0054 0.9969
-0.7900 -0.0694 0.0055 0.9968
-0.7925 -0.0814 0.0055 0.9968
-0.7952 -0.0934 0.0055 0.9968
-0.7978 -0.1055 0.0056 0.9968
-0.8032 -0.1302 0.0056 0.9968
-0.8061 -0.1428 0.0057 0.9967
-0.8096 -0.1557 0.0057 0.9967
-0.8167 -0.1820 0.0058 0.9967
-0.8209 -0.2082 0.0059 0.9966
-0.8229 -0.2345 0.0059 0.9966
-0.8242 -0.2480 0.0060 0.9966
-0.8380 -0.2927 0.0061 0.9965
-0.8478 -0.3242 0.0063 0.9964
-0.8580 -0.3572 0.0064 0.9963
-0.8629 -0.3742 0.0065 0.9962
-0.8672 -0.3912 0.0066 0.9962
-0.8859 -0.4637 0.0069 0.9960
-0.8883 -0.4816 0.0070 0.9960
-0.8887 -0.4988 0.0071 0.9959
-0.8891 -0.5162 0.0071 0.9959
-45.5002 -30.1026 0.3779 0.8039
-42.8456 -30.1825 0.3630 0.8109
-16.4831 -12.3476 0.1426 0.9209
-38.5209 -29.7448 0.3371 0.8231
-13.4602 -10.7112 0.1191 0.9335
-12.2185 -11.2740 0.1151 0.9357
-12.2964 -11.6831 0.1175 0.9344
-12.1893 -11.9251 0.1181 0.9341
-36.7676 -37.0372 0.3615 0.8116
-9.1876 -9.5295 0.0917 0.9484
-2.2838 -2.6641 0.0243 0.9861
-2.2567 -2.7117 0.0244 0.9860
-7.5427 -9.6220 0.0847 0.9523
-7.4682 -9.8191 0.0854 0.9519
-7.0005 -10.0934 0.0851 0.9521
-6.5304 -10.0292 0.0829 0.9533
-6.7243 -11.0182 0.0894 0.9497
-4.5550 -7.9790 0.0636 0.9639
-4.3175 -8.1042 0.0636 0.9639
-4.1644 -8.1000 0.0631 0.9642
-4.0142 -8.0964 0.0626 0.9645
-3.8663 -8.0932 0.0621 0.9648
-3.7203 -8.0894 0.0617 0.9650
-3.5763 -8.0856 0.0612 0.9653
-3.4347 -8.0825 0.0608 0.9655
-3.2947 -8.0791 0.0604 0.9657
-3.0194 -8.0707 0.0597 0.9661
-2.8842 -8.0666 0.0593 0.9663
-2.4873 -8.0536 0.0584 0.9668
-2.2305 -8.0494 0.0579 0.9671
-2.1044 -8.0497 0.0576 0.9673
-1.9808 -8.0559 0.0575 0.9674
-1.8580 -8.0630 0.0573 0.9674
-1.5184 -8.2207 0.0579 0.9671
-1.4631 -8.6251 0.0606 0.9656
-1.7493 -11.3122 0.0793 0.9552
-1.5859 -11.3507 0.0794 0.9552
-1.2071 -12.6703 0.0882 0.9504
0.4785 -13.0938 0.0908 0.9489
26.5459 -95.7968 0.6885 0.6719
25.4347 -82.3555 0.5970 0.7084
28.0762 -82.2982 0.6023 0.7062
29.4152 -82.2691 0.6051 0.7050
36.3224 -82.1193 0.6219 0.6982
40.6677 -82.0249 0.6341 0.6933
46.7505 -81.8929 0.6531 0.6858
49.9363 -81.8238 0.6639 0.6815
51.5698 -81.7884 0.6697 0.6793
54.9251 -81.7155 0.6819 0.6745
56.6498 -81.6781 0.6885 0.6719
2.4235 -2.8270 0.0258 0.9852
13.1129 -12.8286 0.1271 0.9292
19.8081 -9.2857 0.1515 0.9162
19.8115 -8.9366 0.1505 0.9167
19.7792 -8.2352 0.1484 0.9179
21.2802 -8.1389 0.1578 0.9129
22.1796 -8.1135 0.1636 0.9099
25.2321 -7.9950 0.1833 0.8995
9.5701 -2.7274 0.0689 0.9610
31.2187 -8.4058 0.2239 0.8787
31.9644 -8.1075 0.2284 0.8764
13.9971 -2.9040 0.0990 0.9444
14.2155 -2.7333 0.1003 0.9437
14.0214 -2.4841 0.0986 0.9446
14.3799 -2.1163 0.1007 0.9435
5.9392 -0.6974 0.0414 0.9764
5.9837 -0.5260 0.0416 0.9763
5.9479 -0.4353 0.0413 0.9764
31.9979 -1.4036 0.2218 0.8797
49.6654 -0.7258 0.3440 0.8198
99.0306 5.7948 0.6871 0.6725
44.8875 3.9455 0.3121 0.8351
39.8437 4.0896 0.2774 0.8520
38.7675 4.5525 0.2703 0.8554
30.4720 4.0306 0.2129 0.8843
26.5121 4.2984 0.1860 0.8981
22.8544 4.7416 0.1617 0.9109
22.9839 5.4736 0.1636 0.9098
15.6902 3.9798 0.1121 0.9373
14.7285 4.4312 0.1065 0.9403
14.7561 4.6757 0.1072 0.9400
14.8705 5.6876 0.1103 0.9383
14.9002 5.9498 0.1111 0.9378
14.9304 6.2164 0.1120 0.9374
15.0136 6.7723 0.1141 0.9362
19.6307 9.5548 0.1512 0.9164
19.0120 9.5998 0.1475 0.9183
18.8339 9.8578 0.1472 0.9185
19.2964 10.4619 0.1520 0.9159
5.8238 8.1402 0.0693 0.9608
2.6645 5.1825 0.0404 0.9770
-2.0513 5.7372 0.0422 0.9759
-2.1499 5.7468 0.0425 0.9758
-2.2399 5.7305 0.0426 0.9757
-2.3013 5.4154 0.0408 0.9767
-2.3238 5.2537 0.0398 0.9773
-2.3363 5.0801 0.0387 0.9779
-2.3482 4.9155 0.0377 0.9784
-2.3689 4.7780 0.0369 0.9789
-2.4120 4.5274 0.0355 0.9797
-2.4502 4.2920 0.0342 0.9804
-2.4677 4.1796 0.0336 0.9808
-2.4858 4.0731 0.0330 0.9811
-2.5040 3.9714 0.0325 0.9814
-2.5173 3.8661 0.0320 0.9817
-2.5807 3.6071 0.0307 0.9824
-2.8800 3.4608 0.0312 0.9822
-2.9708 3.4655 0.0316 0.9819
-3.0641 3.4704 0.0321 0.9817
-3.6665 3.5870 0.0355 0.9797
-5.0514 4.7994 0.0483 0.9725
-5.0815 4.5530 0.0473 0.9731
-5.0961 4.4336 0.0468 0.9733
-5.0013 3.9800 0.0443 0.9748
-5.0140 3.8717 0.0439 0.9750
-5.1063 3.7100 0.0437 0.9751
-0.8895 0.5340 0.0072 0.9959
-0.8887 0.4988 0.0071 0.9959
-0.8883 0.4816 0.0070 0.9960
-0.8859 0.4637 0.0069 0.9960
-0.8672 0.3912 0.0066 0.9962
-0.8580 0.3572 0.0064 0.9963
-0.8478 0.3243 0.0063 0.9964
-0.8429 0.3083 0.0062 0.9964
-0.8380 0.2927 0.0061 0.9965
-0.8287 0.2626 0.0060 0.9965
-0.8242 0.2480 0.0060 0.9966
-0.8219 0.2213 0.0059 0.9966
-0.8209 0.2082 0.0059 0.9966
-0.8167 0.1820 0.0058 0.9967
-0.8131 0.1687 0.0058 0.9967
-0.8032 0.1302 0.0056 0.9968
-0.7978 0.1055 0.0056 0.9968
-0.7925 0.0813 0.0055 0.9968
-0.7900 0.0695 0.0055 0.9968
-0.7874 0.0576 0.0055 0.9968
-0.7404 -0.0108 -0.0031 0.9970
-0.7426 -0.0217 -0.0031 0.9970
-0.7448 -0.0327 -0.0031 0.9970
-0.7470 -0.0437 -0.0031 0.9970
-0.7493 -0.0548 -0.0031 0.9970
-0.7516 -0.0660 -0.0031 0.9970
-0.7562 -0.0888 -0.0032 0.9970
-0.7585 -0.1003 -0.0032 0.9969
-0.7609 -0.1120 -0.0032 0.9969
-0.7680 -0.1477 -0.0033 0.9969
-0.7738 -0.1724 -0.0033 0.9968
-0.7769 -0.1850 -0.0033 0.9968
-0.7791 -0.1976 -0.0033 0.9968
-0.7798 -0.2100 -0.0034 0.9968
-0.7805 -0.2224 -0.0034 0.9968
-0.7829 -0.2355 -0.0034 0.9967
-0.7868 -0.2493 -0.0034 0.9967
-0.7948 -0.2777 -0.0035 0.9966
-0.8031 -0.3072 -0.0036 0.9966
-0.8074 -0.3224 -0.0036 0.9965
-0.8282 -0.4031 -0.0038 0.9963
-0.8361 -0.4376 -0.0039 0.9962
-0.8401 -0.4555 -0.0040 0.9962
-0.8443 -0.4738 -0.0040 0.9961
-0.8486 -0.4927 -0.0041 0.9961
-0.8486 -0.5094 -0.0041 0.9960
-0.8486 -0.5264 -0.0042 0.9960
-17.4998 -11.5778 -0.0872 0.9195
-43.7281 -29.8579 -0.2200 0.8091
-11.7467 -9.3475 -0.0624 0.9417
-11.5829 -9.4969 -0.0622 0.9418
-12.6396 -10.6761 -0.0688 0.9360
-12.5801 -11.2718 -0.0702 0.9347
-12.3152 -11.3632 -0.0696 0.9352
-8.9221 -9.5289 -0.0542 0.9491
-2.2828 -2.6630 -0.0146 0.9861
-7.6254 -9.7275 -0.0514 0.9518
-7.5201 -9.8874 -0.0516 0.9515
-7.1633 -9.7095 -0.0501 0.9529
-6.8807 -9.9207 -0.0502 0.9529
-6.6686 -9.9213 -0.0497 0.9533
-5.1168 -8.1151 -0.0399 0.9624
-4.9351 -8.0864 -0.0394 0.9628
-4.7635 -8.0681 -0.0389 0.9632
-3.8421 -8.0424 -0.0370 0.9650
-3.5535 -8.0340 -0.0365 0.9655
-3.4123 -8.0298 -0.0363 0.9657
-2.7331 -8.0115 -0.0352 0.9667
-2.6017 -8.0070 -0.0350 0.9669
-2.4721 -8.0045 -0.0348 0.9670
-2.3458 -8.0086 -0.0347 0.9672
-2.0944 -8.0111 -0.0344 0.9674
-1.9719 -8.0197 -0.0343 0.9675
-1.8513 -8.0337 -0.0343 0.9676
-1.7309 -8.0466 -0.0342 0.9676
-1.4538 -8.5701 -0.0361 0.9658
-1.7157 -11.0949 -0.0467 0.9561
-1.5627 -11.1853 -0.0469 0.9558
-1.2106 -12.7076 -0.0530 0.9502
0.0961 -13.1384 -0.0546 0.9488
0.2903 -13.2402 -0.0550 0.9484
26.5464 -95.7986 -0.4131 0.6719
24.7983 -84.6632 -0.3666 0.7027
26.7496 -82.3270 -0.3597 0.7073
28.0763 -82.2982 -0.3613 0.7062
29.4152 -82.2691 -0.3631 0.7051
30.7672 -82.2398 -0.3649 0.7038
33.5137 -82.1802 -0.3688 0.7012
36.3224 -82.1192 -0.3732 0.6983
39.2004 -82.0568 -0.3779 0.6951
46.7505 -81.8929 -0.3919 0.6858
49.9363 -81.8238 -0.3983 0.6815
2.4235 -2.8270 -0.0155 0.9852
2.4343 -2.7571 -0.0153 0.9854
13.0828 -12.7991 -0.0761 0.9294
19.0396 -9.2670 -0.0880 0.9188
19.0578 -8.2636 -0.0863 0.9203
19.4388 -8.0934 -0.0875 0.9192
21.0841 -8.0640 -0.0938 0.9137
21.9725 -8.0378 -0.0972 0.9107
24.1459 -8.4348 -0.1063 0.9028
24.1694 -8.0488 -0.1059 0.9031
24.8145 -7.8627 -0.1082 0.9011
9.5703 -2.7274 -0.0414 0.9610
30.1916 -8.1292 -0.1299 0.8824
31.1342 -7.8970 -0.1335 0.8794
13.8264 -3.0800 -0.0589 0.9449
14.0407 -2.9130 -0.0596 0.9443
14.2604 -2.7419 -0.0603 0.9436
14.1196 -2.2893 -0.0594 0.9444
5.9557 -0.8765 -0.0250 0.9762
5.9324 -0.7847 -0.0249 0.9763
18.5092 -2.1736 -0.0774 0.9282
5.9297 -0.6086 -0.0248 0.9764
32.3346 -0.9452 -0.1344 0.8786
49.5419 -0.7240 -0.2059 0.8202
72.5574 4.2457 -0.3020 0.7477
42.1072 3.7012 -0.1756 0.8444
38.6707 3.9693 -0.1615 0.8560
31.7875 3.7329 -0.1330 0.8798
27.0159 3.9759 -0.1135 0.8965
