ply
format ascii 1.0
element vertex 1596
property float32 x
property float32 y
property float32 z
property float32 I
end_header
-2.8204 -6.6370 -0.9952 0.9713
-2.7230 -6.6773 -0.9951 0.9713
-2.4276 -6.7894 -0.9950 0.9713
-2.3280 -6.8239 -0.9950 0.9713
-2.2280 -6.8570 -0.9949 0.9713
-2.1274 -6.8885 -0.9949 0.9713
-1.7211 -6.9999 -0.9947 0.9713
-1.4126 -7.0677 -0.9946 0.9713
-1.3091 -7.0873 -0.9946 0.9713
-1.2054 -7.1054 -0.9945 0.9713
-1.1013 -7.1220 -0.9945 0.9713
-0.7881 -7.1625 -0.9944 0.9713
-0.6834 -7.1729 -0.9943 0.9713
-0.3683 -7.1951 -0.9942 0.9713
-0.0527 -7.2034 -0.9941 0.9713
0.0526 -7.2031 -0.9940 0.9713
0.1579 -7.2013 -0.9940 0.9713
0.3682 -7.1930 -0.9939 0.9713
0.4732 -7.1866 -0.9939 0.9713
0.6830 -7.1691 -0.9938 0.9713
1.1004 -7.1158 -0.9936 0.9713
1.3078 -7.0800 -0.9936 0.9713
1.5139 -7.0382 -0.9935 0.9713
1.6165 -7.0150 -0.9934 0.9713
1.8207 -6.9642 -0.9934 0.9714
1.9222 -6.9366 -0.9933 0.9714
2.1238 -6.8770 -0.9932 0.9714
2.2240 -6.8448 -0.9932 0.9714
2.5216 -6.7401 -0.9931 0.9714
2.7172 -6.6630 -0.9930 0.9714
2.8142 -6.6223 -0.9930 0.9714
2.9105 -6.5803 -0.9929 0.9714
3.1013 -6.4919 -0.9929 0.9714
3.4747 -6.2987 -0.9927 0.9714
3.6571 -6.1941 -0.9926 0.9714
3.7471 -6.1398 -0.9926 0.9714
3.8362 -6.0841 -0.9926 0.9714
3.9245 -6.0272 -0.9925 0.9714
4.2693 -5.7869 -0.9924 0.9714
4.3533 -5.7237 -0.9924 0.9714
4.4363 -5.6593 -0.9923 0.9714
4.5995 -5.5269 -0.9923 0.9714
4.6796 -5.4589 -0.9922 0.9714
4.7587 -5.3898 -0.9922 0.9714
4.8369 -5.3195 -0.9922 0.9714
4.9899 -5.1756 -0.9921 0.9714
5.0648 -5.1020 -0.9921 0.9714
5.1388 -5.0273 -0.9921 0.9714
5.2114 -4.9516 -0.9920 0.9714
5.2831 -4.8747 -0.9920 0.9714
5.4230 -4.7180 -0.9919 0.9714
5.4912 -4.6382 -0.9919 0.9714
5.9350 -4.0525 -0.9917 0.9714
6.1065 -3.7883 -0.9917 0.9714
6.1190 -3.5527 -0.9764 0.9718
6.1639 -3.4593 -0.9754 0.9719
6.2136 -3.3689 -0.9754 0.9719
6.3994 -3.0000 -0.9753 0.9719
6.5243 -2.7165 -0.9753 0.9719
4.1531 -1.6584 -0.6171 0.9821
3.9283 -1.4371 -0.5772 0.9833
6.6715 -2.3305 -0.9752 0.9719
6.7048 -2.2328 -0.9752 0.9719
6.7366 -2.1346 -0.9752 0.9719
6.9535 -1.7636 -0.9900 0.9714
6.9882 -1.6642 -0.9913 0.9714
7.0337 -1.4593 -0.9913 0.9714
7.0542 -1.3564 -0.9913 0.9714
7.1067 -1.0459 -0.9913 0.9714
7.1212 -0.9420 -0.9913 0.9714
7.1342 -0.8378 -0.9913 0.9714
7.1456 -0.7334 -0.9913 0.9714
7.1709 -0.4196 -0.9913 0.9714
7.1762 -0.3148 -0.9913 0.9714
7.1800 -0.2099 -0.9913 0.9714
7.1823 0.1050 -0.9913 0.9714
7.1800 0.2099 -0.9913 0.9714
7.1555 0.6289 -0.9913 0.9714
7.1212 0.9419 -0.9913 0.9714
7.0543 1.3563 -0.9913 0.9714
7.0117 1.5619 -0.9913 0.9714
6.9882 1.6642 -0.9913 0.9714
6.9088 1.9689 -0.9914 0.9714
6.8793 2.0697 -0.9914 0.9714
6.8161 2.2699 -0.9914 0.9714
6.7823 2.3692 -0.9914 0.9714
6.7470 2.4681 -0.9914 0.9714
6.6722 2.6643 -0.9915 0.9714
6.5918 2.8582 -0.9915 0.9714
6.5494 2.9543 -0.9915 0.9714
6.4140 3.2386 -0.9916 0.9714
6.3168 3.4248 -0.9916 0.9714
6.2143 3.6080 -0.9916 0.9714
6.1611 3.6985 -0.9917 0.9714
6.0506 3.8771 -0.9917 0.9714
5.9935 3.9652 -0.9917 0.9714
5.8753 4.1389 -0.9918 0.9714
5.8144 4.2244 -0.9918 0.9714
5.7522 4.3090 -0.9918 0.9714
5.6887 4.3927 -0.9918 0.9714
5.6241 4.4754 -0.9919 0.9714
5.4912 4.6381 -0.9919 0.9714
5.4230 4.7180 -0.9919 0.9714
5.3537 4.7969 -0.9920 0.9714
5.2831 4.8747 -0.9920 0.9714
5.0457 4.9361 -0.9741 0.9719
4.8249 5.1529 -0.9742 0.9719
4.7493 5.2230 -0.9742 0.9719
4.6726 5.2920 -0.9742 0.9719
4.5949 5.3599 -0.9743 0.9719
4.5163 5.4266 -0.9743 0.9719
4.3560 5.5566 -0.9744 0.9719
4.1921 5.6819 -0.9744 0.9719
4.0246 5.8023 -0.9745 0.9719
3.8535 5.9179 -0.9746 0.9719
3.7668 5.9737 -0.9746 0.9719
3.6792 6.0284 -0.9746 0.9719
3.5017 6.1337 -0.9747 0.9719
3.1379 6.3287 -0.9748 0.9719
2.8579 6.4609 -0.9749 0.9719
2.7633 6.5021 -0.9750 0.9719
2.6681 6.5421 -0.9750 0.9719
2.5723 6.5807 -0.9751 0.9719
2.0855 6.7522 -0.9752 0.9719
1.9867 6.7822 -0.9753 0.9719
1.8874 6.8107 -0.9753 0.9719
1.7878 6.8379 -0.9754 0.9719
1.6877 6.8636 -0.9754 0.9719
1.5873 6.8878 -0.9754 0.9719
1.3855 6.9318 -0.9755 0.9719
1.1824 6.9698 -0.9756 0.9719
1.0805 6.9867 -0.9756 0.9719
0.9784 7.0020 -0.9757 0.9719
0.5691 5.1724 -0.7181 0.9792
0.6707 7.0390 -0.9758 0.9719
0.3616 7.0625 -0.9759 0.9718
0.2584 7.0673 -0.9760 0.9718
0.1551 7.0706 -0.9760 0.9718
-0.0516 7.0727 -0.9761 0.9718
-0.2583 7.0688 -0.9762 0.9718
-0.4647 7.0588 -0.9762 0.9718
-0.6709 7.0428 -0.9763 0.9718
-0.7738 7.0325 -0.9764 0.9718
-0.9790 7.0075 -0.9764 0.9718
-1.0813 6.9927 -0.9765 0.9718
-1.1834 6.9765 -0.9765 0.9718
-1.6899 6.8729 -0.9767 0.9718
-1.7902 6.8477 -0.9768 0.9718
-1.8901 6.8211 -0.9768 0.9718
-1.9897 6.7930 -0.9768 0.9718
-2.0888 6.7635 -0.9769 0.9718
-2.2857 6.7001 -0.9770 0.9718
-2.4807 6.6310 -0.9770 0.9718
-2.8643 6.4757 -0.9772 0.9718
-3.1457 6.3447 -0.9773 0.9718
-3.3915 6.3660 -0.9954 0.9713
-3.5763 6.2647 -0.9955 0.9713
-3.8478 6.1025 -0.9956 0.9713
-3.9367 6.0459 -0.9956 0.9713
-4.0248 5.9879 -0.9956 0.9713
-4.1120 5.9287 -0.9957 0.9713
-4.3683 5.7434 -0.9958 0.9713
-0.5515 0.7036 -0.1234 0.9964
-0.4645 0.5108 -0.0953 0.9972
-0.4657 0.4973 -0.0940 0.9973
-0.4697 0.4462 -0.0894 0.9974
-0.4704 0.4341 -0.0883 0.9974
-0.4718 0.4105 -0.0863 0.9975
-0.4729 0.3877 -0.0844 0.9975
-0.4734 0.3766 -0.0835 0.9976
-0.4742 0.3552 -0.0818 0.9976
-0.4746 0.3448 -0.0809 0.9976
-0.4757 0.3248 -0.0795 0.9977
-0.4775 0.2866 -0.0768 0.9978
-0.4780 0.2683 -0.0756 0.9978
-0.4784 0.2504 -0.0745 0.9978
-0.4786 0.2416 -0.0740 0.9978
-0.4787 0.2244 -0.0730 0.9979
-0.4787 0.2159 -0.0725 0.9979
-0.4785 0.1992 -0.0715 0.9979
-0.4783 0.1910 -0.0711 0.9979
-0.4784 0.1750 -0.0703 0.9979
-0.4784 0.1671 -0.0699 0.9980
-0.4782 0.1515 -0.0692 0.9980
-0.4779 0.1287 -0.0683 0.9980
-0.4777 0.1137 -0.0678 0.9980
-0.4775 0.1064 -0.0675 0.9980
-0.4771 0.0917 -0.0670 0.9980
-0.4762 0.0701 -0.0664 0.9981
-0.4753 0.0558 -0.0660 0.9981
-0.4749 0.0487 -0.0659 0.9981
-0.4738 0.0347 -0.0656 0.9981
-0.4733 0.0277 -0.0654 0.9981
-0.4720 0.0138 -0.0652 0.9981
-0.4713 0.0069 -0.0651 0.9981
-0.4567 -0.0000 -0.0682 0.9982
-0.4580 -0.0134 -0.0684 0.9981
-0.4602 -0.0405 -0.0690 0.9981
-0.4606 -0.0473 -0.0691 0.9981
-0.4620 -0.0749 -0.0699 0.9981
-0.4623 -0.0819 -0.0701 0.9981
-0.4625 -0.0889 -0.0703 0.9981
-0.4627 -0.0960 -0.0706 0.9981
-0.4630 -0.1175 -0.0713 0.9981
-0.4631 -0.1247 -0.0716 0.9981
-0.4630 -0.1393 -0.0722 0.9980
-0.4629 -0.1466 -0.0725 0.9980
-0.4629 -0.1541 -0.0728 0.9980
-0.4628 -0.1617 -0.0732 0.9980
-0.4628 -0.1693 -0.0736 0.9980
-0.4625 -0.1847 -0.0744 0.9980
-0.4624 -0.1925 -0.0748 0.9980
-0.4624 -0.2005 -0.0752 0.9980
-0.4623 -0.2085 -0.0757 0.9980
-0.4621 -0.2249 -0.0767 0.9979
-0.4619 -0.2332 -0.0773 0.9979
-0.4617 -0.2416 -0.0778 0.9979
-0.4611 -0.2588 -0.0789 0.9979
-0.4602 -0.2763 -0.0801 0.9978
-0.4598 -0.2852 -0.0808 0.9978
-0.4586 -0.3034 -0.0821 0.9978
-0.4547 -0.3511 -0.0858 0.9977
-0.4517 -0.3930 -0.0894 0.9976
-0.4499 -0.4152 -0.0914 0.9975
-0.4489 -0.4266 -0.0925 0.9975
-0.4467 -0.4500 -0.0947 0.9974
-0.4412 -0.4997 -0.0995 0.9973
-0.4390 -0.5276 -0.1025 0.9972
-0.4385 -0.5429 -0.1042 0.9972
-3.8000 -5.4789 -0.9956 0.9734
-3.6381 -5.5873 -0.9955 0.9734
-3.4730 -5.6908 -0.9954 0.9734
-3.3051 -5.7895 -0.9954 0.9734
-3.2200 -5.8370 -0.9953 0.9734
-2.9608 -5.9719 -0.9952 0.9734
-2.7849 -6.0554 -0.9952 0.9734
-2.6960 -6.0953 -0.9951 0.9734
-2.6066 -6.1338 -0.9951 0.9734
-2.3350 -6.2415 -0.9950 0.9734
-2.1515 -6.3065 -0.9949 0.9734
-2.0591 -6.3371 -0.9949 0.9734
-1.8729 -6.3941 -0.9948 0.9734
-1.7791 -6.4205 -0.9948 0.9734
-1.6851 -6.4456 -0.9947 0.9734
-1.5907 -6.4693 -0.9947 0.9734
-1.4959 -6.4916 -0.9947 0.9734
-1.4009 -6.5125 -0.9946 0.9734
-1.3055 -6.5320 -0.9946 0.9734
-1.2099 -6.5502 -0.9945 0.9734
-0.9216 -6.5962 -0.9944 0.9734
-0.6315 -6.6294 -0.9943 0.9734
-0.4375 -6.6445 -0.9942 0.9734
-0.1459 -6.6565 -0.9941 0.9734
-0.0487 -6.6577 -0.9941 0.9734
0.0486 -6.6575 -0.9941 0.9734
0.1459 -6.6558 -0.9940 0.9734
0.2431 -6.6527 -0.9940 0.9734
0.3403 -6.6482 -0.9939 0.9734
0.8245 -6.6044 -0.9937 0.9734
1.1130 -6.5612 -0.9936 0.9734
1.3993 -6.5053 -0.9935 0.9734
1.5887 -6.4612 -0.9934 0.9734
1.8701 -6.3846 -0.9933 0.9735
1.9631 -6.3564 -0.9933 0.9735
2.0557 -6.3268 -0.9933 0.9735
2.1478 -6.2959 -0.9932 0.9735
2.2395 -6.2636 -0.9932 0.9735
2.4214 -6.1950 -0.9931 0.9735
2.5116 -6.1588 -0.9931 0.9735
2.6012 -6.1212 -0.9931 0.9735
2.6903 -6.0823 -0.9930 0.9735
2.7787 -6.0422 -0.9930 0.9735
2.8667 -6.0007 -0.9929 0.9735
2.9539 -5.9580 -0.9929 0.9735
3.2965 -5.7745 -0.9928 0.9735
3.4636 -5.6753 -0.9927 0.9735
3.5460 -5.6239 -0.9927 0.9735
3.8680 -5.4065 -0.9926 0.9735
3.9464 -5.3492 -0.9925 0.9735
4.0241 -5.2908 -0.9925 0.9735
4.1008 -5.2312 -0.9925 0.9735
4.1767 -5.1707 -0.9924 0.9735
4.3989 -4.9822 -0.9923 0.9735
4.4711 -4.9173 -0.9923 0.9735
4.5423 -4.8513 -0.9923 0.9735
4.6126 -4.7843 -0.9923 0.9735
4.6819 -4.7162 -0.9922 0.9735
4.8174 -4.5771 -0.9922 0.9735
4.8837 -4.5062 -0.9922 0.9735
5.0761 -4.2875 -0.9921 0.9735
5.1989 -4.1371 -0.9920 0.9735
5.2587 -4.0606 -0.9920 0.9735
5.3748 -3.9051 -0.9920 0.9735
5.4312 -3.8261 -0.9919 0.9735
5.4864 -3.7462 -0.9919 0.9735
5.5528 -3.4447 -0.9757 0.9739
4.8072 -2.6980 -0.8231 0.9780
5.7888 -3.0299 -0.9756 0.9739
5.8747 -2.8594 -0.9755 0.9739
5.9555 -2.6864 -0.9755 0.9739
5.9941 -2.5991 -0.9755 0.9739
4.1524 -1.6581 -0.6676 0.9821
3.8892 -1.4875 -0.6217 0.9833
3.9239 -1.4354 -0.6239 0.9832
6.2621 -1.8839 -0.9764 0.9739
6.2924 -1.7933 -0.9769 0.9739
6.4126 -1.7266 -0.9916 0.9735
6.4819 -1.4439 -0.9915 0.9735
6.5212 -1.2539 -0.9915 0.9735
6.5550 -1.0628 -0.9915 0.9735
6.5832 -0.8708 -0.9915 0.9735
6.5952 -0.7745 -0.9915 0.9735
6.6058 -0.6780 -0.9915 0.9735
6.6340 -0.2910 -0.9915 0.9735
6.6375 -0.1941 -0.9915 0.9735
6.6376 0.1941 -0.9915 0.9735
6.6149 0.5814 -0.9915 0.9735
6.5952 0.7745 -0.9915 0.9735
6.5832 0.8708 -0.9915 0.9735
6.5388 1.1584 -0.9915 0.9735
6.5022 1.3490 -0.9915 0.9735
6.4371 1.6327 -0.9916 0.9735
6.4126 1.7266 -0.9916 0.9735
6.3011 2.0984 -0.9916 0.9735
6.2372 2.2816 -0.9916 0.9735
6.1680 2.4630 -0.9917 0.9735
6.0140 2.8192 -0.9917 0.9735
5.9723 2.9069 -0.9917 0.9735
5.8395 3.1659 -0.9918 0.9735
5.6954 3.4190 -0.9918 0.9735
5.5933 3.5841 -0.9919 0.9735
5.5405 3.6655 -0.9919 0.9735
5.4864 3.7462 -0.9919 0.9735
5.4312 3.8260 -0.9919 0.9735
5.3748 3.9051 -0.9920 0.9735
5.3173 3.9832 -0.9920 0.9735
5.1380 4.2127 -0.9921 0.9735
5.0761 4.2875 -0.9921 0.9735
5.0130 4.3613 -0.9921 0.9735
4.8837 4.5061 -0.9922 0.9735
4.7502 4.6472 -0.9922 0.9735
4.5423 4.8513 -0.9923 0.9735
4.4711 4.9173 -0.9923 0.9735
4.3193 4.8918 -0.9744 0.9740
4.1747 5.0162 -0.9744 0.9740
4.1011 5.0769 -0.9745 0.9740
3.8750 5.2521 -0.9745 0.9739
3.7980 5.3084 -0.9746 0.9739
3.7201 5.3635 -0.9746 0.9739
3.6415 5.4174 -0.9746 0.9739
3.4818 5.5219 -0.9747 0.9739
3.4009 5.5723 -0.9747 0.9739
2.7285 5.9325 -0.9750 0.9739
2.6416 5.9720 -0.9750 0.9739
2.5542 6.0102 -0.9751 0.9739
2.3776 6.0826 -0.9751 0.9739
2.2886 6.1170 -0.9752 0.9739
2.1991 6.1500 -0.9752 0.9739
2.1090 6.1816 -0.9752 0.9739
1.9276 6.2411 -0.9753 0.9739
1.6524 6.3203 -0.9754 0.9739
1.5600 6.3439 -0.9754 0.9739
1.4672 6.3663 -0.9755 0.9739
1.3740 6.3873 -0.9755 0.9739
1.1869 6.4252 -0.9756 0.9739
1.0929 6.4421 -0.9756 0.9739
0.9987 6.4577 -0.9757 0.9739
0.8097 6.4846 -0.9757 0.9739
0.6198 6.5059 -0.9758 0.9739
0.5248 6.5145 -0.9759 0.9739
0.3342 6.5276 -0.9759 0.9739
0.2388 6.5320 -0.9760 0.9739
0.1433 6.5351 -0.9760 0.9739
-0.1432 6.5358 -0.9761 0.9739
-0.2387 6.5333 -0.9762 0.9739
-0.3342 6.5293 -0.9762 0.9739
-0.4295 6.5241 -0.9762 0.9739
-0.5248 6.5173 -0.9763 0.9739
-0.7151 6.4997 -0.9763 0.9739
-0.9994 6.4628 -0.9765 0.9739
-1.3754 6.3943 -0.9766 0.9739
-1.4688 6.3738 -0.9766 0.9739
-1.5618 6.3519 -0.9767 0.9739
-2.2926 6.1282 -0.9770 0.9739
-2.3820 6.0943 -0.9770 0.9739
-2.4709 6.0591 -0.9770 0.9739
-2.7343 5.9455 -0.9771 0.9739
-2.9071 5.8636 -0.9772 0.9739
-3.1616 5.7311 -0.9773 0.9739
-3.2451 5.6845 -0.9773 0.9739
-3.3894 5.7408 -0.9954 0.9734
-3.4731 5.6908 -0.9954 0.9734
-3.5560 5.6396 -0.9955 0.9734
-3.7195 5.5337 -0.9955 0.9734
-3.8001 5.4789 -0.9956 0.9734
-3.8798 5.4230 -0.9956 0.9734
-0.4612 0.6064 -0.1138 0.9969
-0.4385 0.5428 -0.1042 0.9972
-0.4427 0.4869 -0.0982 0.9973
-0.4441 0.4743 -0.0970 0.9974
-0.4454 0.4620 -0.0958 0.9974
-0.4467 0.4499 -0.0947 0.9974
-0.4479 0.4381 -0.0935 0.9975
-0.4525 0.3821 -0.0884 0.9976
-0.4532 0.3716 -0.0875 0.9976
-0.4556 0.3413 -0.0850 0.9977
-0.4572 0.3221 -0.0835 0.9977
-0.4586 0.3034 -0.0821 0.9978
-0.4598 0.2852 -0.0808 0.9978
-0.4602 0.2763 -0.0801 0.9978
-0.4614 0.2502 -0.0784 0.9979
-0.4619 0.2332 -0.0773 0.9979
-0.4621 0.2249 -0.0767 0.9979
-0.4623 0.2086 -0.0757 0.9980
-0.4625 0.1847 -0.0744 0.9980
-0.4628 0.1616 -0.0732 0.9980
-0.4628 0.1541 -0.0728 0.9980
-0.4629 0.1466 -0.0725 0.9980
-0.4630 0.1320 -0.0719 0.9981
-0.4630 0.1174 -0.0713 0.9981
-0.4629 0.1102 -0.0711 0.9981
-0.4629 0.1031 -0.0708 0.9981
-0.4620 0.0749 -0.0699 0.9981
-0.4617 0.0680 -0.0697 0.9981
-0.4614 0.0611 -0.0695 0.9981
-0.4610 0.0541 -0.0693 0.9981
-0.4602 0.0405 -0.0690 0.9981
-0.4591 0.0268 -0.0687 0.9981
-0.4580 0.0134 -0.0684 0.9981
-0.4435 0.0000 -0.0712 0.9982
-0.4441 -0.0065 -0.0714 0.9982
-0.4447 -0.0130 -0.0715 0.9982
-0.4458 -0.0261 -0.0717 0.9982
-0.4462 -0.0327 -0.0719 0.9982
-0.4467 -0.0393 -0.0720 0.9982
-0.4478 -0.0592 -0.0726 0.9982
-0.4481 -0.0659 -0.0728 0.9982
-0.4483 -0.0727 -0.0730 0.9982
-0.4486 -0.0795 -0.0732 0.9982
-0.4487 -0.0863 -0.0734 0.9982
-0.4489 -0.1000 -0.0739 0.9981
-0.4490 -0.1139 -0.0744 0.9981
-0.4490 -0.1209 -0.0747 0.9981
-0.4489 -0.1279 -0.0750 0.9981
-0.4488 -0.1351 -0.0753 0.9981
-0.4487 -0.1422 -0.0756 0.9981
-0.4485 -0.1494 -0.0759 0.9981
-0.4483 -0.1566 -0.0763 0.9981
-0.4477 -0.1788 -0.0774 0.9980
-0.4474 -0.1863 -0.0779 0.9980
-0.4468 -0.2095 -0.0793 0.9980
-0.4466 -0.2174 -0.0798 0.9980
-0.4464 -0.2254 -0.0803 0.9980
-0.4460 -0.2334 -0.0809 0.9980
-0.4452 -0.2498 -0.0820 0.9979
-0.4422 -0.2925 -0.0852 0.9979
-0.4414 -0.3014 -0.0859 0.9978
-0.4397 -0.3195 -0.0873 0.9978
-0.4387 -0.3287 -0.0881 0.9978
-0.4377 -0.3380 -0.0888 0.9978
-0.4366 -0.3474 -0.0896 0.9977
-0.4332 -0.3769 -0.0922 0.9977
-0.4311 -0.3977 -0.0942 0.9976
-0.4286 -0.4193 -0.0963 0.9976
-0.4264 -0.4423 -0.0987 0.9975
-0.4259 -0.4549 -0.1001 0.9975
-0.4254 -0.4679 -0.1016 0.9974
-0.4235 -0.5089 -0.1064 0.9973
-0.4228 -0.5234 -0.1081 0.9973
-0.4220 -0.5382 -0.1099 0.9972
-0.4211 -0.5536 -0.1117 0.9972
-0.4267 -0.5784 -0.1155 0.9971
-0.4648 -0.6497 -0.1283 0.9968
-3.3045 -5.2408 -0.9954 0.9752
-3.2274 -5.2884 -0.9953 0.9752
-3.0713 -5.3800 -0.9953 0.9752
-2.9923 -5.4242 -0.9952 0.9752
-2.8324 -5.5090 -0.9952 0.9752
-2.6700 -5.5891 -0.9951 0.9752
-2.5880 -5.6273 -0.9951 0.9752
-2.5054 -5.6643 -0.9951 0.9752
-2.4223 -5.7001 -0.9950 0.9752
-2.3387 -5.7347 -0.9950 0.9752
-2.2546 -5.7681 -0.9950 0.9752
-2.1699 -5.8002 -0.9949 0.9752
-1.9994 -5.8608 -0.9949 0.9752
-1.9135 -5.8891 -0.9948 0.9752
-1.6534 -5.9667 -0.9947 0.9752
-1.5661 -5.9900 -0.9947 0.9752
-1.3019 -6.0523 -0.9946 0.9752
-1.1244 -6.0873 -0.9945 0.9752
-1.0353 -6.1029 -0.9945 0.9752
-0.8564 -6.1301 -0.9944 0.9752
-0.6769 -6.1521 -0.9943 0.9752
-0.5869 -6.1611 -0.9943 0.9752
-0.4968 -6.1687 -0.9943 0.9752
-0.3163 -6.1802 -0.9942 0.9752
-0.2260 -6.1839 -0.9942 0.9752
-0.1356 -6.1864 -0.9941 0.9752
-0.0452 -6.1875 -0.9941 0.9752
0.2260 -6.1829 -0.9940 0.9752
0.3163 -6.1787 -0.9939 0.9752
0.4065 -6.1732 -0.9939 0.9752
0.9452 -6.1126 -0.9937 0.9753
1.0344 -6.0979 -0.9937 0.9753
1.2121 -6.0646 -0.9936 0.9753
1.3005 -6.0461 -0.9936 0.9753
1.3887 -6.0262 -0.9935 0.9753
1.6512 -5.9589 -0.9934 0.9753
1.9962 -5.8515 -0.9933 0.9753
2.0815 -5.8216 -0.9933 0.9753
2.1662 -5.7903 -0.9932 0.9753
2.3343 -5.7241 -0.9932 0.9753
2.4177 -5.6892 -0.9931 0.9753
2.6644 -5.5773 -0.9930 0.9753
2.8260 -5.4967 -0.9930 0.9753
2.9853 -5.4115 -0.9929 0.9753
3.2193 -5.2749 -0.9928 0.9753
3.3718 -5.1784 -0.9928 0.9753
3.4470 -5.1283 -0.9927 0.9753
3.5214 -5.0773 -0.9927 0.9753
3.6681 -4.9720 -0.9926 0.9753
3.7403 -4.9176 -0.9926 0.9753
3.8116 -4.8624 -0.9926 0.9753
3.9518 -4.7486 -0.9925 0.9753
4.0887 -4.6309 -0.9925 0.9753
4.1558 -4.5705 -0.9924 0.9753
4.2220 -4.5092 -0.9924 0.9753
4.2874 -4.4469 -0.9924 0.9753
4.3518 -4.3837 -0.9924 0.9753
4.4778 -4.2545 -0.9923 0.9753
4.5393 -4.1884 -0.9923 0.9753
4.5999 -4.1216 -0.9923 0.9753
4.6596 -4.0538 -0.9922 0.9753
4.7182 -3.9852 -0.9922 0.9753
4.8324 -3.8455 -0.9922 0.9753
4.9425 -3.7025 -0.9921 0.9753
4.9710 -3.5018 -0.9769 0.9757
5.0658 -3.3515 -0.9758 0.9757
4.3850 -2.8099 -0.8367 0.9791
4.3830 -2.7191 -0.8287 0.9793
4.3811 -2.6300 -0.8209 0.9795
4.4722 -2.5966 -0.8308 0.9793
4.6208 -2.5933 -0.8513 0.9788
4.7770 -2.5900 -0.8730 0.9782
5.3808 -2.8164 -0.9757 0.9757
5.5716 -2.4159 -0.9756 0.9757
4.1518 -1.6579 -0.7182 0.9821
3.8946 -1.4896 -0.6699 0.9832
5.7327 -2.0027 -0.9756 0.9757
5.7672 -1.9206 -0.9766 0.9757
5.7946 -1.8361 -0.9766 0.9757
5.8948 -1.7735 -0.9890 0.9754
5.9367 -1.6919 -0.9917 0.9753
5.9835 -1.5177 -0.9917 0.9753
6.0252 -1.3421 -0.9917 0.9753
6.0617 -1.1655 -0.9917 0.9753
6.0781 -1.0769 -0.9917 0.9753
6.1488 -0.5405 -0.9917 0.9753
6.1718 -0.0902 -0.9917 0.9753
6.1725 0.0000 -0.9917 0.9753
6.1698 0.1803 -0.9917 0.9753
6.1666 0.2705 -0.9917 0.9753
6.1403 0.6302 -0.9917 0.9753
6.1069 0.8987 -0.9917 0.9753
6.0780 1.0768 -0.9917 0.9753
6.0441 1.2539 -0.9917 0.9753
6.0252 1.3421 -0.9917 0.9753
5.9367 1.6919 -0.9917 0.9753
5.9113 1.7784 -0.9918 0.9753
5.8570 1.9505 -0.9918 0.9753
5.7977 2.1208 -0.9918 0.9753
5.6994 2.3730 -0.9918 0.9753
5.6641 2.4560 -0.9919 0.9753
5.5901 2.6205 -0.9919 0.9753
5.5113 2.7829 -0.9919 0.9753
5.4702 2.8631 -0.9919 0.9753
5.3398 3.1003 -0.9920 0.9753
5.2940 3.1780 -0.9920 0.9753
5.1990 3.3314 -0.9920 0.9753
5.0997 3.4821 -0.9921 0.9753
5.0484 3.5563 -0.9921 0.9753
4.9960 3.6298 -0.9921 0.9753
4.8880 3.7744 -0.9922 0.9753
4.8324 3.8455 -0.9922 0.9753
4.7182 3.9852 -0.9922 0.9753
4.6595 4.0538 -0.9922 0.9753
4.4152 4.3195 -0.9923 0.9753
4.2873 4.4469 -0.9924 0.9753
4.2220 4.5092 -0.9924 0.9753
4.0207 4.6902 -0.9925 0.9753
3.8821 4.8060 -0.9926 0.9753
3.8116 4.8623 -0.9926 0.9753
3.6017 4.8817 -0.9746 0.9757
3.4577 4.9852 -0.9747 0.9757
3.3108 5.0843 -0.9748 0.9757
3.2362 5.1323 -0.9748 0.9757
3.1610 5.1793 -0.9748 0.9757
3.0851 5.2250 -0.9749 0.9757
3.0085 5.2697 -0.9749 0.9757
2.8534 5.3557 -0.9749 0.9757
2.6959 5.4371 -0.9750 0.9757
2.2921 5.6203 -0.9752 0.9757
2.2098 5.6534 -0.9752 0.9757
2.0438 5.7159 -0.9753 0.9757
1.9602 5.7454 -0.9753 0.9757
1.8761 5.7736 -0.9753 0.9757
1.7916 5.8006 -0.9754 0.9757
1.6214 5.8509 -0.9754 0.9757
1.5358 5.8741 -0.9755 0.9757
1.4498 5.8961 -0.9755 0.9757
0.5691 5.1725 -0.8360 0.9791
0.5761 6.0465 -0.9758 0.9757
0.4877 6.0545 -0.9759 0.9757
0.3992 6.0612 -0.9759 0.9757
0.2220 6.0707 -0.9760 0.9757
0.1332 6.0735 -0.9760 0.9757
0.0445 6.0750 -0.9760 0.9757
-0.1331 6.0741 -0.9761 0.9757
-0.2218 6.0718 -0.9761 0.9757
-0.3992 6.0631 -0.9762 0.9757
-0.5762 6.0493 -0.9763 0.9757
-0.6646 6.0404 -0.9763 0.9757
-0.7528 6.0303 -0.9764 0.9757
-1.2782 5.9425 -0.9766 0.9757
-1.5375 5.8814 -0.9767 0.9757
-1.7088 5.8343 -0.9767 0.9757
-1.7940 5.8089 -0.9768 0.9757
-1.9631 5.7544 -0.9768 0.9757
-2.1305 5.6950 -0.9769 0.9757
-2.2136 5.6634 -0.9769 0.9757
-2.3783 5.5967 -0.9770 0.9757
-2.4599 5.5615 -0.9770 0.9757
-2.7810 5.4090 -0.9771 0.9757
-3.0156 5.2824 -0.9772 0.9757
-3.0926 5.2380 -0.9773 0.9757
-3.1689 5.1924 -0.9773 0.9757
-3.3808 5.1921 -0.9954 0.9752
-0.4647 0.6496 -0.1283 0.9968
-0.4266 0.5783 -0.1155 0.9971
-0.4219 0.5382 -0.1099 0.9972
-0.4228 0.5234 -0.1081 0.9973
-0.4242 0.4948 -0.1047 0.9974
-0.4254 0.4679 -0.1016 0.9974
-0.4286 0.4193 -0.0963 0.9976
-0.4299 0.4084 -0.0953 0.9976
-0.4321 0.3872 -0.0932 0.9977
-0.4355 0.3570 -0.0905 0.9977
-0.4366 0.3474 -0.0896 0.9977
-0.4397 0.3194 -0.0873 0.9978
-0.4406 0.3104 -0.0866 0.9978
-0.4429 0.2838 -0.0845 0.9979
-0.4436 0.2752 -0.0839 0.9979
-0.4447 0.2582 -0.0826 0.9979
-0.4452 0.2498 -0.0820 0.9979
-0.4469 0.2095 -0.0793 0.9980
-0.4474 0.1863 -0.0779 0.9980
-0.4479 0.1713 -0.0770 0.9981
-0.4481 0.1639 -0.0766 0.9981
-0.4485 0.1493 -0.0759 0.9981
-0.4487 0.1422 -0.0756 0.9981
-0.4488 0.1350 -0.0753 0.9981
-0.4489 0.1279 -0.0750 0.9981
-0.4490 0.1069 -0.0742 0.9981
-0.4489 0.0931 -0.0736 0.9981
-0.4478 0.0592 -0.0726 0.9982
-0.4471 0.0459 -0.0722 0.9982
-0.4467 0.0393 -0.0720 0.9982
-0.4447 0.0130 -0.0715 0.9982
-0.4441 0.0065 -0.0714 0.9982
-0.4310 0.0000 -0.0741 0.9983
-0.4315 -0.0063 -0.0743 0.9982
-0.4339 -0.0381 -0.0749 0.9982
-0.4343 -0.0446 -0.0751 0.9982
-0.4346 -0.0511 -0.0753 0.9982
-0.4349 -0.0575 -0.0755 0.9982
-0.4352 -0.0641 -0.0757 0.9982
-0.4356 -0.0772 -0.0761 0.9982
-0.4357 -0.0838 -0.0763 0.9982
-0.4358 -0.0904 -0.0766 0.9982
-0.4358 -0.1173 -0.0776 0.9982
-0.4356 -0.1241 -0.0779 0.9982
-0.4353 -0.1379 -0.0786 0.9981
-0.4350 -0.1449 -0.0789 0.9981
-0.4348 -0.1519 -0.0792 0.9981
-0.4344 -0.1589 -0.0796 0.9981
-0.4340 -0.1660 -0.0799 0.9981
-0.4337 -0.1732 -0.0803 0.9981
-0.4330 -0.1877 -0.0812 0.9981
-0.4324 -0.2027 -0.0822 0.9981
-0.4321 -0.2103 -0.0827 0.9981
-0.4318 -0.2180 -0.0832 0.9980
-0.4313 -0.2258 -0.0838 0.9980
-0.4309 -0.2336 -0.0843 0.9980
-0.4291 -0.2576 -0.0861 0.9980
-0.4284 -0.2658 -0.0867 0.9980
-0.4269 -0.2824 -0.0881 0.9979
-0.4260 -0.2909 -0.0887 0.9979
-0.4251 -0.2995 -0.0895 0.9979
-0.4241 -0.3081 -0.0902 0.9979
-0.4219 -0.3258 -0.0917 0.9978
-0.4195 -0.3439 -0.0933 0.9978
-0.4167 -0.3626 -0.0950 0.9978
-0.4156 -0.3724 -0.0960 0.9977
-0.4144 -0.3937 -0.0983 0.9977
-0.4128 -0.4282 -0.1023 0.9976
-0.4115 -0.4526 -0.1052 0.9975
-0.4107 -0.4652 -0.1068 0.9975
-0.4071 -0.5193 -0.1135 0.9973
-0.4059 -0.5337 -0.1154 0.9973
-0.4047 -0.5486 -0.1173 0.9972
-0.4035 -0.5639 -0.1193 0.9972
-0.4671 -0.6950 -0.1441 0.9966
-3.0855 -4.8934 -0.9953 0.9768
-3.0136 -4.9379 -0.9952 0.9768
-2.9410 -4.9812 -0.9952 0.9768
-2.8678 -5.0236 -0.9952 0.9768
-2.7197 -5.1049 -0.9951 0.9768
-2.6446 -5.1439 -0.9951 0.9768
-2.5692 -5.1818 -0.9951 0.9768
-2.4931 -5.2187 -0.9950 0.9768
-2.4165 -5.2544 -0.9950 0.9768
-2.3394 -5.2890 -0.9950 0.9768
-2.1837 -5.3548 -0.9949 0.9768
-1.9468 -5.4448 -0.9948 0.9768
-1.7868 -5.4991 -0.9948 0.9768
-1.7062 -5.5244 -0.9947 0.9768
-1.6252 -5.5485 -0.9947 0.9768
-1.5439 -5.5715 -0.9947 0.9768
-1.4623 -5.5932 -0.9946 0.9768
-1.2981 -5.6333 -0.9946 0.9768
-1.1329 -5.6684 -0.9945 0.9768
-0.9667 -5.6988 -0.9944 0.9768
-0.7997 -5.7242 -0.9944 0.9768
-0.7160 -5.7351 -0.9944 0.9768
-0.3797 -5.7663 -0.9942 0.9768
-0.2954 -5.7711 -0.9942 0.9768
-0.1267 -5.7769 -0.9941 0.9768
0.2953 -5.7698 -0.9940 0.9768
0.3796 -5.7646 -0.9939 0.9768
0.4637 -5.7583 -0.9939 0.9768
0.5478 -5.7507 -0.9939 0.9768
0.7156 -5.7318 -0.9938 0.9768
0.7992 -5.7206 -0.9938 0.9768
0.9660 -5.6944 -0.9937 0.9768
1.2968 -5.6275 -0.9936 0.9768
1.4606 -5.5869 -0.9935 0.9768
1.5420 -5.5648 -0.9935 0.9768
1.7842 -5.4913 -0.9934 0.9768
1.8642 -5.4645 -0.9933 0.9768
2.1017 -5.3770 -0.9932 0.9768
2.1800 -5.3456 -0.9932 0.9768
2.3351 -5.2793 -0.9932 0.9768
2.7138 -5.0940 -0.9930 0.9768
2.7879 -5.0537 -0.9930 0.9768
2.8613 -5.0122 -0.9929 0.9768
2.9341 -4.9697 -0.9929 0.9768
3.0064 -4.9262 -0.9929 0.9768
3.2887 -4.7416 -0.9928 0.9769
3.3575 -4.6929 -0.9928 0.9769
3.4256 -4.6432 -0.9927 0.9769
3.6255 -4.4883 -0.9927 0.9769
3.6906 -4.4348 -0.9926 0.9769
3.8811 -4.2684 -0.9926 0.9769
3.9430 -4.2112 -0.9925 0.9769
4.1235 -4.0341 -0.9925 0.9769
4.1818 -3.9733 -0.9924 0.9769
4.3516 -3.7860 -0.9924 0.9769
4.4064 -3.7219 -0.9923 0.9769
4.3919 -3.6010 -0.9771 0.9772
4.4439 -3.5363 -0.9771 0.9772
4.4904 -3.4674 -0.9761 0.9772
4.5897 -3.3346 -0.9760 0.9772
4.6849 -3.1989 -0.9760 0.9772
4.7311 -3.1301 -0.9760 0.9772
4.3811 -2.6300 -0.8791 0.9795
4.7811 -2.5922 -0.9357 0.9782
5.0632 -2.5566 -0.9758 0.9772
5.2036 -2.2563 -0.9758 0.9772
5.3596 -1.8723 -0.9767 0.9772
5.4961 -1.7415 -0.9919 0.9769
5.5209 -1.6610 -0.9919 0.9769
5.5446 -1.5802 -0.9919 0.9769
5.6272 -1.2535 -0.9919 0.9769
5.6449 -1.1712 -0.9919 0.9769
5.6766 -1.0057 -0.9918 0.9769
5.6907 -0.9227 -0.9918 0.9769
5.7427 -0.5048 -0.9918 0.9769
5.7495 -0.4208 -0.9918 0.9769
5.7648 0.0000 -0.9918 0.9769
5.7642 0.0843 -0.9918 0.9769
5.7624 0.1684 -0.9918 0.9769
5.7593 0.2527 -0.9918 0.9769
5.7495 0.4208 -0.9918 0.9769
5.7427 0.5048 -0.9918 0.9769
5.7348 0.5887 -0.9918 0.9769
5.7256 0.6723 -0.9918 0.9769
5.7152 0.7560 -0.9918 0.9769
5.6907 0.9227 -0.9918 0.9769
5.6614 1.0886 -0.9919 0.9769
5.6449 1.1711 -0.9919 0.9769
5.5883 1.4174 -0.9919 0.9769
5.5446 1.5801 -0.9919 0.9769
5.4961 1.7415 -0.9919 0.9769
5.4702 1.8216 -0.9919 0.9769
5.4430 1.9014 -0.9919 0.9769
5.3546 2.1382 -0.9920 0.9769
5.2560 2.3709 -0.9920 0.9769
5.2209 2.4474 -0.9920 0.9769
5.1473 2.5990 -0.9921 0.9769
5.1088 2.6740 -0.9921 0.9769
5.0693 2.7484 -0.9921 0.9769
5.0287 2.8222 -0.9921 0.9769
4.9004 3.0400 -0.9922 0.9769
4.8097 3.1820 -0.9922 0.9769
4.7148 3.3213 -0.9922 0.9769
4.5650 3.5250 -0.9923 0.9769
4.5131 3.5914 -0.9923 0.9769
4.1819 3.9733 -0.9924 0.9769
4.1234 4.0340 -0.9925 0.9769
4.0642 4.0939 -0.9925 0.9769
3.7549 4.3802 -0.9926 0.9769
3.6906 4.4347 -0.9926 0.9769
3.5596 4.5409 -0.9927 0.9769
3.4256 4.6432 -0.9927 0.9769
3.0064 4.9262 -0.9929 0.9768
2.8096 4.9212 -0.9750 0.9773
2.4432 5.1140 -0.9751 0.9773
2.3683 5.1493 -0.9751 0.9773
2.2929 5.1835 -0.9752 0.9773
2.2170 5.2166 -0.9752 0.9773
2.1405 5.2486 -0.9752 0.9773
2.0637 5.2795 -0.9753 0.9773
1.9864 5.3092 -0.9753 0.9773
1.9087 5.3378 -0.9753 0.9773
1.8305 5.3654 -0.9753 0.9773
1.6731 5.4169 -0.9754 0.9773
1.5938 5.4409 -0.9754 0.9773
1.5142 5.4638 -0.9755 0.9773
1.4342 5.4855 -0.9755 0.9772
0.7027 5.6279 -0.9758 0.9772
0.5380 5.6463 -0.9758 0.9772
0.4554 5.6538 -0.9759 0.9772
0.2073 5.6689 -0.9760 0.9772
0.1244 5.6715 -0.9760 0.9772
-0.1243 5.6721 -0.9761 0.9772
-0.2071 5.6698 -0.9761 0.9772
-0.3728 5.6617 -0.9762 0.9772
-0.4555 5.6559 -0.9762 0.9772
-0.7030 5.6310 -0.9763 0.9772
-0.9491 5.5954 -0.9764 0.9772
-1.0308 5.5811 -0.9765 0.9772
-1.1123 5.5656 -0.9765 0.9772
-1.1936 5.5489 -0.9765 0.9772
-1.2745 5.5311 -0.9766 0.9772
-1.4357 5.4918 -0.9766 0.9772
-1.9114 5.3461 -0.9768 0.9772
-1.9894 5.3177 -0.9768 0.9772
-2.0670 5.2882 -0.9769 0.9772
-2.1441 5.2576 -0.9769 0.9772
-2.2969 5.1930 -0.9770 0.9772
-2.3727 5.1591 -0.9770 0.9772
-2.5967 5.0506 -0.9771 0.9772
-2.8158 4.9324 -0.9772 0.9772
-2.9588 4.8483 -0.9772 0.9772
-3.0295 4.8046 -0.9772 0.9772
-0.4034 0.5639 -0.1193 0.9972
-0.4047 0.5486 -0.1173 0.9972
-0.4059 0.5337 -0.1154 0.9973
-0.4071 0.5193 -0.1135 0.9973
-0.4091 0.4915 -0.1100 0.9974
-0.4099 0.4782 -0.1084 0.9974
-0.4128 0.4282 -0.1023 0.9976
-0.4134 0.4164 -0.1010 0.9976
-0.4139 0.4049 -0.0996 0.9977
-0.4181 0.3531 -0.0942 0.9978
-0.4219 0.3258 -0.0917 0.9978
-0.4230 0.3169 -0.0909 0.9979
-0.4241 0.3081 -0.0902 0.9979
-0.4269 0.2824 -0.0881 0.9979
-0.4284 0.2658 -0.0867 0.9980
-0.4317 0.2180 -0.0832 0.9980
-0.4321 0.2103 -0.0827 0.9981
-0.4324 0.2027 -0.0822 0.9981
-0.4327 0.1952 -0.0817 0.9981
-0.4334 0.1804 -0.0808 0.9981
-0.4340 0.1660 -0.0799 0.9981
-0.4348 0.1518 -0.0792 0.9981
-0.4353 0.1379 -0.0786 0.9981
-0.4355 0.1310 -0.0782 0.9982
-0.4358 0.0904 -0.0766 0.9982
-0.4357 0.0838 -0.0763 0.9982
-0.4356 0.0771 -0.0761 0.9982
-0.4346 0.0511 -0.0753 0.9982
-0.4326 0.0190 -0.0745 0.9982
-0.4321 0.0127 -0.0744 0.9982
-0.4191 0.0000 -0.0769 0.9983
-0.4202 -0.0123 -0.0771 0.9983
-0.4211 -0.0246 -0.0774 0.9983
-0.4215 -0.0309 -0.0775 0.9983
-0.4231 -0.0686 -0.0786 0.9983
-0.4234 -0.0814 -0.0791 0.9982
-0.4234 -0.1008 -0.0799 0.9982
-0.4230 -0.1205 -0.0807 0.9982
-0.4229 -0.1272 -0.0810 0.9982
-0.4226 -0.1339 -0.0813 0.9982
-0.4212 -0.1611 -0.0827 0.9982
-0.4207 -0.1680 -0.0831 0.9982
-0.4202 -0.1749 -0.0835 0.9982
-0.4192 -0.1891 -0.0844 0.9981
-0.4188 -0.1963 -0.0849 0.9981
-0.4184 -0.2037 -0.0854 0.9981
-0.4170 -0.2261 -0.0870 0.9981
-0.4157 -0.2414 -0.0882 0.9980
-0.4150 -0.2491 -0.0888 0.9980
-0.4143 -0.2570 -0.0894 0.9980
-0.4134 -0.2649 -0.0901 0.9980
-0.4125 -0.2730 -0.0908 0.9980
-0.4079 -0.3246 -0.0957 0.9979
-0.4059 -0.3531 -0.0987 0.9978
-0.4050 -0.3629 -0.0998 0.9978
-0.4027 -0.3826 -0.1019 0.9977
-0.4014 -0.3928 -0.1030 0.9977
-0.4008 -0.4038 -0.1044 0.9977
-0.4000 -0.4149 -0.1058 0.9977
-0.3984 -0.4382 -0.1087 0.9976
-0.3966 -0.4626 -0.1118 0.9975
-0.3931 -0.5015 -0.1169 0.9974
-0.3918 -0.5152 -0.1188 0.9974
-0.3970 -0.5907 -0.1306 0.9971
-0.4679 -0.7421 -0.1610 0.9964
-2.7576 -4.6705 -0.9951 0.9782
-2.6197 -4.7489 -0.9951 0.9782
-2.4797 -4.8231 -0.9950 0.9782
-2.4089 -4.8587 -0.9950 0.9782
-2.1935 -4.9592 -0.9949 0.9782
-2.0476 -5.0209 -0.9949 0.9782
-1.9739 -5.0501 -0.9948 0.9782
-1.7505 -5.1313 -0.9948 0.9782
-1.5998 -5.1799 -0.9947 0.9782
-1.4477 -5.2242 -0.9946 0.9782
-1.3712 -5.2446 -0.9946 0.9782
-1.2172 -5.2821 -0.9945 0.9782
-1.0623 -5.3151 -0.9945 0.9782
-0.8283 -5.3561 -0.9944 0.9782
-0.7499 -5.3674 -0.9944 0.9782
-0.5927 -5.3867 -0.9943 0.9782
-0.5139 -5.3946 -0.9943 0.9782
-0.4350 -5.4014 -0.9942 0.9782
-0.2770 -5.4115 -0.9942 0.9782
-0.1979 -5.4148 -0.9941 0.9782
-0.1187 -5.4169 -0.9941 0.9782
-0.0396 -5.4179 -0.9941 0.9782
0.1979 -5.4139 -0.9940 0.9782
0.2769 -5.4103 -0.9940 0.9782
0.3559 -5.4055 -0.9939 0.9782
0.6710 -5.3748 -0.9938 0.9782
0.7494 -5.3643 -0.9938 0.9782
0.9837 -5.3258 -0.9937 0.9782
1.0614 -5.3107 -0.9937 0.9782
1.2161 -5.2770 -0.9936 0.9782
1.5978 -5.1734 -0.9934 0.9782
1.6731 -5.1494 -0.9934 0.9782
1.7481 -5.1243 -0.9934 0.9782
1.9709 -5.0423 -0.9933 0.9782
2.1897 -4.9506 -0.9932 0.9782
2.3333 -4.8842 -0.9932 0.9782
2.4044 -4.8495 -0.9931 0.9782
2.4749 -4.8137 -0.9931 0.9782
2.6144 -4.7391 -0.9930 0.9782
2.6832 -4.7002 -0.9930 0.9782
2.8864 -4.5778 -0.9929 0.9782
2.9529 -4.5350 -0.9929 0.9782
3.0188 -4.4913 -0.9929 0.9782
3.1486 -4.4009 -0.9928 0.9782
3.2757 -4.3068 -0.9928 0.9782
3.3381 -4.2584 -0.9928 0.9782
3.4610 -4.1588 -0.9927 0.9782
3.5213 -4.1077 -0.9927 0.9782
3.7549 -3.8946 -0.9926 0.9782
3.8669 -3.7831 -0.9926 0.9782
3.9147 -3.6121 -0.9773 0.9786
4.0185 -3.4960 -0.9773 0.9786
3.4865 -2.7745 -0.8175 0.9820
3.4940 -2.6980 -0.8100 0.9822
4.2581 -3.1898 -0.9762 0.9786
4.3042 -3.1271 -0.9761 0.9786
4.4792 -2.8702 -0.9761 0.9786
4.4007 -2.7301 -0.9502 0.9792
4.3883 -2.6343 -0.9391 0.9794
4.4911 -2.6075 -0.9528 0.9791
4.7128 -2.4668 -0.9760 0.9786
4.7828 -2.3279 -0.9760 0.9786
4.8162 -2.2578 -0.9759 0.9786
4.8800 -2.1160 -0.9759 0.9786
4.2109 -1.7532 -0.8369 0.9816
4.1796 -1.6690 -0.8257 0.9819
3.9058 -1.4939 -0.7673 0.9831
5.0916 -1.7787 -0.9896 0.9783
5.1300 -1.7084 -0.9921 0.9783
5.1544 -1.6332 -0.9921 0.9783
5.1777 -1.5577 -0.9920 0.9783
5.2939 -1.0984 -0.9920 0.9783
5.3094 -1.0209 -0.9920 0.9783
5.3237 -0.9432 -0.9920 0.9783
5.3369 -0.8653 -0.9920 0.9783
5.3598 -0.7089 -0.9920 0.9783
5.3782 -0.5520 -0.9920 0.9783
5.3857 -0.4734 -0.9920 0.9783
5.3920 -0.3946 -0.9920 0.9783
5.4064 0.0000 -0.9920 0.9783
5.4058 0.0790 -0.9920 0.9783
5.4012 0.2369 -0.9920 0.9783
5.3920 0.3946 -0.9920 0.9783
5.3696 0.6305 -0.9920 0.9783
5.3094 1.0209 -0.9920 0.9783
5.2773 1.1756 -0.9920 0.9783
5.2408 1.3293 -0.9920 0.9783
5.1998 1.4819 -0.9920 0.9783
5.1544 1.6332 -0.9921 0.9783
5.1300 1.7084 -0.9921 0.9783
5.0504 1.9316 -0.9921 0.9783
5.0217 2.0052 -0.9921 0.9783
4.9292 2.2234 -0.9921 0.9782
4.8962 2.2952 -0.9922 0.9782
4.8622 2.3666 -0.9922 0.9782
4.8272 2.4374 -0.9922 0.9782
4.7160 2.6467 -0.9922 0.9782
4.6769 2.7154 -0.9922 0.9782
4.6367 2.7835 -0.9923 0.9782
4.5536 2.9179 -0.9923 0.9782
4.5105 2.9841 -0.9923 0.9782
4.3288 3.2427 -0.9924 0.9782
4.2811 3.3057 -0.9924 0.9782
4.2324 3.3680 -0.9924 0.9782
4.1828 3.4295 -0.9924 0.9782
4.1323 3.4904 -0.9925 0.9782
4.0810 3.5504 -0.9925 0.9782
3.9756 3.6683 -0.9925 0.9782
3.9217 3.7261 -0.9925 0.9782
3.8669 3.7830 -0.9926 0.9782
3.7549 3.8946 -0.9926 0.9782
3.6977 3.9492 -0.9926 0.9782
3.5808 4.0557 -0.9927 0.9782
3.4610 4.1588 -0.9927 0.9782
3.3999 4.2091 -0.9927 0.9782
3.3382 4.2584 -0.9928 0.9782
3.1486 4.4009 -0.9928 0.9782
3.0840 4.4465 -0.9929 0.9782
2.9529 4.5350 -0.9929 0.9782
2.8864 4.5778 -0.9929 0.9782
2.7516 4.6604 -0.9930 0.9782
2.4749 4.8137 -0.9931 0.9782
2.2618 4.9180 -0.9932 0.9782
2.1501 4.8608 -0.9752 0.9786
2.0073 4.9218 -0.9753 0.9786
1.9352 4.9507 -0.9753 0.9786
1.8627 4.9787 -0.9753 0.9786
1.7166 5.0312 -0.9754 0.9786
1.4945 5.1021 -0.9755 0.9786
1.4199 5.1236 -0.9755 0.9786
1.3449 5.1439 -0.9755 0.9786
1.1941 5.1813 -0.9756 0.9786
1.1183 5.1984 -0.9756 0.9786
1.0422 5.2143 -0.9757 0.9786
0.9660 5.2291 -0.9757 0.9786
0.8895 5.2429 -0.9757 0.9786
0.8128 5.2555 -0.9757 0.9786
0.7360 5.2670 -0.9758 0.9786
0.5691 5.1726 -0.9548 0.9791
0.5045 5.2946 -0.9759 0.9786
0.2720 5.3121 -0.9760 0.9786
0.0389 5.3194 -0.9760 0.9786
-0.0388 5.3196 -0.9761 0.9786
-0.1165 5.3186 -0.9761 0.9786
-0.1942 5.3165 -0.9761 0.9786
-0.3495 5.3089 -0.9762 0.9786
-0.4271 5.3034 -0.9762 0.9786
-0.5819 5.2890 -0.9763 0.9786
-0.7362 5.2700 -0.9763 0.9786
-0.8132 5.2589 -0.9764 0.9786
-0.8900 5.2466 -0.9764 0.9786
-0.9666 5.2332 -0.9764 0.9786
-1.0429 5.2187 -0.9765 0.9786
-1.2708 5.1684 -0.9766 0.9786
-1.3462 5.1495 -0.9766 0.9786
-1.4213 5.1294 -0.9766 0.9786
-1.6449 5.0627 -0.9767 0.9786
-1.7188 5.0382 -0.9767 0.9786
-1.7922 5.0127 -0.9768 0.9786
-2.2247 4.8373 -0.9769 0.9786
-2.3376 4.8932 -0.9950 0.9782
-2.4797 4.8231 -0.9950 0.9782
-2.5500 4.7865 -0.9951 0.9782
-2.7576 4.6705 -0.9951 0.9782
-2.8256 4.6298 -0.9952 0.9782
-0.4218 0.6477 -0.1418 0.9969
-0.3890 0.5437 -0.1226 0.9973
-0.3918 0.5152 -0.1188 0.9974
-0.3931 0.5015 -0.1169 0.9974
-0.3943 0.4882 -0.1151 0.9975
-0.3955 0.4752 -0.1134 0.9975
-0.3965 0.4625 -0.1118 0.9975
-0.3975 0.4502 -0.1102 0.9976
-0.3984 0.4382 -0.1087 0.9976
-0.3993 0.4264 -0.1072 0.9976
-0.4008 0.4037 -0.1044 0.9977
-0.4027 0.3826 -0.1019 0.9977
-0.4042 0.3729 -0.1009 0.9978
-0.4058 0.3530 -0.0987 0.9978
-0.4066 0.3434 -0.0976 0.9978
-0.4079 0.3246 -0.0957 0.9979
-0.4091 0.3065 -0.0938 0.9979
-0.4105 0.2892 -0.0921 0.9980
-0.4150 0.2491 -0.0888 0.9980
-0.4157 0.2414 -0.0882 0.9980
-0.4164 0.2337 -0.0876 0.9981
-0.4184 0.2037 -0.0854 0.9981
-0.4188 0.1963 -0.0849 0.9981
-0.4202 0.1749 -0.0835 0.9982
-0.4216 0.1542 -0.0824 0.9982
-0.4220 0.1474 -0.0820 0.9982
-0.4226 0.1339 -0.0813 0.9982
-0.4229 0.1272 -0.0810 0.9982
-0.4234 0.1008 -0.0799 0.9982
-0.4234 0.0879 -0.0793 0.9982
-0.4233 0.0750 -0.0789 0.9983
-0.4231 0.0686 -0.0786 0.9983
-0.4227 0.0559 -0.0782 0.9983
-0.4219 0.0371 -0.0777 0.9983
-0.4211 0.0246 -0.0774 0.9983
-0.4197 0.0061 -0.0770 0.9983
-0.4083 -0.0059 -0.0796 0.9983
-0.4088 -0.0120 -0.0797 0.9983
-0.4093 -0.0180 -0.0799 0.9983
-0.4097 -0.0240 -0.0800 0.9983
-0.4101 -0.0300 -0.0802 0.9983
-0.4104 -0.0361 -0.0803 0.9983
-0.4110 -0.0483 -0.0807 0.9983
-0.4114 -0.0605 -0.0811 0.9983
-0.4117 -0.0854 -0.0820 0.9983
-0.4113 -0.1108 -0.0830 0.9983
-0.4109 -0.1236 -0.0836 0.9983
-0.4106 -0.1301 -0.0840 0.9982
-0.4103 -0.1366 -0.0843 0.9982
-0.4095 -0.1498 -0.0850 0.9982
-0.4090 -0.1565 -0.0854 0.9982
-0.4079 -0.1698 -0.0861 0.9982
-0.4073 -0.1766 -0.0866 0.9982
-0.4060 -0.1903 -0.0874 0.9982
-0.4034 -0.2264 -0.0902 0.9981
-0.4024 -0.2497 -0.0923 0.9981
-0.4001 -0.2907 -0.0964 0.9980
-0.3995 -0.2993 -0.0973 0.9980
-0.3989 -0.3080 -0.0982 0.9979
-0.3982 -0.3169 -0.0992 0.9979
-0.3974 -0.3259 -0.1002 0.9979
-0.3966 -0.3350 -0.1012 0.9979
-0.3949 -0.3539 -0.1034 0.9978
-0.3940 -0.3635 -0.1045 0.9978
-0.3910 -0.3825 -0.1066 0.9978
-0.3880 -0.4025 -0.1090 0.9977
-0.3861 -0.4246 -0.1119 0.9977
-0.3801 -0.4849 -0.1201 0.9975
-0.3737 -0.5388 -0.1278 0.9973
-0.3718 -0.5532 -0.1299 0.9973
-0.4197 -0.6877 -0.1571 0.9967
-2.5950 -4.3953 -0.9951 0.9794
-2.3336 -4.5389 -0.9950 0.9794
-2.1323 -4.6364 -0.9949 0.9794
-2.0643 -4.6670 -0.9949 0.9794
-1.9958 -4.6965 -0.9949 0.9794
-1.9269 -4.7250 -0.9948 0.9794
-1.8577 -4.7526 -0.9948 0.9794
-1.7179 -4.8046 -0.9947 0.9794
-1.5055 -4.8748 -0.9947 0.9794
-1.4341 -4.8961 -0.9946 0.9794
-1.3624 -4.9164 -0.9946 0.9794
-1.2904 -4.9357 -0.9946 0.9794
-1.2181 -4.9539 -0.9945 0.9794
-1.1455 -4.9710 -0.9945 0.9794
-1.0727 -4.9871 -0.9945 0.9794
-0.9997 -5.0020 -0.9945 0.9794
-0.9265 -5.0160 -0.9944 0.9794
-0.8531 -5.0289 -0.9944 0.9794
-0.7795 -5.0406 -0.9944 0.9794
-0.6319 -5.0609 -0.9943 0.9794
-0.4094 -5.0834 -0.9942 0.9794
-0.1863 -5.0959 -0.9941 0.9794
0.0372 -5.0988 -0.9941 0.9794
0.1862 -5.0952 -0.9940 0.9794
0.2606 -5.0918 -0.9940 0.9794
0.4835 -5.0750 -0.9939 0.9794
0.3034 -2.7572 -0.5408 0.9888
0.7053 -5.0485 -0.9938 0.9794
0.8525 -5.0255 -0.9937 0.9794
0.9989 -4.9981 -0.9937 0.9794
1.0718 -4.9829 -0.9937 0.9794
1.1445 -4.9665 -0.9936 0.9794
1.4325 -4.8906 -0.9935 0.9794
1.5037 -4.8690 -0.9935 0.9794
1.5747 -4.8464 -0.9935 0.9794
1.7155 -4.7981 -0.9934 0.9794
1.7854 -4.7723 -0.9934 0.9794
1.9240 -4.7179 -0.9933 0.9795
1.9927 -4.6891 -0.9933 0.9795
2.1287 -4.6287 -0.9932 0.9795
2.1961 -4.5969 -0.9932 0.9795
2.2629 -4.5643 -0.9932 0.9795
2.3952 -4.4959 -0.9931 0.9795
2.4606 -4.4603 -0.9931 0.9795
2.5254 -4.4238 -0.9931 0.9795
2.5897 -4.3863 -0.9931 0.9795
2.6535 -4.3479 -0.9930 0.9795
2.7793 -4.2683 -0.9930 0.9795
2.9027 -4.1850 -0.9929 0.9795
2.9634 -4.1421 -0.9929 0.9795
3.0830 -4.0536 -0.9929 0.9795
3.1418 -4.0080 -0.9928 0.9795
3.2000 -3.9616 -0.9928 0.9795
3.3703 -3.8173 -0.9928 0.9795
3.4257 -3.7675 -0.9927 0.9795
3.4803 -3.7170 -0.9927 0.9795
3.5323 -3.5581 -0.9774 0.9798
3.6309 -3.4497 -0.9764 0.9798
3.1633 -2.8343 -0.8280 0.9828
3.2541 -2.8311 -0.8409 0.9826
3.3479 -2.8278 -0.8544 0.9823
3.4446 -2.8243 -0.8684 0.9820
3.3516 -2.5880 -0.8255 0.9829
3.4519 -2.5859 -0.8409 0.9826
4.0937 -2.8838 -0.9762 0.9798
4.1761 -2.7629 -0.9762 0.9798
4.2929 -2.5771 -0.9761 0.9798
4.3301 -2.5141 -0.9761 0.9798
4.3663 -2.4505 -0.9761 0.9798
4.4693 -2.2567 -0.9761 0.9798
4.5017 -2.1911 -0.9761 0.9798
4.5332 -2.1250 -0.9761 0.9798
4.5637 -2.0586 -0.9760 0.9798
4.2069 -1.8241 -0.8939 0.9815
4.1521 -1.6580 -0.8716 0.9819
4.8285 -1.6080 -0.9922 0.9795
4.8734 -1.4662 -0.9922 0.9795
4.8942 -1.3948 -0.9922 0.9795
4.9672 -1.1065 -0.9921 0.9795
5.0233 -0.8145 -0.9921 0.9795
5.0346 -0.7409 -0.9921 0.9795
5.0449 -0.6673 -0.9921 0.9795
5.0622 -0.5196 -0.9921 0.9795
5.0801 -0.2973 -0.9921 0.9795
5.0839 -0.2230 -0.9921 0.9795
5.0882 -0.0744 -0.9921 0.9795
5.0887 -0.0000 -0.9921 0.9795
5.0882 0.0743 -0.9921 0.9795
5.0866 0.1487 -0.9921 0.9795
5.0801 0.2972 -0.9921 0.9795
5.0622 0.5196 -0.9921 0.9795
5.0541 0.5935 -0.9921 0.9795
5.0233 0.8145 -0.9921 0.9795
5.0109 0.8877 -0.9921 0.9795
4.9828 1.0338 -0.9921 0.9795
4.9672 1.1065 -0.9921 0.9795
4.9141 1.3232 -0.9921 0.9795
4.8942 1.3948 -0.9922 0.9795
4.8734 1.4662 -0.9922 0.9795
4.8046 1.6784 -0.9922 0.9795
4.7536 1.8181 -0.9922 0.9795
4.7266 1.8873 -0.9922 0.9795
4.6986 1.9562 -0.9922 0.9795
4.6695 2.0247 -0.9922 0.9795
4.6395 2.0927 -0.9923 0.9795
4.5764 2.2275 -0.9923 0.9795
4.5095 2.3603 -0.9923 0.9795
4.4020 2.5558 -0.9923 0.9795
4.3642 2.6199 -0.9924 0.9795
4.3255 2.6834 -0.9924 0.9795
4.2454 2.8087 -0.9924 0.9795
4.2040 2.8705 -0.9924 0.9795
4.1617 2.9317 -0.9924 0.9795
4.0743 3.0521 -0.9925 0.9795
3.8894 3.2852 -0.9925 0.9795
3.8411 3.3417 -0.9926 0.9795
3.7419 3.4527 -0.9926 0.9795
3.6912 3.5070 -0.9926 0.9795
3.5341 3.6657 -0.9927 0.9795
3.4257 3.7675 -0.9927 0.9795
3.3703 3.8173 -0.9928 0.9795
3.3143 3.8662 -0.9928 0.9795
3.2575 3.9143 -0.9928 0.9795
2.9026 4.1850 -0.9929 0.9795
2.8413 4.2271 -0.9930 0.9795
2.7166 4.3085 -0.9930 0.9795
2.5897 4.3863 -0.9931 0.9795
2.5254 4.4238 -0.9931 0.9795
2.4605 4.4603 -0.9931 0.9795
2.3952 4.4959 -0.9931 0.9795
2.3293 4.5305 -0.9932 0.9795
2.1961 4.5969 -0.9932 0.9795
2.1287 4.6287 -0.9932 0.9795
1.9240 4.7179 -0.9933 0.9795
1.7854 4.7723 -0.9934 0.9794
1.7155 4.7980 -0.9934 0.9794
1.6453 4.8227 -0.9934 0.9794
1.5747 4.8464 -0.9935 0.9794
1.5037 4.8690 -0.9935 0.9794
1.4325 4.8906 -0.9935 0.9794
1.3609 4.9112 -0.9935 0.9794
1.2658 4.8412 -0.9756 0.9798
1.1949 4.8593 -0.9756 0.9798
1.1238 4.8764 -0.9756 0.9798
0.8371 4.9343 -0.9757 0.9798
0.7650 4.9461 -0.9758 0.9798
0.6926 4.9569 -0.9758 0.9798
0.6202 4.9666 -0.9758 0.9798
0.5475 4.9753 -0.9758 0.9798
0.4019 4.9895 -0.9759 0.9798
0.1098 5.0050 -0.9760 0.9798
-0.1096 5.0054 -0.9761 0.9798
-0.1828 5.0035 -0.9761 0.9798
-0.4748 4.9848 -0.9762 0.9798
-0.5476 4.9775 -0.9763 0.9798
-0.6203 4.9691 -0.9763 0.9798
-0.6929 4.9597 -0.9763 0.9798
-0.7653 4.9491 -0.9764 0.9798
-0.9096 4.9249 -0.9764 0.9798
-0.9815 4.9113 -0.9764 0.9798
-1.2669 4.8461 -0.9766 0.9798
-1.3376 4.8272 -0.9766 0.9798
-1.5766 4.8524 -0.9947 0.9794
-1.9269 4.7250 -0.9948 0.9794
-2.0643 4.6670 -0.9949 0.9794
-2.2670 4.5724 -0.9950 0.9794
-2.3997 4.5044 -0.9950 0.9794
-2.4654 4.4690 -0.9950 0.9794
-2.5950 4.3953 -0.9951 0.9794
-0.3916 0.6211 -0.1431 0.9970
-0.3771 0.5111 -0.1238 0.9974
-0.3814 0.4722 -0.1183 0.9975
-0.3827 0.4598 -0.1166 0.9976
-0.3850 0.4361 -0.1134 0.9976
-0.3861 0.4246 -0.1119 0.9977
-0.3880 0.4024 -0.1090 0.9977
-0.3910 0.3825 -0.1066 0.9978
-0.3974 0.3259 -0.1002 0.9979
-0.3988 0.3080 -0.0982 0.9979
-0.3995 0.2993 -0.0973 0.9980
-0.4001 0.2907 -0.0964 0.9980
-0.4025 0.2496 -0.0923 0.9981
-0.4031 0.2341 -0.0909 0.9981
-0.4034 0.2264 -0.0902 0.9981
-0.4045 0.2117 -0.0890 0.9981
-0.4051 0.2045 -0.0885 0.9982
-0.4056 0.1974 -0.0879 0.9982
-0.4060 0.1904 -0.0874 0.9982
-0.4067 0.1834 -0.0870 0.9982
-0.4073 0.1766 -0.0866 0.9982
-0.4079 0.1698 -0.0861 0.9982
-0.4095 0.1498 -0.0850 0.9982
-0.4099 0.1432 -0.0846 0.9982
-0.4103 0.1366 -0.0843 0.9982
-0.4117 0.0854 -0.0820 0.9983
-0.4117 0.0791 -0.0817 0.9983
-0.4116 0.0729 -0.0815 0.9983
-0.4114 0.0605 -0.0811 0.9983
-0.4112 0.0544 -0.0809 0.9983
-0.4110 0.0482 -0.0807 0.9983
-0.4107 0.0422 -0.0805 0.9983
-0.4104 0.0360 -0.0803 0.9983
-0.4097 0.0239 -0.0800 0.9983
-0.4093 0.0179 -0.0799 0.9983
-0.4088 0.0120 -0.0797 0.9983
-0.4084 0.0059 -0.0796 0.9983
-0.3971 0.0000 -0.0820 0.9984
-0.3989 -0.0234 -0.0825 0.9984
-0.3992 -0.0292 -0.0826 0.9984
-0.3995 -0.0351 -0.0828 0.9984
-0.3998 -0.0410 -0.0830 0.9984
-0.4000 -0.0470 -0.0832 0.9984
-0.4003 -0.0589 -0.0836 0.9983
-0.4004 -0.0649 -0.0838 0.9983
-0.4005 -0.0709 -0.0840 0.9983
-0.4005 -0.0770 -0.0842 0.9983
-0.4005 -0.0831 -0.0845 0.9983
-0.4005 -0.0892 -0.0847 0.9983
-0.4004 -0.0954 -0.0850 0.9983
-0.4002 -0.1015 -0.0853 0.9983
-0.4000 -0.1077 -0.0855 0.9983
-0.3998 -0.1139 -0.0858 0.9983
-0.3996 -0.1202 -0.0861 0.9983
-0.3993 -0.1265 -0.0865 0.9983
-0.3991 -0.1329 -0.0868 0.9983
-0.3979 -0.1589 -0.0885 0.9983
-0.3975 -0.1655 -0.0889 0.9982
-0.3957 -0.1927 -0.0909 0.9982
-0.3955 -0.1997 -0.0915 0.9982
-0.3947 -0.2216 -0.0935 0.9982
-0.3936 -0.2442 -0.0956 0.9981
-0.3932 -0.2520 -0.0964 0.9981
-0.3927 -0.2598 -0.0972 0.9981
-0.3922 -0.2678 -0.0981 0.9981
-0.3916 -0.2759 -0.0989 0.9980
-0.3910 -0.2841 -0.0998 0.9980
-0.3903 -0.2924 -0.1007 0.9980
-0.3888 -0.3094 -0.1026 0.9980
-0.3880 -0.3182 -0.1036 0.9980
-0.3872 -0.3270 -0.1046 0.9979
-0.3862 -0.3361 -0.1057 0.9979
-0.3853 -0.3452 -0.1068 0.9979
-0.3796 -0.3823 -0.1112 0.9978
-0.3759 -0.4015 -0.1136 0.9978
-0.3745 -0.4119 -0.1149 0.9977
-0.3733 -0.4228 -0.1165 0.9977
-0.3721 -0.4340 -0.1180 0.9977
-0.3678 -0.4692 -0.1231 0.9976
-0.3662 -0.4815 -0.1249 0.9975
-0.3645 -0.4941 -0.1268 0.9975
-0.3628 -0.5070 -0.1287 0.9975
-0.3589 -0.5339 -0.1328 0.9974
-0.3546 -0.5623 -0.1373 0.9973
-0.3659 -0.5996 -0.1450 0.9971
-0.4156 -0.7280 -0.1731 0.9966
-2.2657 -4.2527 -0.9950 0.9805
-2.2032 -4.2853 -0.9949 0.9805
-2.0770 -4.3476 -0.9949 0.9805
-2.0131 -4.3773 -0.9949 0.9805
-1.9489 -4.4062 -0.9948 0.9805
-1.8843 -4.4341 -0.9948 0.9805
-1.8193 -4.4610 -0.9948 0.9805
-1.6880 -4.5120 -0.9947 0.9805
-1.6219 -4.5361 -0.9947 0.9805
-1.5554 -4.5593 -0.9947 0.9805
-1.4886 -4.5813 -0.9947 0.9805
-1.4214 -4.6025 -0.9946 0.9805
-1.1500 -4.6772 -0.9945 0.9805
-0.8748 -4.7359 -0.9944 0.9805
-0.8054 -4.7480 -0.9944 0.9805
-0.6664 -4.7692 -0.9943 0.9805
-0.5966 -4.7783 -0.9943 0.9805
-0.5267 -4.7864 -0.9943 0.9805
-0.3866 -4.7995 -0.9942 0.9805
-0.1055 -4.8133 -0.9941 0.9805
-0.0352 -4.8142 -0.9941 0.9805
0.0352 -4.8141 -0.9941 0.9805
0.1758 -4.8107 -0.9940 0.9805
0.2461 -4.8075 -0.9940 0.9805
0.3163 -4.8033 -0.9939 0.9805
0.3864 -4.7980 -0.9939 0.9805
0.4565 -4.7917 -0.9939 0.9805
0.6660 -4.7667 -0.9938 0.9805
0.8049 -4.7450 -0.9938 0.9805
0.8741 -4.7325 -0.9937 0.9805
1.0120 -4.7048 -0.9937 0.9805
1.1490 -4.6729 -0.9936 0.9805
1.2171 -4.6555 -0.9936 0.9805
1.2850 -4.6371 -0.9936 0.9805
1.4198 -4.5973 -0.9935 0.9805
1.4868 -4.5760 -0.9935 0.9805
1.6198 -4.5304 -0.9934 0.9805
1.9459 -4.3995 -0.9933 0.9805
2.0099 -4.3705 -0.9933 0.9805
2.0736 -4.3405 -0.9933 0.9805
2.1994 -4.2778 -0.9932 0.9805
2.2616 -4.2452 -0.9932 0.9805
2.3845 -4.1770 -0.9931 0.9805
2.5055 -4.1054 -0.9931 0.9805
2.7408 -3.9517 -0.9930 0.9805
3.1336 -3.5492 -0.9776 0.9808
3.1851 -3.5029 -0.9776 0.9808
3.2826 -3.4047 -0.9765 0.9809
3.3319 -3.3563 -0.9765 0.9809
3.3805 -3.3072 -0.9765 0.9809
3.0620 -2.8254 -0.8603 0.9831
3.0602 -2.7420 -0.8484 0.9834
3.2549 -2.5902 -0.8589 0.9832
3.3516 -2.5880 -0.8744 0.9829
3.4519 -2.5859 -0.8906 0.9825
3.8655 -2.7230 -0.9763 0.9809
3.9048 -2.6662 -0.9763 0.9809
3.9433 -2.6089 -0.9763 0.9809
3.9809 -2.5509 -0.9763 0.9809
4.0177 -2.4924 -0.9763 0.9809
4.0536 -2.4334 -0.9762 0.9809
4.1229 -2.3139 -0.9762 0.9809
4.1562 -2.2534 -0.9762 0.9809
4.1886 -2.1923 -0.9762 0.9809
4.2202 -2.1309 -0.9762 0.9809
4.2508 -2.0690 -0.9762 0.9809
4.2805 -2.0066 -0.9762 0.9809
3.9451 -1.4432 -0.8674 0.9830
4.5368 -1.5848 -0.9923 0.9806
4.5811 -1.4516 -0.9923 0.9806
4.6215 -1.3171 -0.9923 0.9806
4.6579 -1.1815 -0.9922 0.9806
4.6747 -1.1133 -0.9922 0.9806
4.6904 -1.0448 -0.9922 0.9806
4.7051 -0.9762 -0.9922 0.9806
4.7433 -0.7691 -0.9922 0.9806
4.7541 -0.6997 -0.9922 0.9806
4.7638 -0.6302 -0.9922 0.9806
4.7801 -0.4906 -0.9922 0.9806
4.7868 -0.4207 -0.9922 0.9806
4.7970 -0.2807 -0.9922 0.9806
4.8031 0.1404 -0.9922 0.9806
4.8006 0.2105 -0.9922 0.9806
4.7970 0.2807 -0.9922 0.9806
4.7924 0.3507 -0.9922 0.9806
4.7724 0.5604 -0.9922 0.9806
4.7638 0.6301 -0.9922 0.9806
4.7052 0.9762 -0.9922 0.9806
4.6904 1.0448 -0.9922 0.9806
4.6018 1.3845 -0.9923 0.9806
4.5811 1.4516 -0.9923 0.9806
4.5368 1.5848 -0.9923 0.9806
4.4367 1.8473 -0.9923 0.9806
4.4093 1.9119 -0.9923 0.9806
4.3809 1.9761 -0.9924 0.9806
4.3516 2.0399 -0.9924 0.9806
4.3214 2.1033 -0.9924 0.9806
4.2902 2.1662 -0.9924 0.9806
4.1914 2.3523 -0.9924 0.9806
4.1566 2.4134 -0.9924 0.9806
4.0844 2.5338 -0.9925 0.9806
4.0470 2.5933 -0.9925 0.9806
4.0087 2.6522 -0.9925 0.9806
3.9696 2.7105 -0.9925 0.9806
3.8472 2.8820 -0.9926 0.9806
3.8048 2.9380 -0.9926 0.9806
3.7615 2.9932 -0.9926 0.9806
3.6726 3.1020 -0.9926 0.9806
3.6269 3.1554 -0.9927 0.9806
3.5333 3.2602 -0.9927 0.9806
3.4854 3.3115 -0.9927 0.9806
3.4367 3.3621 -0.9927 0.9806
3.3371 3.4613 -0.9928 0.9806
3.2862 3.5097 -0.9928 0.9806
3.2346 3.5575 -0.9928 0.9806
3.1824 3.6044 -0.9928 0.9806
3.0758 3.6960 -0.9929 0.9806
2.9666 3.7845 -0.9929 0.9806
2.9111 3.8275 -0.9929 0.9806
2.7981 3.9111 -0.9930 0.9805
2.6243 4.0302 -0.9930 0.9805
2.5651 4.0682 -0.9931 0.9805
2.5055 4.1054 -0.9931 0.9805
2.3233 4.2116 -0.9932 0.9805
2.0736 4.3405 -0.9933 0.9805
2.0100 4.3704 -0.9933 0.9805
1.8815 4.4275 -0.9933 0.9805
1.6858 4.5061 -0.9934 0.9805
1.6198 4.5303 -0.9934 0.9805
1.5535 4.5536 -0.9935 0.9805
1.4868 4.5760 -0.9935 0.9805
1.4198 4.5973 -0.9935 0.9805
1.2850 4.6371 -0.9936 0.9805
1.2171 4.6555 -0.9936 0.9805
1.1490 4.6729 -0.9936 0.9805
1.0806 4.6893 -0.9936 0.9805
1.0120 4.7048 -0.9937 0.9805
0.8049 4.7450 -0.9938 0.9805
0.6659 4.7667 -0.9938 0.9805
0.5963 4.7761 -0.9938 0.9805
0.5264 4.7844 -0.9939 0.9805
0.3163 4.8033 -0.9939 0.9805
0.2461 4.8075 -0.9940 0.9805
0.1055 4.8129 -0.9940 0.9805
0.0352 4.8141 -0.9941 0.9805
-0.0352 4.8142 -0.9941 0.9805
-0.1055 4.8133 -0.9941 0.9805
-0.3164 4.8045 -0.9942 0.9805
-0.4566 4.7934 -0.9942 0.9805
-0.6663 4.7692 -0.9943 0.9805
-0.7360 4.7591 -0.9944 0.9805
-0.8748 4.7358 -0.9944 0.9805
-1.0815 4.6934 -0.9945 0.9805
-1.1500 4.6771 -0.9945 0.9805
-1.2183 4.6600 -0.9945 0.9805
-1.2863 4.6418 -0.9946 0.9805
-1.5554 4.5592 -0.9947 0.9805
-1.6880 4.5121 -0.9947 0.9805
-1.7538 4.4870 -0.9948 0.9805
-1.8843 4.4341 -0.9948 0.9805
-1.9489 4.4062 -0.9948 0.9805
-2.1403 4.3169 -0.9949 0.9805
-0.4155 0.7279 -0.1731 0.9966
-0.3659 0.5995 -0.1450 0.9971
-0.3568 0.5479 -0.1350 0.9973
-0.3589 0.5339 -0.1328 0.9974
-0.3609 0.5203 -0.1307 0.9974
-0.3628 0.5070 -0.1287 0.9975
-0.3662 0.4815 -0.1249 0.9975
-0.3693 0.4571 -0.1214 0.9976
-0.3707 0.4455 -0.1197 0.9976
-0.3733 0.4228 -0.1165 0.9977
-0.3745 0.4118 -0.1149 0.9977
-0.3759 0.4014 -0.1136 0.9978
