ply
format ascii 1.0
element vertex 1587
property float32 x
property float32 y
property float32 z
property float32 I
end_header
38.0593 -13.2952 3.8650 0.8504
38.3883 -12.7839 3.8790 0.8499
9.1590 -2.7555 0.9169 0.9623
13.5809 -3.6567 1.3484 0.9451
13.3396 -2.7676 1.3061 0.9467
13.0204 -2.5035 1.2711 0.9481
13.4408 -2.3812 1.3086 0.9466
13.3846 -2.1701 1.2999 0.9470
5.6994 -0.6693 0.5502 0.9772
21.8203 -1.9179 2.1000 0.9157
24.6743 -1.8059 2.3719 0.9054
30.2370 8.6172 3.0142 0.8813
24.7804 8.6565 2.5165 0.8999
22.8468 8.3576 2.3323 0.9069
23.4157 9.3502 2.4172 0.9036
23.0827 10.0087 2.4120 0.9038
23.0270 10.3869 2.4218 0.9035
23.4095 10.9739 2.4786 0.9013
19.1195 9.6540 2.0534 0.9175
18.2409 9.8896 1.9892 0.9200
17.1763 9.9726 1.9041 0.9233
11.4899 9.9962 1.4601 0.9406
2.2873 5.1713 0.5421 0.9775
0.7898 9.8059 0.9431 0.9612
-0.8626 9.0545 0.8720 0.9641
-4.6686 9.4164 1.0076 0.9586
-5.3310 7.4514 0.8784 0.9639
-5.3380 7.2354 0.8620 0.9645
-5.3798 6.8629 0.8360 0.9656
-5.4004 6.6856 0.8239 0.9661
-5.4480 6.3553 0.8025 0.9669
-5.4745 6.2005 0.7930 0.9673
-5.3782 5.5784 0.7429 0.9693
-5.4510 5.0297 0.7111 0.9706
-5.4683 4.8996 0.7039 0.9709
-5.4852 4.7721 0.6970 0.9712
-5.5019 4.6471 0.6904 0.9715
-5.5502 4.2857 0.6723 0.9722
-5.5662 4.1697 0.6667 0.9724
-5.5974 3.9431 0.6564 0.9729
-5.6125 3.8323 0.6515 0.9731
-5.6558 3.5086 0.6381 0.9736
-5.6697 3.4036 0.6340 0.9738
-5.6836 3.2999 0.6301 0.9739
-5.7373 2.8970 0.6162 0.9745
-5.7504 2.7989 0.6131 0.9746
-6.0243 2.8241 0.6379 0.9736
-1.2442 0.5612 0.1309 0.9945
-1.2418 0.5384 0.1298 0.9946
-1.2395 0.5161 0.1287 0.9946
-1.2351 0.4724 0.1268 0.9947
-1.2241 0.3879 0.1231 0.9949
-1.2200 0.3477 0.1216 0.9949
-1.2182 0.3280 0.1209 0.9949
-1.2164 0.3085 0.1203 0.9950
-1.2147 0.2893 0.1197 0.9950
-1.2132 0.2702 0.1192 0.9950
-1.2118 0.2514 0.1186 0.9950
-1.2104 0.2327 0.1182 0.9951
-1.2092 0.2142 0.1177 0.9951
-1.2034 0.1592 0.1164 0.9951
-1.2016 0.1411 0.1160 0.9952
-1.1998 0.1232 0.1156 0.9952
-1.1938 0.0873 0.1148 0.9952
-1.1869 0.0521 0.1139 0.9952
-1.1804 0.0173 0.1132 0.9953
-1.1424 -0.0167 0.0968 0.9954
-1.1454 -0.0335 0.0971 0.9954
-1.1548 -0.0845 0.0981 0.9954
-1.1582 -0.1018 0.0985 0.9953
-1.1616 -0.1192 0.0989 0.9953
-1.1651 -0.1368 0.0994 0.9953
-1.1709 -0.1898 0.1005 0.9952
-1.1736 -0.2256 0.1012 0.9952
-1.1760 -0.2620 0.1020 0.9952
-1.1787 -0.2990 0.1030 0.9951
-1.1851 -0.3755 0.1053 0.9950
-1.1876 -0.3955 0.1060 0.9950
-1.1902 -0.4158 0.1068 0.9950
-1.1929 -0.4364 0.1076 0.9949
-1.1957 -0.4573 0.1084 0.9949
-1.2004 -0.4998 0.1101 0.9948
-1.2044 -0.5433 0.1119 0.9947
-1.2297 -0.5765 0.1150 0.9946
-22.8190 -11.5221 2.1651 0.9025
-21.6252 -11.7245 2.0835 0.9060
-21.6804 -12.1676 2.1057 0.9050
-20.9047 -12.9685 2.0836 0.9060
-43.7147 -29.8487 4.4833 0.8086
-42.3290 -29.8187 4.3854 0.8123
-39.7302 -29.7622 4.2045 0.8193
-38.5091 -29.7357 4.1208 0.8226
-36.2059 -29.6858 3.9655 0.8287
-35.0296 -30.4757 3.9326 0.8300
-37.2385 -34.3599 4.2915 0.8160
-37.2168 -35.3605 4.3481 0.8138
-8.9244 -9.2565 1.0890 0.9497
-8.7768 -9.3737 1.0876 0.9498
-8.4713 -9.5947 1.0841 0.9499
-8.2491 -9.6228 1.0735 0.9504
-8.0444 -9.9588 1.0843 0.9499
-7.8848 -10.3669 1.1032 0.9491
-7.7941 -11.5959 1.1834 0.9455
-29.1958 -47.8391 4.7468 0.7985
-28.2325 -47.8183 4.7033 0.8002
-6.5223 -12.2426 1.1749 0.9458
-6.3036 -12.7140 1.2019 0.9446
-14.0475 -29.4050 2.7601 0.8774
-14.0239 -30.4933 2.8427 0.8739
-21.0820 -47.6631 4.4142 0.8112
-20.2469 -47.6450 4.3847 0.8124
-19.4227 -47.6271 4.3564 0.8134
-18.6089 -47.6094 4.3295 0.8145
-15.6052 -45.7425 4.0935 0.8236
-14.8574 -45.7263 4.0722 0.8245
-13.6731 -46.6809 4.1199 0.8226
-13.6196 -49.1494 4.3197 0.8149
-13.5606 -51.8701 4.5409 0.8064
-13.4224 -58.2466 5.0627 0.7867
-11.8269 -59.1753 5.1111 0.7849
-11.7328 -63.5200 5.4710 0.7716
-11.6243 -68.5241 5.8867 0.7565
-11.4981 -74.3523 6.3723 0.7393
-1.6039 -12.8477 1.0966 0.9494
0.0954 -13.0623 1.1064 0.9489
24.3510 -83.1361 7.3373 0.7063
25.4319 -82.3465 7.2996 0.7075
33.5101 -82.1712 7.5162 0.7003
34.9061 -82.1409 7.5593 0.6989
36.3185 -82.1102 7.6045 0.6974
40.6632 -82.0160 7.7535 0.6925
51.5641 -81.7794 8.1885 0.6783
2.0337 -2.7566 0.2901 0.9863
9.4321 -10.6829 1.2070 0.9444
12.7351 -13.6012 1.5781 0.9279
17.7612 -14.1338 1.9225 0.9129
17.8099 -13.7524 1.9058 0.9136
17.7575 -13.3023 1.8792 0.9148
17.6762 -12.8425 1.8506 0.9160
17.6760 -12.4518 1.8313 0.9169
22.1525 -13.7427 2.2080 0.9006
22.8004 -13.2380 2.2330 0.8996
23.8031 -12.4587 2.2755 0.8978
27.5227 -12.4149 2.5573 0.8859
28.1007 -12.1847 2.5942 0.8843
32.2797 -12.3460 2.9272 0.8705
34.4004 -12.0171 3.0863 0.8639
9.1589 -2.7555 0.8101 0.9623
47.7301 -12.8516 4.1866 0.8200
13.5338 -3.4328 1.1826 0.9455
12.9845 -3.0923 1.1305 0.9478
13.5000 -2.3918 1.1612 0.9464
13.5446 -2.1961 1.1622 0.9464
5.6751 -0.8352 0.4858 0.9772
5.7129 -0.6709 0.4872 0.9772
18.2362 -1.8718 1.5527 0.9291
24.0371 -1.7593 2.0413 0.9078
69.3579 10.2073 5.9377 0.7547
37.1499 8.8472 3.2345 0.8579
30.3395 8.6464 2.6720 0.8810
28.5941 9.0604 2.5405 0.8866
28.9043 10.0971 2.5932 0.8843
23.0565 9.9974 2.1285 0.9040
22.8167 10.2921 2.1200 0.9044
23.5155 11.0236 2.1997 0.9010
19.5345 9.5080 1.8401 0.9165
19.5493 10.2323 1.8689 0.9152
18.4195 10.3375 1.7890 0.9187
11.4239 9.9387 1.2825 0.9410
0.7891 9.7971 0.8325 0.9613
-4.6785 9.4363 0.8921 0.9586
-4.9100 7.3049 0.7455 0.9653
-5.0761 7.3188 0.7544 0.9649
-5.3168 7.4316 0.7739 0.9640
-5.3241 7.2165 0.7596 0.9646
-5.3890 6.6715 0.7264 0.9662
-5.4394 6.3452 0.7079 0.9670
-5.4659 6.1906 0.6995 0.9674
-5.3348 5.8671 0.6716 0.9687
-5.3545 5.7186 0.6635 0.9690
-5.3737 5.5738 0.6558 0.9694
-5.4476 5.0264 0.6278 0.9707
-5.4653 4.8970 0.6215 0.9710
-5.4827 4.7699 0.6155 0.9712
-5.5165 4.5230 0.6042 0.9718
-5.5319 4.4021 0.5988 0.9720
-5.5466 4.2830 0.5935 0.9723
-5.5628 4.1671 0.5887 0.9725
-5.5786 4.0530 0.5840 0.9727
-5.5940 3.9407 0.5796 0.9729
-5.6092 3.8300 0.5753 0.9731
-5.6641 3.4002 0.5595 0.9738
-5.6916 3.1943 0.5528 0.9741
-5.7185 2.9931 0.5467 0.9744
-5.7317 2.8941 0.5438 0.9746
-5.7448 2.7962 0.5412 0.9747
-1.2024 0.5214 0.1110 0.9948
-1.1929 0.4364 0.1076 0.9949
-1.1876 0.3955 0.1060 0.9950
-1.1834 0.3560 0.1047 0.9951
-1.1818 0.3368 0.1041 0.9951
-1.1802 0.3178 0.1035 0.9951
-1.1761 0.2620 0.1021 0.9952
-1.1736 0.2257 0.1012 0.9952
-1.1690 0.1721 0.1001 0.9953
-1.1673 0.1544 0.0997 0.9953
-1.1582 0.1018 0.0985 0.9953
-1.1485 0.0504 0.0974 0.9954
-1.1454 0.0335 0.0971 0.9954
-1.1423 0.0167 0.0968 0.9954
-1.1068 -0.0162 0.0814 0.9956
-1.1096 -0.0324 0.0816 0.9956
-1.1125 -0.0488 0.0819 0.9955
-1.1154 -0.0652 0.0822 0.9955
-1.1247 -0.1154 0.0832 0.9955
-1.1312 -0.1496 0.0839 0.9954
-1.1365 -0.1842 0.0847 0.9954
-1.1391 -0.2190 0.0853 0.9954
-1.1447 -0.3082 0.0872 0.9953
-1.1460 -0.3266 0.0876 0.9952
-1.1474 -0.3452 0.0881 0.9952
-1.1508 -0.3832 0.0892 0.9951
-1.1603 -0.4633 0.0919 0.9950
-1.1672 -0.5265 0.0942 0.9949
-1.2434 -0.6052 0.1017 0.9945
-21.1680 -12.7074 1.8158 0.9057
-20.6802 -12.8292 1.7899 0.9070
-45.1639 -29.8802 3.9828 0.8048
-42.3290 -29.8186 3.8081 0.8125
-16.9287 -12.2995 1.5390 0.9195
-35.1178 -29.6621 3.3808 0.8316
-35.0294 -30.4756 3.4148 0.8301
-37.1943 -36.3878 3.8269 0.8116
-8.9449 -9.2777 0.9478 0.9496
-8.7771 -9.3741 0.9445 0.9498
-8.6460 -9.5088 0.9452 0.9498
-8.2587 -9.6340 0.9333 0.9504
-7.9240 -10.1084 0.9446 0.9498
-7.7846 -10.2351 0.9457 0.9497
-7.6291 -10.6636 0.9643 0.9488
-30.1773 -47.8605 4.1613 0.7970
-28.2325 -47.8183 4.0841 0.8003
-6.8408 -12.4004 1.0416 0.9448
-14.0473 -29.4047 2.3967 0.8775
-14.0237 -30.4930 2.4684 0.8741
-20.2469 -47.6450 3.8074 0.8125
-19.4227 -47.6271 3.7829 0.8136
-18.6089 -47.6094 3.7595 0.8146
-17.8049 -47.5920 3.7372 0.8156
-14.8574 -45.7263 3.5361 0.8246
-13.6194 -49.1486 3.7509 0.8150
-13.5604 -51.8693 3.9430 0.8065
-13.4951 -54.8843 4.1568 0.7972
-13.3404 -62.0185 4.6656 0.7754
-13.2479 -66.2852 4.9715 0.7625
-11.4977 -74.3506 5.5333 0.7395
-11.3487 -81.2283 6.0321 0.7197
25.4320 -82.3465 6.3386 0.7077
26.8306 -82.5762 6.3858 0.7059
28.1612 -82.5474 6.4147 0.7048
29.5043 -82.5182 6.4452 0.7036
34.9061 -82.1409 6.5641 0.6991
39.1961 -82.0478 6.6876 0.6944
42.1507 -81.9837 6.7799 0.6909
43.7121 -82.0498 6.8374 0.6888
45.1906 -81.9177 6.8807 0.6871
46.7453 -81.8839 6.9345 0.6851
48.3250 -81.8497 6.9907 0.6830
49.9308 -81.8149 7.0493 0.6808
51.5641 -81.7794 7.1104 0.6786
54.9190 -81.7066 7.2406 0.6738
2.0115 -2.8116 0.2543 0.9862
2.0338 -2.7566 0.2519 0.9864
17.8232 -13.3516 1.6379 0.9146
17.5721 -12.7669 1.5975 0.9166
22.9106 -14.2130 1.9829 0.8975
22.8347 -13.7078 1.9588 0.8987
22.8580 -12.3929 1.9123 0.9010
26.6712 -12.9816 2.1816 0.8878
27.1071 -12.7073 2.2018 0.8869
27.5502 -11.9459 2.2085 0.8865
32.9937 -13.7371 2.6285 0.8665
32.9207 -12.5911 2.5923 0.8682
34.0567 -12.4583 2.6671 0.8646
36.8257 -12.8643 2.8689 0.8552
37.1680 -12.3775 2.8812 0.8546
9.1587 -2.7555 0.7034 0.9624
42.6087 -12.1430 3.2585 0.8372
47.4675 -12.7809 3.6154 0.8211
13.6395 -3.4596 1.0349 0.9451
13.0235 -3.1016 0.9846 0.9477
13.2202 -2.9450 0.9961 0.9471
13.4216 -2.7846 1.0081 0.9465
13.2229 -2.5424 0.9903 0.9474
13.5596 -2.4023 1.0128 0.9463
13.6045 -2.2057 1.0136 0.9462
5.6824 -0.8363 0.4224 0.9772
5.6789 -0.7512 0.4213 0.9773
18.1969 -1.8678 1.3454 0.9293
24.6204 -1.8020 1.8156 0.9057
69.3564 10.2071 5.1559 0.7549
38.1511 8.4985 2.8747 0.8549
36.8694 9.9273 2.8082 0.8580
37.0235 10.5513 2.8314 0.8569
28.4927 9.0282 2.1982 0.8870
22.7146 8.3092 1.7789 0.9075
23.2752 9.2941 1.8433 0.9044
23.1305 9.6305 1.8427 0.9044
23.0297 9.9858 1.8461 0.9042
23.8994 10.7804 1.9283 0.9002
19.5130 10.2132 1.6198 0.9155
5.5641 8.0223 0.7180 0.9616
0.7886 9.7907 0.7224 0.9614
-4.6884 9.4563 0.7763 0.9586
-2.9926 5.0687 0.4329 0.9767
-2.9978 4.7545 0.4134 0.9777
-3.0285 4.5057 0.3993 0.9785
-3.0461 4.3919 0.3931 0.9788
-3.1144 4.3532 0.3937 0.9788
-3.1834 4.1855 0.3868 0.9791
-3.3297 4.1221 0.3897 0.9790
-3.4375 4.1305 0.3952 0.9787
-5.4573 6.1810 0.6064 0.9675
-5.3530 5.7171 0.5760 0.9691
-5.3728 5.5727 0.5693 0.9694
-5.3921 5.4316 0.5629 0.9698
-5.4475 5.0264 0.5451 0.9707
-5.4653 4.8969 0.5397 0.9710
-5.4827 4.7700 0.5345 0.9713
-5.5145 4.5215 0.5245 0.9718
-5.5292 4.4000 0.5197 0.9721
-5.5753 4.0506 0.5068 0.9727
-5.5907 3.9384 0.5030 0.9729
-5.6058 3.8277 0.4992 0.9731
-5.6195 3.7179 0.4956 0.9733
-5.6325 3.6093 0.4920 0.9735
-5.6584 3.3968 0.4854 0.9739
-1.4753 0.7998 0.1234 0.9933
-1.4718 0.7703 0.1222 0.9934
-1.1690 0.5480 0.0950 0.9948
-1.1672 0.5265 0.0942 0.9949
-1.1554 0.4227 0.0905 0.9951
-1.1530 0.4028 0.0898 0.9951
-1.1488 0.3640 0.0886 0.9952
-1.1460 0.3266 0.0876 0.9952
-1.1447 0.3082 0.0872 0.9953
-1.1434 0.2900 0.0868 0.9953
-1.1423 0.2720 0.0864 0.9953
-1.1391 0.2190 0.0853 0.9954
-1.1381 0.2016 0.0850 0.9954
-1.1365 0.1842 0.0847 0.9954
-1.1346 0.1670 0.0843 0.9954
-1.1125 0.0488 0.0819 0.9955
-1.1068 0.0162 0.0814 0.9956
-1.0331 0.0000 0.0645 0.9959
-1.0375 -0.0152 0.0648 0.9959
-1.0479 -0.0460 0.0655 0.9958
-1.0537 -0.0616 0.0659 0.9958
-1.0661 -0.0937 0.0668 0.9957
-1.0725 -0.1101 0.0673 0.9957
-1.0791 -0.1267 0.0678 0.9957
-1.0860 -0.1436 0.0684 0.9956
-1.1003 -0.1784 0.0696 0.9955
-1.1065 -0.2128 0.0703 0.9955
-1.1092 -0.2641 0.0712 0.9954
-1.1102 -0.2816 0.0715 0.9954
-1.1113 -0.2992 0.0718 0.9954
-1.1124 -0.3170 0.0722 0.9954
-1.1135 -0.3350 0.0726 0.9954
-1.1162 -0.3717 0.0734 0.9953
-1.1181 -0.3906 0.0739 0.9953
-1.1267 -0.4691 0.0762 0.9951
-1.1314 -0.5104 0.0775 0.9950
-1.1337 -0.5314 0.0781 0.9950
-1.1716 -0.5702 0.0813 0.9948
-21.0455 -12.6338 1.5320 0.9063
-48.2744 -29.9477 3.5457 0.7964
-46.6820 -29.9131 3.4605 0.8008
-45.1639 -29.8802 3.3799 0.8049
-43.7146 -29.8487 3.3038 0.8088
-42.3290 -29.8187 3.2316 0.8126
-39.7302 -29.7623 3.0983 0.8196
-37.0590 -34.1942 3.1472 0.8170
-37.0056 -36.2032 3.2311 0.8126
-2.6868 -2.7065 0.2380 0.9848
-8.8204 -9.4203 0.8055 0.9496
-8.2370 -9.6087 0.7899 0.9505
-8.1171 -9.7537 0.7920 0.9504
-8.0349 -9.9470 0.7981 0.9500
-7.7754 -10.2230 0.8016 0.9498
-7.6002 -10.6232 0.8152 0.9490
-7.2786 -10.8288 0.8144 0.9491
-29.1958 -47.8392 3.4980 0.7988
-28.2325 -47.8183 3.4659 0.8005
-15.5766 -29.2381 2.0677 0.8757
-14.0236 -30.4927 2.0948 0.8741
-21.0145 -47.5103 3.2424 0.8120
-19.3605 -47.4745 3.2000 0.8143
-17.7479 -47.4395 3.1613 0.8163
-17.0103 -47.5747 3.1534 0.8167
-15.6052 -45.7426 3.0165 0.8239
-13.6727 -46.6795 3.0359 0.8229
-13.5602 -51.8684 3.3461 0.8067
-13.4948 -54.8833 3.5275 0.7973
-13.2477 -66.2839 4.2189 0.7627
-13.1422 -71.1504 4.5159 0.7483
-13.0207 -76.7552 4.8590 0.7320
-12.4281 -80.3665 5.0756 0.7219
-11.3484 -81.2261 5.1189 0.7199
0.0954 -13.0609 0.8152 0.9490
24.6891 -89.0961 5.7704 0.6904
24.3518 -83.1389 5.4070 0.7067
25.4319 -82.3465 5.3791 0.7079
28.1409 -82.4878 5.4397 0.7052
29.4829 -82.4587 5.4657 0.7040
30.8381 -82.4293 5.4930 0.7028
34.9061 -82.1409 5.5704 0.6993
37.7978 -82.1873 5.6461 0.6959
46.7454 -81.8840 5.8849 0.6853
50.0875 -82.0715 6.0010 0.6802
53.3933 -81.9998 6.1073 0.6756
54.9189 -81.7065 6.1446 0.6740
2.0338 -2.7567 0.2138 0.9864
12.7011 -12.7943 1.1252 0.9303
22.5022 -13.0648 1.6240 0.9010
27.2546 -12.7764 1.8787 0.8864
27.3090 -12.3185 1.8698 0.8869
27.6877 -12.0055 1.8836 0.8861
27.8267 -11.5858 1.8813 0.8862
37.3802 -13.0580 2.4713 0.8533
9.1588 -2.7555 0.5970 0.9624
13.6233 -3.4555 0.8772 0.9452
13.0626 -3.1109 0.8381 0.9476
13.2604 -2.9539 0.8479 0.9470
13.4629 -2.7932 0.8582 0.9464
13.6196 -2.4130 0.8633 0.9461
13.6648 -2.2155 0.8640 0.9460
5.6225 -0.7437 0.3540 0.9775
5.6880 -0.5838 0.3569 0.9773
24.2711 -1.7764 1.5189 0.9071
24.7482 -1.4482 1.5473 0.9054
53.8015 8.7229 3.4018 0.8038
52.5220 10.0987 3.3382 0.8071
29.6079 9.8600 1.9477 0.8824
28.8657 10.0837 1.9084 0.8847
30.2981 11.0834 2.0136 0.8787
23.4580 9.7668 1.5859 0.9032
19.9334 9.3444 1.3740 0.9155
19.7537 9.6147 1.3712 0.9157
19.0722 9.9825 1.3436 0.9173
17.6155 9.8863 1.2608 0.9222
5.7649 7.8140 0.6061 0.9618
5.5054 7.9377 0.6029 0.9620
2.2874 5.1714 0.3529 0.9776
-4.6983 9.4764 0.6602 0.9585
-2.9278 4.9589 0.3594 0.9772
-2.9693 4.7092 0.3475 0.9779
-3.0007 4.4643 0.3357 0.9787
-3.0166 4.3494 0.3304 0.9790
-3.0366 4.2444 0.3257 0.9793
-3.0909 4.1896 0.3250 0.9794
-3.4862 3.9485 0.3288 0.9791
-3.6109 3.9712 0.3350 0.9787
-3.7593 4.0150 0.3433 0.9782
-3.9334 4.0798 0.3537 0.9775
-5.4109 5.2936 0.4725 0.9701
-5.4294 5.1586 0.4674 0.9704
-5.4475 5.0264 0.4626 0.9707
-5.4653 4.8969 0.4580 0.9710
-5.4816 4.7690 0.4535 0.9713
-5.5409 4.2785 0.4369 0.9723
-5.6156 3.7152 0.4203 0.9734
-5.6286 3.6067 0.4172 0.9736
-1.4516 0.8428 0.1048 0.9933
-1.4418 0.7817 0.1024 0.9934
-1.4422 0.7548 0.1016 0.9935
-1.2578 0.6352 0.0879 0.9944
-1.1314 0.5104 0.0775 0.9950
-1.1267 0.4691 0.0762 0.9951
-1.1245 0.4490 0.0756 0.9952
-1.1223 0.4292 0.0750 0.9952
-1.1181 0.3906 0.0739 0.9953
-1.1147 0.3532 0.0730 0.9953
-1.1102 0.2816 0.0715 0.9954
-1.1092 0.2641 0.0712 0.9954
-1.1074 0.2298 0.0706 0.9955
-1.1057 0.1959 0.0701 0.9955
-1.0930 0.1609 0.0690 0.9956
-1.0792 0.1267 0.0678 0.9957
-1.0661 0.0937 0.0668 0.9957
-1.0599 0.0776 0.0663 0.9958
-1.0479 0.0460 0.0655 0.9958
-1.0421 0.0304 0.0651 0.9958
-0.9762 -0.0286 0.0501 0.9961
-0.9897 -0.0724 0.0509 0.9960
-1.0006 -0.1027 0.0516 0.9960
-1.0063 -0.1182 0.0520 0.9960
-1.0242 -0.1661 0.0532 0.9959
-1.0431 -0.2484 0.0550 0.9957
-1.0457 -0.2652 0.0553 0.9957
-1.0483 -0.2822 0.0557 0.9957
-1.0511 -0.2996 0.0561 0.9956
-1.0621 -0.3537 0.0574 0.9955
-1.0704 -0.3740 0.0582 0.9955
-1.0733 -0.3927 0.0586 0.9954
-1.0750 -0.4111 0.0590 0.9954
-1.0785 -0.4491 0.0599 0.9953
-1.0824 -0.4882 0.0609 0.9953
-1.0845 -0.5084 0.0614 0.9952
-1.1839 -0.5978 0.0680 0.9947
-1.4204 -0.7434 0.0822 0.9936
-1.4171 -0.7954 0.0834 0.9935
-1.4486 -0.8986 0.0874 0.9932
-46.6820 -29.9131 2.8441 0.8009
-42.8326 -30.1734 2.6876 0.8107
-39.7302 -29.7622 2.5464 0.8197
-37.3354 -29.7103 2.4476 0.8260
-36.2059 -29.6857 2.4017 0.8290
-35.1178 -29.6621 2.3580 0.8318
-37.2590 -33.3842 2.5662 0.8184
-10.0207 -9.8035 0.7191 0.9454
-9.6456 -10.0046 0.7129 0.9459
-8.7738 -9.3706 0.6585 0.9499
-8.3942 -9.5073 0.6506 0.9505
-8.1862 -9.5494 0.6452 0.9509
-8.3324 -10.0125 0.6682 0.9492
-7.4709 -10.1264 0.6455 0.9508
-7.4579 -10.4243 0.6575 0.9500
-7.3157 -10.5479 0.6585 0.9499
-7.0204 -10.4447 0.6456 0.9508
-30.0968 -47.7328 2.8946 0.7977
-29.1179 -47.7115 2.8672 0.7994
-28.1572 -47.6907 2.8409 0.8011
-27.2137 -47.6702 2.8157 0.8026
-6.8071 -12.3394 0.7229 0.9451
-14.4844 -29.2144 1.6727 0.8776
-4.0161 -8.4066 0.4779 0.9634
-3.7048 -8.3759 0.4698 0.9640
-3.5665 -8.3928 0.4678 0.9641
-3.4284 -8.4069 0.4657 0.9643
-15.6052 -45.7426 2.4792 0.8240
-14.8574 -45.7264 2.4663 0.8248
-14.1172 -45.7103 2.4541 0.8256
-13.6189 -49.1471 2.6161 0.8152
-13.9640 -53.4133 2.8320 0.8016
-13.4217 -58.2435 3.0660 0.7871
-2.1366 -11.5674 0.6034 0.9540
-13.0204 -76.7534 3.9934 0.7321
-12.7118 -90.9847 4.7125 0.6921
0.0954 -13.0602 0.6700 0.9490
25.4319 -82.3465 4.4210 0.7081
29.4120 -82.2602 4.4813 0.7048
32.1296 -82.2012 4.5273 0.7022
33.5101 -82.1712 4.5521 0.7009
34.9061 -82.1409 4.5782 0.6994
42.1506 -81.9837 4.7288 0.6913
45.1245 -81.7979 4.7921 0.6879
53.3547 -81.9406 5.0158 0.6760
2.0116 -2.8117 0.1773 0.9862
2.0338 -2.7567 0.1757 0.9864
12.6931 -12.7862 0.9242 0.9304
22.8232 -13.2512 1.3538 0.8997
27.5589 -12.9191 1.5613 0.8852
33.1575 -12.6817 1.8210 0.8675
33.7959 -12.3629 1.8460 0.8658
37.8637 -11.9975 2.0375 0.8529
9.1589 -2.7555 0.4906 0.9624
47.5577 -12.0627 2.5168 0.8216
13.5044 -2.8018 0.7075 0.9463
13.4310 -2.5825 0.7016 0.9467
13.7255 -2.2254 0.7133 0.9458
5.5826 -0.7384 0.2889 0.9777
5.5780 -0.6550 0.2881 0.9778
21.6824 -1.9059 1.1165 0.9165
33.3813 -1.9533 1.7153 0.8747
38.0735 8.4812 2.0009 0.8554
38.0646 9.0650 2.0072 0.8549
37.7500 9.5750 1.9978 0.8556
14.7615 4.2069 0.7874 0.9404
14.4270 4.3405 0.7728 0.9414
29.4956 10.3037 1.6027 0.8824
23.7605 9.8927 1.3203 0.9020
19.8143 9.2885 1.1225 0.9161
19.5638 9.5223 1.1161 0.9165
19.5086 9.8505 1.1211 0.9162
18.9152 9.9004 1.0952 0.9180
17.5956 9.8751 1.0350 0.9224
19.5910 11.3746 1.1621 0.9133
11.4334 9.9470 0.7774 0.9411
5.4853 7.9088 0.4937 0.9622
5.4191 8.0623 0.4983 0.9618
2.2874 5.1715 0.2901 0.9776
0.9296 9.7580 0.5028 0.9615
-0.8624 9.0524 0.4665 0.9642
-4.7052 9.4902 0.5434 0.9585
-2.8550 5.1753 0.3032 0.9766
-2.9232 4.7898 0.2878 0.9778
-2.9576 4.5423 0.2780 0.9785
-3.0075 4.2037 0.2651 0.9795
-3.1737 3.8135 0.2545 0.9803
-3.3846 3.8334 0.2623 0.9797
-3.4997 3.8490 0.2669 0.9794
-3.6256 3.8723 0.2721 0.9790
-3.9403 3.9692 0.2869 0.9778
-5.4109 5.2936 0.3883 0.9701
-5.4473 5.0262 0.3802 0.9707
-5.5091 4.5170 0.3654 0.9719
-5.5526 4.1595 0.3559 0.9726
-1.4487 0.8987 0.0874 0.9932
-1.4186 0.8516 0.0849 0.9934
-1.4187 0.7692 0.0828 0.9936
-1.4204 0.7434 0.0822 0.9936
-1.1840 0.5978 0.0680 0.9947
-1.0845 0.5084 0.0614 0.9952
-1.0804 0.4685 0.0604 0.9953
-1.0767 0.4299 0.0595 0.9954
-1.0750 0.4111 0.0590 0.9954
-1.0733 0.3926 0.0586 0.9954
-1.0704 0.3739 0.0582 0.9955
-1.0621 0.3537 0.0574 0.9955
-1.0569 0.3349 0.0569 0.9956
-1.0539 0.3171 0.0565 0.9956
-1.0483 0.2823 0.0557 0.9957
-1.0407 0.2318 0.0547 0.9957
-1.0305 0.1826 0.0537 0.9958
-1.0242 0.1661 0.0532 0.9959
-1.0180 0.1498 0.0528 0.9959
-1.0006 0.1027 0.0516 0.9960
-0.9951 0.0875 0.0512 0.9960
-0.9898 0.0725 0.0509 0.9960
-0.9845 0.0576 0.0506 0.9961
-0.9723 0.0142 0.0499 0.9961
-0.9149 -0.0134 0.0368 0.9963
-0.9184 -0.0268 0.0369 0.9963
-0.9219 -0.0404 0.0371 0.9963
-0.9255 -0.0541 0.0373 0.9963
-0.9292 -0.0680 0.0374 0.9963
-0.9331 -0.0820 0.0376 0.9963
-0.9379 -0.0962 0.0379 0.9962
-0.9427 -0.1107 0.0381 0.9962
-0.9477 -0.1254 0.0384 0.9962
-0.9528 -0.1402 0.0387 0.9962
-0.9580 -0.1553 0.0390 0.9961
-0.9747 -0.2171 0.0401 0.9960
-0.9766 -0.2326 0.0404 0.9960
-0.9807 -0.2641 0.0408 0.9959
-0.9938 -0.3309 0.0421 0.9958
-1.0014 -0.3498 0.0426 0.9958
-1.0091 -0.3692 0.0432 0.9957
-1.0159 -0.3885 0.0437 0.9957
-1.0216 -0.4079 0.0442 0.9956
-1.0229 -0.4259 0.0445 0.9956
-1.0257 -0.4627 0.0452 0.9955
-1.0273 -0.4816 0.0456 0.9955
-1.0288 -0.5008 0.0460 0.9954
-1.0305 -0.5203 0.0464 0.9954
-1.2464 -0.6758 0.0570 0.9943
-1.4129 -0.7930 0.0651 0.9935
-1.4123 -0.8200 0.0656 0.9935
-46.6820 -29.9131 2.2284 0.8010
-45.7013 -30.2357 2.2024 0.8030
-44.2348 -30.2039 2.1528 0.8070
-16.8869 -12.2690 0.8389 0.9198
-37.3354 -29.7103 1.9177 0.8261
-37.2377 -34.3591 2.0364 0.8164
-37.2159 -35.3597 2.0633 0.8142
-2.7114 -2.6526 0.1525 0.9849
-2.6805 -2.7001 0.1529 0.9849
-9.5940 -9.9511 0.5556 0.9462
-8.8212 -9.4212 0.5187 0.9496
-8.7140 -9.5836 0.5206 0.9495
-8.0409 -9.3800 0.4966 0.9517
-8.0402 -9.9536 0.5143 0.9501
-7.9846 -10.1857 0.5202 0.9495
-7.6600 -10.3827 0.5186 0.9497
-7.0914 -10.5504 0.5109 0.9504
-7.1894 -11.0412 0.5295 0.9486
-30.0968 -47.7328 2.2680 0.7978
-29.1179 -47.7116 2.2465 0.7995
-27.2137 -47.6703 2.2062 0.8027
-6.7951 -12.3177 0.5654 0.9452
-4.3941 -8.2480 0.3756 0.9633
-4.2381 -8.2431 0.3725 0.9636
-4.0858 -8.2409 0.3697 0.9638
-3.9360 -8.2390 0.3670 0.9641
-2.6614 -8.1909 0.3462 0.9661
-13.6187 -49.1463 2.0497 0.8153
-13.4944 -54.8815 2.2715 0.7975
-2.3865 -11.0949 0.4561 0.9556
-2.1287 -11.5244 0.4710 0.9542
-2.0243 -11.9330 0.4865 0.9527
-1.8418 -11.9100 0.4844 0.9529
0.0954 -13.0595 0.5249 0.9491
24.3526 -83.1416 3.4820 0.7069
25.4320 -82.3466 3.4639 0.7082
26.7467 -82.3180 3.4788 0.7072
33.5101 -82.1712 3.5667 0.7010
37.7481 -82.0792 3.6311 0.6965
39.1961 -82.0479 3.6546 0.6949
46.7454 -81.8840 3.7896 0.6856
49.9308 -81.8148 3.8523 0.6813
2.0116 -2.8118 0.1390 0.9863
17.7137 -12.8698 0.8800 0.9161
22.7211 -13.1919 1.0560 0.9002
27.6886 -12.9799 1.2291 0.8848
27.8258 -12.5516 1.2269 0.8850
89.2060 -37.1415 3.8837 0.6792
9.1591 -2.7555 0.3844 0.9624
43.5584 -12.4137 1.8204 0.8342
13.1414 -3.1296 0.5430 0.9474
13.3414 -2.9720 0.5494 0.9468
13.7183 -2.4304 0.5600 0.9458
5.5723 -0.7371 0.2259 0.9777
5.6223 -0.5771 0.2272 0.9776
24.3912 -1.7852 0.9830 0.9067
32.3255 -1.8915 1.3014 0.8784
32.6338 -1.4314 1.3129 0.8774
89.9672 -1.3148 3.6163 0.6975
92.5147 9.4959 3.7379 0.6891
70.9935 8.3368 2.8730 0.7511
68.3131 9.0359 2.7696 0.7589
53.6050 8.6910 2.1826 0.8046
52.4406 10.0830 2.1463 0.8075
38.0349 8.4727 1.5662 0.8556
42.8470 10.8679 1.7766 0.8378
15.2004 4.0928 0.6327 0.9389
14.5463 5.3212 0.6225 0.9399
14.5975 5.5831 0.6281 0.9394
14.6496 5.8498 0.6340 0.9388
19.2790 9.3836 0.8618 0.9177
19.2699 9.7300 0.8676 0.9172
18.4334 9.9940 0.8428 0.9195
17.6123 9.8845 0.8117 0.9223
19.6075 11.7705 0.9192 0.9125
11.4534 9.9645 0.6102 0.9410
5.9844 7.8682 0.3973 0.9612
5.5917 7.8157 0.3862 0.9623
2.2874 5.1715 0.2273 0.9776
0.9282 9.7431 0.3934 0.9616
-2.7759 5.5989 0.2512 0.9753
-2.8020 5.4499 0.2463 0.9758
-2.8337 5.1367 0.2358 0.9768
-2.8495 4.9915 0.2310 0.9773
-2.9137 4.6210 0.2196 0.9784
-2.9647 4.2745 0.2091 0.9794
-2.9820 4.1680 0.2060 0.9797
-2.9999 4.0662 0.2031 0.9800
-3.0191 3.9695 0.2004 0.9802
-3.0991 3.7239 0.1947 0.9808
-3.1894 3.7205 0.1970 0.9806
-3.2916 3.7280 0.1999 0.9803
-3.3986 3.7377 0.2030 0.9800
-3.5132 3.7522 0.2066 0.9796
-3.6403 3.7758 0.2108 0.9792
-3.7805 3.8082 0.2157 0.9787
-4.1347 3.9284 0.2292 0.9774
-5.4446 5.0237 0.2977 0.9708
-5.4605 4.8926 0.2947 0.9711
-5.4761 4.7642 0.2917 0.9714
-5.5064 4.5148 0.2862 0.9719
-5.5212 4.3936 0.2836 0.9721
-5.5356 4.2745 0.2811 0.9724
-5.5496 4.1572 0.2787 0.9726
-5.5652 4.0433 0.2765 0.9728
-5.5803 3.9311 0.2743 0.9730
-5.5941 3.8197 0.2723 0.9732
-5.6076 3.7100 0.2702 0.9734
-1.4124 0.8200 0.0656 0.9935
-1.4130 0.7930 0.0651 0.9935
-1.0305 0.5203 0.0464 0.9954
-1.0272 0.4816 0.0456 0.9955
-1.0257 0.4627 0.0452 0.9955
-1.0243 0.4441 0.0449 0.9955
-1.0229 0.4259 0.0445 0.9956
-1.0216 0.4079 0.0442 0.9956
-1.0015 0.3498 0.0426 0.9958
-0.9851 0.2964 0.0413 0.9959
-0.9807 0.2641 0.0408 0.9959
-0.9766 0.2326 0.0404 0.9960
-0.9747 0.2171 0.0401 0.9960
-0.9729 0.2018 0.0399 0.9960
-0.9689 0.1863 0.0397 0.9961
-0.9634 0.1707 0.0393 0.9961
-0.9580 0.1553 0.0390 0.9961
-0.9427 0.1107 0.0381 0.9962
-0.9331 0.0820 0.0376 0.9963
-0.9292 0.0680 0.0374 0.9963
-0.9255 0.0542 0.0373 0.9963
-0.9219 0.0404 0.0371 0.9963
-0.9184 0.0268 0.0369 0.9963
-0.9149 0.0134 0.0368 0.9963
-0.8639 -0.0126 0.0251 0.9965
-0.8670 -0.0253 0.0252 0.9965
-0.8701 -0.0381 0.0253 0.9965
-0.8733 -0.0511 0.0255 0.9965
-0.8765 -0.0641 0.0256 0.9965
-0.8832 -0.0906 0.0258 0.9965
-0.9092 -0.1748 0.0269 0.9963
-0.9140 -0.1896 0.0272 0.9963
-0.9197 -0.2333 0.0276 0.9962
-0.9247 -0.2782 0.0281 0.9961
-0.9275 -0.2939 0.0283 0.9961
-0.9338 -0.3110 0.0286 0.9961
-0.9470 -0.3464 0.0293 0.9960
-0.9538 -0.3648 0.0297 0.9959
-0.9597 -0.3832 0.0301 0.9959
-0.9657 -0.4021 0.0304 0.9958
-0.9718 -0.4214 0.0308 0.9958
-0.9780 -0.4938 0.0319 0.9956
-0.9792 -0.5125 0.0322 0.9956
-1.1000 -0.6173 0.0367 0.9950
-1.4151 -0.8495 0.0480 0.9934
-1.4229 -0.8827 0.0487 0.9933
-45.7013 -30.2357 1.5944 0.8031
-44.2348 -30.2038 1.5585 0.8071
-41.4901 -30.1443 1.4922 0.8145
-38.5091 -29.7357 1.4157 0.8231
-13.4693 -10.7184 0.5009 0.9334
-13.0626 -10.7102 0.4915 0.9346
-13.0846 -11.3836 0.5046 0.9330
-9.6259 -9.9841 0.4035 0.9460
-9.0406 -9.6555 0.3849 0.9484
-8.2565 -9.3514 0.3630 0.9513
-8.0949 -9.4430 0.3619 0.9514
-7.9693 -9.5761 0.3625 0.9514
-7.8432 -9.7097 0.3632 0.9513
-7.7166 -9.8438 0.3639 0.9512
-7.6185 -10.0167 0.3662 0.9509
-7.4266 -10.0663 0.3640 0.9512
-7.0862 -10.2169 0.3618 0.9515
-7.0934 -10.5533 0.3700 0.9504
-28.1572 -47.6907 1.6115 0.8012
-4.6836 -8.2042 0.2749 0.9629
-4.2116 -8.1917 0.2680 0.9638
-4.0596 -8.1880 0.2659 0.9641
-3.9108 -8.1864 0.2640 0.9643
-3.7641 -8.1845 0.2621 0.9646
-3.6178 -8.1794 0.2602 0.9648
-3.1921 -8.1667 0.2551 0.9655
-3.0520 -8.1580 0.2534 0.9657
-2.9153 -8.1536 0.2520 0.9659
-2.5155 -8.1451 0.2480 0.9665
-2.3876 -8.1514 0.2471 0.9666
-2.1523 -8.2327 0.2476 0.9665
-2.0760 -8.4432 0.2530 0.9658
-2.5497 -11.0645 0.3304 0.9556
-2.3976 -11.1464 0.3317 0.9554
-1.9845 -11.6984 0.3452 0.9536
-1.8358 -11.8711 0.3495 0.9531
-13.0899 -93.6910 2.7526 0.6848
-1.5941 -12.7689 0.3744 0.9498
24.4646 -88.2860 2.6657 0.6931
24.3530 -83.1430 2.5208 0.7070
25.4319 -82.3465 2.5077 0.7083
26.7467 -82.3180 2.5185 0.7073
28.0732 -82.2892 2.5299 0.7061
32.1296 -82.2012 2.5680 0.7025
33.5101 -82.1712 2.5821 0.7011
34.9061 -82.1409 2.5969 0.6997
36.3185 -82.1103 2.6124 0.6982
40.6633 -82.0160 2.6636 0.6933
42.1507 -81.9837 2.6823 0.6915
45.1906 -81.9177 2.7222 0.6877
48.3250 -81.8497 2.7657 0.6836
51.5641 -81.7794 2.8131 0.6792
53.2263 -81.7434 2.8383 0.6768
54.9190 -81.7066 2.8646 0.6744
2.0117 -2.8118 0.1006 0.9863
2.0338 -2.7568 0.0997 0.9864
22.6879 -13.1727 0.7634 0.9003
89.3441 -43.4864 2.8912 0.6719
9.1592 -2.7556 0.2783 0.9624
43.7746 -12.4752 1.3244 0.8335
13.3822 -2.9810 0.3989 0.9466
13.5881 -2.8191 0.4038 0.9460
13.6453 -2.6237 0.4043 0.9459
13.8025 -2.4454 0.4079 0.9455
5.5634 -0.8187 0.1636 0.9777
5.6597 -0.5809 0.1655 0.9775
21.5464 -1.8939 0.6294 0.9171
25.1383 -1.8399 0.7334 0.9041
28.4843 -1.6667 0.8302 0.8921
32.5899 -1.4295 0.9492 0.8776
32.6156 -0.9534 0.9494 0.8776
89.3128 -1.3052 2.5990 0.6995
70.9094 8.3270 2.0774 0.7515
68.1436 9.0134 2.0000 0.7595
63.5490 9.3524 1.8690 0.7733
57.8562 10.2500 1.7097 0.7905
53.0278 10.1959 1.5712 0.8057
47.9239 10.6755 1.4286 0.8216
43.0974 10.2636 1.2891 0.8375
14.3908 4.5599 0.4392 0.9414
14.4185 4.8016 0.4422 0.9410
14.4752 5.2952 0.4485 0.9402
14.6209 6.0875 0.4608 0.9386
14.8029 6.4187 0.4695 0.9375
19.6451 9.2092 0.6313 0.9168
19.0189 9.6032 0.6199 0.9183
18.7296 10.8744 0.6302 0.9170
11.4906 9.9968 0.4432 0.9409
2.2875 5.1716 0.1645 0.9776
-0.8623 9.0514 0.2646 0.9643
-2.7844 5.4156 0.1772 0.9759
-2.8036 5.2625 0.1735 0.9764
-2.8234 4.9458 0.1657 0.9775
-2.9040 4.4599 0.1549 0.9789
-2.9214 4.3464 0.1524 0.9793
-2.9394 4.2380 0.1501 0.9796
-2.9768 4.0348 0.1459 0.9801
-3.0062 3.8349 0.1418 0.9807
-3.0687 3.6874 0.1396 0.9810
-3.2048 3.6298 0.1409 0.9808
-3.5266 3.6579 0.1478 0.9799
-3.9544 3.7572 0.1587 0.9784
-4.1435 3.8232 0.1640 0.9777
-5.4734 4.7618 0.2111 0.9714
-5.4887 4.6361 0.2091 0.9717
-5.5037 4.5126 0.2071 0.9719
-5.5470 4.1553 0.2017 0.9726
-5.5618 4.0409 0.2000 0.9729
-5.6037 3.7073 0.1955 0.9735
-5.6168 3.5991 0.1941 0.9737
-1.4151 0.8495 0.0480 0.9934
-1.4147 0.8214 0.0476 0.9935
-1.1002 0.6174 0.0367 0.9950
-0.9804 0.5316 0.0324 0.9955
-0.9792 0.5125 0.0322 0.9956
-0.9780 0.4938 0.0319 0.9956
-0.9769 0.4755 0.0316 0.9957
-0.9758 0.4574 0.0314 0.9957
-0.9747 0.4397 0.0311 0.9957
-0.9719 0.4214 0.0308 0.9958
-0.9470 0.3464 0.0293 0.9960
-0.9403 0.3285 0.0290 0.9960
-0.9338 0.3109 0.0286 0.9961
-0.9275 0.2939 0.0283 0.9961
-0.9247 0.2782 0.0281 0.9961
-0.9213 0.2480 0.0278 0.9962
-0.8954 0.1318 0.0263 0.9964
-0.8910 0.1179 0.0262 0.9964
-0.8867 0.1041 0.0260 0.9964
-0.8832 0.0906 0.0258 0.9965
-0.8799 0.0773 0.0257 0.9965
-0.8766 0.0641 0.0256 0.9965
-0.8733 0.0511 0.0255 0.9965
-0.8639 0.0126 0.0251 0.9965
-0.8211 -0.0240 0.0148 0.9967
-0.8267 -0.0484 0.0149 0.9967
-0.8296 -0.0607 0.0150 0.9967
-0.8325 -0.0732 0.0151 0.9967
-0.8354 -0.0858 0.0151 0.9966
-0.8384 -0.0985 0.0152 0.9966
-0.8414 -0.1113 0.0153 0.9966
-0.8485 -0.1376 0.0155 0.9966
-0.8565 -0.1646 0.0157 0.9965
-0.8675 -0.2201 0.0161 0.9964
-0.8688 -0.2339 0.0162 0.9964
-0.8700 -0.2480 0.0163 0.9964
-0.8713 -0.2622 0.0164 0.9964
-0.8862 -0.3096 0.0169 0.9963
-0.8977 -0.3434 0.0173 0.9962
-0.9037 -0.3609 0.0175 0.9961
-0.9141 -0.3964 0.0179 0.9960
-0.9194 -0.4147 0.0182 0.9960
-0.9248 -0.4335 0.0184 0.9959
-0.9299 -0.4526 0.0186 0.9959
-0.9313 -0.4875 0.0189 0.9958
-0.9329 -0.5235 0.0193 0.9957
-0.9337 -0.5421 0.0194 0.9957
-48.2745 -29.9477 1.0231 0.7967
-46.6820 -29.9131 0.9985 0.8011
-42.8327 -30.1734 0.9436 0.8109
-39.7303 -29.7623 0.8940 0.8199
-13.6005 -10.5020 0.3095 0.9336
-13.0724 -10.7183 0.3044 0.9346
-12.9864 -10.9690 0.3061 0.9343
-12.9410 -11.2586 0.3089 0.9337
-8.1307 -9.2088 0.2212 0.9520
-8.0232 -9.6409 0.2259 0.9511
-7.4162 -10.0522 0.2250 0.9513
-7.0899 -10.2223 0.2240 0.9514
-6.9633 -10.6941 0.2298 0.9502
-30.0968 -47.7328 1.0162 0.7979
-4.9843 -8.1671 0.1723 0.9624
-4.6539 -8.1523 0.1691 0.9631
-4.4954 -8.1488 0.1676 0.9635
-3.8860 -8.1345 0.1624 0.9646
-3.5947 -8.1271 0.1600 0.9651
-3.4516 -8.1224 0.1589 0.9653
-3.3110 -8.1191 0.1579 0.9655
-2.5001 -8.0950 0.1526 0.9667
-2.1170 -8.0975 0.1507 0.9671
-1.9857 -8.0760 0.1498 0.9673
-1.9161 -8.3152 0.1537 0.9664
-2.2458 -11.2368 0.2064 0.9552
-1.9636 -11.5754 0.2114 0.9541
24.3534 -83.1444 1.5603 0.7071
25.4319 -82.3466 1.5521 0.7084
26.7467 -82.3180 1.5588 0.7073
28.0732 -82.2893 1.5658 0.7062
29.4120 -82.2602 1.5733 0.7050
34.9061 -82.1409 1.6073 0.6997
37.7481 -82.0793 1.6270 0.6967
45.1906 -81.9178 1.6849 0.6878
46.7454 -81.8840 1.6980 0.6858
49.9309 -81.8149 1.7262 0.6815
51.5642 -81.7794 1.7411 0.6792
2.0117 -2.8119 0.0623 0.9863
2.0339 -2.7568 0.0617 0.9864
12.7310 -12.8244 0.3254 0.9303
19.7391 -8.9039 0.3900 0.9170
20.6796 -8.2577 0.4010 0.9148
21.5823 -8.2545 0.4161 0.9117
25.4440 -8.8883 0.4854 0.8978
9.1593 -2.7556 0.1723 0.9625
53.1304 -13.4762 0.9871 0.8031
13.6102 -3.2413 0.2520 0.9456
13.6302 -2.8279 0.2507 0.9458
13.7549 -2.6448 0.2523 0.9455
13.5800 -2.4059 0.2484 0.9463
13.8682 -2.2485 0.2530 0.9453
5.5414 -0.8155 0.1009 0.9778
24.5103 -2.1544 0.4431 0.9063
28.3498 -2.0750 0.5119 0.8925
31.7437 -1.8575 0.5727 0.8805
33.4338 -0.9774 0.6024 0.8748
48.5516 -0.7095 0.8745 0.8234
30.9865 4.0986 0.5629 0.8825
26.4590 5.0874 0.4852 0.8978
30.8651 6.4036 0.5677 0.8815
43.2808 10.3073 0.8013 0.8369
14.5010 4.1327 0.2716 0.9415
14.3873 4.7912 0.2731 0.9411
14.4434 5.2836 0.2770 0.9403
14.4721 5.5351 0.2790 0.9399
14.5012 5.7905 0.2812 0.9394
19.4022 9.4436 0.3886 0.9173
19.0755 9.6318 0.3848 0.9181
18.6727 9.7734 0.3796 0.9191
18.5180 10.3928 0.3824 0.9186
18.4035 11.0478 0.3866 0.9177
11.4920 9.9980 0.2743 0.9409
5.9842 7.8679 0.1780 0.9612
5.7370 7.7762 0.1740 0.9621
5.5917 7.8157 0.1731 0.9623
-2.4559 5.7792 0.1131 0.9752
-2.7077 5.6679 0.1131 0.9752
-2.7825 5.2230 0.1066 0.9766
-2.7921 5.0614 0.1041 0.9771
-2.8013 4.9070 0.1018 0.9776
-2.8212 4.7783 0.0999 0.9780
-2.8409 4.6549 0.0982 0.9784
-2.9130 4.2001 0.0921 0.9798
-2.9297 4.0950 0.0907 0.9801
-2.9539 4.0038 0.0896 0.9803
-2.9784 3.7995 0.0869 0.9809
-2.9953 3.7082 0.0858 0.9811
-3.0389 3.6516 0.0856 0.9812
-3.0793 3.5921 0.0852 0.9812
-3.2219 3.5434 0.0863 0.9810
-3.3206 3.5465 0.0875 0.9808
-3.4262 3.5536 0.0889 0.9804
-3.5398 3.5658 0.0905 0.9801
-3.9620 3.6557 0.0971 0.9787
-4.1524 3.7206 0.1004 0.9779
-5.5011 4.5104 0.1281 0.9719
-5.5159 4.3893 0.1270 0.9722
-5.5303 4.2704 0.1258 0.9724
-5.5443 4.1533 0.1248 0.9727
-5.5583 4.0384 0.1237 0.9729
-5.6128 3.5966 0.1201 0.9737
-5.6257 3.4900 0.1192 0.9739
-1.1484 0.6894 0.0241 0.9947
-0.9337 0.5421 0.0194 0.9957
-0.9321 0.5054 0.0191 0.9958
-0.9313 0.4875 0.0189 0.9958
-0.9306 0.4699 0.0188 0.9958
-0.9299 0.4527 0.0186 0.9959
-0.9248 0.4335 0.0184 0.9959
-0.9194 0.4147 0.0182 0.9960
-0.9141 0.3964 0.0179 0.9960
-0.9090 0.3784 0.0177 0.9961
-0.8753 0.2774 0.0165 0.9963
-0.8713 0.2622 0.0164 0.9964
-0.8688 0.2339 0.0162 0.9964
-0.8675 0.2201 0.0161 0.9964
-0.8648 0.1927 0.0160 0.9965
-0.8565 0.1647 0.0157 0.9965
-0.8384 0.0984 0.0152 0.9966
-0.8239 0.0361 0.0149 0.9967
-0.8211 0.0240 0.0148 0.9967
-0.7824 -0.0343 0.0054 0.9969
-0.7849 -0.0459 0.0054 0.9969
-0.7900 -0.0695 0.0055 0.9968
-0.7925 -0.0814 0.0055 0.9968
-0.7952 -0.0934 0.0055 0.9968
-0.7978 -0.1055 0.0056 0.9968
-0.8032 -0.1302 0.0056 0.9968
-0.8061 -0.1428 0.0057 0.9967
-0.8131 -0.1687 0.0058 0.9967
-0.8200 -0.1953 0.0058 0.9966
-0.8219 -0.2213 0.0059 0.9966
-0.8229 -0.2345 0.0059 0.9966
-0.8242 -0.2480 0.0060 0.9966
-0.8287 -0.2626 0.0060 0.9965
-0.8333 -0.2775 0.0061 0.9965
-0.8380 -0.2927 0.0061 0.9965
-0.8429 -0.3083 0.0062 0.9964
-0.8528 -0.3405 0.0064 0.9963
-0.8629 -0.3742 0.0065 0.9962
-0.8717 -0.4086 0.0067 0.9962
-0.8763 -0.4265 0.0067 0.9961
-0.8810 -0.4448 0.0068 0.9961
-0.8883 -0.4816 0.0070 0.9960
-0.8891 -0.5162 0.0071 0.9959
-0.9721 -0.6030 0.0079 0.9954
-46.6820 -29.9131 0.3840 0.8011
-45.7013 -30.2357 0.3795 0.8032
-16.9483 -12.3136 0.1451 0.9196
-39.7303 -29.7623 0.3438 0.8199
-13.6782 -10.5620 0.1197 0.9332
-13.2163 -10.8362 0.1184 0.9339
-12.8304 -11.1624 0.1178 0.9342
-12.6140 -11.6389 0.1189 0.9336
-9.0159 -9.6291 0.0914 0.9486
-8.3317 -9.4366 0.0872 0.9509
-8.0369 -9.3752 0.0855 0.9518
-7.9601 -9.5651 0.0862 0.9514
-7.5779 -9.6668 0.0851 0.9521
-6.9428 -10.0101 0.0844 0.9524
-5.3102 -8.1553 0.0674 0.9618
-4.9745 -7.8895 0.0646 0.9634
-4.7862 -8.1065 0.0652 0.9630
-4.6252 -8.1020 0.0646 0.9634
-4.0094 -8.0868 0.0625 0.9645
-3.5720 -8.0757 0.0612 0.9653
-3.0143 -8.0570 0.0596 0.9662
-2.8798 -8.0542 0.0592 0.9664
-2.7468 -8.0517 0.0589 0.9665
-2.6155 -8.0498 0.0586 0.9667
-2.1090 -8.0672 0.0578 0.9672
-1.9865 -8.0794 0.0576 0.9673
-1.9124 -8.2988 0.0590 0.9665
-1.8714 -8.7002 0.0616 0.9650
-2.2301 -11.1584 0.0788 0.9555
-2.0924 -11.3280 0.0798 0.9550
-1.9282 -11.3666 0.0799 0.9549
-1.6576 -11.8641 0.0830 0.9532
-1.5819 -12.6711 0.0884 0.9502
0.0954 -13.0573 0.0904 0.9491
24.4654 -88.2891 0.6345 0.6932
24.3539 -83.1457 0.6001 0.7071
26.7468 -82.3180 0.5995 0.7074
29.4120 -82.2602 0.6051 0.7051
32.1296 -82.2012 0.6113 0.7026
39.1961 -82.0478 0.6298 0.6951
42.1506 -81.9837 0.6385 0.6916
46.7454 -81.8840 0.6530 0.6858
48.3251 -81.8497 0.6583 0.6837
49.9309 -81.8149 0.6638 0.6815
51.5642 -81.7794 0.6696 0.6793
54.9190 -81.7066 0.6819 0.6745
19.3911 -8.7469 0.1473 0.9184
19.3651 -8.3969 0.1462 0.9190
19.5906 -8.1566 0.1470 0.9186
20.4207 -8.1543 0.1523 0.9158
24.6964 -9.0342 0.1821 0.9002
25.2023 -7.9857 0.1831 0.8996
30.8024 -8.7784 0.2218 0.8797
37.5021 -8.9311 0.2670 0.8571
13.6727 -2.8367 0.0967 0.9457
13.9270 -2.4674 0.0980 0.9450
5.5844 -0.9054 0.0392 0.9776
5.5284 -0.8136 0.0387 0.9779
24.4409 -2.1483 0.1699 0.9065
49.2587 -0.7198 0.3412 0.8211
66.1117 4.8387 0.4591 0.7671
41.5770 4.2675 0.2895 0.8460
29.9775 4.4117 0.2099 0.8859
26.0865 4.2294 0.1830 0.8997
22.8168 4.0423 0.1605 0.9115
14.9561 4.0271 0.1073 0.9399
14.4267 4.1115 0.1039 0.9418
14.3562 4.7809 0.1048 0.9413
14.4401 5.5229 0.1071 0.9400
14.4982 6.0364 0.1088 0.9391
14.5279 6.2994 0.1097 0.9386
14.5630 6.5691 0.1107 0.9381
14.6162 6.8518 0.1118 0.9375
18.4837 9.6745 0.1445 0.9199
18.7224 10.1507 0.1475 0.9183
5.5917 7.8158 0.0666 0.9623
5.4837 7.9064 0.0666 0.9622
2.2875 5.1716 0.0392 0.9776
-2.4502 5.7658 0.0434 0.9753
-2.5411 5.7449 0.0435 0.9752
-2.6475 5.7566 0.0439 0.9750
-2.6772 5.6041 0.0430 0.9755
-2.7322 5.3141 0.0414 0.9764
-2.7440 5.1507 0.0404 0.9769
-2.7554 4.9947 0.0395 0.9774
-2.7695 4.8514 0.0387 0.9779
-2.7904 4.7262 0.0380 0.9783
-2.8311 4.4900 0.0368 0.9790
-2.8498 4.3767 0.0362 0.9793
-2.8671 4.2655 0.0356 0.9797
-2.8838 4.1580 0.0350 0.9800
-2.9194 3.9570 0.0341 0.9805
-2.9709 3.6779 0.0327 0.9813
-2.9957 3.5997 0.0324 0.9814
-3.0742 3.4818 0.0322 0.9816
-3.3408 3.4652 0.0333 0.9809
-3.4454 3.4707 0.0339 0.9806
-3.5607 3.4835 0.0345 0.9803
-3.9745 3.5612 0.0370 0.9789
-4.1618 3.6208 0.0382 0.9782
-5.3894 4.1616 0.0472 0.9731
-5.4047 4.0487 0.0468 0.9733
-5.4180 3.9364 0.0464 0.9736
-5.4574 3.7264 0.0458 0.9739
-5.5883 3.6971 0.0464 0.9736
-0.8887 0.4988 0.0071 0.9959
-0.8883 0.4816 0.0070 0.9960
-0.8717 0.4086 0.0067 0.9962
-0.8672 0.3912 0.0066 0.9962
-0.8629 0.3741 0.0065 0.9962
-0.8529 0.3405 0.0064 0.9963
-0.8478 0.3243 0.0063 0.9964
-0.8429 0.3083 0.0062 0.9964
-0.8229 0.2345 0.0059 0.9966
-0.8032 0.1302 0.0056 0.9968
-0.8005 0.1178 0.0056 0.9968
-0.7978 0.1055 0.0056 0.9968
-0.7952 0.0934 0.0055 0.9968
-0.7874 0.0576 0.0055 0.9968
-0.7798 0.0228 0.0054 0.9969
-0.7426 -0.0217 -0.0031 0.9970
-0.7493 -0.0548 -0.0031 0.9970
-0.7538 -0.0774 -0.0031 0.9970
-0.7562 -0.0888 -0.0032 0.9970
-0.7585 -0.1003 -0.0032 0.9969
-0.7609 -0.1120 -0.0032 0.9969
-0.7632 -0.1237 -0.0032 0.9969
-0.7656 -0.1356 -0.0032 0.9969
-0.7680 -0.1477 -0.0033 0.9969
-0.7769 -0.1850 -0.0033 0.9968
-0.7798 -0.2100 -0.0034 0.9968
-0.7830 -0.2355 -0.0034 0.9967
-0.7868 -0.2493 -0.0034 0.9967
-0.8074 -0.3224 -0.0036 0.9965
-0.8244 -0.3865 -0.0038 0.9964
-0.8321 -0.4202 -0.0039 0.9963
-0.8360 -0.4376 -0.0039 0.9962
-0.8401 -0.4555 -0.0040 0.9962
-0.8486 -0.4927 -0.0041 0.9961
-0.8486 -0.5264 -0.0042 0.9960
-0.8486 -0.5438 -0.0042 0.9960
-45.1640 -29.8802 -0.2250 0.8052
-13.2790 -9.3543 -0.0675 0.9371
-12.8717 -9.3517 -0.0661 0.9383
-12.4806 -9.3492 -0.0648 0.9395
-11.9918 -9.5425 -0.0637 0.9405
-12.7706 -11.4425 -0.0713 0.9337
-37.2151 -35.3588 -0.2133 0.8144
-2.7068 -2.6481 -0.0157 0.9850
-8.1758 -8.9916 -0.0505 0.9526
-8.1427 -9.2225 -0.0511 0.9520
-8.1109 -9.4616 -0.0518 0.9514
-5.6442 -8.1379 -0.0412 0.9612
-5.0843 -8.0635 -0.0396 0.9626
-4.9197 -8.0612 -0.0392 0.9629
-4.2849 -8.0430 -0.0379 0.9642
-3.6911 -8.0259 -0.0367 0.9653
-3.5481 -8.0216 -0.0364 0.9655
-3.4069 -8.0171 -0.0362 0.9658
-3.2680 -8.0134 -0.0360 0.9660
-3.1312 -8.0108 -0.0357 0.9662
-2.6020 -8.0082 -0.0350 0.9669
-2.4745 -8.0121 -0.0348 0.9670
-1.9082 -8.2807 -0.0353 0.9666
-1.8606 -8.6496 -0.0368 0.9652
-2.2379 -11.1974 -0.0475 0.9554
-1.9887 -11.7232 -0.0494 0.9536
-1.6645 -11.9141 -0.0500 0.9530
-0.4796 -13.1239 -0.0546 0.9488
-0.0968 -13.2530 -0.0551 0.9484
26.7468 -82.3180 -0.3597 0.7074
29.4120 -82.2602 -0.3630 0.7051
32.1297 -82.2012 -0.3668 0.7026
33.5101 -82.1713 -0.3688 0.7012
34.9061 -82.1409 -0.3709 0.6998
36.3185 -82.1103 -0.3731 0.6983
39.1961 -82.0479 -0.3779 0.6951
42.1507 -81.9837 -0.3831 0.6916
45.1906 -81.9178 -0.3888 0.6878
46.7454 -81.8841 -0.3918 0.6858
49.9309 -81.8149 -0.3983 0.6815
53.2263 -81.7434 -0.4054 0.6769
54.9190 -81.7066 -0.4091 0.6745
2.0339 -2.7568 -0.0142 0.9864
12.6942 -12.7872 -0.0749 0.9305
17.7098 -12.8669 -0.0910 0.9162
18.6471 -9.4155 -0.0868 0.9198
18.6064 -9.0563 -0.0860 0.9206
18.5987 -8.7187 -0.0854 0.9211
18.6221 -8.4000 -0.0849 0.9215
18.7996 -8.1517 -0.0851 0.9213
20.2217 -8.0748 -0.0905 0.9166
23.7291 -8.6804 -0.1050 0.9039
23.9186 -7.9653 -0.1048 0.9041
24.7726 -7.8495 -0.1080 0.9013
9.1595 -2.7557 -0.0397 0.9625
33.2346 -7.9147 -0.1420 0.8723
13.5060 -3.0086 -0.0575 0.9462
13.9200 -2.6765 -0.0589 0.9449
5.5752 -0.9877 -0.0235 0.9776
5.5518 -0.6520 -0.0232 0.9779
5.7180 -0.5026 -0.0239 0.9773
31.3981 -1.8372 -0.1307 0.8818
72.2569 4.2281 -0.3008 0.7486
38.4258 3.9441 -0.1605 0.8568
38.0900 4.4730 -0.1594 0.8578
22.2524 3.9423 -0.0939 0.9136
22.2672 4.6198 -0.0945 0.9130
22.3214 4.9723 -0.0950 0.9126
14.2717 4.2937 -0.0619 0.9421
14.2983 4.5306 -0.0623 0.9418
14.3252 4.7706 -0.0627 0.9414
14.3525 5.0138 -0.0632 0.9410
14.4952 6.2852 -0.0657 0.9388
14.5251 6.5520 -0.0662 0.9383
14.5555 6.8234 -0.0668 0.9377
18.3314 9.5948 -0.0860 0.9206
17.5927 9.8734 -0.0838 0.9225
18.4445 10.7089 -0.0886 0.9182
18.3121 10.9929 -0.0888 0.9181
5.9840 7.8676 -0.0411 0.9612
5.7370 7.7761 -0.0402 0.9621
5.5917 7.8158 -0.0399 0.9623
5.4165 8.0584 -0.0403 0.9619
0.7856 9.7545 -0.0407 0.9616
-0.8621 9.0498 -0.0378 0.9643
-2.5716 5.8141 -0.0264 0.9749
-2.5986 5.6504 -0.0258 0.9754
-2.6578 5.3607 -0.0249 0.9764
-2.6743 5.2016 -0.0243 0.9769
-2.6896 5.0484 -0.0238 0.9774
-2.7109 4.9141 -0.0233 0.9778
-2.7535 4.6637 -0.0225 0.9786
-2.7745 4.5462 -0.0221 0.9789
-2.7948 4.4325 -0.0218 0.9793
-2.8127 4.3197 -0.0214 0.9796
-2.8464 4.1041 -0.0208 0.9802
-2.8676 4.0082 -0.0205 0.9805
-2.8840 3.9091 -0.0202 0.9808
-3.0399 3.4430 -0.0191 0.9818
-3.0955 3.4045 -0.0191 0.9818
-3.5124 3.4362 -0.0204 0.9805
-3.6323 3.4512 -0.0208 0.9802
-3.7610 3.4703 -0.0213 0.9797
-4.0558 3.5286 -0.0223 0.9787
-5.3891 4.1613 -0.0283 0.9731
-5.4159 3.9348 -0.0278 0.9736
-0.8486 0.5264 -0.0042 0.9960
-0.8486 0.4927 -0.0041 0.9961
-0.8443 0.4739 -0.0040 0.9961
-0.8401 0.4555 -0.0040 0.9962
-0.8360 0.4376 -0.0039 0.9962
-0.8321 0.4202 -0.0039 0.9963
-0.8118 0.3380 -0.0037 0.9965
-0.8032 0.3071 -0.0036 0.9966
-0.7990 0.2923 -0.0035 0.9966
-0.7948 0.2777 -0.0035 0.9966
-0.7908 0.2633 -0.0035 0.9967
-0.7868 0.2493 -0.0034 0.9967
-0.7791 0.1977 -0.0033 0.9968
-0.7769 0.1850 -0.0033 0.9968
-0.7737 0.1723 -0.0033 0.9968
-0.7706 0.1599 -0.0033 0.9969
-0.7680 0.1477 -0.0033 0.9969
-0.7656 0.1357 -0.0032 0.9969
-0.7585 0.1004 -0.0032 0.9969
-0.7562 0.0888 -0.0032 0.9970
-0.7538 0.0774 -0.0031 0.9970
-0.7516 0.0661 -0.0031 0.9970
-0.7493 0.0548 -0.0031 0.9970
-0.7448 0.0327 -0.0031 0.9970
-0.7046 0.0000 -0.0107 0.9972
-0.7067 -0.0104 -0.0108 0.9972
-0.7147 -0.0523 -0.0109 0.9971
-0.7188 -0.0737 -0.0110 0.9971
-0.7270 -0.1179 -0.0112 0.9971
-0.7312 -0.1405 -0.0113 0.9970
-0.7355 -0.1638 -0.0115 0.9970
-0.7419 -0.1998 -0.0117 0.9969
-0.7594 -0.2778 -0.0123 0.9968
-0.7630 -0.2918 -0.0124 0.9967
-0.7703 -0.3207 -0.0127 0.9967
-0.7851 -0.3821 -0.0133 0.9965
-0.7883 -0.3980 -0.0135 0.9965
-0.7915 -0.4143 -0.0136 0.9964
-0.7982 -0.4480 -0.0139 0.9963
-0.8017 -0.4654 -0.0141 0.9963
-0.8052 -0.4834 -0.0143 0.9963
-12.8709 -9.3511 -0.2424 0.9383
-12.4652 -9.3377 -0.2373 0.9396
-12.0954 -9.3396 -0.2329 0.9407
-11.9385 -9.5002 -0.2325 0.9408
-13.0575 -10.7060 -0.2573 0.9347
-12.8291 -10.8361 -0.2559 0.9350
-2.7056 -2.6470 -0.0577 0.9850
-2.6697 -2.6893 -0.0577 0.9850
-2.6554 -2.7542 -0.0583 0.9848
-8.9214 -9.5282 -0.1989 0.9491
-8.2921 -9.1196 -0.1878 0.9519
-8.1774 -9.2619 -0.1883 0.9518
-7.9248 -9.2446 -0.1855 0.9525
-7.7885 -9.6420 -0.1889 0.9516
-7.4709 -9.8227 -0.1881 0.9518
-6.0387 -8.1851 -0.1550 0.9601
-5.5841 -8.0512 -0.1493 0.9616
-5.3877 -8.0156 -0.1472 0.9621
-5.0451 -8.0013 -0.1441 0.9629
-4.4072 -7.9890 -0.1390 0.9642
-3.5235 -7.9661 -0.1327 0.9658
-3.3837 -7.9625 -0.1318 0.9660
-3.1123 -7.9625 -0.1303 0.9664
-2.7207 -7.9752 -0.1284 0.9669
-2.4655 -7.9830 -0.1273 0.9671
-2.3441 -8.0031 -0.1271 0.9672
-2.2225 -8.0206 -0.1268 0.9673
-1.9039 -8.2619 -0.1292 0.9667
-1.8498 -8.5998 -0.1340 0.9654
-2.2286 -11.1508 -0.1733 0.9555
-1.9225 -11.3328 -0.1752 0.9551
-1.5892 -12.7297 -0.1955 0.9500
-6.1068 -64.1027 -0.9812 0.7729
-4.2279 -64.2054 -0.9805 0.7731
-3.2880 -64.2357 -0.9801 0.7731
-0.2883 -13.1516 -0.2004 0.9487
-0.0968 -13.2597 -0.2020 0.9483
2.3438 -64.1317 -0.9779 0.7736
4.2136 -63.9878 -0.9772 0.7737
5.1461 -63.8954 -0.9768 0.7738
7.0057 -63.6701 -0.9761 0.7740
7.9323 -63.5371 -0.9757 0.7740
8.8565 -63.3912 -0.9753 0.7741
12.5258 -62.6723 -0.9739 0.7744
13.4353 -62.4597 -0.9735 0.7745
14.3411 -62.2335 -0.9732 0.7745
18.8116 -60.9103 -0.9714 0.7749
19.6925 -60.6072 -0.9711 0.7750
22.3060 -59.6231 -0.9700 0.7752
23.1667 -59.2702 -0.9697 0.7752
24.8715 -58.5275 -0.9690 0.7754
25.7154 -58.1385 -0.9687 0.7754
26.5527 -57.7360 -0.9684 0.7755
27.3844 -57.3228 -0.9680 0.7756
29.0284 -56.4606 -0.9674 0.7757
29.8403 -56.0118 -0.9671 0.7758
31.4438 -55.0802 -0.9664 0.7759
32.2348 -54.5972 -0.9661 0.7760
33.0187 -54.1032 -0.9658 0.7760
33.7947 -53.5976 -0.9655 0.7761
36.0776 -52.0170 -0.9646 0.7763
2.0339 -2.7569 -0.0522 0.9864
38.2876 -50.3402 -0.9638 0.7765
39.0080 -49.7612 -0.9635 0.7765
40.4217 -48.5717 -0.9629 0.7766
42.4757 -46.7145 -0.9621 0.7768
43.7990 -45.4290 -0.9616 0.7769
44.4465 -44.7725 -0.9613 0.7769
45.0838 -44.1064 -0.9611 0.7770
46.3299 -42.7485 -0.9606 0.7771
47.5358 -41.3562 -0.9601 0.7772
48.1232 -40.6472 -0.9599 0.7772
48.7008 -39.9305 -0.9597 0.7773
49.2674 -39.2053 -0.9594 0.7773
50.3691 -37.7320 -0.9590 0.7774
17.7541 -12.8991 -0.3344 0.9160
51.9408 -35.4656 -0.9584 0.7776
52.4426 -34.6957 -0.9582 0.7776
54.3378 -31.5486 -0.9574 0.7777
55.2166 -29.9366 -0.9571 0.7778
55.6383 -29.1215 -0.9569 0.7778
18.4301 -9.3059 -0.3146 0.9207
18.6482 -8.0860 -0.3097 0.9219
20.2105 -8.0704 -0.3316 0.9166
23.5298 -8.2196 -0.3798 0.9051
23.6721 -7.8832 -0.3802 0.9050
9.1596 -2.7557 -0.1458 0.9625
31.0987 -7.8880 -0.4889 0.8795
32.8311 -7.8187 -0.5143 0.8737
13.5478 -3.0179 -0.2115 0.9460
13.9614 -2.6845 -0.2166 0.9447
5.6549 -0.8322 -0.0871 0.9774
31.2541 -1.8288 -0.4771 0.8823
31.6453 -1.3881 -0.4827 0.8810
49.2242 -0.7193 -0.7502 0.8212
63.5931 -0.0001 -0.9690 0.7754
63.5340 2.7869 -0.9691 0.7754
54.9974 4.0253 -0.8403 0.8020
41.8213 3.6760 -0.6397 0.8454
38.1773 3.9186 -0.5848 0.8577
31.1708 3.6604 -0.4782 0.8820
26.5022 3.9003 -0.4082 0.8984
22.0641 4.2423 -0.3424 0.9140
22.1869 4.6031 -0.3453 0.9133
22.2390 4.9539 -0.3472 0.9129
22.2916 5.3087 -0.3492 0.9124
15.3697 3.8985 -0.2416 0.9385
14.8061 3.9867 -0.2337 0.9405
14.1700 4.4899 -0.2265 0.9423
14.3488 5.2490 -0.2328 0.9407
14.4334 6.0095 -0.2382 0.9394
14.4625 6.2711 -0.2402 0.9389
14.8119 7.4791 -0.2528 0.9358
18.4395 10.7060 -0.3249 0.9182
18.4423 11.0711 -0.3278 0.9175
18.5690 11.5195 -0.3330 0.9163
51.9408 35.4656 -0.9584 0.7776
51.4280 36.2285 -0.9586 0.7775
50.9041 36.9840 -0.9588 0.7775
49.8235 38.4724 -0.9592 0.7774
12.5132 9.9576 -0.2437 0.9380
10.8370 9.1534 -0.2162 0.9448
11.4616 9.9716 -0.2315 0.9410
46.9381 42.0566 -0.9604 0.7771
45.0839 44.1063 -0.9611 0.7770
43.7990 45.4289 -0.9616 0.7769
42.4759 46.7146 -0.9621 0.7768
41.1154 47.9622 -0.9626 0.7767
11.3546 13.6440 -0.2705 0.9315
39.7193 49.1715 -0.9632 0.7766
39.0080 49.7612 -0.9635 0.7765
5.9839 7.8675 -0.1506 0.9612
5.7370 7.7762 -0.1473 0.9621
5.5917 7.8158 -0.1464 0.9623
33.7947 53.5975 -0.9655 0.7761
33.0185 54.1027 -0.9658 0.7760
32.2348 54.5971 -0.9661 0.7760
31.4438 55.0802 -0.9664 0.7759
29.8404 56.0117 -0.9671 0.7758
28.2098 56.8976 -0.9677 0.7756
27.3845 57.3228 -0.9680 0.7756
2.2875 5.1717 -0.0862 0.9776
24.0219 58.9048 -0.9694 0.7753
23.1622 59.2583 -0.9695 0.7753
22.3023 59.6131 -0.9699 0.7752
20.5667 60.2857 -0.9706 0.7751
19.6911 60.6029 -0.9710 0.7750
17.9259 61.2003 -0.9718 0.7748
17.0365 61.4800 -0.9721 0.7747
14.3427 62.2404 -0.9733 0.7745
13.4372 62.4685 -0.9737 0.7744
12.5280 62.6829 -0.9741 0.7744
11.6153 62.8842 -0.9744 0.7743
10.6996 63.0726 -0.9748 0.7742
7.9348 63.5571 -0.9760 0.7740
6.0791 63.8126 -0.9768 0.7738
0.7876 9.7779 -0.1495 0.9615
3.2809 64.0960 -0.9780 0.7736
1.4078 64.2156 -0.9788 0.7734
0.4695 64.2556 -0.9792 0.7733
-0.4696 64.2814 -0.9796 0.7732
-1.4094 64.2939 -0.9800 0.7732
-4.2307 64.2476 -0.9811 0.7729
-5.1710 64.2046 -0.9815 0.7728
-7.0504 64.0773 -0.9823 0.7727
-7.9892 63.9931 -0.9827 0.7726
-9.8634 63.7827 -0.9835 0.7724
-10.7986 63.6567 -0.9839 0.7724
-11.7322 63.5174 -0.9843 0.7723
-13.5939 63.1973 -0.9850 0.7721
-15.4468 62.8221 -0.9858 0.7720
-17.2892 62.3920 -0.9866 0.7718
-18.2061 62.1569 -0.9870 0.7717
-19.1196 61.9078 -0.9873 0.7717
-20.9362 61.3694 -0.9881 0.7715
-21.8391 61.0802 -0.9885 0.7714
-2.4526 6.2748 -0.1027 0.9734
-2.5021 5.8880 -0.0975 0.9747
-2.5298 5.7195 -0.0953 0.9753
-2.5563 5.5584 -0.0932 0.9758
-2.6291 5.1137 -0.0876 0.9773
-2.6518 4.9775 -0.0859 0.9777
