ply
format ascii 1.0
element vertex 1579
property float32 x
property float32 y
property float32 z
property float32 I
end_header
33.7873 -11.8030 3.0313 0.8662
9.5947 -3.0402 0.8525 0.9604
9.7346 -2.9288 0.8610 0.9600
9.8774 -2.8150 0.8699 0.9596
10.0988 -2.2497 0.8763 0.9593
10.2195 -1.9650 0.8814 0.9591
10.1967 -1.8066 0.8771 0.9593
14.3008 -2.1047 1.2243 0.9436
14.4131 -1.9065 1.2314 0.9433
21.0325 -1.8487 1.7883 0.9187
20.8433 -1.5256 1.7701 0.9195
34.6132 8.2430 3.0137 0.8669
33.7858 9.0970 2.9635 0.8690
33.5306 10.6245 2.9791 0.8683
25.1244 9.1907 2.2659 0.8982
25.4817 10.6094 2.3378 0.8951
19.1564 8.3063 1.7685 0.9196
19.4142 8.7573 1.8039 0.9181
19.6025 9.5410 1.8465 0.9162
19.5142 9.8534 1.8516 0.9160
16.4879 9.5729 1.6148 0.9263
16.1903 9.7191 1.5994 0.9270
16.0874 9.9800 1.6035 0.9268
15.8231 10.1392 1.5917 0.9273
15.8894 10.5123 1.6137 0.9264
2.3198 7.9198 0.6990 0.9674
2.0696 7.9165 0.6930 0.9677
-2.7153 9.7985 0.8612 0.9600
-4.3527 9.1112 0.8553 0.9603
-8.8977 7.5154 0.9865 0.9543
-8.9054 7.3016 0.9754 0.9548
-9.0171 6.3521 0.9342 0.9567
-9.0481 6.1780 0.9280 0.9570
-8.9431 5.5480 0.8914 0.9586
-9.0321 4.8969 0.8702 0.9596
-9.0952 4.4269 0.8567 0.9602
-1.2024 0.5213 0.1110 0.9948
-1.1957 0.4573 0.1084 0.9949
-1.1929 0.4364 0.1076 0.9949
-1.1876 0.3955 0.1060 0.9950
-1.1851 0.3755 0.1053 0.9950
-1.1834 0.3560 0.1047 0.9951
-1.1802 0.3177 0.1035 0.9951
-1.1787 0.2989 0.1030 0.9951
-1.1774 0.2804 0.1025 0.9952
-1.1760 0.2620 0.1020 0.9952
-1.1748 0.2437 0.1016 0.9952
-1.1725 0.2077 0.1009 0.9952
-1.1616 0.1192 0.0989 0.9953
-1.1582 0.1018 0.0985 0.9953
-1.1516 0.0673 0.0977 0.9954
-1.1484 0.0504 0.0974 0.9954
-1.1041 0.0000 0.0812 0.9956
-1.1154 -0.0653 0.0822 0.9955
-1.1246 -0.1155 0.0831 0.9955
-1.1312 -0.1496 0.0839 0.9954
-1.1346 -0.1670 0.0843 0.9954
-1.1381 -0.2017 0.0850 0.9954
-1.1390 -0.2190 0.0853 0.9954
-1.1411 -0.2542 0.0860 0.9953
-1.1434 -0.2900 0.0868 0.9953
-1.1446 -0.3082 0.0872 0.9953
-1.1473 -0.3452 0.0881 0.9952
-1.1488 -0.3641 0.0886 0.9952
-1.1508 -0.3833 0.0892 0.9951
-1.1530 -0.4028 0.0898 0.9951
-1.1554 -0.4227 0.0905 0.9951
-1.1629 -0.4842 0.0926 0.9950
-1.1672 -0.5265 0.0942 0.9949
-1.1689 -0.5480 0.0950 0.9948
-1.2434 -0.6052 0.1017 0.9945
-1.4717 -0.7431 0.1213 0.9934
-1.4717 -0.7704 0.1222 0.9934
-53.4249 -29.9835 4.5057 0.7821
-51.5729 -29.9433 4.3860 0.7873
-49.8162 -29.9052 4.2733 0.7921
-45.0449 -29.8015 3.9723 0.8052
-43.5994 -29.7700 3.8828 0.8092
-42.2174 -29.7401 3.7980 0.8129
-39.6254 -29.6838 3.6413 0.8199
-12.3445 -9.5321 1.1471 0.9394
-11.7407 -9.6264 1.1166 0.9409
-11.6518 -9.8417 1.1217 0.9407
-11.2760 -10.7136 1.1439 0.9395
-40.5407 -45.9167 4.5049 0.7822
-40.5116 -47.2580 4.5780 0.7791
-39.9427 -47.9962 4.5924 0.7785
-36.4470 -47.9202 4.4279 0.7855
-19.6603 -29.2499 2.5920 0.8682
-18.4259 -29.2231 2.5408 0.8706
-17.5918 -29.7958 2.5448 0.8704
-1.5207 -2.7566 0.2315 0.9875
-1.4881 -2.7932 0.2328 0.9874
-23.6205 -47.6415 3.9109 0.8079
-21.0478 -47.5857 3.8268 0.8116
-17.8684 -45.7149 3.6099 0.8213
-17.1479 -50.2645 3.9060 0.8081
-16.9807 -57.9733 4.4429 0.7848
-16.9142 -61.0389 4.6584 0.7757
-16.4640 -66.9593 5.0713 0.7584
-15.0315 -75.2094 5.6408 0.7352
-14.9118 -80.7308 6.0379 0.7194
21.1930 -86.1918 6.5279 0.7005
21.5300 -82.3534 6.2604 0.7108
22.8846 -82.5840 6.3027 0.7091
25.4878 -82.5275 6.3525 0.7072
26.8055 -82.4989 6.3798 0.7062
28.1348 -82.4700 6.4087 0.7050
32.2002 -82.3817 6.5053 0.7013
33.5836 -82.3516 6.5410 0.7000
34.8731 -82.0635 6.5579 0.6993
36.2842 -82.0329 6.5971 0.6978
40.7524 -82.1958 6.7475 0.6921
42.1109 -81.9062 6.7735 0.6912
43.6181 -81.8735 6.8227 0.6893
45.1479 -81.8402 6.8742 0.6874
48.2793 -81.7722 6.9841 0.6833
49.8835 -81.7374 7.0426 0.6811
1.8934 -2.3441 0.2216 0.9880
1.9594 -2.2193 0.2177 0.9882
2.0146 -2.1517 0.2168 0.9882
2.0421 -2.1181 0.2164 0.9883
2.1538 -2.0464 0.2185 0.9882
18.8680 -12.8832 1.6803 0.9124
19.7696 -13.0795 1.7434 0.9093
23.9262 -12.5232 1.9862 0.8973
5.6052 -2.7282 0.4585 0.9753
24.4415 -11.4578 1.9853 0.8974
30.1737 -12.0488 2.3896 0.8778
33.5304 -12.8243 2.6403 0.8659
9.4840 -3.1584 0.7352 0.9607
9.6220 -3.0489 0.7423 0.9603
9.7626 -2.9372 0.7498 0.9599
10.0030 -2.6934 0.7619 0.9593
10.1092 -2.4075 0.7643 0.9592
10.1773 -2.1116 0.7644 0.9592
10.2239 -1.9659 0.7657 0.9591
10.4174 -1.8456 0.7781 0.9585
17.5821 -2.0647 1.3020 0.9315
54.9931 9.7428 4.1076 0.7993
50.2198 9.6559 3.7612 0.8146
44.6375 9.9434 3.3634 0.8324
33.6882 11.2187 2.6114 0.8673
25.2285 10.0740 1.9979 0.8968
26.4708 11.0212 2.1088 0.8914
16.2700 9.4464 1.3837 0.9273
16.1685 9.7061 1.3870 0.9272
15.5407 9.9582 1.3575 0.9286
14.0616 9.9057 1.2650 0.9333
2.2923 7.8260 0.5998 0.9678
2.1645 7.8111 0.5961 0.9680
2.0514 7.8467 0.5965 0.9680
-1.2715 5.1714 0.3917 0.9789
-4.3523 9.1105 0.7426 0.9603
-8.8873 7.2868 0.8452 0.9550
-8.9057 7.0869 0.8371 0.9554
-8.9289 6.8947 0.8297 0.9558
-8.9516 6.7057 0.8226 0.9561
-9.0048 6.3434 0.8101 0.9568
-8.9150 5.7126 0.7787 0.9584
-8.9382 5.5449 0.7736 0.9587
-9.0043 5.0534 0.7594 0.9594
-1.4752 0.7998 0.1234 0.9933
-1.2433 0.6052 0.1017 0.9945
-1.1689 0.5480 0.0950 0.9948
-1.1672 0.5264 0.0942 0.9949
-1.1603 0.4633 0.0919 0.9950
-1.1578 0.4428 0.0912 0.9950
-1.1530 0.4027 0.0898 0.9951
-1.1507 0.3832 0.0892 0.9951
-1.1488 0.3640 0.0886 0.9952
-1.1459 0.3265 0.0876 0.9952
-1.1446 0.3082 0.0872 0.9953
-1.1411 0.2542 0.0860 0.9953
-1.1400 0.2365 0.0856 0.9953
-1.1365 0.1842 0.0847 0.9954
-1.1312 0.1496 0.0839 0.9954
-1.1279 0.1324 0.0835 0.9955
-1.1246 0.1154 0.0831 0.9955
-1.1154 0.0652 0.0822 0.9955
-1.1125 0.0487 0.0819 0.9955
-1.0479 -0.0460 0.0655 0.9958
-1.0598 -0.0776 0.0663 0.9958
-1.0725 -0.1101 0.0673 0.9957
-1.0860 -0.1437 0.0684 0.9956
-1.0930 -0.1609 0.0690 0.9956
-1.1003 -0.1784 0.0696 0.9955
-1.1074 -0.2298 0.0706 0.9955
-1.1083 -0.2469 0.0709 0.9955
-1.1112 -0.2993 0.0718 0.9954
-1.1124 -0.3170 0.0722 0.9954
-1.1135 -0.3350 0.0726 0.9954
-1.1147 -0.3532 0.0730 0.9953
-1.1181 -0.3906 0.0739 0.9953
-1.1266 -0.4691 0.0762 0.9951
-1.1314 -0.5104 0.0775 0.9950
-1.1337 -0.5314 0.0781 0.9950
-1.4422 -0.7549 0.1016 0.9935
-1.4418 -0.7817 0.1024 0.9934
-1.4516 -0.8428 0.1048 0.9933
-46.5590 -29.8344 3.4514 0.8012
-45.0449 -29.8015 3.3710 0.8054
-11.8378 -9.4202 0.9442 0.9412
-11.5383 -10.0383 0.9545 0.9405
-11.3665 -10.1845 0.9525 0.9407
-11.3383 -10.4618 0.9629 0.9400
-10.7311 -10.8098 0.9507 0.9408
-17.8704 -18.5355 1.6070 0.9020
-17.6313 -18.8305 1.6101 0.9018
-40.5685 -44.6170 3.7638 0.7853
-40.5112 -47.2575 3.8850 0.7792
-38.7489 -47.9702 3.8488 0.7810
-35.3360 -47.8961 3.7149 0.7878
-34.2498 -47.8725 3.6739 0.7899
-33.1871 -47.8494 3.6345 0.7919
-19.6603 -29.2499 2.1997 0.8683
-19.0370 -29.2364 2.1775 0.8695
-18.4260 -29.2231 2.1562 0.8707
-17.5916 -29.7954 2.1596 0.8705
-17.5703 -30.7779 2.2119 0.8676
-23.6205 -47.6416 3.3189 0.8081
-20.9803 -47.4329 3.2371 0.8123
-5.2120 -12.7806 0.8615 0.9462
-17.2384 -46.0776 3.0705 0.8211
-17.1947 -48.0905 3.1876 0.8149
-17.1476 -50.2636 3.3147 0.8083
-16.9803 -57.9721 3.7703 0.7850
-16.6688 -72.3343 4.6330 0.7427
-14.9113 -80.7282 5.1238 0.7196
-14.7733 -87.0872 5.5131 0.7019
-14.6127 -94.4936 5.9678 0.6817
21.1930 -86.1919 5.5398 0.7007
26.7861 -82.4393 5.4102 0.7065
30.7349 -82.1535 5.4746 0.7036
32.1769 -82.3222 5.5166 0.7017
36.2842 -82.0329 5.5985 0.6980
43.6182 -81.8735 5.7900 0.6895
45.2569 -82.0380 5.8478 0.6869
46.8478 -82.0634 5.8977 0.6847
50.0402 -81.9941 5.9953 0.6805
51.5152 -81.7019 6.0284 0.6790
9.1447 -12.7820 0.9809 0.9390
1.8860 -2.3349 0.1873 0.9880
1.9656 -2.2262 0.1854 0.9882
1.9935 -2.1925 0.1850 0.9882
2.0787 -2.0939 0.1842 0.9882
2.1469 -2.0398 0.1848 0.9882
20.7084 -14.1398 1.5650 0.9044
19.7266 -13.0510 1.4763 0.9096
20.5571 -13.1727 1.5239 0.9068
24.0384 -12.5820 1.6934 0.8970
24.1652 -12.2018 1.6896 0.8972
29.1184 -13.1347 1.9937 0.8798
30.1692 -12.5612 2.0397 0.8772
30.7374 -12.2738 2.0657 0.8758
33.8567 -12.9491 2.2624 0.8648
33.8313 -12.3759 2.2484 0.8656
10.0821 -2.7147 0.6517 0.9590
9.7704 -2.4782 0.6291 0.9604
10.1540 -2.4182 0.6515 0.9590
10.1882 -2.2696 0.6515 0.9590
10.2224 -2.1209 0.6516 0.9590
10.2718 -1.9751 0.6528 0.9589
10.7388 -1.9026 0.6807 0.9572
14.2863 -2.3162 0.9033 0.9436
14.3918 -2.1180 0.9079 0.9434
18.1190 -1.8598 1.1368 0.9296
21.1590 -1.5487 1.3242 0.9185
85.3857 -2.4962 5.3315 0.7101
86.9755 -1.2711 5.4291 0.7057
67.5268 9.9378 4.2600 0.7607
49.3415 9.4871 3.1360 0.8176
44.6006 9.9352 2.8519 0.8327
34.2851 9.2314 2.2161 0.8674
34.0734 9.7105 2.2113 0.8676
33.8316 10.7199 2.2150 0.8674
11.7962 4.1207 0.7799 0.9512
11.3705 4.1595 0.7557 0.9526
10.8639 4.3380 0.7301 0.9542
10.9356 4.7417 0.7439 0.9534
20.2542 9.8582 1.4059 0.9137
19.9082 10.0523 1.3920 0.9145
16.0939 9.6613 1.1716 0.9275
15.8133 9.8100 1.1615 0.9281
15.3780 9.8540 1.1400 0.9294
14.9714 10.2226 1.1315 0.9299
14.0321 9.8849 1.0713 0.9335
2.4336 7.8798 0.5147 0.9675
2.1567 7.7830 0.5041 0.9682
2.0439 7.8179 0.5043 0.9681
1.9423 7.8995 0.5077 0.9679
1.8656 8.0957 0.5185 0.9673
-2.7033 9.7554 0.6318 0.9602
-4.3520 9.1098 0.6302 0.9603
-8.3199 9.4232 0.7846 0.9509
-8.9646 6.5131 0.6916 0.9566
-9.0230 6.1609 0.6819 0.9572
-8.8863 5.8791 0.6650 0.9582
-8.9092 5.7089 0.6604 0.9585
-8.9318 5.5409 0.6560 0.9587
-8.9541 5.3752 0.6518 0.9590
-1.4418 0.7817 0.1024 0.9934
-1.1715 0.5702 0.0813 0.9948
-1.1314 0.5103 0.0775 0.9950
-1.1222 0.4291 0.0750 0.9952
-1.1202 0.4097 0.0744 0.9952
-1.1147 0.3532 0.0730 0.9953
-1.1135 0.3350 0.0726 0.9954
-1.1123 0.3170 0.0722 0.9954
-1.1112 0.2992 0.0718 0.9954
-1.1082 0.2468 0.0709 0.9955
-1.1074 0.2297 0.0706 0.9955
-1.1065 0.2127 0.0703 0.9955
-1.1056 0.1959 0.0701 0.9955
-1.1003 0.1784 0.0696 0.9955
-1.0930 0.1608 0.0690 0.9956
-1.0859 0.1436 0.0684 0.9956
-1.0791 0.1267 0.0678 0.9957
-1.0725 0.1101 0.0673 0.9957
-1.0661 0.0937 0.0668 0.9957
-1.0598 0.0775 0.0663 0.9958
-1.0538 0.0616 0.0659 0.9958
-1.0479 0.0459 0.0655 0.9958
-1.0375 0.0152 0.0648 0.9959
-0.9723 -0.0143 0.0499 0.9961
-0.9762 -0.0286 0.0501 0.9961
-0.9897 -0.0725 0.0509 0.9960
-1.0006 -0.1027 0.0516 0.9960
-1.0242 -0.1661 0.0532 0.9959
-1.0305 -0.1827 0.0537 0.9958
-1.0361 -0.1993 0.0541 0.9958
-1.0407 -0.2319 0.0547 0.9957
-1.0456 -0.2652 0.0553 0.9957
-1.0539 -0.3171 0.0565 0.9956
-1.0621 -0.3537 0.0574 0.9955
-1.0785 -0.4491 0.0599 0.9953
-1.0804 -0.4685 0.0604 0.9953
-1.0845 -0.5084 0.0614 0.9952
-1.0867 -0.5289 0.0620 0.9952
-1.1839 -0.5979 0.0680 0.9947
-1.4204 -0.7434 0.0822 0.9936
-1.4187 -0.7691 0.0828 0.9936
-1.4185 -0.8516 0.0849 0.9934
-1.4486 -0.8987 0.0874 0.9932
-43.5995 -29.7701 2.7081 0.8094
-40.8941 -29.7113 2.5929 0.8167
-12.4555 -9.3305 0.7983 0.9396
-12.3663 -9.5490 0.8015 0.9393
-11.7692 -9.9409 0.7903 0.9402
-11.3843 -9.9044 0.7740 0.9414
-11.3254 -10.1476 0.7800 0.9409
-11.2541 -10.3841 0.7855 0.9405
-18.9932 -19.7001 1.4037 0.8962
-40.5955 -43.3566 3.0468 0.7883
-40.3230 -47.0380 3.1781 0.7802
-39.8145 -47.8421 3.1928 0.7793
-38.6245 -47.8162 3.1531 0.7818
-37.5841 -47.9450 3.1250 0.7835
-36.4470 -47.9203 3.0883 0.7857
-34.1399 -47.7189 3.0098 0.7906
-33.0984 -47.7215 2.9791 0.7925
-19.6603 -29.2500 1.8079 0.8684
-18.4260 -29.2231 1.7722 0.8708
-17.8267 -29.2101 1.7554 0.8719
-17.5914 -29.7951 1.7749 0.8706
-17.5701 -30.7775 1.8179 0.8677
-1.5207 -2.7567 0.1615 0.9875
-1.4881 -2.7932 0.1623 0.9874
-24.5041 -47.6608 2.7490 0.8068
-20.2140 -47.5675 2.6512 0.8130
-17.8684 -45.7149 2.5178 0.8215
-17.2380 -46.0768 2.5236 0.8212
-17.1944 -48.0897 2.6198 0.8150
-17.0406 -55.1762 2.9623 0.7935
-16.9135 -61.0361 3.2489 0.7759
-16.5667 -77.0172 4.0411 0.7294
-16.4517 -82.3153 4.3060 0.7145
-16.3206 -88.3580 4.6091 0.6978
-16.1696 -95.3178 4.9593 0.6789
20.8350 -84.7357 4.4761 0.7050
21.5300 -82.3535 4.3664 0.7111
29.3843 -82.1828 4.4771 0.7050
30.7349 -82.1535 4.4994 0.7038
32.0994 -82.1238 4.5230 0.7025
33.4785 -82.0939 4.5478 0.7011
36.2842 -82.0329 4.6013 0.6982
37.7125 -82.0019 4.6299 0.6966
39.1591 -81.9704 4.6600 0.6950
40.6248 -81.9386 4.6914 0.6933
48.2087 -81.6526 4.8640 0.6840
49.8836 -81.7374 4.9120 0.6815
9.1451 -12.7826 0.8062 0.9390
1.8798 -2.3272 0.1535 0.9881
1.9775 -2.2398 0.1533 0.9881
2.0625 -2.1392 0.1524 0.9882
2.0906 -2.1060 0.1522 0.9882
2.1057 -2.0601 0.1511 0.9883
19.4627 -12.8764 1.1971 0.9108
24.0453 -13.0366 1.4031 0.8962
24.1600 -12.6456 1.3988 0.8965
24.2872 -12.2634 1.3957 0.8968
5.6054 -2.7283 0.3198 0.9753
28.7437 -13.4746 1.6284 0.8806
30.3645 -12.1249 1.6772 0.8773
9.6770 -3.0663 0.5207 0.9602
9.8189 -2.9541 0.5260 0.9598
9.8582 -2.5005 0.5217 0.9601
10.1990 -2.4289 0.5378 0.9589
10.2334 -2.2796 0.5378 0.9589
10.2677 -2.1303 0.5379 0.9589
10.2981 -1.9801 0.5379 0.9589
10.8761 -1.9270 0.5666 0.9567
14.3294 -2.3232 0.7446 0.9435
17.5247 -2.3180 0.9068 0.9316
17.5812 -2.0646 0.9081 0.9316
20.8256 -1.8305 1.0724 0.9197
25.2974 -1.8516 1.3011 0.9034
28.8328 -1.6872 1.4816 0.8908
29.6275 -1.2996 1.5212 0.8880
85.7804 -2.5077 4.4021 0.7091
86.2572 -1.2606 4.4252 0.7079
66.7303 8.8264 3.4529 0.7637
64.1634 9.4428 3.3268 0.7712
44.1919 9.1685 2.3152 0.8346
44.7634 9.9715 2.3525 0.8322
39.4395 9.3924 2.0797 0.8501
34.4993 8.7505 1.8257 0.8671
34.1336 10.8155 1.8367 0.8664
11.7072 4.0897 0.6361 0.9515
11.3161 4.1395 0.6181 0.9529
11.0023 4.2080 0.6043 0.9539
10.8621 4.5225 0.6036 0.9540
10.9148 4.9234 0.6142 0.9532
11.0907 5.8049 0.6421 0.9511
16.6229 9.3291 0.9778 0.9265
15.6298 9.6961 0.9435 0.9290
14.8643 9.8341 0.9143 0.9311
15.0698 10.9488 0.9555 0.9281
7.8500 10.0140 0.6527 0.9503
2.4298 7.8673 0.4224 0.9676
2.2806 7.7862 0.4162 0.9680
2.1555 7.7787 0.4141 0.9682
1.9409 7.8934 0.4170 0.9680
-2.6974 9.7339 0.5181 0.9604
-4.3516 9.1090 0.5179 0.9604
-8.4555 7.3562 0.5749 0.9561
-8.8328 7.4606 0.5931 0.9547
-8.8514 7.2574 0.5872 0.9552
-6.5741 4.6311 0.4125 0.9683
-1.4485 0.8986 0.0874 0.9932
-1.4171 0.7953 0.0834 0.9935
-1.4204 0.7434 0.0822 0.9936
-1.1838 0.5977 0.0680 0.9947
-1.0867 0.5289 0.0620 0.9952
-1.0824 0.4882 0.0609 0.9953
-1.0785 0.4490 0.0599 0.9953
-1.0750 0.4111 0.0590 0.9954
-1.0733 0.3926 0.0586 0.9954
-1.0457 0.2652 0.0553 0.9957
-1.0242 0.1660 0.0532 0.9959
-1.0063 0.1181 0.0520 0.9960
-0.9897 0.0724 0.0509 0.9960
-0.9845 0.0576 0.0506 0.9961
-0.9802 0.0430 0.0503 0.9961
-0.9723 0.0142 0.0499 0.9961
-0.9149 -0.0134 0.0368 0.9963
-0.9184 -0.0269 0.0369 0.9963
-0.9219 -0.0405 0.0371 0.9963
-0.9255 -0.0541 0.0373 0.9963
-0.9378 -0.0963 0.0379 0.9962
-0.9427 -0.1107 0.0381 0.9962
-0.9528 -0.1402 0.0387 0.9962
-0.9580 -0.1554 0.0390 0.9961
-0.9729 -0.2019 0.0399 0.9960
-0.9747 -0.2171 0.0401 0.9960
-0.9828 -0.2801 0.0411 0.9959
-0.9938 -0.3310 0.0421 0.9958
-1.0015 -0.3498 0.0426 0.9958
-1.0158 -0.3886 0.0437 0.9957
-1.0216 -0.4080 0.0442 0.9956
-1.0229 -0.4259 0.0445 0.9956
-1.0243 -0.4441 0.0449 0.9955
-1.0257 -0.4627 0.0452 0.9955
-1.0272 -0.4816 0.0456 0.9955
-1.0288 -0.5008 0.0460 0.9954
-1.0305 -0.5204 0.0464 0.9954
-1.0321 -0.5403 0.0468 0.9953
-1.2465 -0.6759 0.0570 0.9943
-47.1145 -30.1903 2.2490 0.7993
-45.5823 -30.1570 2.1967 0.8035
-42.2174 -29.7401 2.0755 0.8132
-13.5419 -9.8388 0.6728 0.9352
-13.3043 -9.9664 0.6681 0.9356
-12.3095 -9.5051 0.6251 0.9396
-11.9655 -9.5218 0.6146 0.9406
-11.7684 -9.6491 0.6117 0.9409
-11.8116 -9.9767 0.6214 0.9400
-11.2204 -10.3530 0.6136 0.9407
-10.6883 -10.4566 0.6010 0.9419
-40.5951 -43.3562 2.3872 0.7884
-7.5559 -8.3100 0.4514 0.9560
-6.8992 -8.2902 0.4335 0.9577
-6.7207 -8.3201 0.4299 0.9581
-6.4368 -8.7247 0.4358 0.9575
-6.4951 -9.0786 0.4487 0.9563
-33.0984 -47.7215 2.3342 0.7926
-19.6603 -29.2499 1.4165 0.8684
-17.8266 -29.2101 1.3754 0.8720
-17.5912 -29.7947 1.3906 0.8707
-22.7504 -47.6227 2.1212 0.8095
-5.4803 -11.9164 0.5272 0.9488
-21.0478 -47.5857 2.0913 0.8120
-20.2141 -47.5676 2.0773 0.8131
-17.8684 -45.7149 1.9727 0.8216
-17.1941 -48.0888 2.0526 0.8151
-17.5060 -53.8781 2.2769 0.7971
-17.0403 -55.1750 2.3209 0.7936
-16.9796 -57.9696 2.4278 0.7852
-3.4127 -13.0536 0.5423 0.9474
-16.7585 -68.1566 2.8209 0.7550
-16.6679 -72.3305 2.9833 0.7429
-16.5662 -77.0151 3.1662 0.7295
-16.4512 -82.3129 3.3737 0.7146
20.8355 -84.7381 3.5072 0.7052
21.5300 -82.3535 3.4212 0.7112
24.1054 -82.2975 3.4467 0.7094
26.7216 -82.2407 3.4755 0.7074
28.0468 -82.2119 3.4912 0.7063
29.3843 -82.1828 3.5079 0.7051
32.0994 -82.1238 3.5439 0.7026
33.4785 -82.0939 3.5633 0.7012
34.8732 -82.0636 3.5837 0.6998
36.2842 -82.0329 3.6052 0.6983
37.7126 -82.0019 3.6277 0.6968
40.6248 -81.9386 3.6758 0.6934
42.1109 -81.9063 3.7016 0.6916
43.6182 -81.8736 3.7285 0.6898
46.7012 -81.8066 3.7860 0.6858
49.8836 -81.7374 3.8486 0.6816
9.1582 -12.8008 0.6326 0.9389
1.8744 -2.3205 0.1199 0.9881
1.9029 -2.2866 0.1196 0.9882
1.9485 -2.2730 0.1203 0.9881
1.9942 -2.2587 0.1211 0.9880
2.0219 -2.2237 0.1208 0.9880
2.0494 -2.1888 0.1205 0.9881
2.0769 -2.1542 0.1203 0.9881
2.0883 -2.1036 0.1191 0.9882
2.1012 -2.0557 0.1181 0.9883
2.1986 -2.0287 0.1202 0.9881
87.1186 -45.5986 3.9521 0.6746
5.6054 -2.7284 0.2506 0.9754
29.1129 -13.1323 1.2836 0.8800
87.9571 -36.6215 3.8293 0.6829
9.7046 -3.0750 0.4092 0.9601
9.9435 -2.6774 0.4139 0.9596
9.9475 -2.5232 0.4125 0.9597
10.2790 -2.2898 0.4233 0.9587
17.4260 -2.3050 0.7065 0.9321
17.6506 -2.0728 0.7143 0.9313
20.8774 -1.8351 0.8423 0.9195
86.0055 -2.5143 3.4582 0.7086
86.2359 -1.2603 3.4664 0.7080
91.8022 9.4227 3.7091 0.6911
76.9289 9.0339 3.1132 0.7334
49.9893 8.8562 2.0405 0.8161
39.4669 10.0105 1.6365 0.8496
10.9456 4.1863 0.4710 0.9542
10.8604 4.7091 0.4758 0.9537
10.8837 4.9094 0.4799 0.9533
10.9799 5.5441 0.4944 0.9520
11.0245 5.7702 0.5001 0.9514
11.0701 6.0018 0.5061 0.9508
11.1695 6.2686 0.5148 0.9500
15.7628 9.4625 0.7389 0.9290
15.7544 9.7734 0.7451 0.9285
15.5029 9.9340 0.7400 0.9289
14.0591 9.9039 0.6912 0.9335
15.1013 10.9717 0.7502 0.9280
14.8475 11.1223 0.7456 0.9284
7.8541 10.0192 0.5117 0.9503
2.4298 7.8673 0.3309 0.9676
2.1555 7.7787 0.3244 0.9682
2.0427 7.8136 0.3246 0.9682
1.9409 7.8936 0.3267 0.9680
1.8606 8.0739 0.3330 0.9674
-4.3512 9.1084 0.4057 0.9604
-6.4328 5.5965 0.3427 0.9664
-6.3942 5.4008 0.3364 0.9670
-6.4588 4.9873 0.3280 0.9679
-6.4857 4.8585 0.3257 0.9681
-6.5453 4.4691 0.3185 0.9688
-6.5648 4.3432 0.3164 0.9690
-6.5912 4.2236 0.3146 0.9691
-1.4222 0.8822 0.0673 0.9933
-1.4127 0.8480 0.0662 0.9934
-1.4123 0.8200 0.0656 0.9935
-1.4130 0.7929 0.0651 0.9935
-1.0322 0.5402 0.0468 0.9953
-1.0304 0.5202 0.0464 0.9954
-1.0288 0.5007 0.0460 0.9954
-1.0272 0.4815 0.0456 0.9955
-1.0257 0.4627 0.0452 0.9955
-1.0216 0.4079 0.0442 0.9956
-1.0158 0.3885 0.0437 0.9957
-1.0091 0.3691 0.0432 0.9957
-1.0014 0.3498 0.0426 0.9958
-0.9938 0.3309 0.0421 0.9958
-0.9828 0.2801 0.0411 0.9959
-0.9807 0.2640 0.0408 0.9959
-0.9766 0.2325 0.0403 0.9960
-0.9634 0.1707 0.0393 0.9961
-0.9580 0.1553 0.0390 0.9961
-0.9427 0.1106 0.0381 0.9962
-0.9331 0.0820 0.0376 0.9963
-0.9292 0.0680 0.0374 0.9963
-0.9184 0.0268 0.0369 0.9963
-0.8609 0.0000 0.0251 0.9966
-0.8670 -0.0254 0.0252 0.9965
-0.8702 -0.0382 0.0253 0.9965
-0.8733 -0.0511 0.0255 0.9965
-0.8832 -0.0907 0.0258 0.9965
-0.8911 -0.1179 0.0262 0.9964
-0.9092 -0.1748 0.0269 0.9963
-0.9140 -0.1896 0.0272 0.9963
-0.9166 -0.2042 0.0273 0.9962
-0.9181 -0.2187 0.0275 0.9962
-0.9197 -0.2333 0.0276 0.9962
-0.9213 -0.2481 0.0278 0.9962
-0.9230 -0.2630 0.0279 0.9962
-0.9247 -0.2782 0.0281 0.9961
-0.9403 -0.3285 0.0290 0.9960
-0.9470 -0.3464 0.0293 0.9960
-0.9747 -0.4397 0.0311 0.9957
-0.9758 -0.4574 0.0314 0.9957
-0.9780 -0.4938 0.0319 0.9956
-0.9804 -0.5315 0.0324 0.9955
-1.1001 -0.6174 0.0367 0.9950
-1.4229 -0.8828 0.0487 0.9933
-45.5823 -30.1570 1.5903 0.8036
-42.2174 -29.7400 1.5026 0.8133
-13.6041 -9.8840 0.4893 0.9349
-13.2206 -9.9037 0.4806 0.9360
-12.2533 -9.4617 0.4505 0.9399
-11.5549 -9.4741 0.4348 0.9420
-11.4652 -9.6841 0.4367 0.9417
-11.3217 -9.8499 0.4366 0.9417
-11.2853 -10.1117 0.4409 0.9412
-10.8574 -10.3159 0.4358 0.9418
-10.6868 -10.4552 0.4350 0.9419
-7.9328 -8.2280 0.3326 0.9553
-7.6975 -8.2211 0.3277 0.9559
-6.8245 -8.2005 0.3104 0.9582
-6.0306 -8.1741 0.2956 0.9602
-5.9158 -8.2688 0.2958 0.9601
-18.4260 -29.2232 1.0052 0.8709
-17.8266 -29.2101 0.9957 0.8720
-6.2313 -10.9154 0.3657 0.9509
-1.5208 -2.7567 0.0916 0.9875
-1.4881 -2.7932 0.0921 0.9874
-5.6678 -11.0239 0.3607 0.9516
-5.5815 -11.2577 0.3656 0.9510
-5.5689 -11.6572 0.3759 0.9496
-5.4635 -11.8798 0.3805 0.9490
-20.2140 -47.5676 1.5039 0.8132
-5.1772 -12.6952 0.3989 0.9466
-17.8684 -45.7149 1.4282 0.8217
-17.2375 -46.0752 1.4314 0.8213
-17.1938 -48.0879 1.4860 0.8152
-17.5057 -53.8770 1.6483 0.7972
-16.9792 -57.9684 1.7576 0.7853
-16.9127 -61.0333 1.8428 0.7761
-3.4125 -13.0529 0.3926 0.9474
-16.7581 -68.1550 2.0422 0.7551
-16.1685 -95.3112 2.8129 0.6792
20.8362 -84.7407 2.5391 0.7052
24.1054 -82.2975 2.4952 0.7095
25.4080 -82.2692 2.5053 0.7085
29.3843 -82.1828 2.5395 0.7052
30.7350 -82.1535 2.5522 0.7040
45.1479 -81.8403 2.7196 0.6880
46.7012 -81.8066 2.7409 0.6859
48.2793 -81.7723 2.7631 0.6839
51.5153 -81.7020 2.8104 0.6794
9.1721 -12.8202 0.4587 0.9389
1.9501 -2.2748 0.0872 0.9881
2.0509 -2.1904 0.0873 0.9881
2.0787 -2.1561 0.0871 0.9881
2.0864 -2.1018 0.0862 0.9882
87.0378 -48.8480 2.9041 0.6707
16.5808 -8.3722 0.5405 0.9284
5.6055 -2.7284 0.1814 0.9754
85.7199 -40.1839 2.7546 0.6847
29.3890 -13.2568 0.9381 0.8790
87.5005 -36.4313 2.7579 0.6843
91.0424 -36.3544 2.8524 0.6755
39.5863 -13.1829 1.2140 0.8462
10.0403 -2.7035 0.3025 0.9592
10.2902 -2.4507 0.3078 0.9586
10.3249 -2.3000 0.3078 0.9586
10.2114 -2.1186 0.3034 0.9591
14.4560 -2.1275 0.4252 0.9432
17.7288 -2.0820 0.5194 0.9311
20.8902 -2.1443 0.6110 0.9194
28.1622 -1.6479 0.8208 0.8932
28.9919 -1.2717 0.8444 0.8904
44.7365 -1.3078 1.3023 0.8360
85.7923 -1.2538 2.4966 0.7094
88.0807 9.0408 2.5764 0.7016
82.3615 9.6718 2.4130 0.7176
67.3720 8.9114 1.9774 0.7619
26.9584 4.3708 0.7947 0.8965
26.9707 5.1857 0.7991 0.8959
27.1403 5.6308 0.8065 0.8950
27.2900 6.0791 0.8135 0.8941
44.3520 10.5623 1.3266 0.8332
39.6097 10.0467 1.1890 0.8491
10.8894 4.1648 0.3392 0.9544
10.7909 4.3090 0.3381 0.9546
10.8358 4.6984 0.3437 0.9538
10.8588 4.8981 0.3466 0.9534
10.9304 5.5191 0.3563 0.9522
11.0962 6.4425 0.3733 0.9500
15.8253 9.5001 0.5371 0.9288
14.8116 10.4340 0.5272 0.9301
15.0949 10.9670 0.5429 0.9281
14.8126 11.0962 0.5385 0.9286
2.2806 7.7862 0.2361 0.9681
2.0427 7.8136 0.2350 0.9682
-2.6903 9.7084 0.2931 0.9605
-4.3509 9.1076 0.2937 0.9604
-8.2152 9.5832 0.3673 0.9507
-6.3158 5.6589 0.2467 0.9666
-6.3665 5.3774 0.2425 0.9672
-6.3831 5.2336 0.2402 0.9675
-6.4151 4.9535 0.2358 0.9681
-6.4629 4.6955 0.2324 0.9685
-6.4830 4.5669 0.2307 0.9688
-6.5017 4.4394 0.2291 0.9690
-1.4151 0.8495 0.0480 0.9934
-1.0999 0.6173 0.0367 0.9950
-0.9804 0.5315 0.0324 0.9955
-0.9791 0.5125 0.0322 0.9956
-0.9780 0.4938 0.0319 0.9956
-0.9758 0.4574 0.0314 0.9957
-0.9747 0.4396 0.0311 0.9957
-0.9718 0.4214 0.0308 0.9958
-0.9657 0.4020 0.0304 0.9958
-0.9597 0.3832 0.0301 0.9959
-0.9539 0.3648 0.0297 0.9959
-0.9213 0.2480 0.0278 0.9962
-0.9181 0.2186 0.0275 0.9962
-0.9166 0.2041 0.0273 0.9962
-0.9140 0.1896 0.0272 0.9963
-0.8999 0.1459 0.0265 0.9964
-0.8954 0.1318 0.0263 0.9964
-0.8910 0.1178 0.0262 0.9964
-0.8832 0.0906 0.0258 0.9965
-0.8766 0.0641 0.0256 0.9965
-0.8670 0.0253 0.0252 0.9965
-0.8639 0.0126 0.0251 0.9965
-0.8211 -0.0240 0.0148 0.9967
-0.8296 -0.0608 0.0150 0.9967
-0.8325 -0.0732 0.0150 0.9967
-0.8384 -0.0985 0.0152 0.9966
-0.8446 -0.1243 0.0154 0.9966
-0.8485 -0.1376 0.0155 0.9966
-0.8525 -0.1510 0.0156 0.9965
-0.8606 -0.1786 0.0158 0.9965
-0.8648 -0.1927 0.0160 0.9965
-0.8663 -0.2063 0.0160 0.9964
-0.8675 -0.2201 0.0161 0.9964
-0.8807 -0.2933 0.0167 0.9963
-0.8862 -0.3096 0.0169 0.9963
-0.8919 -0.3263 0.0171 0.9962
-0.8977 -0.3434 0.0173 0.9962
-0.9037 -0.3609 0.0175 0.9961
-0.9141 -0.3964 0.0179 0.9960
-0.9299 -0.4527 0.0186 0.9959
-0.9306 -0.4699 0.0188 0.9958
-0.9321 -0.5054 0.0191 0.9958
-0.9329 -0.5236 0.0193 0.9957
-0.9336 -0.5421 0.0194 0.9957
-1.1483 -0.6893 0.0241 0.9947
-16.5629 -10.6133 0.3543 0.9243
-16.4671 -11.2439 0.3591 0.9233
-16.3357 -11.5077 0.3599 0.9232
-12.3062 -9.5025 0.2800 0.9397
-11.6326 -9.5378 0.2709 0.9416
-11.4820 -9.6984 0.2707 0.9416
-11.3317 -9.8586 0.2705 0.9417
-11.1250 -9.9681 0.2690 0.9420
-10.8456 -10.0073 0.2658 0.9427
-10.8059 -10.2670 0.2684 0.9421
-8.1110 -8.1705 0.2073 0.9550
-7.1941 -8.1481 0.1958 0.9574
-6.9786 -8.1408 0.1931 0.9580
-6.7697 -8.1347 0.1906 0.9585
-6.5627 -8.1245 0.1881 0.9591
-5.8113 -8.1227 0.1799 0.9608
-5.6127 -8.0925 0.1774 0.9614
-5.5007 -8.1838 0.1776 0.9613
-5.4416 -8.6302 0.1837 0.9600
-5.4356 -8.9066 0.1879 0.9591
-6.2597 -10.9651 0.2274 0.9507
-1.5207 -2.7567 0.0567 0.9875
-1.4881 -2.7932 0.0570 0.9874
-5.5583 -11.6350 0.2322 0.9497
-5.4713 -11.8968 0.2358 0.9490
-20.2141 -47.5675 0.9308 0.8132
-5.1664 -12.6686 0.2464 0.9467
-17.2371 -46.0743 0.8859 0.8214
-17.1934 -48.0871 0.9197 0.8152
-17.0396 -55.1728 1.0399 0.7937
-16.9789 -57.9672 1.0878 0.7853
-16.9123 -61.0320 1.1406 0.7762
-16.6670 -72.3267 1.3367 0.7431
-16.5653 -77.0109 1.4186 0.7297
-16.3190 -88.3497 1.6180 0.6981
21.5300 -82.3535 1.5330 0.7114
22.8129 -82.3256 1.5385 0.7105
25.4081 -82.2693 1.5507 0.7086
26.7216 -82.2407 1.5573 0.7075
29.3843 -82.1828 1.5718 0.7053
32.0994 -82.1239 1.5879 0.7027
34.8732 -82.0636 1.6058 0.7000
36.2843 -82.0329 1.6154 0.6985
39.1591 -81.9705 1.6360 0.6953
40.6249 -81.9386 1.6471 0.6936
42.1108 -81.9063 1.6586 0.6918
43.6182 -81.8736 1.6707 0.6900
48.2793 -81.7723 1.7102 0.6839
49.8836 -81.7374 1.7245 0.6818
1.9529 -2.2782 0.0540 0.9881
2.0029 -2.2684 0.0545 0.9880
2.0314 -2.2341 0.0544 0.9880
2.0598 -2.2000 0.0543 0.9880
2.0851 -2.1004 0.0533 0.9882
2.0925 -2.0472 0.0527 0.9884
2.1219 -2.0161 0.0527 0.9884
14.2674 -12.7837 0.3450 0.9262
19.1299 -13.0621 0.4172 0.9115
16.1621 -9.3838 0.3366 0.9280
16.1043 -9.0382 0.3326 0.9288
16.3175 -8.2393 0.3292 0.9295
5.6056 -2.7285 0.1123 0.9754
17.5833 -8.2427 0.3497 0.9253
85.2957 -36.9848 1.6743 0.6894
21.6870 -8.6599 0.4206 0.9108
21.7008 -8.2999 0.4184 0.9112
39.5018 -13.1548 0.7498 0.8466
9.7604 -3.0927 0.1844 0.9599
9.9045 -2.9799 0.1863 0.9595
10.1385 -2.7299 0.1891 0.9589
10.3437 -2.3042 0.1908 0.9585
10.3346 -2.1442 0.1901 0.9587
10.3775 -1.9954 0.1903 0.9586
14.3979 -2.5509 0.2633 0.9432
14.4025 -2.3352 0.2628 0.9433
14.4867 -2.1320 0.2637 0.9431
17.7710 -2.0869 0.3222 0.9309
20.9601 -2.1514 0.3795 0.9192
21.4886 -1.8888 0.3885 0.9173
28.2096 -2.0647 0.5094 0.8930
43.9921 -1.2860 0.7926 0.8386
59.5852 -0.8708 1.0732 0.7879
89.2101 9.1566 1.6150 0.6985
83.1940 11.0041 1.5113 0.7148
27.4947 4.0463 0.5005 0.8948
26.6564 4.3218 0.4863 0.8976
19.8994 4.1284 0.3660 0.9219
18.9729 4.5182 0.3512 0.9249
11.9279 3.9722 0.2264 0.9509
10.9047 5.5061 0.2200 0.9523
10.9826 6.1637 0.2268 0.9509
11.0754 6.6486 0.2326 0.9496
14.9954 9.9208 0.3238 0.9306
14.9606 10.8695 0.3330 0.9287
14.7778 11.0702 0.3325 0.9288
7.8716 10.0416 0.2298 0.9502
2.2806 7.7862 0.1461 0.9681
2.1555 7.7787 0.1454 0.9682
-1.2716 5.1716 0.0959 0.9789
-2.6932 9.7188 0.1816 0.9605
-4.3506 9.1069 0.1818 0.9604
-8.1805 9.5428 0.2264 0.9510
-6.2411 5.9298 0.1550 0.9661
-6.2557 5.7721 0.1533 0.9665
-6.2847 5.6311 0.1520 0.9668
-6.3721 4.9204 0.1450 0.9683
-6.3977 4.7926 0.1440 0.9685
-6.4187 4.6634 0.1429 0.9688
-6.4394 4.5363 0.1419 0.9690
-6.4587 4.4100 0.1408 0.9692
-6.4799 4.2870 0.1399 0.9694
-6.4997 4.1648 0.1390 0.9696
-6.5237 4.0471 0.1383 0.9698
-0.9313 0.4874 0.0189 0.9958
-0.9299 0.4526 0.0186 0.9959
-0.9248 0.4334 0.0184 0.9959
-0.9141 0.3963 0.0179 0.9960
-0.9090 0.3784 0.0177 0.9961
-0.8977 0.3433 0.0173 0.9962
-0.8919 0.3262 0.0171 0.9962
-0.8807 0.2932 0.0167 0.9963
-0.8713 0.2621 0.0164 0.9964
-0.8648 0.1926 0.0160 0.9965
-0.8524 0.1510 0.0156 0.9965
-0.8485 0.1375 0.0155 0.9966
-0.8324 0.0732 0.0150 0.9967
-0.8239 0.0361 0.0149 0.9967
-0.8184 0.0119 0.0147 0.9967
-0.7750 -0.0000 0.0054 0.9969
-0.7799 -0.0228 0.0054 0.9969
-0.7823 -0.0344 0.0054 0.9969
-0.7848 -0.0459 0.0054 0.9969
-0.7899 -0.0695 0.0055 0.9968
-0.7951 -0.0934 0.0055 0.9968
-0.8032 -0.1302 0.0056 0.9968
-0.8061 -0.1428 0.0057 0.9967
-0.8096 -0.1557 0.0057 0.9967
-0.8167 -0.1820 0.0058 0.9967
-0.8229 -0.2345 0.0059 0.9966
-0.8287 -0.2626 0.0060 0.9965
-0.8429 -0.3084 0.0062 0.9964
-0.8478 -0.3243 0.0063 0.9964
-0.8528 -0.3406 0.0064 0.9963
-0.8629 -0.3742 0.0065 0.9962
-0.8717 -0.4087 0.0067 0.9962
-0.8810 -0.4449 0.0068 0.9961
-0.8887 -0.4988 0.0071 0.9959
-0.9722 -0.6032 0.0079 0.9954
-16.7512 -10.7339 0.1378 0.9235
-16.4709 -10.8971 0.1368 0.9240
-16.4805 -11.2530 0.1382 0.9233
-12.8953 -9.6601 0.1116 0.9376
-12.1355 -9.3707 0.1062 0.9405
-11.5380 -9.4602 0.1033 0.9421
-11.3047 -9.8351 0.1038 0.9418
-11.0463 -9.8976 0.1027 0.9424
-8.5510 -7.8900 0.0806 0.9545
-8.2935 -8.1137 0.0804 0.9547
-7.5799 -8.0955 0.0768 0.9566
-7.3570 -8.0912 0.0757 0.9572
-6.7158 -8.0700 0.0727 0.9589
-5.5988 -8.0725 0.0680 0.9615
-5.4942 -8.1741 0.0682 0.9614
-5.4494 -8.3691 0.0692 0.9608
-6.2882 -11.0152 0.0878 0.9505
-1.5208 -2.7568 0.0218 0.9875
-1.4881 -2.7933 0.0219 0.9874
-5.3730 -11.6831 0.0891 0.9499
-20.2140 -47.5676 0.3580 0.8132
-17.2369 -46.0736 0.3407 0.8214
-17.1932 -48.0863 0.3537 0.8152
-17.0392 -55.1716 0.3999 0.7938
-3.4121 -13.0514 0.0934 0.9475
-16.3185 -88.3469 0.6222 0.6981
-16.1674 -95.3048 0.6695 0.6793
20.8374 -84.7458 0.6044 0.7053
25.4080 -82.2693 0.5963 0.7086
29.3843 -82.1829 0.6045 0.7053
33.4786 -82.0939 0.6140 0.7014
37.7126 -82.0019 0.6251 0.6969
39.1592 -81.9705 0.6292 0.6953
40.6249 -81.9387 0.6334 0.6936
46.7012 -81.8066 0.6524 0.6861
48.2794 -81.7723 0.6577 0.6840
51.5153 -81.7020 0.6690 0.6795
9.1551 -12.7966 0.1090 0.9390
1.8436 -2.3519 0.0207 0.9881
1.8616 -2.3047 0.0205 0.9882
2.0449 -2.1840 0.0207 0.9881
2.0721 -2.1492 0.0207 0.9881
2.0844 -2.0998 0.0205 0.9882
19.1596 -13.0823 0.1607 0.9114
15.7906 -9.4792 0.1276 0.9290
15.8175 -9.1837 0.1267 0.9294
15.7577 -8.2478 0.1232 0.9313
21.0948 -9.1469 0.1592 0.9121
21.0694 -8.0584 0.1562 0.9137
21.7876 -7.9702 0.1607 0.9114
22.7626 -7.9516 0.1670 0.9081
23.8410 -7.9395 0.1740 0.9044
9.7885 -3.1017 0.0711 0.9598
9.9333 -2.9885 0.0718 0.9594
10.2321 -2.7551 0.0734 0.9585
10.2250 -2.5936 0.0731 0.9587
10.3829 -2.4727 0.0739 0.9582
10.4042 -2.0005 0.0734 0.9585
14.4318 -2.5568 0.1015 0.9431
14.5040 -2.3516 0.1018 0.9429
14.5106 -2.1355 0.1016 0.9430
21.0799 -2.1638 0.1468 0.9187
24.6874 -2.1700 0.1716 0.9056
28.3468 -1.2434 0.1965 0.8927
29.8838 -0.8736 0.2071 0.8873
45.7506 -0.6686 0.3169 0.8327
94.8305 4.1597 0.6574 0.6841
41.7411 3.6689 0.2902 0.8457
34.7902 4.6017 0.2431 0.8690
26.5553 3.9081 0.1859 0.8982
26.3577 4.2734 0.1849 0.8987
23.1427 4.1000 0.1628 0.9103
18.8129 4.1907 0.1335 0.9258
18.8790 4.7884 0.1349 0.9250
18.9271 5.0961 0.1358 0.9246
19.0481 5.7306 0.1378 0.9235
19.1130 6.0561 0.1389 0.9229
11.8720 3.9536 0.0867 0.9512
11.4812 4.0107 0.0842 0.9525
11.1201 4.0678 0.0820 0.9537
10.7430 4.2898 0.0801 0.9548
10.7647 4.4819 0.0808 0.9544
10.7868 4.6772 0.0814 0.9541
10.8093 4.8758 0.0821 0.9537
10.8791 5.4932 0.0844 0.9524
10.9033 5.7069 0.0852 0.9520
10.9532 6.1472 0.0870 0.9510
10.9789 6.3743 0.0879 0.9505
11.0071 6.6077 0.0889 0.9499
11.0542 6.8576 0.0901 0.9493
15.0254 9.6280 0.1236 0.9311
15.1812 10.3659 0.1273 0.9291
14.0437 9.8931 0.1190 0.9336
15.0042 10.9011 0.1285 0.9285
14.7940 11.0823 0.1280 0.9287
2.4297 7.8670 0.0570 0.9676
2.1555 7.7787 0.0559 0.9682
2.0428 7.8136 0.0559 0.9682
-1.2716 5.1716 0.0369 0.9789
-2.6967 9.7315 0.0699 0.9604
-4.3502 9.1062 0.0699 0.9604
-8.1502 9.5073 0.0867 0.9511
-6.2211 5.7402 0.0586 0.9667
-6.2490 5.5991 0.0581 0.9670
-6.3139 5.1769 0.0565 0.9679
-6.3247 5.0329 0.0560 0.9682
-6.3352 4.8918 0.0554 0.9685
-6.3531 4.7591 0.0550 0.9687
-6.4166 4.3813 0.0538 0.9694
-6.4365 4.2583 0.0535 0.9696
-0.9718 0.6029 0.0079 0.9954
-0.8895 0.5339 0.0072 0.9959
-0.8887 0.4988 0.0071 0.9959
-0.8883 0.4816 0.0070 0.9960
-0.8859 0.4636 0.0069 0.9960
-0.8810 0.4448 0.0068 0.9961
-0.8717 0.4086 0.0067 0.9962
-0.8629 0.3741 0.0065 0.9962
-0.8580 0.3572 0.0064 0.9963
-0.8429 0.3083 0.0062 0.9964
-0.8287 0.2626 0.0060 0.9965
-0.8242 0.2479 0.0060 0.9966
-0.8219 0.2212 0.0059 0.9966
-0.8096 0.1556 0.0057 0.9967
-0.8061 0.1428 0.0057 0.9967
-0.8005 0.1178 0.0056 0.9968
-0.7951 0.0934 0.0055 0.9968
-0.7874 0.0576 0.0055 0.9968
-0.7823 0.0343 0.0054 0.9969
-0.7774 0.0114 0.0054 0.9969
-0.7381 -0.0000 -0.0031 0.9971
-0.7448 -0.0327 -0.0031 0.9970
-0.7470 -0.0437 -0.0031 0.9970
-0.7539 -0.0774 -0.0031 0.9970
-0.7562 -0.0888 -0.0032 0.9970
-0.7585 -0.1004 -0.0032 0.9969
-0.7608 -0.1120 -0.0032 0.9969
-0.7656 -0.1356 -0.0032 0.9969
-0.7680 -0.1477 -0.0033 0.9969
-0.7706 -0.1599 -0.0033 0.9969
-0.7737 -0.1724 -0.0033 0.9968
-0.7791 -0.1977 -0.0033 0.9968
-0.7805 -0.2225 -0.0034 0.9968
-0.7829 -0.2355 -0.0034 0.9967
-0.7868 -0.2494 -0.0034 0.9967
-0.7908 -0.2634 -0.0035 0.9967
-0.7948 -0.2777 -0.0035 0.9966
-0.8031 -0.3072 -0.0036 0.9966
-0.8075 -0.3225 -0.0036 0.9965
-0.8118 -0.3380 -0.0037 0.9965
-0.8163 -0.3540 -0.0037 0.9964
-0.8207 -0.3702 -0.0037 0.9964
-0.8244 -0.3865 -0.0038 0.9964
-0.8282 -0.4031 -0.0038 0.9963
-0.8321 -0.4202 -0.0039 0.9963
-0.8360 -0.4376 -0.0039 0.9962
-16.2174 -11.4244 -0.0824 0.9237
-12.6300 -9.4612 -0.0656 0.9388
-11.4301 -9.3718 -0.0614 0.9426
-11.5505 -9.7561 -0.0628 0.9413
-9.0411 -8.1009 -0.0504 0.9526
-8.7420 -8.0662 -0.0494 0.9535
-8.2296 -8.0512 -0.0478 0.9550
-7.5189 -8.0303 -0.0457 0.9570
-7.0790 -8.0177 -0.0444 0.9581
-6.2766 -8.0070 -0.0423 0.9601
-6.0906 -8.0079 -0.0418 0.9606
-5.9169 -8.0200 -0.0414 0.9609
-5.7516 -8.0392 -0.0411 0.9612
-5.5982 -8.0716 -0.0408 0.9615
-5.4416 -8.3571 -0.0414 0.9609
-5.4018 -8.8513 -0.0431 0.9594
-1.5208 -2.7567 -0.0131 0.9875
-5.6997 -11.0859 -0.0518 0.9514
-5.6072 -11.7375 -0.0541 0.9493
-17.1456 -50.2580 -0.2207 0.8086
-17.0389 -55.1705 -0.2400 0.7938
-16.7568 -68.1500 -0.2916 0.7552
-16.5644 -77.0067 -0.3273 0.7297
-16.4493 -82.3032 -0.3488 0.7148
-16.3180 -88.3441 -0.3733 0.6981
-16.1668 -95.3016 -0.4017 0.6793
20.8380 -84.7482 -0.3627 0.7053
21.5300 -82.3535 -0.3537 0.7114
24.1054 -82.2976 -0.3564 0.7096
25.4081 -82.2693 -0.3578 0.7086
29.3843 -82.1828 -0.3627 0.7053
32.0994 -82.1239 -0.3664 0.7028
36.2842 -82.0330 -0.3727 0.6985
37.7126 -82.0019 -0.3751 0.6970
39.1591 -81.9705 -0.3775 0.6953
40.6249 -81.9386 -0.3801 0.6936
43.6182 -81.8736 -0.3855 0.6900
48.2794 -81.7723 -0.3946 0.6840
51.5153 -81.7020 -0.4014 0.6795
9.1476 -12.7861 -0.0653 0.9391
1.8368 -2.3432 -0.0124 0.9882
1.8583 -2.3006 -0.0123 0.9882
1.8970 -2.2795 -0.0123 0.9882
1.9571 -2.2830 -0.0125 0.9880
1.9813 -2.2441 -0.0124 0.9881
2.0088 -2.2093 -0.0124 0.9881
2.0362 -2.1748 -0.0124 0.9882
2.0851 -2.0399 -0.0121 0.9884
19.1981 -13.1087 -0.0966 0.9112
15.1012 -9.3683 -0.0738 0.9314
15.0646 -9.0434 -0.0730 0.9321
15.4756 -8.1001 -0.0726 0.9325
16.0319 -8.0951 -0.0746 0.9307
17.2026 -8.0643 -0.0790 0.9268
21.4578 -7.8495 -0.0949 0.9127
22.3823 -7.8188 -0.0985 0.9095
23.4520 -7.8099 -0.1027 0.9059
9.8168 -3.1106 -0.0428 0.9596
10.1108 -2.8815 -0.0437 0.9588
10.4557 -2.1693 -0.0444 0.9582
10.5354 -2.0257 -0.0446 0.9580
14.7393 -2.1692 -0.0619 0.9421
17.8341 -2.3590 -0.0748 0.9306
21.1341 -2.1693 -0.0883 0.9185
28.3562 -1.6593 -0.1180 0.8926
72.9283 4.2674 -0.3036 0.7466
50.2514 3.6779 -0.2094 0.8175
41.2720 3.6277 -0.1722 0.8473
37.6572 3.8652 -0.1573 0.8595
34.5860 4.0615 -0.1447 0.8700
19.6431 3.7768 -0.0831 0.9231
18.6875 4.1627 -0.0796 0.9263
18.8839 5.6813 -0.0819 0.9242
11.4297 3.9927 -0.0503 0.9527
10.7332 4.1051 -0.0478 0.9551
10.7407 4.4719 -0.0483 0.9545
10.7847 4.8647 -0.0492 0.9538
10.8073 5.0662 -0.0496 0.9534
10.8538 5.4804 -0.0505 0.9525
10.8776 5.6934 -0.0510 0.9521
10.9268 6.1324 -0.0521 0.9511
10.9522 6.3588 -0.0526 0.9506
11.0328 7.0696 -0.0545 0.9489
15.0116 10.2500 -0.0755 0.9299
14.0290 9.8827 -0.0713 0.9337
14.8318 10.7759 -0.0762 0.9293
14.7260 11.0313 -0.0765 0.9290
2.2806 7.7862 -0.0337 0.9681
2.1555 7.7787 -0.0335 0.9682
2.0428 7.8136 -0.0336 0.9682
1.8607 8.0745 -0.0344 0.9674
-2.7055 9.7635 -0.0421 0.9603
-4.3499 9.1054 -0.0420 0.9604
-8.1154 9.4669 -0.0518 0.9513
-6.0769 6.3030 -0.0364 0.9656
-6.0808 6.1254 -0.0359 0.9661
-6.0963 5.9641 -0.0354 0.9665
-6.1425 5.6677 -0.0347 0.9671
-6.1977 5.3920 -0.0341 0.9677
-6.2280 5.1064 -0.0335 0.9683
-6.2490 4.9727 -0.0332 0.9686
-6.2698 4.8414 -0.0329 0.9688
-6.2918 4.7132 -0.0327 0.9690
-6.3141 4.5875 -0.0324 0.9693
-6.3361 4.4634 -0.0322 0.9695
-6.3744 4.2172 -0.0318 0.9699
-0.8485 0.4927 -0.0041 0.9961
-0.8443 0.4738 -0.0040 0.9961
-0.8401 0.4555 -0.0040 0.9962
-0.8360 0.4375 -0.0039 0.9962
-0.8282 0.4031 -0.0038 0.9963
-0.8244 0.3864 -0.0038 0.9964
-0.8207 0.3702 -0.0037 0.9964
-0.8118 0.3380 -0.0037 0.9965
-0.8074 0.3224 -0.0036 0.9965
-0.7868 0.2493 -0.0034 0.9967
-0.7798 0.2099 -0.0034 0.9968
-0.7769 0.1850 -0.0033 0.9968
-0.7706 0.1598 -0.0033 0.9969
-0.7680 0.1477 -0.0033 0.9969
-0.7516 0.0660 -0.0031 0.9970
-0.7426 0.0216 -0.0031 0.9970
-0.7046 0.0000 -0.0107 0.9972
-0.7066 -0.0104 -0.0108 0.9972
-0.7087 -0.0207 -0.0108 0.9972
-0.7107 -0.0312 -0.0108 0.9972
-0.7147 -0.0523 -0.0109 0.9971
-0.7188 -0.0738 -0.0110 0.9971
-0.7291 -0.1292 -0.0113 0.9970
-0.7312 -0.1406 -0.0113 0.9970
-0.7354 -0.1638 -0.0115 0.9970
-0.7456 -0.2244 -0.0119 0.9969
-0.7524 -0.2506 -0.0121 0.9968
-0.7594 -0.2778 -0.0123 0.9968
-0.7704 -0.3207 -0.0127 0.9967
-0.7851 -0.3821 -0.0133 0.9965
-0.7883 -0.3980 -0.0135 0.9965
-0.7915 -0.4143 -0.0136 0.9964
-0.7948 -0.4309 -0.0138 0.9964
-0.8052 -0.4834 -0.0143 0.9962
-0.8088 -0.5018 -0.0145 0.9962
-0.8107 -0.5195 -0.0147 0.9962
-0.8104 -0.5362 -0.0148 0.9961
-0.8551 -0.5839 -0.0158 0.9959
-13.4202 -9.4539 -0.2501 0.9364
-12.8862 -9.3624 -0.2427 0.9383
-11.3898 -9.6204 -0.2272 0.9421
-9.2491 -8.0468 -0.1868 0.9521
-8.9231 -7.9952 -0.1826 0.9532
-8.6695 -7.9993 -0.1798 0.9539
-8.3993 -7.9804 -0.1765 0.9547
-7.9126 -7.9706 -0.1711 0.9561
-7.4524 -7.9593 -0.1661 0.9573
-7.0249 -7.9565 -0.1617 0.9584
-6.8221 -7.9582 -0.1597 0.9589
-6.6243 -7.9599 -0.1578 0.9594
-6.4339 -7.9651 -0.1560 0.9599
-6.2491 -7.9718 -0.1544 0.9603
-6.0651 -7.9744 -0.1527 0.9607
-5.8999 -7.9971 -0.1514 0.9610
-5.7398 -8.0229 -0.1503 0.9613
-5.4813 -8.1549 -0.1497 0.9615
-5.4028 -8.5687 -0.1544 0.9603
-5.3823 -8.8192 -0.1574 0.9595
-5.3927 -9.1338 -0.1616 0.9585
-6.3462 -11.1166 -0.1951 0.9501
-1.5208 -2.7568 -0.0480 0.9875
-5.5915 -11.2778 -0.1918 0.9509
-5.3432 -11.6181 -0.1949 0.9501
-5.3215 -12.0309 -0.2005 0.9487
-18.6499 -45.7319 -0.7526 0.8207
-17.2363 -46.0720 -0.7496 0.8214
-17.1925 -48.0845 -0.7781 0.8152
-4.0308 -13.0514 -0.2081 0.9468
-3.8507 -13.1467 -0.2087 0.9467
-3.6711 -13.2480 -0.2095 0.9465
-15.4722 -62.9255 -0.9874 0.7716
-14.5433 -63.1110 -0.9869 0.7718
-13.6121 -63.2818 -0.9864 0.7719
-12.6790 -63.4389 -0.9858 0.7720
-11.7445 -63.5833 -0.9853 0.7721
-10.8081 -63.7125 -0.9847 0.7722
-0.4693 -64.2281 -0.9787 0.7734
2.3419 -64.0796 -0.9771 0.7737
4.2087 -63.9134 -0.9760 0.7740
6.0677 -63.6926 -0.9750 0.7742
6.9938 -63.5620 -0.9744 0.7743
7.9175 -63.4184 -0.9739 0.7744
8.8383 -63.2610 -0.9733 0.7745
9.7564 -63.0907 -0.9728 0.7746
11.5832 -62.7104 -0.9718 0.7748
12.4916 -62.5009 -0.9712 0.7749
14.2970 -62.0418 -0.9702 0.7751
17.8586 -60.9707 -0.9681 0.7756
18.7379 -60.6718 -0.9676 0.7757
22.2038 -59.3501 -0.9656 0.7761
24.7457 -58.2315 -0.9641 0.7764
26.4100 -57.4255 -0.9632 0.7766
28.8587 -56.1306 -0.9617 0.7769
29.6611 -55.6754 -0.9613 0.7770
31.2455 -54.7328 -0.9604 0.7771
32.0269 -54.2450 -0.9599 0.7772
32.8008 -53.7461 -0.9595 0.7773
33.5671 -53.2366 -0.9590 0.7774
34.3253 -52.7158 -0.9586 0.7775
35.0763 -52.1854 -0.9581 0.7776
35.8187 -51.6436 -0.9577 0.7777
37.2795 -50.5304 -0.9569 0.7779
37.9973 -49.9586 -0.9564 0.7779
1.8395 -2.3466 -0.0454 0.9881
1.8602 -2.3029 -0.0451 0.9882
1.9528 -2.2780 -0.0457 0.9881
1.9773 -2.2395 -0.0455 0.9881
2.0598 -2.1365 -0.0452 0.9882
2.0885 -2.1039 -0.0452 0.9882
47.6701 -40.2645 -0.9508 0.7791
48.7929 -38.8278 -0.9502 0.7792
49.3381 -38.0977 -0.9499 0.7793
49.8732 -37.3605 -0.9496 0.7794
50.3978 -36.6161 -0.9493 0.7794
50.9115 -35.8647 -0.9490 0.7795
52.3870 -33.5689 -0.9481 0.7797
14.8886 -9.2363 -0.2670 0.9323
14.8681 -8.6325 -0.2620 0.9335
15.3689 -8.0443 -0.2643 0.9330
5.6059 -2.7286 -0.0950 0.9754
17.1814 -8.0543 -0.2892 0.9269
17.7687 -8.0151 -0.2970 0.9250
18.4144 -7.9847 -0.3058 0.9228
19.9683 -8.3139 -0.3296 0.9171
20.4122 -7.8070 -0.3330 0.9163
21.2505 -7.7737 -0.3448 0.9135
23.3507 -7.7762 -0.3750 0.9062
9.8452 -3.1196 -0.1574 0.9595
10.2705 -2.7654 -0.1621 0.9583
10.3055 -2.6140 -0.1620 0.9584
10.0732 -2.3990 -0.1578 0.9594
10.5080 -2.3408 -0.1640 0.9578
10.5833 -2.0350 -0.1642 0.9578
14.5379 -2.3571 -0.2244 0.9428
17.9076 -2.3687 -0.2753 0.9303
20.9629 -2.4617 -0.3216 0.9190
27.7341 -2.0299 -0.4237 0.8947
28.0314 -1.2296 -0.4276 0.8938
62.8228 -0.0001 -0.9573 0.7778
62.7969 1.8357 -0.9573 0.7778
62.7193 3.6700 -0.9574 0.7778
41.0938 3.6120 -0.6286 0.8479
26.7966 3.9436 -0.4127 0.8973
23.5933 3.8252 -0.3642 0.9088
18.6011 4.1435 -0.2904 0.9266
18.6096 4.4318 -0.2915 0.9263
18.7447 5.3420 -0.2970 0.9250
18.7909 5.6532 -0.2990 0.9245
11.3818 3.9760 -0.1837 0.9529
10.6954 4.2708 -0.1755 0.9550
10.7167 4.4619 -0.1769 0.9546
10.7826 5.0546 -0.1815 0.9535
10.8761 5.8966 -0.1885 0.9517
10.9256 6.3434 -0.1925 0.9507
10.9512 6.5741 -0.1946 0.9502
10.9177 6.9959 -0.1976 0.9494
15.2237 10.3948 -0.2809 0.9289
15.1305 11.3344 -0.2881 0.9272
14.9921 11.5765 -0.2886 0.9270
48.7929 38.8278 -0.9502 0.7792
47.0931 40.9709 -0.9512 0.7790
45.9090 42.3601 -0.9519 0.7789
44.6847 43.7158 -0.9526 0.7787
44.0579 44.3809 -0.9529 0.7787
43.4216 45.0374 -0.9533 0.7786
42.7758 45.6852 -0.9537 0.7785
9.0491 9.9521 -0.2050 0.9476
7.3886 9.1468 -0.1792 0.9541
37.2796 50.5303 -0.9569 0.7779
34.3254 52.7157 -0.9586 0.7775
33.5671 53.2365 -0.9590 0.7774
32.8007 53.7460 -0.9595 0.7773
30.4570 55.2097 -0.9608 0.7771
29.6612 55.6753 -0.9613 0.7770
28.0491 56.5734 -0.9622 0.7768
25.5809 57.8341 -0.9636 0.7765
21.3453 59.6989 -0.9661 0.7760
19.6086 60.3489 -0.9669 0.7758
2.2806 7.7862 -0.1236 0.9681
2.1555 7.7787 -0.1230 0.9682
1.8608 8.0747 -0.1263 0.9674
13.3968 62.2805 -0.9707 0.7750
8.8401 63.2729 -0.9735 0.7745
7.9192 63.4321 -0.9741 0.7744
6.0694 63.7100 -0.9752 0.7741
5.1408 63.8289 -0.9758 0.7740
4.2101 63.9344 -0.9763 0.7739
2.3428 64.1041 -0.9775 0.7737
-1.4091 64.2809 -0.9798 0.7732
-2.3496 64.2913 -0.9803 0.7731
-3.2906 64.2869 -0.9809 0.7730
-4.2321 64.2693 -0.9815 0.7729
-6.1152 64.1923 -0.9826 0.7726
-7.9976 64.0607 -0.9837 0.7724
-8.9380 63.9742 -0.9843 0.7723
-9.8774 63.8734 -0.9849 0.7722
-11.7532 63.6308 -0.9860 0.7719
-12.6887 63.4877 -0.9866 0.7718
-14.5552 63.1621 -0.9877 0.7716
-18.2609 62.3443 -0.9899 0.7711
-20.0970 61.8524 -0.9910 0.7709
-22.8258 61.0125 -0.9927 0.7706
-23.7276 60.7053 -0.9932 0.7705
-24.6253 60.3847 -0.9937 0.7704
-25.5186 60.0504 -0.9943 0.7703
-4.3495 9.1047 -0.1538 0.9604
-30.7755 57.7672 -0.9974 0.7696
-32.4832 56.9009 -0.9984 0.7694
-33.3278 56.4482 -0.9989 0.7693
-34.1660 55.9831 -0.9994 0.7692
-37.4508 53.9968 -1.0013 0.7688
-38.2535 53.4687 -1.0018 0.7687
-39.0488 52.9286 -1.0023 0.7686
-40.6164 51.8130 -1.0032 0.7685
-42.1507 50.6493 -1.0041 0.7683
-8.0935 9.4412 -0.1895 0.9515
-6.0746 6.8801 -0.1399 0.9639
-5.9855 6.2083 -0.1314 0.9661
-6.0095 6.0536 -0.1300 0.9665
-6.0590 5.7567 -0.1274 0.9671
-6.0830 5.6127 -0.1261 0.9674
-6.1065 5.4714 -0.1249 0.9677
-6.1700 5.0589 -0.1216 0.9686
-6.1899 4.9257 -0.1205 0.9688
-6.2316 4.6681 -0.1186 0.9693
-6.2542 4.5439 -0.1178 0.9695
-6.2764 4.4214 -0.1170 0.9698
-0.8104 0.5361 -0.0148 0.9961
-0.8052 0.4834 -0.0143 0.9963
-0.8016 0.4654 -0.0141 0.9963
-0.7982 0.4479 -0.0139 0.9963
-0.7819 0.3665 -0.0132 0.9966
-0.7741 0.3356 -0.0129 0.9966
-0.7594 0.2777 -0.0123 0.9968
-0.7559 0.2640 -0.0122 0.9968
-0.7524 0.2505 -0.0121 0.9968
-0.7490 0.2373 -0.0120 0.9969
-0.7456 0.2243 -0.0119 0.9969
-0.7419 0.1997 -0.0117 0.9969
-0.7377 0.1756 -0.0116 0.9970
-0.7291 0.1291 -0.0113 0.9970
-0.7208 0.0846 -0.0111 0.9971
-0.7188 0.0737 -0.0110 0.9971
-0.7147 0.0523 -0.0109 0.9971
-0.7127 0.0416 -0.0109 0.9971
-0.7107 0.0312 -0.0108 0.9972
-0.7087 0.0207 -0.0108 0.9972
-0.7067 0.0103 -0.0108 0.9972
-0.6742 -0.0000 -0.0177 0.9973
-0.6775 -0.0198 -0.0178 0.9973
-0.6794 -0.0298 -0.0179 0.9973
-0.6812 -0.0399 -0.0180 0.9973
-0.6831 -0.0500 -0.0180 0.9973
-0.6849 -0.0602 -0.0181 0.9973
-0.6867 -0.0705 -0.0182 0.9972
-0.6904 -0.0913 -0.0183 0.9972
-0.6941 -0.1126 -0.0185 0.9972
-0.6977 -0.1342 -0.0187 0.9972
-0.7032 -0.1675 -0.0190 0.9971
-0.7088 -0.2020 -0.0194 0.9971
-0.7116 -0.2141 -0.0196 0.9970
-0.7297 -0.2914 -0.0207 0.9969
-0.7361 -0.3192 -0.0211 0.9968
-0.7426 -0.3482 -0.0216 0.9967
-0.7488 -0.3781 -0.0221 0.9966
-0.7515 -0.3934 -0.0223 0.9966
-0.7542 -0.4089 -0.0226 0.9966
-0.7569 -0.4248 -0.0228 0.9965
-12.7392 -9.5430 -0.4190 0.9383
-11.7336 -9.3372 -0.3947 0.9418
-11.4416 -9.3811 -0.3895 0.9425
-9.1358 -7.9482 -0.3188 0.9527
-8.6091 -7.9436 -0.3084 0.9542
-8.3568 -7.9400 -0.3035 0.9549
-7.8857 -7.9435 -0.2946 0.9562
-7.6576 -7.9425 -0.2904 0.9568
-7.2243 -7.9453 -0.2827 0.9579
-6.8119 -7.9462 -0.2755 0.9590
-6.0466 -7.9500 -0.2629 0.9608
-5.7273 -8.0054 -0.2591 0.9614
-5.4262 -8.3335 -0.2618 0.9610
-5.3640 -8.7893 -0.2711 0.9596
-6.4520 -11.3021 -0.3426 0.9493
-1.5208 -2.7568 -0.0829 0.9875
-5.7216 -11.1286 -0.3294 0.9512
-14.1534 -34.7061 -0.9867 0.8607
-4.9764 -12.7317 -0.3598 0.9468
-12.6075 -35.2610 -0.9858 0.8608
-12.0872 -35.4306 -0.9855 0.8609
-3.8538 -13.1571 -0.3609 0.9466
-3.6741 -13.2586 -0.3622 0.9464
-3.3937 -12.9813 -0.3532 0.9477
-8.3881 -36.4002 -0.9833 0.8612
-7.3163 -36.6066 -0.9827 0.8612
-6.7785 -36.6979 -0.9824 0.8613
-6.2395 -36.7813 -0.9821 0.8613
-5.6996 -36.8569 -0.9818 0.8614
-5.1588 -36.9245 -0.9815 0.8614
-4.6172 -36.9840 -0.9811 0.8615
-4.0750 -37.0355 -0.9808 0.8615
-3.5324 -37.0794 -0.9805 0.8615
-2.9893 -37.1153 -0.9802 0.8616
-0.8150 -37.1786 -0.9789 0.8617
-0.2716 -37.1746 -0.9786 0.8618
0.8142 -37.1427 -0.9780 0.8619
1.3564 -37.1148 -0.9777 0.8619
5.1275 -36.7003 -0.9755 0.8622
7.2534 -36.2920 -0.9743 0.8624
8.8286 -35.9058 -0.9734 0.8625
9.3494 -35.7618 -0.9730 0.8625
10.3839 -35.4515 -0.9725 0.8626
10.8975 -35.2852 -0.9722 0.8626
11.4084 -35.1115 -0.9719 0.8627
11.9166 -34.9305 -0.9716 0.8627
12.4220 -34.7422 -0.9713 0.8627
12.9244 -34.5466 -0.9710 0.8628
13.4238 -34.3439 -0.9707 0.8628
14.9027 -33.6928 -0.9698 0.8629
15.3890 -33.4617 -0.9695 0.8630
16.3507 -32.9787 -0.9690 0.8630
17.2976 -32.4686 -0.9684 0.8631
17.7653 -32.2034 -0.9682 0.8632
18.6882 -31.6530 -0.9676 0.8632
20.0412 -30.7786 -0.9669 0.8633
20.4832 -30.4744 -0.9666 0.8634
20.9209 -30.1640 -0.9663 0.8634
9.1867 -12.8406 -0.4156 0.9388
21.7822 -29.5246 -0.9658 0.8635
22.2055 -29.1956 -0.9656 0.8635
1.8357 -2.3418 -0.0783 0.9882
1.9171 -2.3037 -0.0789 0.9881
1.9532 -2.2784 -0.0790 0.9881
2.0330 -2.1713 -0.0783 0.9882
2.0605 -2.1373 -0.0782 0.9882
2.0893 -2.1046 -0.0781 0.9882
2.1126 -2.0668 -0.0778 0.9882
2.1367 -2.0302 -0.0776 0.9883
27.2363 -24.4038 -0.9627 0.8639
27.9261 -23.5878 -0.9623 0.8639
28.2621 -23.1725 -0.9621 0.8640
29.5445 -21.4654 -0.9613 0.8640
30.4404 -20.1392 -0.9608 0.8641
14.8034 -9.1835 -0.4586 0.9327
14.7866 -8.8765 -0.4540 0.9333
14.8277 -8.3217 -0.4476 0.9342
14.9503 -8.1056 -0.4477 0.9342
15.3306 -8.0242 -0.4555 0.9331
5.6060 -2.7286 -0.1641 0.9754
17.1757 -8.0517 -0.4994 0.9269
19.9843 -8.3206 -0.5699 0.9170
21.2516 -7.7741 -0.5957 0.9134
22.2277 -7.7648 -0.6198 0.9101
10.0207 -3.0148 -0.2755 0.9590
10.3241 -2.7799 -0.2815 0.9581
10.1660 -2.4211 -0.2751 0.9590
10.6317 -2.0443 -0.2850 0.9576
14.4465 -2.3423 -0.3853 0.9431
17.7796 -2.3518 -0.4721 0.9308
27.7619 -2.4402 -0.7336 0.8945
28.3545 -2.0754 -0.7484 0.8925
28.0309 -1.6403 -0.7392 0.8937
27.9656 -1.2267 -0.7369 0.8940
36.9199 -1.0793 -0.9723 0.8626
36.9316 -0.5397 -0.9723 0.8626
36.9315 0.5396 -0.9723 0.8626
36.9005 1.6186 -0.9723 0.8626
36.7964 3.2343 -0.9724 0.8626
36.7465 3.7717 -0.9724 0.8626
36.6886 4.3084 -0.9724 0.8626
27.8805 4.1031 -0.7418 0.8934
23.6046 3.8270 -0.6295 0.9088
19.2876 3.7084 -0.5170 0.9244
18.4191 4.1030 -0.4968 0.9273
18.6475 4.7297 -0.5064 0.9259
18.6925 5.0329 -0.5096 0.9255
18.7380 5.3400 -0.5129 0.9250
12.1108 3.8375 -0.3344 0.9504
11.7107 3.8998 -0.3249 0.9518
10.9780 4.0159 -0.3077 0.9543
10.6539 4.0748 -0.3003 0.9554
10.5846 4.4070 -0.3018 0.9552
10.8033 5.4549 -0.3186 0.9527
10.8553 5.8854 -0.3251 0.9518
10.8885 6.1109 -0.3287 0.9513
10.9223 6.3415 -0.3325 0.9507
