ply
format ascii 1.0
element vertex 1595
property float32 x
property float32 y
property float32 z
property float32 I
end_header
4.0575 1.4843 -0.9924 0.9824
4.0124 1.6022 -0.9924 0.9824
3.9639 1.7188 -0.9924 0.9824
3.8849 1.8909 -0.9925 0.9824
3.8281 2.0037 -0.9925 0.9824
3.7985 2.0594 -0.9925 0.9824
3.7680 2.1148 -0.9925 0.9824
3.5687 2.4368 -0.9926 0.9824
3.4961 2.5401 -0.9926 0.9824
3.4586 2.5909 -0.9926 0.9824
3.3816 2.6910 -0.9927 0.9824
3.3016 2.7887 -0.9927 0.9824
3.2605 2.8367 -0.9927 0.9824
3.2188 2.8841 -0.9927 0.9824
3.0895 3.0225 -0.9928 0.9824
3.0451 3.0675 -0.9928 0.9824
3.0000 3.1116 -0.9928 0.9824
2.9543 3.1552 -0.9928 0.9824
2.8609 3.2403 -0.9929 0.9824
2.7651 3.3226 -0.9929 0.9824
2.7163 3.3627 -0.9929 0.9824
2.6669 3.4021 -0.9930 0.9824
2.6170 3.4409 -0.9930 0.9824
2.5665 3.4787 -0.9930 0.9824
2.3060 3.6572 -0.9931 0.9824
2.2523 3.6907 -0.9931 0.9824
2.1982 3.7232 -0.9932 0.9824
2.0886 3.7860 -0.9932 0.9824
1.8069 3.9288 -0.9933 0.9824
1.7493 3.9549 -0.9933 0.9824
1.6331 4.0045 -0.9934 0.9824
1.5744 4.0280 -0.9934 0.9824
1.5154 4.0507 -0.9934 0.9824
1.3965 4.0935 -0.9935 0.9824
1.2159 4.1511 -0.9936 0.9824
0.8479 4.2422 -0.9937 0.9824
0.7858 4.2542 -0.9937 0.9824
0.7236 4.2654 -0.9938 0.9824
0.4732 4.3008 -0.9939 0.9824
0.3473 4.3130 -0.9939 0.9824
0.2212 4.3215 -0.9940 0.9824
0.1580 4.3244 -0.9940 0.9824
0.0316 4.3274 -0.9940 0.9824
-0.0316 4.3275 -0.9941 0.9824
-0.2212 4.3223 -0.9941 0.9824
-0.2844 4.3187 -0.9942 0.9824
-0.4105 4.3087 -0.9942 0.9824
-0.4734 4.3024 -0.9942 0.9824
-0.5362 4.2952 -0.9943 0.9824
-0.5990 4.2870 -0.9943 0.9824
-0.7863 4.2570 -0.9944 0.9824
-1.0951 4.1887 -0.9945 0.9824
-1.2777 4.1370 -0.9946 0.9824
-1.4579 4.0773 -0.9946 0.9824
-1.5764 4.0332 -0.9947 0.9824
-1.8095 3.9346 -0.9948 0.9824
-0.3673 0.7145 -0.1845 0.9967
-0.3492 0.6555 -0.1706 0.9970
-0.3225 0.5649 -0.1494 0.9973
-0.3330 0.5115 -0.1402 0.9975
-0.3354 0.4990 -0.1381 0.9975
-0.3375 0.4867 -0.1361 0.9976
-0.3397 0.4748 -0.1341 0.9976
-0.3417 0.4631 -0.1322 0.9976
-0.3454 0.4405 -0.1286 0.9977
-0.3471 0.4297 -0.1269 0.9977
-0.3489 0.4192 -0.1253 0.9978
-0.3512 0.4096 -0.1239 0.9978
-0.3648 0.3466 -0.1156 0.9979
-0.3660 0.3377 -0.1144 0.9980
-0.3672 0.3290 -0.1132 0.9980
-0.3683 0.3204 -0.1121 0.9980
-0.3693 0.3120 -0.1110 0.9980
-0.3721 0.2874 -0.1080 0.9981
-0.3738 0.2716 -0.1061 0.9981
-0.3745 0.2638 -0.1052 0.9981
-0.3752 0.2562 -0.1044 0.9981
-0.3759 0.2487 -0.1035 0.9982
-0.3770 0.2339 -0.1019 0.9982
-0.3775 0.2266 -0.1011 0.9982
-0.3780 0.2195 -0.1004 0.9982
-0.3788 0.2054 -0.0990 0.9982
-0.3792 0.1985 -0.0983 0.9982
-0.3815 0.1721 -0.0961 0.9983
-0.3821 0.1657 -0.0957 0.9983
-0.3833 0.1466 -0.0943 0.9983
-0.3843 0.1280 -0.0930 0.9983
-0.3846 0.1219 -0.0927 0.9983
-0.3848 0.1158 -0.0923 0.9984
-0.3850 0.1098 -0.0920 0.9984
-0.3853 0.0977 -0.0913 0.9984
-0.3854 0.0918 -0.0910 0.9984
-0.3855 0.0859 -0.0907 0.9984
-0.3855 0.0800 -0.0904 0.9984
-0.3855 0.0742 -0.0902 0.9984
-0.3855 0.0683 -0.0899 0.9984
-0.3852 0.0452 -0.0891 0.9984
-0.3846 0.0282 -0.0886 0.9984
-0.3841 0.0169 -0.0883 0.9984
-0.3839 0.0112 -0.0882 0.9984
-0.3835 0.0056 -0.0881 0.9984
-0.3769 -0.0055 -0.0910 0.9985
-0.3772 -0.0110 -0.0911 0.9984
-0.3775 -0.0165 -0.0912 0.9984
-0.3777 -0.0220 -0.0913 0.9984
-0.3779 -0.0276 -0.0915 0.9984
-0.3785 -0.0500 -0.0922 0.9984
-0.3786 -0.0557 -0.0924 0.9984
-0.3787 -0.0671 -0.0928 0.9984
-0.3787 -0.0785 -0.0934 0.9984
-0.3786 -0.0843 -0.0936 0.9984
-0.3784 -0.0959 -0.0942 0.9984
-0.3776 -0.1196 -0.0956 0.9984
-0.3773 -0.1256 -0.0960 0.9984
-0.3758 -0.1500 -0.0977 0.9983
-0.3754 -0.1562 -0.0982 0.9983
-0.3749 -0.1625 -0.0986 0.9983
-0.3738 -0.1752 -0.0997 0.9983
-0.3731 -0.1816 -0.1002 0.9983
-0.3722 -0.1879 -0.1007 0.9983
-0.3707 -0.2080 -0.1026 0.9983
-0.3697 -0.2219 -0.1041 0.9982
-0.3686 -0.2361 -0.1057 0.9982
-0.3664 -0.2581 -0.1082 0.9982
-0.3648 -0.2732 -0.1100 0.9981
-0.3639 -0.2810 -0.1110 0.9981
-0.3630 -0.2888 -0.1120 0.9981
-0.3610 -0.3048 -0.1140 0.9981
-0.3598 -0.3130 -0.1151 0.9980
-0.3587 -0.3213 -0.1163 0.9980
-0.3575 -0.3298 -0.1174 0.9980
-0.3562 -0.3384 -0.1186 0.9980
-0.3548 -0.3471 -0.1198 0.9980
-0.3446 -0.3904 -0.1257 0.9979
-0.3424 -0.3995 -0.1270 0.9978
-0.3401 -0.4087 -0.1284 0.9978
-0.3377 -0.4180 -0.1297 0.9978
-0.3312 -0.4489 -0.1347 0.9977
-0.3291 -0.4600 -0.1365 0.9977
-0.3222 -0.4949 -0.1426 0.9976
-0.3114 -0.5454 -0.1516 0.9974
-0.3083 -0.5589 -0.1541 0.9974
-0.3106 -0.5829 -0.1594 0.9973
-0.3561 -0.7453 -0.1994 0.9966
-1.7218 -3.7438 -0.9947 0.9832
-1.6669 -3.7685 -0.9947 0.9832
-1.5560 -3.8154 -0.9947 0.9832
-1.4438 -3.8590 -0.9946 0.9832
-1.3303 -3.8994 -0.9946 0.9832
-1.2732 -3.9183 -0.9946 0.9832
-1.2157 -3.9364 -0.9945 0.9832
-1.1580 -3.9537 -0.9945 0.9832
-0.9836 -4.0003 -0.9944 0.9832
-0.8663 -4.0272 -0.9944 0.9832
-0.8073 -4.0393 -0.9944 0.9832
-0.7482 -4.0506 -0.9943 0.9832
-0.6889 -4.0610 -0.9943 0.9832
-0.5103 -4.0870 -0.9943 0.9832
-0.4504 -4.0939 -0.9942 0.9832
-0.3906 -4.1000 -0.9942 0.9832
-0.2706 -4.1094 -0.9942 0.9832
-0.1504 -4.1154 -0.9941 0.9832
-0.0903 -4.1170 -0.9941 0.9832
-0.0301 -4.1178 -0.9941 0.9832
0.0902 -4.1167 -0.9940 0.9832
0.4503 -4.0924 -0.9939 0.9832
0.6885 -4.0587 -0.9938 0.9832
0.7477 -4.0481 -0.9937 0.9832
0.8068 -4.0366 -0.9937 0.9832
0.9243 -4.0112 -0.9937 0.9832
0.9828 -3.9971 -0.9936 0.9832
1.0411 -3.9823 -0.9936 0.9832
1.0991 -3.9666 -0.9936 0.9832
1.1570 -3.9500 -0.9936 0.9832
1.2718 -3.9143 -0.9935 0.9832
1.4981 -3.8330 -0.9934 0.9832
1.5540 -3.8105 -0.9934 0.9832
1.7738 -3.7130 -0.9933 0.9832
1.8278 -3.6866 -0.9933 0.9832
1.8526 -3.6032 -0.9781 0.9835
1.9050 -3.5757 -0.9780 0.9835
1.9570 -3.5474 -0.9780 0.9835
2.0597 -3.4886 -0.9780 0.9835
2.1083 -3.4545 -0.9770 0.9835
2.1585 -3.4233 -0.9769 0.9835
2.2082 -3.3913 -0.9769 0.9835
2.3546 -3.2911 -0.9769 0.9835
2.4024 -3.2562 -0.9768 0.9835
2.5426 -3.1477 -0.9768 0.9835
2.5883 -3.1101 -0.9768 0.9835
2.0596 -2.4026 -0.7639 0.9871
2.5868 -2.6830 -0.8997 0.9848
2.1669 -2.1828 -0.7425 0.9874
2.1799 -2.1326 -0.7362 0.9875
2.8107 -2.5934 -0.9232 0.9844
3.1282 -2.5649 -0.9765 0.9835
3.1654 -2.5189 -0.9765 0.9835
3.2018 -2.4723 -0.9765 0.9835
3.2375 -2.4252 -0.9765 0.9835
3.3069 -2.3295 -0.9765 0.9835
3.4679 -2.0818 -0.9764 0.9835
3.5593 -1.9297 -0.9774 0.9835
3.5871 -1.8775 -0.9774 0.9835
3.6678 -1.7852 -0.9847 0.9834
3.7479 -1.6906 -0.9925 0.9832
3.7722 -1.6356 -0.9925 0.9832
3.8402 -1.4687 -0.9925 0.9832
3.9370 -1.1844 -0.9925 0.9832
3.9698 -1.0689 -0.9924 0.9832
3.9850 -1.0107 -0.9924 0.9832
4.0254 -0.8351 -0.9924 0.9832
4.0371 -0.7763 -0.9924 0.9832
4.0480 -0.7172 -0.9924 0.9832
4.0829 -0.4795 -0.9924 0.9832
4.0895 -0.4197 -0.9924 0.9832
4.1040 -0.2401 -0.9924 0.9832
4.1070 -0.1802 -0.9924 0.9832
4.1105 -0.0600 -0.9924 0.9832
4.1110 0.0000 -0.9924 0.9832
4.1106 0.0601 -0.9924 0.9832
4.1092 0.1201 -0.9924 0.9832
4.1071 0.1802 -0.9924 0.9832
4.1039 0.2402 -0.9924 0.9832
4.0952 0.3600 -0.9924 0.9832
4.0480 0.7172 -0.9924 0.9832
3.9698 1.0689 -0.9924 0.9832
3.9538 1.1268 -0.9924 0.9832
3.9192 1.2419 -0.9925 0.9832
3.9007 1.2990 -0.9925 0.9832
3.8813 1.3559 -0.9925 0.9832
3.8612 1.4125 -0.9925 0.9832
3.8401 1.4688 -0.9925 0.9832
3.8183 1.5247 -0.9925 0.9832
3.7956 1.5804 -0.9925 0.9832
3.7722 1.6356 -0.9925 0.9832
3.7479 1.6906 -0.9925 0.9832
3.7229 1.7452 -0.9925 0.9832
3.6970 1.7995 -0.9925 0.9832
3.6429 1.9068 -0.9926 0.9832
3.5857 2.0124 -0.9926 0.9832
3.5560 2.0646 -0.9926 0.9832
3.1802 2.6076 -0.9928 0.9832
3.1028 2.6995 -0.9928 0.9832
3.0630 2.7445 -0.9928 0.9832
3.0227 2.7891 -0.9928 0.9832
2.9400 2.8763 -0.9929 0.9832
2.7672 3.0434 -0.9929 0.9832
2.6771 3.1230 -0.9930 0.9832
2.6313 3.1618 -0.9930 0.9832
2.5848 3.2000 -0.9930 0.9832
2.5378 3.2375 -0.9930 0.9832
2.4904 3.2743 -0.9930 0.9832
2.4423 3.3104 -0.9931 0.9832
2.3937 3.3457 -0.9931 0.9832
2.3446 3.3805 -0.9931 0.9832
2.2950 3.4145 -0.9931 0.9832
2.2449 3.4477 -0.9931 0.9832
2.1433 3.5120 -0.9932 0.9832
2.0918 3.5429 -0.9932 0.9832
1.9874 3.6027 -0.9932 0.9832
1.8278 3.6866 -0.9933 0.9832
1.7737 3.7130 -0.9933 0.9832
1.7194 3.7386 -0.9933 0.9832
1.6095 3.7874 -0.9934 0.9832
1.4420 3.8546 -0.9935 0.9832
1.3856 3.8753 -0.9935 0.9832
1.2718 3.9143 -0.9935 0.9832
1.1570 3.9500 -0.9936 0.9832
0.7477 4.0482 -0.9937 0.9832
0.6885 4.0587 -0.9938 0.9832
0.6292 4.0685 -0.9938 0.9832
0.5696 4.0773 -0.9938 0.9832
0.5100 4.0853 -0.9938 0.9832
0.3904 4.0987 -0.9939 0.9832
0.3305 4.1041 -0.9939 0.9832
0.2705 4.1085 -0.9939 0.9832
0.1504 4.1149 -0.9940 0.9832
0.0903 4.1168 -0.9940 0.9832
-0.0301 4.1178 -0.9941 0.9832
-0.1504 4.1154 -0.9941 0.9832
-0.2105 4.1129 -0.9941 0.9832
-0.2706 4.1094 -0.9942 0.9832
-0.3306 4.1052 -0.9942 0.9832
-0.3905 4.1000 -0.9942 0.9832
-0.4504 4.0939 -0.9942 0.9832
-0.5103 4.0870 -0.9943 0.9832
-0.6889 4.0610 -0.9943 0.9832
-0.8073 4.0394 -0.9944 0.9832
-1.1002 3.9701 -0.9945 0.9832
-1.2732 3.9184 -0.9946 0.9832
-1.4437 3.8591 -0.9946 0.9832
-1.5000 3.8377 -0.9947 0.9832
-1.5559 3.8155 -0.9947 0.9832
-1.7218 3.7438 -0.9947 0.9832
-0.3560 0.7453 -0.1994 0.9966
-0.3083 0.5589 -0.1541 0.9974
-0.3113 0.5454 -0.1516 0.9974
-0.3171 0.5195 -0.1469 0.9975
-0.3197 0.5071 -0.1447 0.9975
-0.3222 0.4949 -0.1426 0.9976
-0.3332 0.4381 -0.1329 0.9977
-0.3352 0.4277 -0.1312 0.9978
-0.3490 0.3727 -0.1233 0.9979
-0.3511 0.3642 -0.1221 0.9979
-0.3531 0.3557 -0.1210 0.9979
-0.3548 0.3471 -0.1198 0.9980
-0.3562 0.3384 -0.1186 0.9980
-0.3587 0.3214 -0.1163 0.9980
-0.3599 0.3130 -0.1151 0.9980
-0.3620 0.2968 -0.1130 0.9981
-0.3630 0.2889 -0.1120 0.9981
-0.3639 0.2810 -0.1110 0.9981
-0.3657 0.2657 -0.1091 0.9981
-0.3665 0.2581 -0.1082 0.9982
-0.3679 0.2434 -0.1065 0.9982
-0.3691 0.2290 -0.1049 0.9982
-0.3697 0.2220 -0.1041 0.9982
-0.3702 0.2150 -0.1033 0.9982
-0.3712 0.2013 -0.1019 0.9983
-0.3716 0.1945 -0.1012 0.9983
-0.3723 0.1880 -0.1007 0.9983
-0.3731 0.1816 -0.1002 0.9983
-0.3738 0.1753 -0.0997 0.9983
-0.3748 0.1626 -0.0986 0.9983
-0.3758 0.1501 -0.0977 0.9983
-0.3762 0.1439 -0.0972 0.9983
-0.3766 0.1378 -0.0968 0.9984
-0.3770 0.1317 -0.0964 0.9984
-0.3776 0.1197 -0.0956 0.9984
-0.3780 0.1078 -0.0949 0.9984
-0.3784 0.0960 -0.0942 0.9984
-0.3785 0.0902 -0.0939 0.9984
-0.3786 0.0844 -0.0936 0.9984
-0.3787 0.0729 -0.0931 0.9984
-0.3787 0.0614 -0.0926 0.9984
-0.3786 0.0558 -0.0924 0.9984
-0.3786 0.0501 -0.0922 0.9984
-0.3783 0.0389 -0.0918 0.9984
-0.3777 0.0221 -0.0913 0.9984
-0.3775 0.0166 -0.0912 0.9984
-0.3772 0.0111 -0.0911 0.9984
-0.3701 0.0000 -0.0937 0.9985
-0.3707 -0.0108 -0.0939 0.9985
-0.3710 -0.0162 -0.0940 0.9985
-0.3712 -0.0217 -0.0941 0.9985
-0.3716 -0.0327 -0.0944 0.9985
-0.3718 -0.0382 -0.0946 0.9985
-0.3721 -0.0659 -0.0957 0.9984
-0.3721 -0.0715 -0.0959 0.9984
-0.3720 -0.0771 -0.0962 0.9984
-0.3718 -0.0885 -0.0968 0.9984
-0.3715 -0.1000 -0.0974 0.9984
-0.3711 -0.1116 -0.0981 0.9984
-0.3698 -0.1352 -0.0997 0.9984
-0.3694 -0.1412 -0.1001 0.9984
-0.3689 -0.1473 -0.1006 0.9984
-0.3685 -0.1534 -0.1010 0.9984
-0.3679 -0.1595 -0.1015 0.9983
-0.3643 -0.1907 -0.1041 0.9983
-0.3621 -0.2173 -0.1069 0.9983
-0.3616 -0.2243 -0.1077 0.9982
-0.3602 -0.2383 -0.1093 0.9982
-0.3595 -0.2455 -0.1102 0.9982
-0.3587 -0.2527 -0.1111 0.9982
-0.3570 -0.2674 -0.1129 0.9982
-0.3560 -0.2749 -0.1139 0.9981
-0.3550 -0.2825 -0.1149 0.9981
-0.3518 -0.3060 -0.1180 0.9981
-0.3505 -0.3141 -0.1191 0.9981
-0.3465 -0.3389 -0.1227 0.9980
-0.3341 -0.3897 -0.1299 0.9979
-0.3293 -0.4077 -0.1327 0.9978
-0.3268 -0.4169 -0.1341 0.9978
-0.3191 -0.4461 -0.1389 0.9977
-0.3169 -0.4569 -0.1408 0.9977
-0.3068 -0.5026 -0.1491 0.9976
-0.3039 -0.5147 -0.1513 0.9975
-0.3009 -0.5271 -0.1537 0.9975
-0.3002 -0.6054 -0.1711 0.9972
-0.3267 -0.7103 -0.1979 0.9968
-0.3430 -0.7754 -0.2147 0.9965
-1.5131 -3.5606 -0.9794 0.9842
-1.4084 -3.6032 -0.9794 0.9842
-1.3227 -3.6994 -0.9946 0.9839
-1.2685 -3.7182 -0.9946 0.9839
-1.2140 -3.7362 -0.9945 0.9839
-1.1043 -3.7699 -0.9945 0.9839
-0.9936 -3.8004 -0.9944 0.9839
-0.9379 -3.8145 -0.9944 0.9839
-0.8821 -3.8277 -0.9944 0.9839
-0.7698 -3.8516 -0.9944 0.9839
-0.6569 -3.8723 -0.9943 0.9839
-0.6002 -3.8814 -0.9943 0.9839
-0.4865 -3.8971 -0.9942 0.9839
-0.3725 -3.9095 -0.9942 0.9839
-0.3153 -3.9144 -0.9942 0.9839
-0.2008 -3.9218 -0.9941 0.9839
-0.0861 -3.9258 -0.9941 0.9839
-0.0287 -3.9265 -0.9941 0.9839
0.0287 -3.9264 -0.9940 0.9839
0.0860 -3.9255 -0.9940 0.9839
0.1434 -3.9237 -0.9940 0.9839
0.2007 -3.9211 -0.9940 0.9839
0.4864 -3.8955 -0.9938 0.9839
0.5432 -3.8879 -0.9938 0.9839
0.7693 -3.8492 -0.9937 0.9839
0.9372 -3.8115 -0.9937 0.9839
0.9928 -3.7973 -0.9936 0.9839
1.0481 -3.7824 -0.9936 0.9839
1.1032 -3.7666 -0.9936 0.9839
1.1581 -3.7500 -0.9936 0.9839
1.3548 -3.6213 -0.9788 0.9842
1.4067 -3.5990 -0.9782 0.9842
1.4591 -3.5779 -0.9782 0.9842
1.6144 -3.5104 -0.9782 0.9842
1.7145 -3.4580 -0.9771 0.9842
1.7648 -3.4325 -0.9771 0.9842
1.5095 -2.8334 -0.8127 0.9868
1.5617 -2.8309 -0.8185 0.9867
1.6151 -2.8291 -0.8247 0.9866
2.1058 -3.2339 -0.9770 0.9842
2.1993 -3.1709 -0.9769 0.9842
2.2453 -3.1383 -0.9769 0.9842
2.2909 -3.1052 -0.9769 0.9842
2.3805 -3.0368 -0.9768 0.9842
2.4246 -3.0016 -0.9768 0.9842
2.4682 -2.9658 -0.9768 0.9842
2.0824 -2.3586 -0.7965 0.9871
2.1280 -2.3403 -0.8008 0.9870
2.6370 -2.8164 -0.9767 0.9842
2.6036 -2.7004 -0.9496 0.9846
2.1827 -2.1354 -0.7730 0.9875
2.2199 -2.1092 -0.7752 0.9874
2.9471 -2.4893 -0.9766 0.9842
3.0185 -2.4020 -0.9766 0.9842
3.0532 -2.3576 -0.9766 0.9842
3.0873 -2.3127 -0.9766 0.9842
3.1207 -2.2673 -0.9765 0.9842
3.1535 -2.2215 -0.9765 0.9842
3.2170 -2.1283 -0.9765 0.9842
3.3390 -1.9387 -0.9775 0.9842
3.3942 -1.8402 -0.9774 0.9842
3.4299 -1.7952 -0.9800 0.9842
3.5255 -1.7160 -0.9926 0.9840
3.5741 -1.6122 -0.9926 0.9840
3.6196 -1.5070 -0.9926 0.9840
3.6412 -1.4539 -0.9926 0.9840
3.6821 -1.3469 -0.9926 0.9840
3.7013 -1.2930 -0.9925 0.9840
3.7375 -1.1843 -0.9925 0.9840
3.7704 -1.0745 -0.9925 0.9840
3.8001 -0.9639 -0.9925 0.9840
3.8267 -0.8524 -0.9925 0.9840
3.8499 -0.7402 -0.9925 0.9840
3.8603 -0.6839 -0.9925 0.9840
3.8865 -0.5141 -0.9925 0.9840
3.9136 -0.2290 -0.9925 0.9840
3.9166 -0.1718 -0.9925 0.9840
3.9187 -0.1145 -0.9925 0.9840
3.9199 -0.0573 -0.9925 0.9840
3.9166 0.1718 -0.9925 0.9840
3.9136 0.2290 -0.9925 0.9840
3.9099 0.2862 -0.9925 0.9840
3.8999 0.4004 -0.9925 0.9840
3.8936 0.4573 -0.9925 0.9840
3.8786 0.5709 -0.9925 0.9840
3.8699 0.6274 -0.9925 0.9840
3.8603 0.6839 -0.9925 0.9840
3.8387 0.7964 -0.9925 0.9840
3.8267 0.8525 -0.9925 0.9840
3.8139 0.9083 -0.9925 0.9840
3.8002 0.9639 -0.9925 0.9840
3.7704 1.0745 -0.9925 0.9840
3.7544 1.1295 -0.9925 0.9840
3.7198 1.2388 -0.9925 0.9840
3.7013 1.2930 -0.9925 0.9840
3.6620 1.4006 -0.9926 0.9840
3.6196 1.5070 -0.9926 0.9840
3.5973 1.5598 -0.9926 0.9840
3.5741 1.6122 -0.9926 0.9840
3.5255 1.7160 -0.9926 0.9840
3.5001 1.7673 -0.9926 0.9840
3.4471 1.8689 -0.9926 0.9840
3.4194 1.9191 -0.9927 0.9840
3.3620 2.0182 -0.9927 0.9840
3.3321 2.0672 -0.9927 0.9840
3.2704 2.1637 -0.9927 0.9839
3.2385 2.2113 -0.9927 0.9839
3.2059 2.2584 -0.9927 0.9839
3.0686 2.4420 -0.9928 0.9839
3.0327 2.4866 -0.9928 0.9839
2.9961 2.5307 -0.9928 0.9839
2.9588 2.5742 -0.9928 0.9839
2.8824 2.6596 -0.9929 0.9839
2.8433 2.7015 -0.9929 0.9839
2.8036 2.7428 -0.9929 0.9839
2.7632 2.7835 -0.9929 0.9839
2.7223 2.8237 -0.9929 0.9839
2.6808 2.8632 -0.9930 0.9839
2.6387 2.9021 -0.9930 0.9839
2.5961 2.9404 -0.9930 0.9839
2.5529 2.9781 -0.9930 0.9839
2.4201 3.0873 -0.9931 0.9839
2.3748 3.1223 -0.9931 0.9839
2.3289 3.1568 -0.9931 0.9839
2.2826 3.1905 -0.9931 0.9839
2.2358 3.2236 -0.9931 0.9839
2.1407 3.2877 -0.9932 0.9839
2.0925 3.3187 -0.9932 0.9839
2.0438 3.3490 -0.9932 0.9839
1.9452 3.4074 -0.9933 0.9839
1.8952 3.4355 -0.9933 0.9839
1.8449 3.4629 -0.9933 0.9839
1.7941 3.4896 -0.9933 0.9839
1.7430 3.5155 -0.9933 0.9839
1.6396 3.5650 -0.9934 0.9839
1.5873 3.5887 -0.9934 0.9839
1.5347 3.6116 -0.9934 0.9839
1.4286 3.6551 -0.9935 0.9839
1.3751 3.6756 -0.9935 0.9839
1.3213 3.6954 -0.9935 0.9839
1.2671 3.7144 -0.9935 0.9839
0.9928 3.7974 -0.9936 0.9839
0.9372 3.8116 -0.9937 0.9839
0.8814 3.8250 -0.9937 0.9839
0.7693 3.8493 -0.9937 0.9839
0.6565 3.8702 -0.9938 0.9839
0.5999 3.8795 -0.9938 0.9839
0.5432 3.8880 -0.9938 0.9839
0.4863 3.8956 -0.9938 0.9839
0.4294 3.9024 -0.9939 0.9839
0.3723 3.9084 -0.9939 0.9839
0.2007 3.9211 -0.9940 0.9839
0.0861 3.9255 -0.9940 0.9839
0.0287 3.9265 -0.9940 0.9839
-0.0287 3.9266 -0.9941 0.9839
-0.2581 3.9185 -0.9941 0.9839
-0.3153 3.9145 -0.9942 0.9839
-0.3724 3.9095 -0.9942 0.9839
-0.4296 3.9038 -0.9942 0.9839
-0.4866 3.8971 -0.9942 0.9839
-0.5435 3.8897 -0.9943 0.9839
-0.6002 3.8815 -0.9943 0.9839
-0.8261 3.8401 -0.9944 0.9839
-0.8820 3.8277 -0.9944 0.9839
-0.9379 3.8145 -0.9944 0.9839
-1.0490 3.7856 -0.9945 0.9839
-1.1042 3.7700 -0.9945 0.9839
-1.1592 3.7536 -0.9945 0.9839
-1.2140 3.7363 -0.9945 0.9839
-1.3227 3.6994 -0.9946 0.9839
-0.3430 0.7754 -0.2146 0.9965
-0.3267 0.7103 -0.1979 0.9968
-0.3125 0.6542 -0.1835 0.9970
-0.2911 0.5662 -0.1612 0.9974
-0.2946 0.5529 -0.1586 0.9974
-0.2978 0.5398 -0.1561 0.9975
-0.3039 0.5148 -0.1513 0.9975
-0.3068 0.5027 -0.1491 0.9976
-0.3094 0.4908 -0.1469 0.9976
-0.3145 0.4679 -0.1427 0.9977
-0.3169 0.4569 -0.1408 0.9977
-0.3242 0.4262 -0.1356 0.9978
-0.3317 0.3987 -0.1313 0.9979
-0.3341 0.3897 -0.1299 0.9979
-0.3386 0.3724 -0.1274 0.9979
-0.3408 0.3640 -0.1262 0.9979
-0.3450 0.3475 -0.1240 0.9980
-0.3465 0.3390 -0.1227 0.9980
-0.3493 0.3223 -0.1203 0.9980
-0.3529 0.2981 -0.1169 0.9981
-0.3570 0.2674 -0.1129 0.9982
-0.3587 0.2527 -0.1111 0.9982
-0.3595 0.2455 -0.1102 0.9982
-0.3633 0.2039 -0.1055 0.9983
-0.3637 0.1972 -0.1047 0.9983
-0.3643 0.1907 -0.1041 0.9983
-0.3652 0.1844 -0.1036 0.9983
-0.3660 0.1782 -0.1031 0.9983
-0.3668 0.1720 -0.1025 0.9983
-0.3674 0.1658 -0.1020 0.9983
-0.3679 0.1596 -0.1015 0.9983
-0.3694 0.1413 -0.1001 0.9984
-0.3705 0.1234 -0.0989 0.9984
-0.3708 0.1175 -0.0985 0.9984
-0.3713 0.1058 -0.0977 0.9984
-0.3717 0.0943 -0.0971 0.9984
-0.3720 0.0829 -0.0965 0.9984
-0.3720 0.0772 -0.0962 0.9984
-0.3721 0.0716 -0.0959 0.9984
-0.3721 0.0604 -0.0954 0.9984
-0.3721 0.0548 -0.0952 0.9984
-0.3720 0.0492 -0.0950 0.9985
-0.3719 0.0437 -0.0948 0.9985
-0.3716 0.0327 -0.0944 0.9985
-0.3710 0.0163 -0.0940 0.9985
-0.3642 -0.0053 -0.0965 0.9985
-0.3647 -0.0159 -0.0967 0.9985
-0.3649 -0.0213 -0.0969 0.9985
-0.3651 -0.0267 -0.0970 0.9985
-0.3654 -0.0375 -0.0973 0.9985
-0.3656 -0.0483 -0.0977 0.9985
-0.3657 -0.0538 -0.0979 0.9985
-0.3653 -0.0870 -0.0995 0.9984
-0.3652 -0.0926 -0.0998 0.9984
-0.3650 -0.0983 -0.1002 0.9984
-0.3645 -0.1096 -0.1009 0.9984
-0.3642 -0.1154 -0.1012 0.9984
-0.3631 -0.1328 -0.1025 0.9984
-0.3627 -0.1387 -0.1029 0.9984
-0.3612 -0.1566 -0.1043 0.9984
-0.3606 -0.1626 -0.1048 0.9984
-0.3600 -0.1688 -0.1054 0.9984
-0.3584 -0.1809 -0.1064 0.9983
-0.3575 -0.1870 -0.1069 0.9983
-0.3555 -0.2063 -0.1089 0.9983
-0.3543 -0.2198 -0.1105 0.9983
-0.3520 -0.2404 -0.1130 0.9982
-0.3503 -0.2545 -0.1147 0.9982
-0.3494 -0.2617 -0.1157 0.9982
-0.3484 -0.2690 -0.1166 0.9982
-0.3463 -0.2839 -0.1187 0.9981
-0.3440 -0.2992 -0.1208 0.9981
-0.3400 -0.3230 -0.1243 0.9981
-0.3370 -0.3395 -0.1268 0.9980
-0.3308 -0.3637 -0.1303 0.9980
-0.3261 -0.3804 -0.1328 0.9979
-0.3213 -0.3977 -0.1355 0.9979
-0.3105 -0.4341 -0.1414 0.9978
-0.3076 -0.4435 -0.1430 0.9978
-0.3024 -0.4645 -0.1469 0.9977
-0.2970 -0.4867 -0.1511 0.9976
-0.2911 -0.5099 -0.1556 0.9976
-0.2846 -0.5343 -0.1604 0.9975
-0.2812 -0.5468 -0.1629 0.9975
-0.2776 -0.5598 -0.1656 0.9974
-0.2783 -0.5825 -0.1711 0.9973
-0.2884 -0.6271 -0.1829 0.9971
-0.2999 -0.6780 -0.1964 0.9969
-0.3130 -0.7364 -0.2120 0.9967
-1.3441 -3.4388 -0.9783 0.9848
-1.1920 -3.4941 -0.9783 0.9848
-1.0905 -3.5309 -0.9792 0.9848
-1.0388 -3.5464 -0.9792 0.9848
-0.8298 -3.6007 -0.9791 0.9848
-0.7770 -3.6124 -0.9791 0.9848
-0.7241 -3.6232 -0.9791 0.9848
-0.6715 -3.6355 -0.9796 0.9848
-0.5192 -3.7160 -0.9943 0.9846
-0.4648 -3.7231 -0.9942 0.9846
-0.3012 -3.7397 -0.9942 0.9846
-0.2465 -3.7436 -0.9941 0.9846
-0.1918 -3.7467 -0.9941 0.9846
-0.0822 -3.7505 -0.9941 0.9846
-0.0274 -3.7513 -0.9941 0.9846
0.0274 -3.7512 -0.9940 0.9846
0.0822 -3.7503 -0.9940 0.9846
0.1370 -3.7486 -0.9940 0.9846
0.2464 -3.7429 -0.9939 0.9846
0.3011 -3.7387 -0.9939 0.9846
0.3557 -3.7339 -0.9939 0.9846
0.4102 -3.7282 -0.9939 0.9846
0.5189 -3.7145 -0.9938 0.9846
0.6272 -3.6975 -0.9938 0.9846
0.7237 -3.6211 -0.9785 0.9848
0.8292 -3.5983 -0.9785 0.9848
0.9339 -3.5723 -0.9784 0.9848
1.0379 -3.5434 -0.9784 0.9848
1.0895 -3.5278 -0.9784 0.9848
1.1909 -3.4907 -0.9773 0.9849
1.3426 -3.4349 -0.9773 0.9849
1.3926 -3.4149 -0.9772 0.9849
1.4918 -3.3726 -0.9772 0.9849
1.2795 -2.7821 -0.8114 0.9874
1.3539 -2.8341 -0.8323 0.9871
1.4554 -2.8308 -0.8435 0.9869
1.5072 -2.8291 -0.8494 0.9868
1.5597 -2.8274 -0.8557 0.9867
1.6131 -2.8255 -0.8622 0.9866
1.6670 -2.8234 -0.8688 0.9865
1.6345 -2.5923 -0.8121 0.9874
1.6843 -2.5867 -0.8179 0.9873
2.0567 -3.0600 -0.9770 0.9849
2.1012 -3.0295 -0.9770 0.9849
2.1887 -2.9667 -0.9769 0.9849
2.3165 -2.8678 -0.9769 0.9849
2.3582 -2.8336 -0.9768 0.9849
2.3992 -2.7988 -0.9768 0.9849
2.0937 -2.3713 -0.8382 0.9870
2.5195 -2.6908 -0.9768 0.9849
2.2340 -2.1226 -0.8166 0.9873
2.8840 -2.2949 -0.9766 0.9849
2.9817 -2.1663 -0.9766 0.9849
3.0736 -2.0334 -0.9766 0.9849
3.1029 -1.9883 -0.9765 0.9849
3.1629 -1.8986 -0.9775 0.9849
3.1902 -1.8523 -0.9775 0.9849
3.2169 -1.8054 -0.9775 0.9849
3.3441 -1.6886 -0.9927 0.9846
3.3684 -1.6395 -0.9927 0.9846
3.3920 -1.5901 -0.9927 0.9846
3.4148 -1.5403 -0.9927 0.9846
3.4369 -1.4902 -0.9927 0.9846
3.4583 -1.4398 -0.9926 0.9846
3.4789 -1.3892 -0.9926 0.9846
3.4988 -1.3382 -0.9926 0.9846
3.5364 -1.2353 -0.9926 0.9846
3.5540 -1.1836 -0.9926 0.9846
3.5709 -1.1315 -0.9926 0.9846
3.5871 -1.0791 -0.9926 0.9846
3.6170 -0.9739 -0.9926 0.9846
3.6439 -0.8678 -0.9926 0.9846
3.6677 -0.7609 -0.9926 0.9846
3.6974 -0.5995 -0.9925 0.9846
3.7058 -0.5453 -0.9925 0.9846
3.7134 -0.4912 -0.9925 0.9846
3.7356 -0.2734 -0.9925 0.9846
3.7393 -0.2188 -0.9925 0.9846
3.7440 -0.1094 -0.9925 0.9846
3.7456 0.0000 -0.9925 0.9846
3.7441 0.1095 -0.9925 0.9846
3.7393 0.2188 -0.9925 0.9846
3.7356 0.2734 -0.9925 0.9846
3.7313 0.3280 -0.9925 0.9846
3.7261 0.3825 -0.9925 0.9846
3.7058 0.5454 -0.9925 0.9846
3.6974 0.5995 -0.9925 0.9846
3.6883 0.6534 -0.9926 0.9846
3.6784 0.7073 -0.9926 0.9846
3.6677 0.7610 -0.9926 0.9846
3.6562 0.8145 -0.9926 0.9846
3.6439 0.8678 -0.9926 0.9846
3.6024 1.0266 -0.9926 0.9846
3.5709 1.1315 -0.9926 0.9846
3.5541 1.1836 -0.9926 0.9846
3.5364 1.2354 -0.9926 0.9846
3.4790 1.3892 -0.9926 0.9846
3.4583 1.4399 -0.9926 0.9846
3.3441 1.6886 -0.9927 0.9846
3.2399 1.8811 -0.9927 0.9846
3.2121 1.9283 -0.9927 0.9846
3.1545 2.0213 -0.9928 0.9846
3.1246 2.0673 -0.9928 0.9846
3.0941 2.1127 -0.9928 0.9846
3.0312 2.2023 -0.9928 0.9846
2.9656 2.2900 -0.9928 0.9846
2.5211 2.7727 -0.9930 0.9846
2.4391 2.8453 -0.9931 0.9846
2.3973 2.8807 -0.9931 0.9846
2.3550 2.9155 -0.9931 0.9846
2.3122 2.9496 -0.9931 0.9846
2.2689 2.9831 -0.9931 0.9846
2.0453 3.1411 -0.9932 0.9846
1.9992 3.1707 -0.9932 0.9846
1.8107 3.2823 -0.9933 0.9846
1.7625 3.3085 -0.9933 0.9846
1.6652 3.3587 -0.9934 0.9846
1.3649 3.4920 -0.9935 0.9846
1.3138 3.5117 -0.9935 0.9846
1.1065 3.5827 -0.9936 0.9846
1.0013 3.6137 -0.9936 0.9846
0.7886 3.6663 -0.9937 0.9846
0.6273 3.6976 -0.9938 0.9846
0.5732 3.7064 -0.9938 0.9846
0.4646 3.7218 -0.9939 0.9846
0.3011 3.7388 -0.9939 0.9846
0.1918 3.7462 -0.9940 0.9846
-0.0274 3.7514 -0.9941 0.9846
-0.1918 3.7468 -0.9941 0.9846
-0.2465 3.7436 -0.9941 0.9846
-0.4648 3.7232 -0.9942 0.9846
-0.5192 3.7161 -0.9943 0.9846
-0.5734 3.7082 -0.9943 0.9846
-0.7354 3.6797 -0.9943 0.9846
-0.8427 3.6569 -0.9944 0.9846
-1.0022 3.6166 -0.9945 0.9846
-1.0550 3.6016 -0.9945 0.9846
-1.1598 3.5695 -0.9945 0.9846
-1.2636 3.5342 -0.9946 0.9846
-1.3152 3.5154 -0.9946 0.9846
-1.3664 3.4959 -0.9946 0.9846
-1.4174 3.4757 -0.9946 0.9846
-0.3129 0.7364 -0.2120 0.9967
-0.2999 0.6780 -0.1964 0.9969
-0.2783 0.5826 -0.1711 0.9973
-0.2776 0.5598 -0.1656 0.9974
-0.2812 0.5469 -0.1629 0.9975
-0.2879 0.5220 -0.1580 0.9975
-0.2941 0.4982 -0.1533 0.9976
-0.3076 0.4435 -0.1430 0.9978
-0.3134 0.4248 -0.1399 0.9978
-0.3161 0.4156 -0.1384 0.9978
-0.3213 0.3978 -0.1355 0.9979
-0.3237 0.3891 -0.1341 0.9979
-0.3285 0.3721 -0.1315 0.9979
-0.3308 0.3638 -0.1303 0.9980
-0.3386 0.3312 -0.1255 0.9980
-0.3400 0.3230 -0.1243 0.9981
-0.3414 0.3150 -0.1231 0.9981
-0.3439 0.2993 -0.1208 0.9981
-0.3474 0.2765 -0.1176 0.9982
-0.3494 0.2618 -0.1157 0.9982
-0.3503 0.2546 -0.1147 0.9982
-0.3529 0.2334 -0.1121 0.9983
-0.3536 0.2266 -0.1113 0.9983
-0.3549 0.2131 -0.1097 0.9983
-0.3555 0.2064 -0.1089 0.9983
-0.3561 0.1998 -0.1082 0.9983
-0.3575 0.1871 -0.1069 0.9983
-0.3600 0.1688 -0.1054 0.9984
-0.3606 0.1627 -0.1048 0.9984
-0.3617 0.1506 -0.1038 0.9984
-0.3635 0.1270 -0.1020 0.9984
-0.3639 0.1212 -0.1016 0.9984
-0.3642 0.1154 -0.1012 0.9984
-0.3652 0.0927 -0.0998 0.9984
-0.3653 0.0871 -0.0995 0.9984
-0.3654 0.0814 -0.0992 0.9985
-0.3656 0.0704 -0.0987 0.9985
-0.3657 0.0648 -0.0984 0.9985
-0.3656 0.0484 -0.0977 0.9985
-0.3655 0.0430 -0.0975 0.9985
-0.3653 0.0321 -0.0972 0.9985
-0.3651 0.0267 -0.0970 0.9985
-0.3649 0.0214 -0.0969 0.9985
-0.3578 0.0000 -0.0990 0.9985
-0.3588 -0.0210 -0.0995 0.9985
-0.3590 -0.0262 -0.0997 0.9985
-0.3593 -0.0369 -0.1000 0.9985
-0.3594 -0.0475 -0.1004 0.9985
-0.3594 -0.0582 -0.1008 0.9985
-0.3593 -0.0745 -0.1016 0.9985
-0.3592 -0.0800 -0.1019 0.9985
-0.3591 -0.0855 -0.1022 0.9985
-0.3588 -0.0910 -0.1025 0.9985
-0.3587 -0.0965 -0.1028 0.9985
-0.3584 -0.1021 -0.1032 0.9985
-0.3578 -0.1133 -0.1039 0.9984
-0.3575 -0.1190 -0.1043 0.9984
-0.3571 -0.1247 -0.1047 0.9984
-0.3567 -0.1304 -0.1052 0.9984
-0.3562 -0.1362 -0.1056 0.9984
-0.3558 -0.1420 -0.1061 0.9984
-0.3541 -0.1597 -0.1075 0.9984
-0.3534 -0.1657 -0.1081 0.9984
-0.3518 -0.1776 -0.1091 0.9984
-0.3508 -0.1836 -0.1096 0.9984
-0.3491 -0.1959 -0.1108 0.9983
-0.3479 -0.2087 -0.1123 0.9983
-0.3464 -0.2220 -0.1139 0.9983
-0.3449 -0.2354 -0.1156 0.9983
-0.3411 -0.2633 -0.1193 0.9982
-0.3400 -0.2705 -0.1203 0.9982
-0.3389 -0.2778 -0.1213 0.9982
-0.3377 -0.2852 -0.1224 0.9982
-0.3352 -0.3003 -0.1246 0.9981
-0.3324 -0.3158 -0.1269 0.9981
-0.3309 -0.3237 -0.1282 0.9981
-0.3293 -0.3318 -0.1294 0.9981
-0.3277 -0.3398 -0.1307 0.9980
-0.3233 -0.3555 -0.1330 0.9980
-0.2849 -0.4826 -0.1552 0.9977
-0.2819 -0.4937 -0.1574 0.9976
-0.2787 -0.5051 -0.1597 0.9976
-0.2753 -0.5168 -0.1621 0.9976
-0.2644 -0.5534 -0.1698 0.9975
-0.2604 -0.5662 -0.1726 0.9974
-0.2662 -0.6018 -0.1822 0.9973
-1.2863 -3.2909 -0.9783 0.9854
-1.2381 -3.3093 -0.9783 0.9854
-1.1408 -3.3440 -0.9783 0.9854
-1.0918 -3.3602 -0.9782 0.9854
-0.9931 -3.3905 -0.9782 0.9854
-0.9435 -3.4046 -0.9782 0.9854
-0.8936 -3.4179 -0.9782 0.9854
-0.8435 -3.4306 -0.9781 0.9854
-0.6924 -3.4641 -0.9781 0.9854
-0.6416 -3.4737 -0.9781 0.9854
-0.5908 -3.4826 -0.9780 0.9854
-0.5398 -3.4908 -0.9780 0.9854
-0.3867 -3.5145 -0.9790 0.9854
-0.3353 -3.5197 -0.9789 0.9854
-0.2838 -3.5241 -0.9789 0.9854
-0.2323 -3.5278 -0.9789 0.9854
-0.1807 -3.5308 -0.9789 0.9854
-0.1291 -3.5330 -0.9789 0.9854
-0.0775 -3.5344 -0.9788 0.9854
-0.0258 -3.5351 -0.9788 0.9854
0.0258 -3.5350 -0.9788 0.9854
0.0774 -3.5341 -0.9788 0.9854
0.1291 -3.5326 -0.9788 0.9854
0.1807 -3.5302 -0.9787 0.9854
0.2837 -3.5234 -0.9787 0.9854
0.3352 -3.5187 -0.9787 0.9854
0.6920 -3.4620 -0.9775 0.9855
0.7928 -3.4402 -0.9775 0.9855
1.0417 -3.3728 -0.9774 0.9855
1.1397 -3.3408 -0.9773 0.9855
1.2368 -3.3059 -0.9773 0.9855
1.2849 -3.2874 -0.9773 0.9855
1.3804 -3.2484 -0.9772 0.9855
1.2649 -2.7505 -0.8382 0.9875
1.2674 -2.6530 -0.8141 0.9879
1.2998 -2.6217 -0.8102 0.9879
1.3822 -2.5944 -0.8139 0.9879
1.4291 -2.5906 -0.8192 0.9878
1.6843 -2.5867 -0.8547 0.9873
1.9685 -2.9286 -0.9770 0.9855
2.0110 -2.8995 -0.9770 0.9855
2.0531 -2.8697 -0.9770 0.9855
2.0948 -2.8394 -0.9770 0.9855
2.1360 -2.8084 -0.9769 0.9855
2.0290 -2.3669 -0.8632 0.9871
2.0779 -2.3534 -0.8692 0.9871
2.4114 -2.5753 -0.9768 0.9855
2.4487 -2.5398 -0.9768 0.9855
2.1752 -2.1280 -0.8425 0.9874
2.5927 -2.3923 -0.9768 0.9855
2.6614 -2.3154 -0.9767 0.9855
2.7602 -2.1965 -0.9767 0.9855
2.7920 -2.1559 -0.9767 0.9855
2.8837 -2.0314 -0.9766 0.9855
2.9130 -1.9890 -0.9766 0.9855
2.9417 -1.9462 -0.9766 0.9855
3.0003 -1.8613 -0.9776 0.9855
3.0271 -1.8172 -0.9776 0.9855
3.0792 -1.7877 -0.9858 0.9853
3.1269 -1.7548 -0.9928 0.9852
3.1521 -1.7089 -0.9928 0.9852
3.1767 -1.6627 -0.9928 0.9852
3.2683 -1.4743 -0.9927 0.9852
3.2895 -1.4263 -0.9927 0.9852
3.3099 -1.3781 -0.9927 0.9852
3.3297 -1.3296 -0.9927 0.9852
3.3487 -1.2808 -0.9927 0.9852
3.3846 -1.1824 -0.9927 0.9852
3.4177 -1.0829 -0.9927 0.9852
3.4332 -1.0329 -0.9927 0.9852
3.4479 -0.9826 -0.9926 0.9852
3.4618 -0.9321 -0.9926 0.9852
3.4751 -0.8814 -0.9926 0.9852
3.4993 -0.7795 -0.9926 0.9852
3.5206 -0.6769 -0.9926 0.9852
3.5712 -0.3139 -0.9926 0.9852
3.5788 -0.2094 -0.9926 0.9852
3.5815 -0.1571 -0.9926 0.9852
3.5850 0.0000 -0.9926 0.9852
3.5846 0.0524 -0.9926 0.9852
3.5834 0.1048 -0.9926 0.9852
3.5815 0.1571 -0.9926 0.9852
3.5754 0.2617 -0.9926 0.9852
3.5662 0.3661 -0.9926 0.9852
3.5605 0.4182 -0.9926 0.9852
3.5541 0.4701 -0.9926 0.9852
3.5468 0.5220 -0.9926 0.9852
3.5388 0.5738 -0.9926 0.9852
3.5206 0.6770 -0.9926 0.9852
3.4479 0.9826 -0.9926 0.9852
3.4331 1.0329 -0.9927 0.9852
3.4016 1.1328 -0.9927 0.9852
3.3847 1.1823 -0.9927 0.9852
3.3487 1.2808 -0.9927 0.9852
3.3297 1.3296 -0.9927 0.9852
3.2895 1.4264 -0.9927 0.9852
3.2239 1.5692 -0.9927 0.9852
3.1521 1.7090 -0.9928 0.9852
3.0743 1.8455 -0.9928 0.9852
3.0471 1.8903 -0.9928 0.9852
3.0191 1.9346 -0.9928 0.9852
2.9614 2.0221 -0.9928 0.9852
2.9316 2.0652 -0.9929 0.9852
2.9011 2.1078 -0.9929 0.9852
2.8700 2.1500 -0.9929 0.9852
2.8061 2.2330 -0.9929 0.9852
2.6358 2.4321 -0.9930 0.9852
2.2539 2.7903 -0.9931 0.9852
2.2129 2.8230 -0.9931 0.9852
2.1296 2.8866 -0.9932 0.9852
2.0444 2.9477 -0.9932 0.9852
1.9134 3.0346 -0.9933 0.9852
1.8239 3.0893 -0.9933 0.9852
1.7786 3.1157 -0.9933 0.9852
1.5466 3.2375 -0.9934 0.9852
1.4033 3.3023 -0.9935 0.9852
1.1587 3.3963 -0.9936 0.9852
1.1089 3.4130 -0.9936 0.9852
0.9584 3.4585 -0.9937 0.9852
0.9078 3.4722 -0.9937 0.9852
0.8059 3.4973 -0.9937 0.9852
0.7547 3.5088 -0.9937 0.9852
0.7034 3.5196 -0.9938 0.9852
0.6520 3.5296 -0.9938 0.9852
0.6003 3.5388 -0.9938 0.9852
0.5486 3.5473 -0.9938 0.9852
0.4967 3.5550 -0.9938 0.9852
0.2359 3.5821 -0.9939 0.9852
0.1835 3.5852 -0.9940 0.9852
0.1311 3.5876 -0.9940 0.9852
0.0787 3.5893 -0.9940 0.9852
0.0262 3.5901 -0.9940 0.9852
-0.0787 3.5895 -0.9941 0.9852
-0.1312 3.5880 -0.9941 0.9852
-0.1836 3.5858 -0.9941 0.9852
-0.2883 3.5790 -0.9942 0.9852
-0.3405 3.5745 -0.9942 0.9852
-0.3927 3.5693 -0.9942 0.9852
-0.4449 3.5632 -0.9942 0.9852
-0.4969 3.5564 -0.9942 0.9852
-0.5488 3.5489 -0.9943 0.9852
-0.9591 3.4612 -0.9944 0.9852
-1.2093 3.3823 -0.9945 0.9852
-1.2587 3.3643 -0.9946 0.9852
-0.2662 0.6018 -0.1822 0.9973
-0.2753 0.5168 -0.1621 0.9976
-0.2849 0.4826 -0.1552 0.9977
-0.2936 0.4510 -0.1490 0.9978
-0.2998 0.4323 -0.1457 0.9978
-0.3028 0.4232 -0.1441 0.9978
-0.3056 0.4143 -0.1425 0.9979
-0.3136 0.3882 -0.1382 0.9979
-0.3161 0.3798 -0.1368 0.9980
-0.3209 0.3635 -0.1343 0.9980
-0.3233 0.3555 -0.1330 0.9980
-0.3277 0.3399 -0.1307 0.9980
-0.3293 0.3318 -0.1294 0.9981
-0.3324 0.3158 -0.1269 0.9981
-0.3365 0.2927 -0.1235 0.9982
-0.3377 0.2853 -0.1224 0.9982
-0.3400 0.2706 -0.1203 0.9982
-0.3411 0.2634 -0.1193 0.9982
-0.3440 0.2424 -0.1165 0.9983
-0.3449 0.2355 -0.1156 0.9983
-0.3472 0.2154 -0.1131 0.9983
-0.3479 0.2089 -0.1123 0.9983
-0.3499 0.1897 -0.1102 0.9983
-0.3535 0.1657 -0.1081 0.9984
-0.3541 0.1597 -0.1075 0.9984
-0.3546 0.1538 -0.1070 0.9984
-0.3552 0.1479 -0.1065 0.9984
-0.3557 0.1421 -0.1061 0.9984
-0.3575 0.1191 -0.1043 0.9984
-0.3581 0.1077 -0.1035 0.9984
-0.3584 0.1022 -0.1032 0.9985
-0.3586 0.0966 -0.1028 0.9985
-0.3589 0.0911 -0.1025 0.9985
-0.3590 0.0855 -0.1022 0.9985
-0.3594 0.0691 -0.1013 0.9985
-0.3595 0.0637 -0.1011 0.9985
-0.3595 0.0583 -0.1008 0.9985
-0.3593 0.0422 -0.1002 0.9985
-0.3590 0.0263 -0.0997 0.9985
-0.3583 0.0105 -0.0993 0.9985
-0.3518 0.0000 -0.1016 0.9985
-0.3521 -0.0051 -0.1017 0.9985
-0.3524 -0.0103 -0.1018 0.9985
-0.3526 -0.0154 -0.1019 0.9985
-0.3530 -0.0258 -0.1022 0.9985
-0.3532 -0.0362 -0.1026 0.9985
-0.3534 -0.0520 -0.1032 0.9985
-0.3534 -0.0573 -0.1034 0.9985
-0.3534 -0.0626 -0.1037 0.9985
-0.3532 -0.0732 -0.1042 0.9985
-0.3527 -0.0894 -0.1051 0.9985
-0.3525 -0.0948 -0.1054 0.9985
-0.3522 -0.1004 -0.1058 0.9985
-0.3516 -0.1114 -0.1065 0.9985
-0.3504 -0.1281 -0.1078 0.9984
-0.3499 -0.1338 -0.1082 0.9984
-0.3477 -0.1568 -0.1102 0.9984
-0.3471 -0.1627 -0.1107 0.9984
-0.3462 -0.1685 -0.1112 0.9984
-0.3454 -0.1743 -0.1117 0.9984
-0.3444 -0.1802 -0.1123 0.9984
-0.3435 -0.1862 -0.1128 0.9984
-0.3418 -0.1984 -0.1141 0.9984
-0.3411 -0.2047 -0.1149 0.9983
-0.3388 -0.2241 -0.1173 0.9983
-0.3361 -0.2441 -0.1200 0.9983
-0.3351 -0.2510 -0.1209 0.9983
-0.3340 -0.2579 -0.1219 0.9982
-0.3329 -0.2649 -0.1229 0.9982
-0.3292 -0.2864 -0.1261 0.9982
-0.3279 -0.2938 -0.1272 0.9982
-0.3236 -0.3165 -0.1307 0.9981
-0.3220 -0.3243 -0.1320 0.9981
-0.3203 -0.3322 -0.1333 0.9981
-0.3183 -0.3399 -0.1345 0.9981
-0.3010 -0.3957 -0.1436 0.9979
-0.2982 -0.4042 -0.1451 0.9979
-0.2924 -0.4216 -0.1482 0.9979
-0.2894 -0.4305 -0.1498 0.9978
-0.2862 -0.4395 -0.1515 0.9978
-0.2630 -0.5116 -0.1662 0.9976
-0.2594 -0.5232 -0.1687 0.9976
-0.2516 -0.5471 -0.1739 0.9975
-0.2529 -0.6200 -0.1934 0.9972
-1.1403 -3.1891 -0.9783 0.9860
-1.0935 -3.2053 -0.9782 0.9860
-1.0465 -3.2209 -0.9782 0.9860
-0.9994 -3.2358 -0.9782 0.9860
-0.9520 -3.2500 -0.9782 0.9860
-0.9043 -3.2635 -0.9782 0.9860
-0.7604 -3.2998 -0.9781 0.9860
-0.7121 -3.3104 -0.9781 0.9860
-0.6150 -3.3297 -0.9781 0.9860
-0.5663 -3.3383 -0.9780 0.9860
-0.4685 -3.3533 -0.9780 0.9860
-0.3703 -3.3654 -0.9780 0.9860
-0.2718 -3.3746 -0.9779 0.9860
-0.2225 -3.3782 -0.9779 0.9860
-0.1730 -3.3810 -0.9779 0.9860
0.0247 -3.3851 -0.9778 0.9860
0.0742 -3.3843 -0.9778 0.9860
0.1237 -3.3827 -0.9778 0.9860
0.4193 -3.3586 -0.9776 0.9860
0.5173 -3.3447 -0.9776 0.9860
0.6147 -3.3280 -0.9776 0.9860
0.6633 -3.3187 -0.9775 0.9860
0.7117 -3.3085 -0.9775 0.9860
0.7599 -3.2977 -0.9775 0.9860
0.8080 -3.2862 -0.9775 0.9860
0.8560 -3.2739 -0.9775 0.9860
1.1856 -3.1690 -0.9773 0.9860
1.2317 -3.1513 -0.9773 0.9860
1.3232 -3.1138 -0.9773 0.9860
1.2649 -2.7505 -0.8745 0.9875
1.3807 -2.5916 -0.8482 0.9878
1.4291 -2.5906 -0.8546 0.9878
1.4783 -2.5895 -0.8613 0.9877
1.5791 -2.5873 -0.8755 0.9875
1.8870 -2.8073 -0.9770 0.9860
1.9681 -2.7509 -0.9770 0.9860
2.0080 -2.7218 -0.9770 0.9860
2.0476 -2.6921 -0.9770 0.9860
2.0867 -2.6619 -0.9770 0.9860
1.9909 -2.3224 -0.8836 0.9873
2.1246 -2.3366 -0.9122 0.9869
2.3473 -2.4346 -0.9769 0.9860
2.1559 -2.0484 -0.8590 0.9877
2.6460 -2.1055 -0.9767 0.9860
2.6764 -2.0666 -0.9767 0.9860
2.7063 -2.0273 -0.9767 0.9860
2.7643 -1.9473 -0.9767 0.9860
2.7953 -1.9086 -0.9777 0.9860
2.9471 -1.7691 -0.9929 0.9858
2.9726 -1.7259 -0.9928 0.9858
2.9974 -1.6822 -0.9928 0.9858
3.0217 -1.6382 -0.9928 0.9858
3.0453 -1.5938 -0.9928 0.9858
3.0682 -1.5492 -0.9928 0.9858
3.1121 -1.4589 -0.9928 0.9858
3.1331 -1.4132 -0.9928 0.9858
3.1534 -1.3673 -0.9928 0.9858
3.2101 -1.2278 -0.9927 0.9858
3.2608 -1.0859 -0.9927 0.9858
3.2763 -1.0381 -0.9927 0.9858
3.2911 -0.9901 -0.9927 0.9858
3.3433 -0.7962 -0.9927 0.9858
3.3749 -0.6489 -0.9927 0.9858
3.3840 -0.5995 -0.9927 0.9858
3.3924 -0.5500 -0.9927 0.9858
3.4001 -0.5004 -0.9927 0.9858
3.4132 -0.4008 -0.9927 0.9858
3.4187 -0.3509 -0.9927 0.9858
3.4234 -0.3009 -0.9927 0.9858
3.4275 -0.2509 -0.9927 0.9858
3.4308 -0.2007 -0.9927 0.9858
3.4333 -0.1505 -0.9927 0.9858
3.4352 -0.1004 -0.9927 0.9858
3.4362 -0.0502 -0.9927 0.9858
3.4363 0.0502 -0.9927 0.9858
3.4333 0.1506 -0.9927 0.9858
3.4132 0.4009 -0.9927 0.9858
3.4070 0.4507 -0.9927 0.9858
3.4001 0.5004 -0.9927 0.9858
3.3924 0.5500 -0.9927 0.9858
3.3749 0.6489 -0.9927 0.9858
3.3650 0.6982 -0.9927 0.9858
3.3545 0.7473 -0.9927 0.9858
3.3313 0.8450 -0.9927 0.9858
3.3186 0.8936 -0.9927 0.9858
3.3052 0.9420 -0.9927 0.9858
3.2911 0.9902 -0.9927 0.9858
3.2763 1.0381 -0.9927 0.9858
3.2446 1.1334 -0.9927 0.9858
3.2277 1.1808 -0.9927 0.9858
3.2102 1.2278 -0.9927 0.9858
3.1919 1.2746 -0.9928 0.9858
3.1534 1.3673 -0.9928 0.9858
3.1331 1.4133 -0.9928 0.9858
3.1121 1.4589 -0.9928 0.9858
3.0905 1.5043 -0.9928 0.9858
3.0452 1.5939 -0.9928 0.9858
2.9974 1.6823 -0.9928 0.9858
2.9471 1.7692 -0.9929 0.9858
2.8942 1.8546 -0.9929 0.9858
2.8668 1.8967 -0.9929 0.9858
2.7810 2.0205 -0.9929 0.9858
2.7209 2.1010 -0.9929 0.9858
2.6899 2.1405 -0.9930 0.9858
2.6584 2.1797 -0.9930 0.9858
2.6263 2.2183 -0.9930 0.9858
2.5936 2.2565 -0.9930 0.9858
2.4575 2.4043 -0.9930 0.9858
2.4222 2.4400 -0.9931 0.9858
2.3863 2.4751 -0.9931 0.9858
2.3499 2.5098 -0.9931 0.9858
2.1994 2.6429 -0.9932 0.9858
2.1606 2.6748 -0.9932 0.9858
2.1214 2.7062 -0.9932 0.9858
2.0816 2.7369 -0.9932 0.9858
2.0008 2.7966 -0.9932 0.9858
1.9598 2.8256 -0.9933 0.9858
1.8764 2.8818 -0.9933 0.9858
1.7915 2.9355 -0.9933 0.9858
1.7050 2.9867 -0.9934 0.9858
1.6171 3.0354 -0.9934 0.9858
1.5277 3.0814 -0.9934 0.9858
1.4826 3.1034 -0.9934 0.9858
1.4371 3.1248 -0.9935 0.9858
1.2053 3.2217 -0.9936 0.9858
1.1107 3.2557 -0.9936 0.9858
1.0630 3.2716 -0.9936 0.9858
1.0151 3.2868 -0.9936 0.9858
0.9670 3.3014 -0.9937 0.9858
0.9187 3.3153 -0.9937 0.9858
0.7726 3.3525 -0.9937 0.9858
0.7235 3.3635 -0.9938 0.9858
0.6249 3.3834 -0.9938 0.9858
0.5754 3.3922 -0.9938 0.9858
0.5258 3.4003 -0.9938 0.9858
0.4263 3.4144 -0.9939 0.9858
0.2762 3.4299 -0.9939 0.9858
0.1257 3.4390 -0.9940 0.9858
0.0754 3.4405 -0.9940 0.9858
-0.0251 3.4414 -0.9941 0.9858
-0.2262 3.4344 -0.9941 0.9858
-0.2763 3.4308 -0.9942 0.9858
-0.3764 3.4214 -0.9942 0.9858
-0.5757 3.3938 -0.9943 0.9858
-0.6253 3.3851 -0.9943 0.9858
-0.7239 3.3655 -0.9943 0.9858
-0.7730 3.3546 -0.9944 0.9858
-0.8220 3.3431 -0.9944 0.9858
-0.8708 3.3307 -0.9944 0.9858
-0.9678 3.3040 -0.9944 0.9858
-1.1592 3.2421 -0.9945 0.9858
-1.2065 3.2248 -0.9945 0.9858
-0.2529 0.6200 -0.1934 0.9972
-0.2456 0.5781 -0.1814 0.9974
-0.2556 0.5350 -0.1713 0.9975
-0.2630 0.5116 -0.1662 0.9976
-0.2665 0.5004 -0.1637 0.9976
-0.2699 0.4893 -0.1614 0.9977
-0.2731 0.4785 -0.1591 0.9977
-0.2829 0.4487 -0.1532 0.9978
-0.2862 0.4395 -0.1515 0.9978
-0.2924 0.4216 -0.1482 0.9979
-0.2982 0.4042 -0.1451 0.9979
-0.3088 0.3711 -0.1394 0.9980
-0.3160 0.3476 -0.1357 0.9980
-0.3182 0.3399 -0.1345 0.9981
-0.3236 0.3165 -0.1307 0.9981
-0.3251 0.3089 -0.1295 0.9981
-0.3279 0.2938 -0.1272 0.9982
-0.3317 0.2720 -0.1239 0.9982
-0.3329 0.2649 -0.1229 0.9982
-0.3340 0.2580 -0.1219 0.9982
-0.3361 0.2442 -0.1200 0.9983
-0.3396 0.2176 -0.1165 0.9983
-0.3411 0.2048 -0.1149 0.9983
-0.3425 0.1922 -0.1134 0.9984
-0.3435 0.1863 -0.1128 0.9984
-0.3453 0.1744 -0.1117 0.9984
-0.3471 0.1627 -0.1107 0.9984
-0.3483 0.1511 -0.1097 0.9984
-0.3489 0.1453 -0.1092 0.9984
-0.3495 0.1396 -0.1087 0.9984
-0.3500 0.1339 -0.1082 0.9984
-0.3508 0.1226 -0.1073 0.9985
-0.3516 0.1114 -0.1065 0.9985
-0.3520 0.1059 -0.1061 0.9985
-0.3522 0.1004 -0.1058 0.9985
-0.3527 0.0895 -0.1051 0.9985
-0.3532 0.0733 -0.1042 0.9985
-0.3533 0.0680 -0.1039 0.9985
-0.3534 0.0573 -0.1034 0.9985
-0.3534 0.0520 -0.1032 0.9985
-0.3531 0.0311 -0.1024 0.9985
-0.3528 0.0207 -0.1021 0.9985
-0.3526 0.0155 -0.1019 0.9985
-0.3521 0.0052 -0.1017 0.9985
-0.3461 0.0000 -0.1041 0.9986
-0.3466 -0.0101 -0.1043 0.9986
-0.3473 -0.0305 -0.1049 0.9985
-0.3474 -0.0356 -0.1051 0.9985
-0.3475 -0.0459 -0.1055 0.9985
-0.3475 -0.0511 -0.1057 0.9985
-0.3475 -0.0563 -0.1059 0.9985
-0.3474 -0.0668 -0.1064 0.9985
-0.3467 -0.0879 -0.1076 0.9985
-0.3462 -0.0986 -0.1083 0.9985
-0.3448 -0.1204 -0.1099 0.9985
-0.3428 -0.1427 -0.1117 0.9985
-0.3422 -0.1484 -0.1122 0.9984
-0.3415 -0.1540 -0.1127 0.9984
-0.3400 -0.1655 -0.1138 0.9984
-0.3391 -0.1712 -0.1143 0.9984
-0.3362 -0.1886 -0.1160 0.9984
-0.3345 -0.2008 -0.1174 0.9984
-0.3330 -0.2133 -0.1190 0.9983
-0.3321 -0.2197 -0.1198 0.9983
-0.3303 -0.2327 -0.1216 0.9983
-0.3272 -0.2526 -0.1244 0.9983
-0.3223 -0.2804 -0.1285 0.9982
-0.3209 -0.2876 -0.1297 0.9982
-0.3165 -0.3096 -0.1332 0.9982
-0.3148 -0.3171 -0.1345 0.9981
-0.3131 -0.3248 -0.1358 0.9981
-0.3113 -0.3325 -0.1371 0.9981
-0.3091 -0.3399 -0.1382 0.9981
-0.3067 -0.3474 -0.1394 0.9981
-0.3043 -0.3550 -0.1407 0.9980
-0.3018 -0.3627 -0.1420 0.9980
-0.2966 -0.3783 -0.1446 0.9980
-0.2939 -0.3863 -0.1461 0.9980
-0.2882 -0.4029 -0.1491 0.9979
-0.2853 -0.4113 -0.1506 0.9979
-0.2725 -0.4464 -0.1574 0.9978
-0.2616 -0.4742 -0.1630 0.9977
-0.2511 -0.5064 -0.1701 0.9976
-0.2433 -0.5290 -0.1752 0.9976
-0.2349 -0.5527 -0.1807 0.9975
-0.2304 -0.5649 -0.1836 0.9975
-0.2321 -0.5940 -0.1919 0.9973
-0.2383 -0.6369 -0.2046 0.9972
-0.2451 -0.6854 -0.2190 0.9970
-1.0046 -3.0919 -0.9782 0.9865
-0.9593 -3.1063 -0.9782 0.9865
-0.8681 -3.1328 -0.9782 0.9865
-0.7762 -3.1566 -0.9781 0.9865
-0.6836 -3.1779 -0.9781 0.9865
-0.5437 -3.2046 -0.9780 0.9865
-0.4027 -3.2252 -0.9780 0.9865
-0.3555 -3.2307 -0.9779 0.9865
-0.3082 -3.2355 -0.9779 0.9865
-0.2609 -3.2395 -0.9779 0.9865
0.1661 -3.2452 -0.9777 0.9865
0.2135 -3.2423 -0.9777 0.9865
0.2609 -3.2388 -0.9777 0.9865
0.3082 -3.2346 -0.9777 0.9865
0.4965 -3.2109 -0.9776 0.9865
0.5901 -3.1948 -0.9776 0.9865
0.6367 -3.1858 -0.9775 0.9865
0.7295 -3.1657 -0.9775 0.9865
0.8217 -3.1430 -0.9775 0.9865
0.9586 -3.1037 -0.9774 0.9865
1.0038 -3.0893 -0.9774 0.9865
1.1825 -3.0252 -0.9773 0.9865
1.2265 -3.0075 -0.9773 0.9865
1.3138 -2.9703 -0.9773 0.9865
1.2650 -2.7505 -0.9110 0.9874
1.2626 -2.6430 -0.8814 0.9878
1.3330 -2.5927 -0.8772 0.9879
1.4291 -2.5906 -0.8902 0.9877
1.6307 -2.5862 -0.9200 0.9873
1.6843 -2.5867 -0.9288 0.9872
1.8115 -2.6950 -0.9771 0.9865
1.8506 -2.6682 -0.9771 0.9865
1.9285 -2.3875 -0.9235 0.9873
1.9755 -2.3045 -0.9133 0.9874
2.1324 -2.3452 -0.9537 0.9868
2.2191 -2.3700 -0.9769 0.9865
2.3860 -2.2015 -0.9768 0.9865
2.4178 -2.1664 -0.9768 0.9865
2.4801 -2.0948 -0.9768 0.9865
2.5694 -1.9840 -0.9768 0.9865
2.5981 -1.9462 -0.9768 0.9865
2.6289 -1.9100 -0.9777 0.9865
2.6565 -1.8714 -0.9777 0.9865
2.7192 -1.7989 -0.9810 0.9865
2.7763 -1.7790 -0.9922 0.9863
2.8041 -1.7395 -0.9929 0.9863
2.8292 -1.6984 -0.9929 0.9863
2.8537 -1.6568 -0.9929 0.9863
2.8776 -1.6150 -0.9929 0.9863
2.9009 -1.5727 -0.9929 0.9863
2.9235 -1.5302 -0.9929 0.9863
2.9455 -1.4873 -0.9929 0.9863
3.0273 -1.3126 -0.9928 0.9863
3.0461 -1.2682 -0.9928 0.9863
3.0643 -1.2236 -0.9928 0.9863
3.1149 -1.0881 -0.9928 0.9863
3.1304 -1.0425 -0.9928 0.9863
3.1453 -0.9966 -0.9928 0.9863
3.1730 -0.9043 -0.9928 0.9863
3.1859 -0.8578 -0.9928 0.9863
3.1981 -0.8112 -0.9927 0.9863
3.2204 -0.7173 -0.9927 0.9863
3.2400 -0.6230 -0.9927 0.9863
3.2487 -0.5755 -0.9927 0.9863
3.2568 -0.5280 -0.9927 0.9863
3.2708 -0.4326 -0.9927 0.9863
3.2820 -0.3369 -0.9927 0.9863
3.2866 -0.2889 -0.9927 0.9863
3.2904 -0.2408 -0.9927 0.9863
3.2936 -0.1927 -0.9927 0.9863
3.2961 -0.1445 -0.9927 0.9863
3.2989 -0.0482 -0.9927 0.9863
3.2961 0.1446 -0.9927 0.9863
3.2936 0.1927 -0.9927 0.9863
3.2904 0.2408 -0.9927 0.9863
3.2866 0.2889 -0.9927 0.9863
3.2820 0.3369 -0.9927 0.9863
3.2768 0.3848 -0.9927 0.9863
3.2708 0.4327 -0.9927 0.9863
3.2641 0.4804 -0.9927 0.9863
3.2568 0.5280 -0.9927 0.9863
3.2487 0.5756 -0.9927 0.9863
3.1730 0.9043 -0.9928 0.9863
3.0987 1.1336 -0.9928 0.9863
3.0643 1.2236 -0.9928 0.9863
3.0461 1.2683 -0.9928 0.9863
2.9669 1.4441 -0.9928 0.9863
2.9455 1.4873 -0.9929 0.9863
2.9235 1.5302 -0.9929 0.9863
2.9009 1.5727 -0.9929 0.9863
2.8292 1.6984 -0.9929 0.9863
2.8041 1.7396 -0.9929 0.9863
2.7784 1.7804 -0.9929 0.9863
2.7253 1.8609 -0.9929 0.9863
2.6979 1.9005 -0.9930 0.9863
2.6412 1.9786 -0.9930 0.9863
2.6121 2.0170 -0.9930 0.9863
2.5521 2.0925 -0.9930 0.9863
2.5213 2.1296 -0.9930 0.9863
2.4899 2.1662 -0.9930 0.9863
2.4256 2.2381 -0.9931 0.9863
2.3927 2.2734 -0.9931 0.9863
2.3592 2.3081 -0.9931 0.9863
2.3253 2.3424 -0.9931 0.9863
2.2559 2.4094 -0.9931 0.9863
2.2205 2.4421 -0.9931 0.9863
2.1846 2.4743 -0.9932 0.9863
2.1114 2.5372 -0.9932 0.9863
2.0742 2.5678 -0.9932 0.9863
1.9984 2.6275 -0.9932 0.9863
1.9598 2.6564 -0.9933 0.9863
1.9208 2.6848 -0.9933 0.9863
1.8415 2.7398 -0.9933 0.9863
1.8013 2.7665 -0.9933 0.9863
1.7608 2.7925 -0.9933 0.9863
1.6785 2.8430 -0.9934 0.9863
1.6368 2.8672 -0.9934 0.9863
1.5096 2.9363 -0.9934 0.9863
1.4233 2.9793 -0.9935 0.9863
1.3356 3.0197 -0.9935 0.9863
1.2469 3.0576 -0.9935 0.9863
1.2021 3.0755 -0.9936 0.9863
1.1570 3.0928 -0.9936 0.9863
1.0662 3.1254 -0.9936 0.9863
1.0204 3.1407 -0.9936 0.9863
0.9283 3.1693 -0.9937 0.9863
0.8819 3.1826 -0.9937 0.9863
0.8353 3.1952 -0.9937 0.9863
0.7416 3.2184 -0.9937 0.9863
0.6473 3.2388 -0.9938 0.9863
0.5524 3.2565 -0.9938 0.9863
0.4570 3.2713 -0.9939 0.9863
0.3613 3.2834 -0.9939 0.9863
0.2171 3.2962 -0.9940 0.9863
0.1689 3.2991 -0.9940 0.9863
0.1206 3.3013 -0.9940 0.9863
-0.4572 3.2725 -0.9942 0.9863
-0.5050 3.2655 -0.9942 0.9863
-0.6002 3.2495 -0.9943 0.9863
-0.7421 3.2203 -0.9943 0.9863
-0.8359 3.1974 -0.9944 0.9863
-0.9753 3.1579 -0.9944 0.9863
-1.0672 3.1281 -0.9945 0.9863
-0.2304 0.5650 -0.1836 0.9975
-0.2349 0.5527 -0.1807 0.9975
-0.2392 0.5407 -0.1779 0.9975
-0.2433 0.5291 -0.1752 0.9976
-0.2511 0.5065 -0.1701 0.9976
-0.2547 0.4955 -0.1676 0.9977
-0.2583 0.4848 -0.1653 0.9977
-0.2617 0.4743 -0.1630 0.9977
-0.2654 0.4648 -0.1610 0.9978
-0.2822 0.4199 -0.1522 0.9979
-0.3043 0.3550 -0.1407 0.9980
-0.3067 0.3474 -0.1394 0.9981
-0.3113 0.3325 -0.1371 0.9981
-0.3132 0.3248 -0.1358 0.9981
-0.3180 0.3021 -0.1320 0.9982
-0.3209 0.2876 -0.1297 0.9982
-0.3223 0.2805 -0.1285 0.9982
-0.3236 0.2734 -0.1275 0.9982
-0.3260 0.2595 -0.1254 0.9983
-0.3272 0.2527 -0.1244 0.9983
-0.3283 0.2459 -0.1234 0.9983
-0.3293 0.2393 -0.1225 0.9983
-0.3312 0.2262 -0.1207 0.9983
-0.3338 0.2071 -0.1182 0.9984
-0.3352 0.1947 -0.1166 0.9984
-0.3362 0.1887 -0.1160 0.9984
-0.3382 0.1770 -0.1148 0.9984
-0.3400 0.1655 -0.1138 0.9984
-0.3409 0.1598 -0.1133 0.9984
-0.3416 0.1541 -0.1127 0.9984
-0.3422 0.1484 -0.1122 0.9984
-0.3428 0.1427 -0.1117 0.9985
-0.3433 0.1371 -0.1112 0.9985
-0.3443 0.1260 -0.1103 0.9985
-0.3452 0.1150 -0.1095 0.9985
-0.3462 0.0987 -0.1083 0.9985
-0.3468 0.0880 -0.1076 0.9985
-0.3469 0.0827 -0.1073 0.9985
-0.3471 0.0773 -0.1070 0.9985
-0.3474 0.0668 -0.1064 0.9985
-0.3475 0.0563 -0.1059 0.9985
-0.3475 0.0512 -0.1057 0.9985
-0.3475 0.0460 -0.1055 0.9985
-0.3474 0.0357 -0.1051 0.9985
-0.3473 0.0305 -0.1049 0.9985
-0.3463 0.0051 -0.1042 0.9986
-0.3404 0.0000 -0.1066 0.9986
-0.3413 -0.0199 -0.1070 0.9986
-0.3415 -0.0250 -0.1072 0.9986
-0.3417 -0.0350 -0.1075 0.9986
-0.3418 -0.0503 -0.1081 0.9986
-0.3418 -0.0554 -0.1084 0.9985
-0.3417 -0.0605 -0.1086 0.9985
-0.3416 -0.0656 -0.1089 0.9985
-0.3411 -0.0812 -0.1098 0.9985
-0.3409 -0.0864 -0.1101 0.9985
-0.3397 -0.1076 -0.1115 0.9985
-0.3393 -0.1130 -0.1119 0.9985
-0.3379 -0.1292 -0.1132 0.9985
-0.3368 -0.1402 -0.1142 0.9985
-0.3356 -0.1513 -0.1152 0.9985
-0.3348 -0.1570 -0.1157 0.9985
-0.3331 -0.1681 -0.1168 0.9984
-0.3311 -0.1795 -0.1179 0.9984
-0.3301 -0.1852 -0.1185 0.9984
-0.3273 -0.2030 -0.1206 0.9984
-0.3247 -0.2217 -0.1231 0.9984
-0.3238 -0.2281 -0.1240 0.9983
-0.3206 -0.2475 -0.1268 0.9983
-0.3156 -0.2745 -0.1309 0.9982
-0.3142 -0.2815 -0.1321 0.9982
-0.3080 -0.3102 -0.1368 0.9982
-0.3023 -0.3325 -0.1407 0.9981
-0.3000 -0.3398 -0.1419 0.9981
-0.2976 -0.3471 -0.1431 0.9981
-0.2951 -0.3546 -0.1444 0.9981
-0.2925 -0.3621 -0.1457 0.9981
-0.2843 -0.3853 -0.1499 0.9980
-0.2814 -0.3933 -0.1514 0.9980
-0.2690 -0.4266 -0.1579 0.9979
-0.2622 -0.4440 -0.1614 0.9978
-0.2586 -0.4529 -0.1633 0.9978
-0.2511 -0.4712 -0.1671 0.9978
-0.2433 -0.4906 -0.1714 0.9977
-0.2395 -0.5012 -0.1739 0.9977
-0.2314 -0.5231 -0.1791 0.9976
-0.2227 -0.5459 -0.1846 0.9975
-0.2180 -0.5577 -0.1875 0.9975
-0.2176 -0.6085 -0.2023 0.9973
-0.8345 -3.0114 -0.9781 0.9870
-0.7904 -3.0232 -0.9781 0.9870
-0.7461 -3.0344 -0.9781 0.9870
-0.6571 -3.0548 -0.9781 0.9870
-0.6124 -3.0640 -0.9781 0.9870
-0.4775 -3.0877 -0.9780 0.9870
-0.4323 -3.0943 -0.9780 0.9870
-0.3871 -3.1002 -0.9780 0.9870
-0.3417 -3.1055 -0.9779 0.9870
-0.2053 -3.1173 -0.9779 0.9870
-0.1597 -3.1199 -0.9779 0.9870
-0.1141 -3.1219 -0.9779 0.9870
-0.0228 -3.1237 -0.9778 0.9870
0.0228 -3.1237 -0.9778 0.9870
0.1141 -3.1216 -0.9778 0.9870
0.1597 -3.1195 -0.9777 0.9870
0.2508 -3.1134 -0.9777 0.9870
0.2962 -3.1093 -0.9777 0.9870
0.3869 -3.0993 -0.9776 0.9870
0.4321 -3.0932 -0.9776 0.9870
0.5223 -3.0791 -0.9776 0.9870
0.6121 -3.0624 -0.9776 0.9870
0.7457 -3.0325 -0.9775 0.9870
0.8778 -2.9968 -0.9774 0.9870
1.0512 -2.9402 -0.9774 0.9870
1.0941 -2.9244 -0.9774 0.9870
