ply
format ascii 1.0
element vertex 1580
property float32 x
property float32 y
property float32 z
property float32 I
end_header
-9.6095 -13.4315 3.8417 0.9344
-18.8160 -27.9938 7.8462 0.8706
-18.2194 -27.9809 7.7671 0.8719
-17.6347 -27.9682 7.6912 0.8730
-17.0611 -27.9557 7.6184 0.8742
-15.9662 -32.2031 8.3613 0.8628
-5.7386 -12.4779 3.1948 0.9452
-4.9180 -12.5824 3.1426 0.9460
-4.7440 -12.6805 3.1494 0.9459
-4.5694 -12.7798 3.1571 0.9458
-3.8688 -12.5269 3.0498 0.9476
-3.6848 -12.5802 3.0493 0.9476
-3.4656 -12.5063 3.0188 0.9481
-15.3143 -62.2829 14.9198 0.7684
-15.2316 -66.0975 15.7785 0.7569
-15.1388 -70.3789 16.7460 0.7441
-15.0338 -75.2209 17.8439 0.7298
8.5848 -12.7721 3.5798 0.9388
9.6352 -13.0600 3.7753 0.9355
9.9721 -13.1112 3.8319 0.9346
5.6770 -2.6613 1.4585 0.9746
5.6748 -2.5598 1.4482 0.9748
5.6727 -2.4597 1.4383 0.9749
10.1250 -3.8725 2.5217 0.9565
10.2911 -3.7646 2.5490 0.9560
9.8362 -3.4361 2.4237 0.9581
9.8975 -3.2961 2.4267 0.9581
9.4538 -2.8443 2.2965 0.9603
9.6812 -2.6067 2.3323 0.9597
9.6396 -2.4450 2.3134 0.9600
9.5605 -2.2768 2.2862 0.9604
9.8597 -2.1963 2.3498 0.9594
10.4162 -1.8454 2.4607 0.9575
10.5321 -1.7075 2.4819 0.9571
11.2721 -1.4910 2.6449 0.9544
20.5819 -2.4169 4.8206 0.9184
20.8234 -2.1373 4.8694 0.9176
14.1546 9.3646 3.9480 0.9327
14.6797 10.0235 4.1349 0.9296
14.3262 10.4086 4.1193 0.9299
14.3239 10.7302 4.1632 0.9291
9.8127 9.0542 3.1059 0.9466
8.2845 8.5928 2.7766 0.9522
8.2734 8.8361 2.8158 0.9515
7.9893 8.7865 2.7625 0.9524
7.7741 8.8050 2.7323 0.9529
7.5871 8.8507 2.7118 0.9533
7.1645 8.8695 2.6523 0.9543
7.0612 9.2840 2.7133 0.9532
6.9250 9.6794 2.7685 0.9523
7.1155 10.2593 2.9043 0.9500
-1.7265 9.3469 2.2111 0.9617
-1.8832 9.4223 2.2352 0.9613
-1.2717 5.1722 1.2390 0.9784
-1.3119 5.0180 1.2065 0.9789
-2.6782 9.6647 2.3329 0.9596
-2.8271 9.1541 2.2287 0.9614
-2.8674 8.8249 2.1585 0.9626
-3.1652 9.2781 2.2804 0.9605
-3.3520 9.3749 2.3160 0.9599
-3.4002 9.0886 2.2573 0.9609
-3.4457 8.8155 2.2017 0.9619
-3.4886 8.5545 2.1491 0.9628
-3.9090 9.1985 2.3249 0.9598
-4.4352 9.2841 2.3934 0.9586
-4.5693 9.2161 2.3929 0.9586
-7.1907 11.0434 3.0655 0.9473
-6.8422 10.1796 2.8532 0.9509
-7.2338 10.4297 2.9526 0.9492
-6.8858 9.0534 2.6459 0.9544
-7.1288 9.0939 2.6879 0.9537
-7.3797 9.1359 2.7319 0.9529
-7.6238 9.1610 2.7724 0.9522
-7.7587 9.0507 2.7731 0.9522
-7.8934 8.9401 2.7742 0.9522
-8.0280 8.8292 2.7759 0.9522
-8.2973 8.6061 2.7809 0.9521
-8.4321 8.4939 2.7841 0.9520
-8.5670 8.3812 2.7879 0.9520
-8.8180 8.3782 2.8295 0.9513
-13.5459 9.5424 3.8544 0.9342
-12.4294 7.9646 3.4340 0.9412
-2.0248 -0.0296 0.4475 0.9917
-2.0287 -0.0593 0.4485 0.9917
-26.4545 -2.3253 5.8681 0.8969
-17.5855 -2.5880 3.9277 0.9298
-17.8502 -2.8941 3.9958 0.9286
-76.4687 -29.2468 18.0909 0.7151
-69.9022 -29.1041 16.7315 0.7333
-59.3231 -28.8742 14.5788 0.7632
-57.0881 -28.8256 14.1315 0.7695
-51.5058 -28.9062 13.0509 0.7851
-49.8507 -28.9434 12.7375 0.7897
-48.1528 -28.9065 12.4102 0.7945
-45.0043 -28.8380 11.8110 0.8034
-42.0054 -28.6816 11.2392 0.8119
-40.7013 -28.6715 11.0010 0.8155
-38.3021 -28.6924 10.5749 0.8220
-37.1248 -28.6668 10.3644 0.8252
-35.9932 -28.6422 10.1643 0.8283
-34.9043 -28.6186 9.9738 0.8312
-18.1625 -16.2737 5.3887 0.9049
-17.7848 -16.4100 5.3472 0.9056
-19.0205 -18.0718 5.7975 0.8981
-17.9941 -17.6039 5.5625 0.9020
-17.2831 -17.9263 5.5023 0.9030
-17.1756 -18.3438 5.5528 0.9022
-10.5089 -11.9025 3.5085 0.9370
-10.0010 -11.6664 3.3955 0.9390
-10.2000 -12.2566 3.5235 0.9368
-9.8373 -12.1784 3.4593 0.9379
-10.1293 -12.9216 3.6280 0.9350
-9.9680 -13.1058 3.6384 0.9348
-9.8056 -13.2910 3.6497 0.9346
-9.6421 -13.4771 3.6617 0.9344
-18.2194 -27.9808 7.3781 0.8722
-17.6347 -27.9682 7.3060 0.8733
-17.0611 -27.9557 7.2368 0.8744
-16.4982 -27.9435 7.1705 0.8755
-1.5205 -2.7562 0.6956 0.9872
-1.4892 -2.7954 0.6999 0.9871
-15.9661 -32.2030 7.9424 0.8631
-15.9141 -34.6033 8.4161 0.8555
-5.5873 -12.6320 3.0521 0.9450
-5.1906 -12.2146 2.9326 0.9471
-5.0196 -12.3088 2.9373 0.9470
-4.8483 -12.4039 2.9428 0.9469
-5.0641 -13.5361 3.1935 0.9425
-4.1274 -12.7031 2.9514 0.9468
-3.8833 -12.5739 2.9079 0.9475
-3.4692 -12.5194 2.8706 0.9482
-3.2544 -12.4482 2.8431 0.9487
-15.3140 -62.2821 14.1723 0.7689
-15.1385 -70.3780 15.9070 0.7446
8.6391 -14.1557 3.6644 0.9343
8.3531 -12.8285 3.3827 0.9392
8.6234 -12.8297 3.4158 0.9386
8.6071 -12.4097 3.3372 0.9400
8.7887 -12.2844 3.3376 0.9400
9.7292 -12.0445 3.4213 0.9385
2.0935 -2.1714 0.6665 0.9877
2.1370 -2.1526 0.6702 0.9877
5.6839 -2.9750 1.4176 0.9741
5.6816 -2.8688 1.4064 0.9743
5.6793 -2.7643 1.3957 0.9745
5.6771 -2.6613 1.3854 0.9746
10.2203 -3.7387 2.4047 0.9564
9.8641 -3.4458 2.3088 0.9581
9.9255 -3.3054 2.3117 0.9581
9.7497 -3.0893 2.2599 0.9590
9.4968 -2.8571 2.1914 0.9602
9.7312 -2.6202 2.2269 0.9596
10.0042 -2.0755 2.2577 0.9590
10.7054 -1.7357 2.3965 0.9565
10.8167 -1.5919 2.4159 0.9562
10.7628 -1.4236 2.3989 0.9565
10.6576 -1.0939 2.3674 0.9571
15.1247 9.3828 3.9329 0.9297
14.1275 9.3467 3.7431 0.9330
13.5213 9.8238 3.6931 0.9338
13.3249 10.2892 3.7200 0.9334
9.0987 8.3954 2.7356 0.9505
9.0883 8.6350 2.7701 0.9499
8.0783 8.8845 2.6534 0.9520
7.9140 8.9635 2.6421 0.9522
7.5072 8.7574 2.5488 0.9538
7.5741 9.3765 2.6634 0.9518
7.3678 9.3988 2.6389 0.9523
6.7940 8.9326 2.4799 0.9551
7.0842 9.6023 2.6368 0.9523
6.9003 9.6448 2.6205 0.9526
-1.7087 9.2508 2.0787 0.9622
-1.8636 9.3243 2.1011 0.9618
-2.0219 9.3999 2.1246 0.9614
-1.2717 5.1720 1.1769 0.9784
-1.3199 5.0486 1.1531 0.9789
-2.6774 9.6619 2.2154 0.9598
-2.8245 9.6431 2.2204 0.9597
-2.9140 8.9682 2.0837 0.9621
-3.4207 9.5672 2.2451 0.9592
-3.5328 9.0385 2.1443 0.9610
-3.9786 9.3623 2.2478 0.9592
-4.0215 9.0920 2.1968 0.9601
-4.3059 9.3627 2.2772 0.9587
-7.3041 10.8668 2.8932 0.9478
-6.5532 9.1597 2.4887 0.9549
-7.0657 9.2900 2.5791 0.9533
-7.1116 9.0721 2.5472 0.9539
-7.3617 9.1136 2.5887 0.9531
-7.9406 8.9936 2.6510 0.9520
-8.8607 8.4188 2.7008 0.9512
-12.4283 9.3102 3.4313 0.9384
-12.8344 9.3247 3.5055 0.9371
-12.4843 7.9998 3.2764 0.9411
-2.0248 0.0296 0.4475 0.9917
-1.6947 -0.0248 0.3549 0.9931
-1.7005 -0.0497 0.3562 0.9931
-1.7073 -0.0749 0.3578 0.9930
-1.7152 -0.1004 0.3597 0.9930
-1.7242 -0.1262 0.3620 0.9930
-1.7458 -0.1792 0.3675 0.9929
-1.7940 -0.2640 0.3797 0.9926
-1.8496 -0.3277 0.3933 0.9924
-84.2039 -29.4150 18.6748 0.6945
-80.1708 -29.3273 17.8735 0.7055
-69.9022 -29.1041 15.8535 0.7339
-66.9744 -29.0405 15.2842 0.7421
-64.2490 -28.9812 14.7573 0.7497
-61.7047 -28.9260 14.2684 0.7569
-57.0881 -28.8257 13.3900 0.7700
-55.2868 -28.9375 13.0654 0.7749
-49.8507 -28.9434 12.0691 0.7901
-48.1528 -28.9065 11.7590 0.7949
-46.5396 -28.8714 11.4669 0.7995
-42.0054 -28.6816 10.6495 0.8123
-40.8075 -28.7469 10.4512 0.8155
-38.3021 -28.6924 10.0200 0.8224
-14.4379 -11.4892 3.8632 0.9274
-33.8553 -28.5958 9.2786 0.8343
-17.7993 -16.4233 5.0707 0.9058
-18.2668 -17.3557 5.2756 0.9022
-17.9463 -17.5572 5.2566 0.9025
-10.4628 -11.1744 3.2051 0.9394
-10.5627 -11.9635 3.3414 0.9369
-10.2683 -11.9782 3.3033 0.9376
-9.7679 -11.7374 3.1972 0.9395
-9.8552 -12.2005 3.2837 0.9379
-10.1633 -12.9650 3.4491 0.9349
-9.9231 -13.0468 3.4320 0.9352
-9.8387 -13.3359 3.4698 0.9345
-18.8161 -27.9938 7.0621 0.8712
-17.6347 -27.9682 6.9226 0.8736
-16.4982 -27.9435 6.7943 0.8758
-1.4893 -2.7954 0.6632 0.9871
-6.1158 -12.3352 2.8827 0.9453
-5.7242 -11.9823 2.7804 0.9472
-5.7706 -13.0464 2.9869 0.9434
-5.3852 -12.6724 2.8829 0.9453
-5.3648 -13.1552 2.9746 0.9436
-4.5599 -12.7532 2.8357 0.9462
-4.1449 -12.7566 2.8083 0.9467
-3.8979 -12.6210 2.7657 0.9474
-3.6921 -12.6052 2.7501 0.9477
-3.4728 -12.5325 2.7228 0.9482
-3.2578 -12.4611 2.6967 0.9487
7.7846 -12.7557 3.1288 0.9408
8.1228 -12.8826 3.1887 0.9397
8.7751 -12.6520 3.2238 0.9390
8.7265 -12.1975 3.1401 0.9405
8.7698 -11.8870 3.0928 0.9414
8.9094 -11.7140 3.0814 0.9416
9.4543 -12.0605 3.2085 0.9393
9.7146 -12.0265 3.2369 0.9388
2.0457 -2.1848 0.6267 0.9878
2.1164 -2.1320 0.6290 0.9878
5.6816 -2.8688 1.3326 0.9743
5.6771 -2.6613 1.3128 0.9747
5.6749 -2.5598 1.3035 0.9749
10.1506 -3.7132 2.2630 0.9568
9.8920 -3.4556 2.1939 0.9581
9.6003 -2.8883 2.0990 0.9599
9.7806 -2.6334 2.1207 0.9595
9.7104 -2.4630 2.0975 0.9599
9.5979 -2.1380 2.0588 0.9606
10.0219 -1.9270 2.1368 0.9592
10.6486 -1.7264 2.2586 0.9569
10.7758 -1.5859 2.2805 0.9565
10.6698 -1.2530 2.2493 0.9570
20.6621 -2.1208 4.3488 0.9186
30.8799 6.8788 6.6239 0.8787
31.0152 7.3862 6.6754 0.8778
14.3213 8.8844 3.5286 0.9334
13.8455 9.4538 3.5102 0.9338
13.1929 9.2937 3.3788 0.9362
13.2925 9.9575 3.4774 0.9344
13.2715 10.2479 3.5107 0.9338
9.2127 8.5005 2.6245 0.9501
9.2199 8.7600 2.6628 0.9494
9.2268 9.0268 2.7026 0.9486
9.1246 9.1916 2.7117 0.9484
8.4833 9.0603 2.5987 0.9505
8.0535 8.8572 2.5064 0.9523
8.0582 9.1268 2.5491 0.9515
7.7381 9.2983 2.5328 0.9518
7.5294 9.3212 2.5088 0.9522
7.0590 9.5681 2.4895 0.9526
6.8758 9.6106 2.4742 0.9529
-2.0010 9.3025 1.9922 0.9619
-2.1611 9.3783 2.0150 0.9614
-1.2717 5.1720 1.1151 0.9785
-2.6655 9.6191 2.0899 0.9600
-2.8237 9.6403 2.1032 0.9598
-3.4197 9.5644 2.1267 0.9593
-3.5710 9.5451 2.1338 0.9592
-3.7363 9.5592 2.1489 0.9589
-4.0924 9.2522 2.1182 0.9595
-4.5797 9.2370 2.1586 0.9587
-6.5440 9.1469 2.3548 0.9551
-7.6062 9.4163 2.5344 0.9517
-7.5509 9.0733 2.4715 0.9529
-7.4462 8.6862 2.3954 0.9543
-7.6579 8.6734 2.4225 0.9538
-8.2833 8.5916 2.4987 0.9524
-8.5336 8.5962 2.5361 0.9517
-8.6703 8.4823 2.5396 0.9516
-9.1974 8.7387 2.6563 0.9495
-13.3647 10.6352 3.5761 0.9326
-12.0899 9.3355 3.1981 0.9395
-12.4822 9.3505 3.2654 0.9383
-12.8913 9.3660 3.3363 0.9370
-12.8610 8.5088 3.2287 0.9389
-12.5394 8.0350 3.1182 0.9410
-14.1286 8.7648 3.4811 0.9343
-14.4701 8.6865 3.5336 0.9334
-18.9329 9.9096 4.4742 0.9164
-18.8431 9.5145 4.4197 0.9173
-1.9789 0.3805 0.4219 0.9918
-1.8137 0.2941 0.3847 0.9925
-1.7760 0.2349 0.3751 0.9927
-1.7458 0.1792 0.3675 0.9929
-1.7242 0.1262 0.3620 0.9930
-1.7073 0.0749 0.3578 0.9930
-1.6194 -0.0473 0.3205 0.9934
-1.6209 -0.0711 0.3210 0.9934
-1.6227 -0.0949 0.3216 0.9934
-1.6247 -0.1189 0.3223 0.9934
-1.6270 -0.1430 0.3231 0.9934
-1.6363 -0.2164 0.3265 0.9933
-1.6501 -0.2675 0.3307 0.9932
-1.6835 -0.3750 0.3412 0.9930
-1.6964 -0.4040 0.3450 0.9929
-84.2039 -29.4149 17.6454 0.6951
-80.1708 -29.3273 16.8883 0.7060
-69.9022 -29.1041 14.9797 0.7344
-66.9744 -29.0405 14.4417 0.7426
-64.2490 -28.9812 13.9438 0.7502
-57.5818 -29.0749 12.7614 0.7687
-55.5340 -29.0669 12.4004 0.7745
-51.6410 -28.9823 11.7152 0.7855
-46.5396 -28.8714 10.8348 0.7999
-45.0043 -28.8381 10.5744 0.8042
-43.5407 -28.8063 10.3283 0.8083
-40.8075 -28.7469 9.8751 0.8158
-39.5284 -28.7191 9.6661 0.8194
-38.3021 -28.6924 9.4677 0.8227
-34.5597 -28.3360 8.8414 0.8334
-33.5210 -28.3134 8.6806 0.8362
-14.5291 -12.6403 3.8099 0.9245
-31.5519 -28.2706 8.3811 0.8414
-18.7802 -17.3285 5.0553 0.9011
-17.9274 -17.5387 4.9616 0.9028
-17.4693 -17.5974 4.9055 0.9038
-10.6648 -11.3902 3.0869 0.9384
-10.3701 -11.4049 3.0495 0.9391
-10.0737 -11.4095 3.0111 0.9398
-9.7824 -11.4114 2.9735 0.9406
-10.0283 -12.0503 3.1015 0.9381
-10.0352 -13.1941 3.2794 0.9346
-18.8160 -27.9938 6.6728 0.8715
-17.6347 -27.9682 6.5411 0.8739
-1.5205 -2.7562 0.6227 0.9872
-1.4893 -2.7955 0.6266 0.9872
-15.9898 -31.1004 6.9182 0.8671
-6.3343 -12.7760 2.8211 0.9435
-6.0292 -12.6206 2.7671 0.9446
-5.7457 -12.4933 2.7204 0.9455
-5.3694 -12.1393 2.6260 0.9473
-4.8974 -12.0091 2.5658 0.9485
-4.5556 -12.7413 2.6769 0.9463
-4.1481 -12.7666 2.6556 0.9467
-3.4152 -13.0634 2.6712 0.9464
-15.5552 -63.2616 12.8882 0.7667
-15.0332 -75.2177 15.1748 0.7314
-14.6149 -94.5079 18.9190 0.6771
20.6521 -83.9920 17.1113 0.7028
22.8129 -82.3253 16.9004 0.7059
24.1053 -82.2972 16.9651 0.7049
25.4080 -82.2689 17.0340 0.7039
29.3487 -82.0832 17.2455 0.7009
8.0146 -14.0393 3.1981 0.9362
8.2670 -14.0020 3.2168 0.9358
7.9027 -12.9489 3.0011 0.9400
8.4130 -12.5166 2.9836 0.9404
8.7055 -12.5517 3.0219 0.9396
8.9678 -11.7907 2.9306 0.9414
9.3045 -11.8695 2.9837 0.9404
2.0077 -2.2081 0.5904 0.9879
2.0596 -2.1362 0.5870 0.9880
2.1034 -2.1187 0.5906 0.9879
14.5427 -13.0303 3.8630 0.9235
5.6816 -2.8689 1.2592 0.9744
5.6771 -2.6613 1.2404 0.9748
5.6749 -2.5598 1.2316 0.9749
9.6518 -3.3717 2.0226 0.9592
9.7036 -3.2314 2.0233 0.9592
9.7602 -2.4756 1.9920 0.9598
9.3936 -2.2371 1.9103 0.9614
9.6559 -2.1509 1.9571 0.9605
9.8524 -1.8943 1.9848 0.9599
10.3834 -1.6834 2.0810 0.9580
10.6825 -1.4130 2.1317 0.9570
20.6257 -2.1171 4.1019 0.9189
14.3244 8.3168 3.2768 0.9347
14.4018 8.6455 3.3231 0.9338
14.4831 8.9848 3.3718 0.9329
14.2016 9.3957 3.3688 0.9329
13.4071 9.1545 3.2117 0.9359
13.2423 9.3286 3.2045 0.9361
13.0121 10.0476 3.2523 0.9352
12.7996 10.4946 3.2745 0.9347
8.5647 9.1472 2.4790 0.9502
8.0223 8.8229 2.3591 0.9525
8.2343 9.6055 2.5029 0.9497
7.6926 9.2436 2.3791 0.9521
7.4855 9.2669 2.3567 0.9526
7.0341 9.5343 2.3440 0.9528
6.8517 9.5768 2.3296 0.9531
-2.1388 9.2814 1.8843 0.9619
-2.4668 9.4357 1.9294 0.9610
-2.6370 9.5162 1.9535 0.9605
-2.8229 9.6375 1.9867 0.9599
-3.0111 9.2671 1.9277 0.9610
-3.4187 9.5616 2.0089 0.9594
-3.5700 9.5423 2.0156 0.9593
-3.7155 9.5058 2.0191 0.9592
-3.8561 9.4557 2.0202 0.9592
-3.9969 9.4056 2.0218 0.9592
-4.1655 9.4174 2.0372 0.9589
-4.3156 9.3839 2.0433 0.9588
-4.4503 9.3156 2.0424 0.9588
-6.5350 9.1343 2.2219 0.9552
-6.7856 9.1975 2.2612 0.9545
-7.0454 9.2632 2.3024 0.9537
-7.3149 9.3314 2.3456 0.9528
-7.5948 9.4022 2.3911 0.9519
-7.5083 8.7586 2.2823 0.9540
-8.1182 8.9284 2.3873 0.9520
-8.3006 8.6095 2.3659 0.9524
-8.5850 8.6479 2.4107 0.9515
-8.9297 8.7361 2.4714 0.9503
-11.7619 9.3597 2.9737 0.9405
-12.5363 9.3911 3.0988 0.9381
-12.9484 9.4075 3.1663 0.9368
-13.2841 9.3580 3.2146 0.9359
-12.9188 8.5470 3.0645 0.9388
-14.2365 8.8318 3.3144 0.9340
-19.0333 10.3192 4.2832 0.9155
-18.9411 9.9139 4.2294 0.9165
-20.1366 9.4396 4.3997 0.9133
-1.6363 0.2164 0.3265 0.9933
-1.6295 0.1673 0.3241 0.9933
-1.6270 0.1430 0.3231 0.9934
-1.6247 0.1189 0.3223 0.9934
-1.6209 0.0711 0.3210 0.9934
-1.6194 0.0474 0.3205 0.9934
-1.6181 0.0236 0.3201 0.9934
-1.5567 -0.0228 0.2901 0.9937
-1.5579 -0.0455 0.2904 0.9937
-1.5593 -0.0684 0.2908 0.9937
-1.5609 -0.0914 0.2914 0.9937
-1.5649 -0.1375 0.2927 0.9936
-1.5717 -0.1846 0.2949 0.9936
-1.5751 -0.2084 0.2961 0.9936
-1.6029 -0.3325 0.3051 0.9934
-1.6109 -0.3588 0.3075 0.9933
-1.6193 -0.3857 0.3102 0.9932
-1.6381 -0.4155 0.3149 0.9931
-1.6658 -0.4486 0.3215 0.9930
-93.4674 -29.6163 18.2704 0.6710
-88.6166 -29.5109 17.4046 0.6838
-80.1708 -29.3273 15.9074 0.7066
-76.4688 -29.2469 15.2560 0.7167
-73.0573 -29.1727 14.6589 0.7261
-69.9022 -29.1041 14.1096 0.7348
-62.3200 -29.2144 12.8255 0.7557
-57.5816 -29.0748 12.0201 0.7692
-53.5323 -29.0234 11.3471 0.7805
-51.5058 -28.9063 11.0058 0.7864
-20.4210 -11.8565 4.4002 0.9084
-20.4172 -12.2566 4.4375 0.9077
-19.9548 -13.2020 4.4586 0.9072
-40.8075 -28.7469 9.3015 0.8162
-39.1382 -28.4355 9.0148 0.8213
-14.7322 -11.0360 3.4301 0.9278
-14.6519 -11.3138 3.4495 0.9274
-14.5705 -11.5947 3.4698 0.9270
-34.5597 -28.3360 8.3279 0.8337
-14.2173 -12.3691 3.5116 0.9262
-14.2353 -12.7549 3.5617 0.9252
-13.9808 -12.9000 3.5448 0.9255
-17.4736 -17.6017 4.6217 0.9040
-10.6158 -11.0109 2.8501 0.9397
-10.0656 -11.0700 2.7881 0.9409
-10.0679 -11.4029 2.8345 0.9400
-9.8305 -11.4675 2.8146 0.9404
-9.5970 -11.5320 2.7957 0.9408
-9.4930 -12.1099 2.8673 0.9393
-9.2180 -12.1198 2.8374 0.9399
-8.9482 -12.1287 2.8086 0.9405
-9.7403 -13.6144 3.1193 0.9342
-9.6788 -13.9550 3.1646 0.9332
-16.4982 -27.9435 6.0469 0.8763
-16.0543 -28.1223 6.0342 0.8766
-15.9658 -32.2022 6.6977 0.8639
-5.7666 -12.5387 2.5717 0.9454
-15.8853 -35.9140 7.3177 0.8523
-5.0226 -11.8192 2.3930 0.9491
-4.8111 -12.3087 2.4626 0.9476
-4.3829 -12.8473 2.5295 0.9463
-3.6999 -12.6318 2.4527 0.9479
-3.4801 -12.5586 2.4284 0.9484
-15.5312 -67.3993 12.8882 0.7547
-15.1380 -70.3752 13.4138 0.7461
-15.0329 -75.2164 14.2932 0.7319
25.4079 -82.2689 16.0446 0.7044
26.7215 -82.2404 16.1135 0.7034
28.0467 -82.2116 16.1864 0.7023
30.7348 -82.1532 16.3448 0.6998
32.0992 -82.1235 16.4305 0.6985
34.8730 -82.0632 16.6153 0.6957
39.1590 -81.9700 16.9279 0.6910
43.5653 -81.7742 17.2655 0.6859
8.0279 -13.1541 2.8716 0.9392
9.0266 -11.8682 2.7785 0.9411
9.0767 -11.5788 2.7415 0.9419
9.9967 -12.0123 2.9121 0.9384
10.5341 -12.2884 3.0161 0.9363
1.9831 -2.2461 0.5583 0.9879
1.9863 -2.1845 0.5502 0.9881
14.5424 -13.0301 3.6385 0.9236
5.6816 -2.8688 1.1860 0.9744
31.7282 -12.6695 6.3662 0.8702
9.5877 -3.6670 1.9128 0.9591
9.6400 -3.5264 1.9127 0.9591
9.5485 -3.1798 1.8753 0.9599
9.7411 -2.9307 1.8955 0.9595
9.7062 -2.7661 1.8807 0.9598
9.6716 -2.6041 1.8664 0.9601
9.8104 -2.4884 1.8860 0.9597
9.7145 -2.1640 1.8546 0.9603
9.9106 -2.0562 1.8861 0.9597
10.7489 -1.7427 2.0291 0.9567
17.9827 -2.1118 3.3740 0.9290
14.0237 8.6998 3.0752 0.9351
13.7198 8.7914 3.0364 0.9358
13.4779 9.2028 3.0411 0.9358
13.1417 9.5480 3.0270 0.9360
13.4733 10.0929 3.1370 0.9338
13.4364 11.0168 3.2378 0.9317
9.4478 8.7175 2.3955 0.9490
9.4587 8.9869 2.4313 0.9483
9.3032 9.1014 2.4252 0.9484
7.4423 9.2133 2.2070 0.9530
7.1933 9.4577 2.2142 0.9528
-2.5287 9.6723 1.8629 0.9601
-2.6751 9.6536 1.8666 0.9601
-4.2787 9.3036 1.9082 0.9592
-6.5259 9.1216 2.0900 0.9554
-6.7761 9.1846 2.1269 0.9546
-7.0353 9.2500 2.1656 0.9538
-7.3042 9.3178 2.2062 0.9530
-7.6563 9.2000 2.2303 0.9525
-8.3178 8.6273 2.2331 0.9524
-9.1655 8.9668 2.3893 0.9492
-11.8108 9.3986 2.8126 0.9404
-12.5907 9.4318 2.9315 0.9380
-13.2838 9.3578 3.0279 0.9360
-13.3104 9.0885 3.0033 0.9365
-12.9778 8.5860 2.8997 0.9386
-14.3706 8.6268 3.1233 0.9341
-14.5550 8.4506 3.1362 0.9338
-18.6231 10.4518 3.9794 0.9168
-18.4045 9.9783 3.9012 0.9183
-19.9200 9.6956 4.1283 0.9138
-20.1826 9.4612 4.1536 0.9133
-1.6951 0.4830 0.3284 0.9929
-1.6658 0.4485 0.3215 0.9930
-1.6381 0.4155 0.3149 0.9931
-1.6193 0.3857 0.3102 0.9932
-1.6109 0.3589 0.3075 0.9933
-1.6029 0.3325 0.3051 0.9934
-1.5810 0.2563 0.2985 0.9935
-1.5751 0.2084 0.2961 0.9936
-1.5682 0.1610 0.2938 0.9936
-1.5627 0.1144 0.2920 0.9936
-1.5609 0.0913 0.2914 0.9937
-1.5593 0.0684 0.2908 0.9937
-1.5579 0.0455 0.2904 0.9937
-1.5567 0.0228 0.2901 0.9937
-1.4991 0.0000 0.2622 0.9939
-1.5000 -0.0219 0.2624 0.9939
-1.5012 -0.0439 0.2627 0.9939
-1.5087 -0.1326 0.2649 0.9939
-1.5116 -0.1552 0.2658 0.9938
-1.5148 -0.1779 0.2668 0.9938
-1.5254 -0.2703 0.2710 0.9937
-1.5446 -0.3441 0.2768 0.9936
-1.5838 -0.4264 0.2869 0.9934
-1.6100 -0.4588 0.2928 0.9932
-1.6374 -0.4926 0.2991 0.9931
-1.6664 -0.5280 0.3057 0.9929
-84.2040 -29.4150 15.5999 0.6961
-67.5327 -29.2830 12.8741 0.7416
-55.4196 -29.0077 10.9405 0.7757
-53.5322 -29.0234 10.6503 0.7809
-20.5052 -11.5080 4.1125 0.9089
-20.1281 -12.8978 4.1811 0.9075
-40.4047 -28.4630 8.6441 0.8182
-14.7187 -11.3654 3.2524 0.9273
-14.4424 -12.1987 3.3064 0.9261
-13.9198 -12.1102 3.2270 0.9278
-13.5513 -12.8754 3.2693 0.9269
-13.4502 -13.1585 3.2910 0.9264
-17.4779 -17.6061 4.3390 0.9042
-10.7746 -11.5073 2.7571 0.9380
-10.2700 -11.6319 2.7139 0.9389
-9.8080 -11.7855 2.6817 0.9396
-9.5250 -12.1507 2.7003 0.9392
-9.1045 -12.3407 2.6822 0.9396
-8.8993 -12.8311 2.7311 0.9386
-1.5205 -2.7563 0.5506 0.9873
-6.2023 -12.5097 2.4421 0.9449
-5.8380 -12.6940 2.4437 0.9448
-5.0438 -11.8690 2.2555 0.9490
-4.5473 -12.7179 2.3623 0.9466
-4.3808 -12.8411 2.3730 0.9464
-4.1546 -12.7868 2.3515 0.9469
-3.9276 -12.7174 2.3279 0.9474
-3.7038 -12.6450 2.3045 0.9479
-3.4837 -12.5717 2.2816 0.9484
-3.4150 -13.0625 2.3614 0.9467
-15.6350 -63.5875 11.4527 0.7665
-15.5505 -67.4817 12.1118 0.7549
26.8054 -82.4986 15.1715 0.7031
28.1347 -82.4697 15.2401 0.7020
29.3842 -82.1825 15.2648 0.7016
30.7348 -82.1532 15.3411 0.7003
32.2001 -82.3813 15.4699 0.6983
33.5835 -82.3513 15.5548 0.6969
37.7124 -82.0015 15.7860 0.6931
40.6247 -81.9382 15.9956 0.6898
43.6180 -81.8731 16.2249 0.6861
45.1477 -81.8399 16.3473 0.6842
8.5103 -13.4970 2.7907 0.9373
8.5310 -12.3001 2.6181 0.9410
8.7215 -12.1904 2.6216 0.9409
9.0861 -11.9462 2.6251 0.9409
9.1356 -11.6539 2.5899 0.9416
1.9608 -2.2208 0.5182 0.9880
1.9978 -2.1336 0.5112 0.9882
2.0804 -2.0956 0.5165 0.9881
2.1462 -2.0996 0.5251 0.9879
13.5214 -12.4761 3.2178 0.9280
13.6953 -12.2710 3.2161 0.9280
14.4677 -12.5869 3.3540 0.9251
14.4809 -12.2312 3.3152 0.9259
5.6771 -2.6614 1.0966 0.9749
9.4691 -3.3079 1.7543 0.9601
9.7769 -2.7863 1.7781 0.9596
9.7415 -2.6229 1.7645 0.9599
9.8608 -2.5011 1.7793 0.9595
9.5728 -2.2797 1.7211 0.9608
9.7734 -2.1771 1.7513 0.9602
10.3762 -1.8383 1.8431 0.9581
10.3038 -1.6706 1.8256 0.9585
10.1244 -1.4900 1.7898 0.9593
21.2041 -1.8638 3.7229 0.9172
20.5815 8.5692 3.8992 0.9134
19.5070 9.4946 3.7944 0.9157
14.1703 8.7907 2.9165 0.9345
14.0869 9.0267 2.9262 0.9343
13.5492 9.2515 2.8695 0.9355
13.2521 9.6282 2.8649 0.9356
12.8680 9.6395 2.8121 0.9368
13.2363 10.2207 2.9249 0.9343
13.5823 10.8084 3.0359 0.9319
9.5013 9.0274 2.2922 0.9482
9.2861 9.0848 2.2721 0.9486
9.0747 9.1412 2.2528 0.9490
8.4895 9.0670 2.1724 0.9508
8.2630 9.3587 2.1835 0.9506
-2.2368 9.7068 1.7422 0.9604
-1.2716 5.1716 0.9315 0.9786
-2.5279 9.6695 1.7480 0.9602
-2.6743 9.6508 1.7515 0.9601
-2.8213 9.6320 1.7554 0.9601
-3.1140 9.5838 1.7625 0.9599
-3.3971 9.5013 1.7648 0.9599
-3.6747 9.4015 1.7655 0.9598
-3.8138 9.3518 1.7664 0.9598
-3.9530 9.3023 1.7678 0.9598
-4.0927 9.2527 1.7695 0.9597
-4.2326 9.2033 1.7717 0.9597
-4.4603 9.3366 1.8097 0.9589
-7.2936 9.3043 2.0677 0.9531
-7.6348 8.9062 2.0517 0.9535
-8.2491 8.8102 2.1109 0.9522
-8.3266 8.6364 2.0982 0.9525
-8.6535 8.7169 2.1482 0.9513
-12.9765 10.6396 2.9349 0.9341
-13.0634 9.4911 2.8241 0.9365
-13.2834 9.3575 2.8418 0.9361
-13.0372 8.6253 2.7340 0.9385
-12.7061 8.1419 2.6394 0.9406
-14.3216 8.5974 2.9215 0.9344
-17.8667 10.0273 3.5834 0.9202
-17.8732 9.6902 3.5559 0.9208
-18.2871 9.2338 3.5830 0.9202
-20.2286 9.4828 3.9074 0.9133
-1.5839 0.4264 0.2869 0.9934
-1.5306 0.2943 0.2726 0.9937
-1.5254 0.2703 0.2710 0.9937
-1.5206 0.2238 0.2688 0.9938
-1.5116 0.1552 0.2658 0.9938
-1.5059 0.1102 0.2641 0.9939
-1.5038 0.0880 0.2635 0.9939
-1.5024 0.0659 0.2630 0.9939
-1.5011 0.0439 0.2627 0.9939
-1.4468 0.0000 0.2365 0.9942
-1.4476 -0.0212 0.2367 0.9941
-1.4486 -0.0423 0.2369 0.9941
-1.4497 -0.0636 0.2373 0.9941
-1.4540 -0.1064 0.2384 0.9941
-1.4565 -0.1280 0.2391 0.9941
-1.4592 -0.1498 0.2398 0.9941
-1.4621 -0.1717 0.2407 0.9941
-1.4652 -0.1938 0.2416 0.9940
-1.4679 -0.2160 0.2426 0.9940
-1.4700 -0.2383 0.2435 0.9940
-1.4722 -0.2608 0.2444 0.9940
-1.4975 -0.3798 0.2526 0.9938
-1.5099 -0.4065 0.2557 0.9937
-1.5868 -0.5284 0.2735 0.9932
-80.1708 -29.3273 13.9575 0.7075
-76.4688 -29.2469 13.3859 0.7176
-67.6422 -29.3301 12.0544 0.7417
-64.8897 -29.2702 11.6389 0.7494
-62.3201 -29.2144 11.2534 0.7566
-57.5812 -29.0746 10.5466 0.7699
-55.5341 -29.0669 10.2484 0.7757
-20.7570 -11.2537 3.8605 0.9087
-19.7580 -11.8609 3.7678 0.9108
-41.7274 -28.4918 8.2612 0.8148
-14.9452 -10.8583 3.0204 0.9279
-14.8660 -11.1363 3.0369 0.9275
-14.3484 -12.4831 3.1095 0.9258
-14.1790 -12.7045 3.1127 0.9257
-13.6726 -12.9907 3.0836 0.9264
-10.7936 -11.5277 2.5820 0.9380
-9.8404 -12.1821 2.5604 0.9385
-9.8373 -12.5491 2.6071 0.9374
-9.5487 -12.5546 2.5789 0.9381
-9.2658 -12.5593 2.5518 0.9387
-9.6623 -13.5055 2.7151 0.9349
-18.2194 -27.9809 5.4592 0.8734
-17.6347 -27.9682 5.4059 0.8746
-17.0612 -27.9557 5.3547 0.8757
-16.4982 -27.9435 5.3056 0.8768
-1.5205 -2.7563 0.5147 0.9873
-6.1421 -12.3884 2.2608 0.9455
-5.7814 -12.5709 2.2623 0.9455
-4.9606 -12.1640 2.1478 0.9481
-4.8529 -12.4159 2.1796 0.9474
-4.5431 -12.7063 2.2063 0.9468
-4.1195 -12.6786 2.1796 0.9474
-3.9307 -12.7273 2.1779 0.9474
-3.7077 -12.6582 2.1566 0.9479
-15.5504 -67.4809 11.3223 0.7553
-15.4555 -71.8517 12.0165 0.7424
-14.9128 -80.7361 13.4237 0.7169
21.1929 -86.1917 14.5121 0.6979
22.8679 -82.5242 14.0012 0.7067
25.4693 -82.4677 14.1119 0.7048
26.7861 -82.4390 14.1725 0.7038
30.7349 -82.1531 14.3413 0.7008
32.1768 -82.3219 14.4513 0.6989
33.5593 -82.2918 14.5305 0.6975
39.1589 -81.9700 14.8529 0.6920
40.7523 -82.1955 15.0001 0.6895
45.2895 -82.0969 15.3299 0.6838
8.0166 -13.5779 2.5781 0.9381
8.2890 -13.5821 2.6016 0.9375
8.1397 -12.9094 2.4952 0.9400
8.5650 -12.7429 2.5104 0.9397
8.5770 -12.3664 2.4606 0.9408
8.7686 -12.2563 2.4639 0.9407
8.9606 -12.1455 2.4678 0.9407
9.2426 -11.4421 2.4049 0.9421
10.2617 -12.3308 2.6229 0.9370
1.9679 -2.1643 0.4783 0.9882
2.0280 -2.1036 0.4777 0.9882
2.0736 -2.0888 0.4812 0.9881
2.1418 -2.0954 0.4899 0.9879
13.6213 -12.9419 3.0720 0.9267
13.4875 -12.4449 3.0005 0.9283
13.5562 -12.1464 2.9760 0.9289
13.9879 -12.1694 3.0314 0.9276
14.4643 -11.8595 3.0582 0.9270
19.3955 -12.8320 3.8024 0.9100
9.7206 -3.5559 1.6923 0.9589
9.7055 -3.3904 1.6809 0.9592
9.8134 -2.9525 1.6755 0.9593
9.5109 -2.7105 1.6170 0.9607
9.8122 -2.6420 1.6614 0.9597
9.9116 -2.5140 1.6719 0.9594
9.6644 -2.3015 1.6243 0.9605
9.9757 -1.9181 1.6609 0.9597
10.4388 -1.8494 1.7333 0.9579
10.6155 -1.5623 1.7543 0.9574
18.0403 -2.1185 2.9699 0.9290
20.6979 -2.1245 3.4019 0.9191
21.1197 -1.8564 3.4664 0.9177
20.6665 8.6046 3.6602 0.9133
19.6036 8.8428 3.5162 0.9165
18.9813 8.8981 3.4275 0.9185
19.4660 10.1886 3.5923 0.9148
15.8292 9.1905 2.9927 0.9285
14.9567 8.9786 2.8522 0.9317
14.3243 9.1788 2.7816 0.9334
13.7680 9.1088 2.6991 0.9353
12.9745 9.7193 2.6505 0.9364
13.3764 10.9675 2.8282 0.9323
9.4838 9.0108 2.1389 0.9484
9.2692 9.0682 2.1202 0.9488
8.5481 9.4012 2.0775 0.9498
8.5391 9.6714 2.1094 0.9491
7.6280 10.0293 2.0602 0.9502
-1.2716 5.1715 0.8707 0.9786
-2.5272 9.6667 1.6336 0.9603
-2.6735 9.6480 1.6369 0.9602
-3.1029 9.5496 1.6417 0.9601
-3.3787 9.4498 1.6408 0.9601
-3.6548 9.3505 1.6414 0.9601
-3.7931 9.3011 1.6423 0.9601
-6.7573 9.1590 1.8609 0.9549
-7.0154 9.2238 1.8947 0.9541
-7.2831 9.2909 1.9302 0.9533
-7.6362 9.1759 1.9518 0.9528
-7.6993 8.9814 1.9342 0.9532
-7.9400 8.9928 1.9614 0.9525
-9.1272 9.1942 2.1182 0.9488
-12.3634 10.1370 2.6140 0.9373
-13.1213 9.5332 2.6518 0.9364
-13.2831 9.3573 2.6566 0.9363
-13.3541 9.1183 2.6438 0.9366
-12.7622 8.1779 2.4783 0.9404
-17.5079 9.8259 3.2825 0.9218
-17.9636 9.4023 3.3150 0.9211
-18.0414 9.1096 3.3045 0.9213
-18.8154 8.8204 3.3976 0.9192
-24.6905 9.8593 4.3469 0.8978
-1.5809 0.5010 0.2711 0.9933
-1.5333 0.4370 0.2607 0.9936
-1.4975 0.3798 0.2526 0.9938
-1.4837 0.3305 0.2485 0.9939
-1.4746 0.2835 0.2455 0.9939
-1.4722 0.2608 0.2444 0.9940
-1.4679 0.2161 0.2426 0.9940
-1.4652 0.1938 0.2416 0.9940
-1.4621 0.1717 0.2407 0.9941
-1.4592 0.1498 0.2398 0.9941
-1.4516 0.0850 0.2377 0.9941
-1.4497 0.0636 0.2373 0.9941
-1.4476 0.0211 0.2367 0.9941
-1.3980 0.0000 0.2127 0.9944
-1.3997 -0.0409 0.2130 0.9944
-1.4015 -0.0615 0.2134 0.9943
-1.4035 -0.0821 0.2139 0.9943
-1.4057 -0.1029 0.2144 0.9943
-1.4080 -0.1237 0.2150 0.9943
-1.4131 -0.1659 0.2165 0.9943
-1.4159 -0.1873 0.2173 0.9942
-1.4188 -0.2088 0.2182 0.9942
-1.4207 -0.2304 0.2190 0.9942
-1.4294 -0.3184 0.2228 0.9941
-1.4400 -0.3653 0.2260 0.9940
-1.4466 -0.3895 0.2279 0.9940
-1.4859 -0.4470 0.2361 0.9937
-1.5029 -0.4762 0.2398 0.9936
-67.6422 -29.3301 11.2171 0.7421
-57.5810 -29.0745 9.8140 0.7703
-21.0096 -10.9966 3.6078 0.9085
-20.9624 -11.3652 3.6279 0.9080
-19.5922 -11.3753 3.4468 0.9124
-19.4670 -12.0766 3.4854 0.9115
-19.3264 -12.3841 3.4922 0.9113
-40.4046 -28.4631 7.5194 0.8188
-14.9335 -11.1868 2.8388 0.9273
-14.8532 -11.4692 2.8551 0.9269
-15.2019 -12.8402 3.0275 0.9226
-13.8963 -12.8221 2.8767 0.9264
-13.3887 -13.0984 2.8497 0.9270
-17.5410 -17.6696 3.7880 0.9042
-10.8126 -11.5481 2.4069 0.9380
-10.0358 -11.0373 2.2696 0.9414
-9.1481 -12.7867 2.3920 0.9384
-9.7276 -14.0253 2.5968 0.9333
-17.7928 -28.2189 5.0755 0.8737
-16.9614 -28.7280 5.0757 0.8737
-16.5402 -28.9734 5.0758 0.8737
-6.2623 -12.1802 2.0837 0.9461
-5.9713 -12.0438 2.0452 0.9471
-5.9047 -12.3601 2.0841 0.9461
-5.0865 -11.9695 1.9787 0.9487
-4.9818 -12.2161 2.0072 0.9480
-4.7495 -12.6952 2.0622 0.9466
-4.5390 -12.6947 2.0512 0.9469
-3.8673 -12.5221 1.9939 0.9484
-3.7108 -12.6688 2.0085 0.9480
-3.4909 -12.5977 1.9889 0.9485
-3.4146 -13.0611 2.0539 0.9468
-15.5502 -67.4801 10.5357 0.7556
-15.4554 -71.8508 11.1816 0.7428
-14.7746 -87.0945 13.4401 0.6995
-14.6139 -94.5012 14.5486 0.6792
22.8129 -82.3253 12.9972 0.7078
26.7216 -82.2404 13.1562 0.7048
28.0467 -82.2116 13.2157 0.7037
30.7349 -82.1532 13.3451 0.7012
32.0993 -82.1235 13.4150 0.6999
33.4784 -82.0935 13.4886 0.6986
36.2841 -82.0325 13.6470 0.6956
37.7124 -82.0015 13.7321 0.6941
43.6180 -81.8731 14.1138 0.6871
45.2567 -82.0376 14.2547 0.6845
46.8137 -82.0037 14.3661 0.6825
8.1197 -13.7525 2.4298 0.9374
8.2409 -13.0699 2.3508 0.9394
8.6350 -12.8468 2.3550 0.9393
8.8309 -12.3433 2.3091 0.9404
9.0706 -11.9259 2.2796 0.9412
9.6872 -11.9925 2.3455 0.9395
1.9540 -2.2131 0.4492 0.9881
1.9690 -2.1655 0.4453 0.9882
2.0293 -2.1048 0.4448 0.9882
2.0744 -2.0896 0.4480 0.9882
2.1415 -2.0950 0.4558 0.9880
13.4450 -12.4057 2.7833 0.9287
14.3726 -11.7843 2.8277 0.9276
14.5954 -11.6145 2.8379 0.9273
19.1177 -13.4675 3.5579 0.9097
19.2937 -13.1739 3.5544 0.9098
19.5099 -12.5016 3.5254 0.9105
5.6039 -2.7276 0.9482 0.9751
9.6248 -3.2052 1.5434 0.9598
9.8398 -2.9604 1.5633 0.9593
9.6842 -2.7599 1.5320 0.9601
9.8771 -2.6595 1.5563 0.9595
9.8470 -2.4976 1.5456 0.9597
9.7574 -2.3237 1.5260 0.9602
10.0411 -1.7789 1.5515 0.9596
10.5784 -1.5568 1.6268 0.9577
17.8148 -2.0920 2.7290 0.9300
20.7627 -1.8250 3.1711 0.9191
20.8643 -1.5271 3.1828 0.9188
21.9409 -1.2838 3.3438 0.9149
26.1824 8.7192 4.1985 0.8944
20.4651 8.8738 3.3937 0.9137
19.1756 8.9891 3.2221 0.9179
15.1734 8.8097 2.6694 0.9315
14.1977 9.0977 2.5655 0.9340
13.7748 9.1133 2.5129 0.9354
13.5455 9.5421 2.5208 0.9352
13.2465 9.6242 2.4911 0.9359
13.0824 9.8002 2.4869 0.9360
7.5971 9.9886 1.9093 0.9505
-1.2716 5.1714 0.8102 0.9787
-2.5412 9.7200 1.5285 0.9602
-2.9039 9.4027 1.4972 0.9610
-3.0862 9.4983 1.5195 0.9604
-3.2234 9.4485 1.5189 0.9604
-3.3606 9.3990 1.5186 0.9604
-3.4979 9.3495 1.5188 0.9604
-3.9104 9.2020 1.5212 0.9604
-4.0485 9.1529 1.5227 0.9603
-4.1869 9.1039 1.5245 0.9603
-7.9296 8.9811 1.8228 0.9527
-8.0756 8.8816 1.8263 0.9526
-8.2309 8.7908 1.8322 0.9524
-9.0496 9.3864 1.9837 0.9486
-13.5241 11.4232 2.6934 0.9309
-12.4029 10.1693 2.4402 0.9372
-13.1759 9.5729 2.4779 0.9362
-13.2827 9.3570 2.4720 0.9364
-18.1467 10.1844 3.1660 0.9193
-18.1853 9.8595 3.1472 0.9197
-18.1455 9.4975 3.1160 0.9205
-19.2885 8.7006 3.2193 0.9179
-21.0849 9.1425 3.4965 0.9112
-1.5186 0.5555 0.2460 0.9935
-1.5078 0.5021 0.2418 0.9936
-1.4465 0.3895 0.2279 0.9940
-1.4337 0.3414 0.2242 0.9941
-1.4294 0.3184 0.2228 0.9941
-1.4248 0.2739 0.2207 0.9941
-1.4227 0.2521 0.2198 0.9942
-1.4188 0.2088 0.2182 0.9942
-1.4159 0.1873 0.2173 0.9942
-1.4015 0.0615 0.2134 0.9943
-1.3988 0.0204 0.2128 0.9944
-1.3526 0.0000 0.1905 0.9946
-1.3535 -0.0198 0.1906 0.9945
-1.3551 -0.0396 0.1909 0.9945
-1.3587 -0.0795 0.1917 0.9945
-1.3628 -0.1198 0.1927 0.9945
-1.3651 -0.1401 0.1932 0.9945
-1.3726 -0.2020 0.1954 0.9944
-1.3804 -0.2864 0.1985 0.9943
-1.3847 -0.3298 0.2005 0.9943
-1.4006 -0.3991 0.2051 0.9941
-1.4365 -0.4784 0.2132 0.9939
-1.4410 -0.5034 0.2149 0.9939
-1.4457 -0.5289 0.2168 0.9938
-70.5993 -29.3944 10.7693 0.7342
-19.6218 -11.7791 3.2229 0.9117
-19.3935 -12.0310 3.2139 0.9119
-19.2797 -12.7553 3.2554 0.9108
-14.7572 -12.0996 2.6874 0.9258
-14.9548 -12.6315 2.7567 0.9240
-14.8001 -12.8761 2.7626 0.9238
-14.3573 -12.8642 2.7147 0.9251
-13.8645 -12.7927 2.6566 0.9266
-13.6101 -12.9313 2.6438 0.9270
-17.5448 -17.6734 3.5070 0.9043
-17.3019 -17.9457 3.5104 0.9042
-16.9407 -18.0929 3.4904 0.9047
-10.5756 -11.6311 2.2138 0.9385
-10.0097 -11.3371 2.1298 0.9407
-10.2085 -11.9086 2.2089 0.9386
-9.6949 -12.3675 2.2130 0.9385
-9.3900 -12.3458 2.1843 0.9393
-9.3131 -13.0174 2.2540 0.9374
-9.7440 -14.0489 2.4077 0.9333
-19.0370 -29.2364 4.9131 0.8686
-18.4260 -29.2232 4.8651 0.8697
-17.8267 -29.2101 4.8190 0.8709
-17.5929 -29.7977 4.8730 0.8695
-1.5206 -2.7564 0.4433 0.9874
-1.4894 -2.7956 0.4461 0.9873
-6.0261 -12.1542 1.9104 0.9467
-5.8490 -12.2434 1.9108 0.9467
-5.6720 -12.3330 1.9116 0.9466
-5.4949 -12.4230 1.9129 0.9466
-4.8952 -12.5241 1.8936 0.9471
-4.5184 -12.6372 1.8899 0.9472
-4.2877 -12.5684 1.8701 0.9478
-4.0619 -12.5011 1.8510 0.9483
-3.8406 -12.4355 1.8328 0.9488
-3.6236 -12.3714 1.8154 0.9493
-15.4540 -55.7692 8.1496 0.7915
-3.4144 -13.0604 1.9010 0.9469
-15.3128 -62.2770 9.0313 0.7718
-15.2256 -82.4298 11.8044 0.7128
-14.7743 -87.0929 12.4399 0.6999
21.5300 -82.3532 11.9870 0.7090
22.8129 -82.3253 12.0302 0.7082
26.7215 -82.2404 12.1774 0.7052
28.0467 -82.2116 12.2325 0.7041
29.3842 -82.1825 12.2907 0.7029
30.7348 -82.1532 12.3522 0.7017
33.4784 -82.0935 12.4850 0.6990
36.2841 -82.0325 12.6317 0.6960
37.7124 -82.0015 12.7104 0.6945
43.6180 -81.8732 13.0638 0.6875
45.1477 -81.8399 13.1623 0.6855
8.5441 -14.0001 2.3097 0.9359
8.3444 -13.2339 2.2032 0.9388
8.6836 -12.5200 2.1457 0.9403
8.7814 -11.9027 2.0830 0.9420
9.4357 -12.0367 2.1538 0.9401
13.3321 -12.6671 2.5898 0.9284
13.7006 -12.2758 2.5905 0.9284
13.7948 -12.0015 2.5749 0.9288
14.4074 -12.1692 2.6558 0.9266
14.8059 -12.1395 2.6962 0.9256
15.2116 -12.1050 2.7376 0.9245
18.6588 -13.5564 3.2479 0.9110
18.3995 -12.5633 3.1375 0.9139
5.6038 -2.7275 0.8777 0.9751
10.0685 -3.6831 1.5098 0.9576
9.8550 -3.4426 1.4700 0.9587
9.6503 -3.2137 1.4324 0.9597
9.9138 -2.6694 1.4458 0.9594
9.8520 -2.3462 1.4262 0.9599
9.8779 -2.2004 1.4251 0.9599
10.0885 -1.9398 1.4467 0.9594
14.9243 -1.9741 2.1200 0.9410
17.8186 -2.0925 2.5265 0.9301
26.2695 8.7482 3.8991 0.8942
25.2281 9.2287 3.7830 0.8972
24.6466 9.4266 3.7160 0.8989
24.6035 9.8245 3.7308 0.8985
20.8378 8.6759 3.1786 0.9129
19.4625 8.4391 2.9873 0.9179
19.4517 8.7742 3.0050 0.9174
19.1545 9.6718 3.0218 0.9170
19.0918 10.3510 3.0583 0.9160
14.3309 9.4812 2.4198 0.9329
13.7249 9.3715 2.3404 0.9351
13.2455 9.3309 2.2816 0.9366
13.7122 9.9625 2.3868 0.9338
13.3538 10.0035 2.3497 0.9348
7.8790 10.0510 1.7985 0.9497
-1.2715 5.1713 0.7499 0.9787
-2.6627 9.6089 1.4041 0.9605
-2.9331 9.4973 1.3998 0.9606
-3.0697 9.4476 1.3989 0.9607
-3.3427 9.3489 1.3982 0.9607
-3.4792 9.2997 1.3983 0.9607
-3.6158 9.2507 1.3987 0.9607
-3.8895 9.1529 1.4005 0.9606
-4.6009 10.0043 1.5507 0.9565
-8.1179 10.0498 1.8193 0.9492
-7.8309 9.1350 1.6944 0.9526
-8.0719 8.8774 1.6897 0.9527
-13.3898 11.3097 2.4682 0.9316
-12.8278 9.9053 2.2823 0.9366
-12.8107 9.5966 2.2541 0.9374
-13.2824 9.3568 2.2880 0.9365
-13.0246 8.8933 2.2210 0.9383
-14.2773 8.8571 2.3660 0.9344
-18.0992 10.5084 2.9472 0.9189
-17.5181 9.8316 2.8289 0.9221
-18.5705 10.0684 2.9748 0.9182
-18.6567 9.7650 2.9654 0.9185
-19.1351 8.9702 2.9761 0.9182
-19.1473 8.6370 2.9580 0.9187
-19.7758 8.5749 3.0354 0.9166
-19.7108 8.2067 3.0067 0.9174
-24.1407 9.6396 3.6606 0.9003
-1.4457 0.5288 0.2168 0.9938
-1.4410 0.5034 0.2149 0.9939
-1.4365 0.4784 0.2132 0.9939
-1.4205 0.4273 0.2089 0.9940
-1.4005 0.3991 0.2051 0.9941
-1.3765 0.2439 0.1969 0.9944
-1.3748 0.2229 0.1961 0.9944
-1.3727 0.2020 0.1954 0.9944
-1.3700 0.1812 0.1946 0.9944
-1.3628 0.1198 0.1927 0.9945
-1.3607 0.0996 0.1921 0.9945
-1.3587 0.0795 0.1917 0.9945
-1.3551 0.0396 0.1909 0.9945
-1.3534 0.0198 0.1906 0.9945
-1.3079 0.0000 0.1694 0.9947
-1.3125 -0.0384 0.1701 0.9947
-1.3162 -0.0770 0.1708 0.9947
-1.3182 -0.0965 0.1712 0.9947
-1.3204 -0.1161 0.1717 0.9947
-1.3226 -0.1357 0.1722 0.9947
-1.3248 -0.1555 0.1728 0.9946
-1.3334 -0.2362 0.1754 0.9946
-1.3351 -0.2567 0.1761 0.9945
-1.3368 -0.2773 0.1769 0.9945
-1.3386 -0.2982 0.1777 0.9945
-1.3406 -0.3193 0.1785 0.9945
-1.3427 -0.3406 0.1794 0.9944
-1.3683 -0.4336 0.1859 0.9942
-1.3719 -0.4568 0.1873 0.9942
-1.3837 -0.5293 0.1919 0.9940
-1.3881 -0.5543 0.1936 0.9940
-70.5993 -29.3943 9.9064 0.7346
-67.6423 -29.3301 9.5506 0.7428
-64.7190 -29.1935 9.1972 0.7510
-25.7057 -12.5117 3.7034 0.8911
-24.8551 -12.5502 3.6069 0.8938
-24.8219 -12.9920 3.6292 0.8931
-20.8138 -11.2846 3.0670 0.9089
-20.1451 -11.3060 2.9925 0.9110
-19.7884 -11.4892 2.9641 0.9118
-19.6518 -12.1912 2.9958 0.9109
-19.7499 -12.6554 3.0386 0.9097
-19.7361 -13.4760 3.0957 0.9081
-39.1382 -28.4355 6.2668 0.8227
-15.0695 -11.2887 2.4391 0.9269
-14.9893 -11.5744 2.4532 0.9265
-14.3449 -12.4800 2.4630 0.9262
-11.6294 -10.7304 2.0498 0.9382
-11.4638 -10.8920 2.0484 0.9382
-17.8154 -17.9461 3.2757 0.9030
-17.5230 -18.1752 3.2704 0.9032
-10.6200 -12.0283 2.0785 0.9373
-9.9842 -11.6468 1.9872 0.9400
-10.1856 -12.2392 2.0627 0.9378
-10.1455 -12.5600 2.0915 0.9370
-9.9373 -13.4695 2.1683 0.9347
-9.8257 -13.7339 2.1875 0.9342
-19.6604 -29.2500 4.5654 0.8675
-18.4260 -29.2232 4.4752 0.8699
-17.8267 -29.2102 4.4329 0.8711
-17.5928 -29.7975 4.4825 0.8697
-17.5715 -30.7800 4.5912 0.8668
-17.4046 -35.1041 5.0756 0.8538
-5.8289 -12.6744 1.8071 0.9453
-5.1296 -12.0709 1.6990 0.9485
-5.0247 -12.3211 1.7237 0.9477
-4.0338 -12.4146 1.6910 0.9487
-3.5990 -12.2874 1.6586 0.9497
-15.4538 -55.7686 7.4965 0.7918
-15.3126 -62.2762 8.3075 0.7721
-15.4550 -71.8489 9.5201 0.7435
-15.3477 -76.7912 10.1442 0.7292
-15.2254 -82.4286 10.8584 0.7131
-14.7741 -87.0916 11.4430 0.7003
-14.6134 -94.4978 12.3867 0.6800
22.8845 -82.5838 11.1010 0.7078
24.1810 -82.5557 11.1435 0.7068
26.8054 -82.4986 11.2368 0.7048
28.1348 -82.4697 11.2876 0.7037
29.3842 -82.1825 11.3059 0.7033
32.0993 -82.1235 11.4220 0.7007
33.4784 -82.0935 11.4846 0.6994
34.8731 -82.0632 11.5504 0.6979
36.2841 -82.0326 11.6195 0.6964
37.7124 -82.0015 11.6919 0.6949
40.6247 -81.9382 11.8472 0.6915
5.8771 -10.6536 1.5761 0.9521
8.8327 -14.0084 2.1452 0.9354
9.2988 -12.2260 1.9898 0.9399
1.9776 -2.2398 0.3870 0.9880
1.9885 -2.1869 0.3829 0.9881
2.0134 -2.1504 0.3816 0.9882
13.4745 -13.1823 2.4419 0.9268
13.5884 -12.5380 2.3951 0.9281
13.7736 -12.3412 2.3957 0.9281
13.8971 -12.0905 2.3862 0.9284
13.8401 -11.6900 2.3468 0.9295
18.2719 -13.2753 2.9257 0.9129
18.4805 -13.0186 2.9283 0.9129
18.7821 -12.4261 2.9173 0.9132
18.7822 -12.0354 2.8897 0.9140
24.1729 -12.2057 3.5079 0.8965
85.6830 -38.6497 12.1763 0.6845
85.6503 -37.1386 12.0932 0.6862
87.4928 -36.4280 12.2769 0.6823
10.0282 -3.6684 1.3832 0.9578
9.8962 -3.4570 1.3579 0.9586
9.3500 -3.1137 1.2766 0.9610
9.6220 -2.8948 1.3016 0.9603
9.8877 -2.3547 1.3167 0.9598
9.9210 -2.2100 1.3167 0.9598
10.1141 -1.9447 1.3342 0.9593
10.0920 -1.7879 1.3277 0.9595
14.7229 -1.9474 1.9238 0.9419
25.1080 9.1848 3.4633 0.8978
20.9240 8.7118 2.9360 0.9126
19.5776 9.1776 2.8009 0.9165
18.9958 9.2458 2.7367 0.9183
19.2080 10.7800 2.8533 0.9150
14.7922 9.4786 2.2758 0.9316
13.9843 9.8512 2.2159 0.9333
13.6181 9.8942 2.1805 0.9344
7.9603 9.8546 1.6410 0.9502
7.8463 10.0092 1.6475 0.9500
-2.7825 9.4997 1.2823 0.9609
-3.0535 9.3977 1.2800 0.9609
-3.1893 9.3486 1.2795 0.9609
-3.3250 9.2996 1.2793 0.9609
-3.4608 9.2506 1.2794 0.9609
-4.3684 9.1442 1.3128 0.9599
-7.8980 9.2133 1.5720 0.9522
-8.2179 9.3077 1.6084 0.9512
-12.9883 10.9706 2.2024 0.9337
-12.8665 9.6384 2.0825 0.9372
-12.8666 8.7854 2.0182 0.9391
-9.0062 5.2290 1.3490 0.9589
-9.0299 5.0679 1.3414 0.9591
-9.0534 4.9085 1.3340 0.9593
-9.1437 4.2864 1.3082 0.9601
-9.1679 4.1355 1.3028 0.9602
-1.3837 0.5292 0.1919 0.9940
-1.3756 0.4806 0.1888 0.9941
-1.3684 0.4336 0.1859 0.9942
-1.3608 0.4094 0.1841 0.9943
-1.3449 0.3621 0.1804 0.9944
-1.3427 0.3406 0.1794 0.9944
-1.3406 0.3193 0.1785 0.9945
-1.3350 0.2568 0.1761 0.9945
-1.3335 0.2362 0.1754 0.9946
-1.3295 0.1957 0.1741 0.9946
-1.3271 0.1755 0.1734 0.9946
-1.3226 0.1357 0.1722 0.9947
-1.3204 0.1161 0.1717 0.9947
-1.3182 0.0965 0.1712 0.9947
-1.3143 0.0577 0.1704 0.9947
-1.3125 0.0384 0.1701 0.9947
-1.2611 0.0000 0.1492 0.9949
-1.2648 -0.0185 0.1496 0.9949
-1.2685 -0.0371 0.1501 0.9949
-1.2713 -0.0557 0.1505 0.9949
-1.2768 -0.1122 0.1516 0.9949
-1.2789 -0.1312 0.1521 0.9948
-1.2810 -0.1504 0.1526 0.9948
-1.2882 -0.2089 0.1544 0.9948
-1.2900 -0.2286 0.1550 0.9947
-1.2999 -0.3297 0.1586 0.9946
-1.3130 -0.4372 0.1637 0.9944
-1.3161 -0.4597 0.1649 0.9944
-1.3194 -0.4827 0.1662 0.9944
-1.3229 -0.5060 0.1675 0.9943
-1.3266 -0.5297 0.1690 0.9943
-1.3305 -0.5539 0.1705 0.9942
-64.2491 -28.9813 8.3373 0.7528
-26.0603 -12.2165 3.4045 0.8905
-24.4190 -12.7811 3.2602 0.8949
-21.0356 -11.4048 2.8304 0.9081
-19.6837 -11.8162 2.7156 0.9117
-19.8403 -13.5471 2.8418 0.9078
-40.4047 -28.4631 5.8462 0.8195
-39.1382 -28.4355 5.7224 0.8230
-14.9768 -11.9180 2.2640 0.9258
-11.7688 -10.2388 1.8452 0.9391
-11.3777 -10.4981 1.8312 0.9395
-17.8179 -17.9486 2.9916 0.9031
-17.5281 -18.1804 2.9872 0.9033
-10.3358 -11.7064 1.8472 0.9390
-9.7701 -11.3971 1.7757 0.9413
-10.2284 -12.2907 1.8914 0.9376
-10.1728 -12.5936 1.9150 0.9369
-9.9618 -12.7079 1.9100 0.9370
-9.9953 -13.1417 1.9530 0.9357
-9.7677 -13.6528 1.9857 0.9346
-19.6604 -29.2500 4.1689 0.8677
-19.0370 -29.2365 4.1268 0.8689
-18.4260 -29.2232 4.0865 0.8701
-1.5206 -2.7564 0.3724 0.9874
-1.4894 -2.7957 0.3747 0.9873
-18.4953 -38.7154 5.0753 0.8413
-5.8235 -12.6626 1.6486 0.9454
-5.1513 -12.1221 1.5580 0.9483
-4.9239 -12.5973 1.5999 0.9470
-4.4552 -12.4603 1.5653 0.9481
-15.5698 -50.4140 6.2413 0.8085
-15.5145 -52.9675 6.5286 0.8007
-15.4537 -55.7680 6.8453 0.7921
-15.3124 -62.2755 7.5858 0.7724
-15.0317 -75.2102 9.0724 0.7342
-15.2252 -82.4274 9.9151 0.7135
-14.7738 -87.0901 10.4488 0.7006
-14.6131 -94.4963 11.3106 0.6804
21.5300 -82.3532 10.0688 0.7097
32.2001 -82.3814 10.4626 0.7003
34.8731 -82.0632 10.5472 0.6983
37.7124 -82.0015 10.6764 0.6952
42.1107 -81.9059 10.8939 0.6901
5.8849 -11.0463 1.4805 0.9508
5.8771 -10.6536 1.4392 0.9522
8.4433 -14.3007 1.9644 0.9353
8.6935 -14.2449 1.9740 0.9350
8.8147 -13.9799 1.9549 0.9356
8.9337 -13.7201 1.9366 0.9362
9.0334 -13.0245 1.8749 0.9382
9.0777 -12.6883 1.8454 0.9391
1.9811 -2.3110 0.3601 0.9878
1.9916 -2.2557 0.3559 0.9880
2.0113 -2.2120 0.3536 0.9880
2.2050 -2.1571 0.3649 0.9877
18.8693 -14.5704 2.8200 0.9084
18.5128 -13.0414 2.6786 0.9128
18.8512 -12.4719 2.6737 0.9130
19.1585 -12.2765 2.6916 0.9124
19.6971 -12.2193 2.7418 0.9109
23.1084 -12.5286 3.1093 0.8995
24.0342 -12.5797 3.2088 0.8965
23.8001 -12.0174 3.1538 0.8982
24.2493 -11.3677 3.1679 0.8977
29.8224 -12.9311 3.8450 0.8773
91.3834 -36.4906 11.6394 0.6728
9.9376 -3.4715 1.2452 0.9585
9.3763 -3.1225 1.1690 0.9610
9.6495 -2.9031 1.1920 0.9602
9.7902 -2.7901 1.2042 0.9598
9.6430 -2.5964 1.1813 0.9606
9.6640 -2.4512 1.1793 0.9606
9.9309 -2.3650 1.2076 0.9597
9.9377 -2.2137 1.2043 0.9598
10.1398 -1.9496 1.2214 0.9593
10.1176 -1.7925 1.2154 0.9595
10.5156 -1.7049 1.2601 0.9580
20.5636 -1.8075 2.4418 0.9202
21.3781 -1.5646 2.5355 0.9173
26.6885 8.4566 3.3116 0.8934
25.1696 9.6266 3.1876 0.8971
21.3077 8.5084 2.7139 0.9117
19.6555 9.5669 2.5858 0.9157
19.5470 9.8699 2.5902 0.9156
19.4379 10.1739 2.5952 0.9154
19.3280 10.4790 2.6007 0.9153
15.7114 9.4317 2.1676 0.9288
15.2320 9.7604 2.1399 0.9297
14.6075 9.6642 2.0718 0.9319
14.3265 9.7822 2.0520 0.9325
13.8878 9.7832 2.0094 0.9339
13.7295 9.9751 2.0074 0.9339
7.9490 9.8406 1.4963 0.9503
7.8141 9.9681 1.4982 0.9503
-3.1725 9.2996 1.1623 0.9612
-8.0961 9.7285 1.4971 0.9503
-8.2277 9.3187 1.4704 0.9512
-12.7156 10.1187 1.9222 0.9366
-12.9105 9.9691 1.9294 0.9364
-13.3045 9.6663 1.9453 0.9359
-8.9298 5.7221 1.2545 0.9582
-8.9788 5.3900 1.2387 0.9587
-9.0028 5.2270 1.2314 0.9589
-9.0500 4.9066 1.2177 0.9594
-9.0943 4.5920 1.2051 0.9598
-9.1151 4.4365 1.1991 0.9600
-9.1605 4.1321 1.1887 0.9603
-1.3305 0.5539 0.1705 0.9942
-1.3229 0.5060 0.1675 0.9943
-1.3130 0.4372 0.1637 0.9944
-1.3100 0.4151 0.1625 0.9945
-1.3046 0.3718 0.1605 0.9946
-1.2998 0.3297 0.1586 0.9946
-1.2976 0.3090 0.1578 0.9946
-1.2956 0.2886 0.1570 0.9947
-1.2936 0.2684 0.1563 0.9947
-1.2917 0.2484 0.1556 0.9947
-1.2900 0.2286 0.1550 0.9947
-1.2882 0.2089 0.1544 0.9948
-1.2857 0.1892 0.1537 0.9948
-1.2833 0.1697 0.1531 0.9948
-1.2810 0.1504 0.1526 0.9948
-1.2748 0.0933 0.1512 0.9949
-1.2730 0.0745 0.1508 0.9949
-1.2713 0.0558 0.1505 0.9949
-1.2684 0.0371 0.1501 0.9949
-1.2177 0.0000 0.1304 0.9951
-1.2245 -0.0358 0.1312 0.9951
-1.2281 -0.0539 0.1316 0.9951
-1.2317 -0.0721 0.1321 0.9950
-1.2344 -0.0904 0.1325 0.9950
-1.2362 -0.1086 0.1329 0.9950
-1.2380 -0.1271 0.1332 0.9950
-1.2400 -0.1456 0.1337 0.9950
-1.2442 -0.1831 0.1346 0.9950
-1.2465 -0.2021 0.1352 0.9949
-1.2482 -0.2211 0.1357 0.9949
-1.2513 -0.2596 0.1368 0.9949
-1.2530 -0.2791 0.1374 0.9948
-1.2548 -0.2988 0.1381 0.9948
-1.2567 -0.3187 0.1388 0.9948
-1.2587 -0.3389 0.1396 0.9948
-1.2631 -0.3800 0.1412 0.9947
-1.2736 -0.4659 0.1452 0.9946
-1.2785 -0.5105 0.1474 0.9945
-1.2811 -0.5334 0.1486 0.9944
-1.2839 -0.5567 0.1498 0.9944
-25.9620 -12.1705 3.0699 0.8911
-24.2486 -11.8024 2.8874 0.8972
-24.3149 -12.7266 2.9383 0.8955
-21.2615 -11.5273 2.5894 0.9073
-19.6970 -12.2193 2.4817 0.9110
-20.2925 -13.0031 2.5804 0.9076
-19.9939 -13.2279 2.5667 0.9081
-40.4047 -28.4630 5.2915 0.8197
-37.9239 -28.4091 5.0733 0.8264
-15.4621 -11.9395 2.0916 0.9244
-11.9927 -10.1296 1.6807 0.9388
-11.6516 -10.1369 1.6535 0.9398
-11.2656 -10.7036 1.6638 0.9394
-17.5331 -18.1856 2.7046 0.9034
-10.2794 -11.9912 1.6910 0.9384
-10.1633 -12.5819 1.7317 0.9370
-10.0520 -12.8230 1.7445 0.9366
-9.8282 -13.3216 1.7724 0.9356
-9.5973 -13.8375 1.8030 0.9345
-18.4260 -29.2232 3.6988 0.8702
-17.8267 -29.2102 3.6638 0.8714
-17.5926 -29.7972 3.7048 0.8701
-21.6714 -42.1510 5.0744 0.8264
-19.8053 -43.0645 5.0749 0.8264
-19.1747 -43.3508 5.0751 0.8264
-5.1732 -12.1736 1.4162 0.9482
-4.8890 -12.5082 1.4379 0.9474
-4.6541 -12.4403 1.4221 0.9480
-4.4243 -12.3740 1.4070 0.9485
-15.6672 -45.9242 5.1951 0.8227
-15.5697 -50.4135 5.6491 0.8088
-15.5143 -52.9669 5.9092 0.8009
-15.4535 -55.7675 6.1958 0.7923
-15.1366 -70.3686 7.7064 0.7486
-14.6129 -94.4946 10.2374 0.6807
24.1054 -82.2973 9.1814 0.7082
25.3708 -82.1486 9.2052 0.7076
26.6824 -82.1201 9.2447 0.7066
29.3843 -82.1826 9.3444 0.7039
30.7349 -82.1532 9.3912 0.7027
32.1768 -82.3219 9.4632 0.7008
40.7229 -82.1361 9.8154 0.6916
5.8772 -10.6537 1.3027 0.9522
8.7969 -13.9516 1.7659 0.9358
9.0326 -13.4384 1.7336 0.9369
9.3539 -13.4865 1.7572 0.9361
1.9679 -2.3647 0.3294 0.9877
2.1315 -2.1471 0.3239 0.9879
13.6305 -12.5768 1.9857 0.9281
13.5670 -12.1561 1.9503 0.9293
14.1054 -12.2716 2.0017 0.9275
14.3573 -12.1269 2.0121 0.9272
18.4589 -13.8277 2.4693 0.9114
20.5689 -12.3477 2.5685 0.9080
22.8585 -12.8288 2.8064 0.8999
23.6036 -12.3543 2.8524 0.8984
24.5712 -12.4068 2.9471 0.8952
24.2945 -10.9587 2.8535 0.8983
34.5343 -13.2082 3.9586 0.8618
34.8783 -12.7589 3.9763 0.8612
9.4027 -3.1312 1.0611 0.9609
9.5386 -3.0224 1.0713 0.9605
9.6772 -2.9114 1.0820 0.9602
9.8186 -2.7982 1.0931 0.9598
9.7297 -2.6198 1.0788 0.9603
9.9744 -2.3754 1.0978 0.9596
10.0080 -2.2294 1.0978 0.9596
10.1657 -1.9546 1.1083 0.9592
10.4780 -1.6988 1.1365 0.9582
14.3345 -2.1096 1.5513 0.9434
18.5155 -1.9005 1.9928 0.9279
21.1432 -1.8584 2.2724 0.9182
34.5595 9.8491 3.8475 0.8654
26.7779 8.4849 3.0075 0.8931
26.2901 9.1839 2.9816 0.8940
24.6254 9.8332 2.8389 0.8988
19.2773 8.3588 2.2496 0.9189
19.8122 9.2876 2.3427 0.9157
19.1235 9.6561 2.2937 0.9174
19.4639 10.1875 2.3521 0.9154
15.5494 9.6463 1.9591 0.9290
14.8608 9.8318 1.9078 0.9308
14.7525 10.0731 1.9126 0.9307
-1.2715 5.1713 0.5702 0.9788
-2.7526 9.3976 1.0484 0.9614
-4.3540 9.1141 1.0814 0.9602
-8.2374 9.3298 1.3325 0.9512
-12.8993 9.0869 1.6893 0.9385
-13.7766 9.4068 1.7860 0.9351
-8.9014 5.8892 1.1427 0.9580
-8.9511 5.5529 1.1278 0.9585
-8.9754 5.3880 1.1208 0.9588
-8.9994 5.2251 1.1141 0.9590
-9.0232 5.0641 1.1078 0.9592
-9.1088 4.4335 1.0846 0.9601
-1.2938 0.5836 0.1520 0.9943
-1.2811 0.5334 0.1486 0.9944
-1.2785 0.5105 0.1474 0.9945
-1.2760 0.4880 0.1463 0.9945
-1.2714 0.4441 0.1442 0.9946
-1.2659 0.4011 0.1422 0.9947
-1.2567 0.3187 0.1388 0.9948
-1.2547 0.2988 0.1381 0.9948
-1.2497 0.2403 0.1362 0.9949
-1.2482 0.2211 0.1357 0.9949
-1.2442 0.1831 0.1346 0.9950
-1.2400 0.1456 0.1337 0.9950
-1.2380 0.1271 0.1332 0.9950
-1.2344 0.0904 0.1325 0.9950
-1.2317 0.0721 0.1321 0.9950
-1.2280 0.0539 0.1316 0.9951
-1.2210 0.0179 0.1307 0.9951
-1.1772 0.0000 0.1129 0.9953
-1.1804 -0.0172 0.1132 0.9953
-1.1869 -0.0521 0.1139 0.9952
-1.1938 -0.0874 0.1148 0.9952
-1.1974 -0.1053 0.1152 0.9952
-1.1998 -0.1231 0.1156 0.9952
-1.2016 -0.1411 0.1160 0.9952
-1.2054 -0.1774 0.1168 0.9951
-1.2147 -0.2893 0.1197 0.9950
-1.2164 -0.3086 0.1203 0.9950
-1.2182 -0.3280 0.1209 0.9949
-1.2200 -0.3477 0.1216 0.9949
-1.2219 -0.3676 0.1223 0.9949
-1.2270 -0.4086 0.1240 0.9948
-1.2300 -0.4297 0.1249 0.9948
-1.2351 -0.4724 0.1268 0.9947
-1.2372 -0.4940 0.1277 0.9947
-1.2394 -0.5161 0.1287 0.9946
-1.2418 -0.5384 0.1298 0.9946
