ply
format ascii 1.0
element vertex 1593
property float32 x
property float32 y
property float32 z
property float32 I
end_header
0.2514 2.6394 -0.9942 0.9887
0.1355 2.6480 -0.9943 0.9887
0.0581 2.6509 -0.9943 0.9887
-0.2515 2.6398 -0.9944 0.9887
-0.3669 2.6263 -0.9944 0.9887
-0.4435 2.6145 -0.9944 0.9887
-0.5197 2.6005 -0.9944 0.9887
-0.5577 2.5927 -0.9945 0.9887
-0.1332 0.5780 -0.2225 0.9975
-0.1445 0.5527 -0.2142 0.9976
-0.1503 0.5423 -0.2110 0.9976
-0.1561 0.5329 -0.2082 0.9976
-0.1618 0.5237 -0.2055 0.9977
-0.1672 0.5146 -0.2029 0.9977
-0.1725 0.5057 -0.2004 0.9977
-0.1827 0.4883 -0.1955 0.9978
-0.2012 0.4549 -0.1865 0.9979
-0.2055 0.4469 -0.1844 0.9979
-0.2097 0.4389 -0.1824 0.9979
-0.2137 0.4311 -0.1804 0.9979
-0.2251 0.4081 -0.1748 0.9980
-0.2287 0.4007 -0.1730 0.9980
-0.2322 0.3933 -0.1713 0.9981
-0.2356 0.3861 -0.1696 0.9981
-0.2513 0.3513 -0.1620 0.9982
-0.2597 0.3314 -0.1579 0.9982
-0.2649 0.3184 -0.1553 0.9982
-0.2716 0.2987 -0.1514 0.9983
-0.2735 0.2921 -0.1501 0.9983
-0.2754 0.2856 -0.1488 0.9983
-0.2772 0.2792 -0.1475 0.9983
-0.2822 0.2604 -0.1440 0.9984
-0.2837 0.2542 -0.1429 0.9984
-0.2853 0.2482 -0.1418 0.9984
-0.2867 0.2421 -0.1407 0.9984
-0.2894 0.2303 -0.1387 0.9984
-0.2907 0.2245 -0.1377 0.9984
-0.2930 0.2129 -0.1358 0.9985
-0.2941 0.2072 -0.1349 0.9985
-0.2952 0.2016 -0.1340 0.9985
-0.2975 0.1906 -0.1325 0.9985
-0.2987 0.1853 -0.1318 0.9985
-0.3022 0.1696 -0.1299 0.9985
-0.3043 0.1593 -0.1288 0.9985
-0.3079 0.1389 -0.1267 0.9986
-0.3087 0.1338 -0.1261 0.9986
-0.3105 0.1188 -0.1247 0.9986
-0.3116 0.1089 -0.1238 0.9986
-0.3121 0.1039 -0.1234 0.9986
-0.3130 0.0941 -0.1226 0.9986
-0.3143 0.0748 -0.1211 0.9986
-0.3152 0.0511 -0.1197 0.9986
-0.3153 0.0370 -0.1191 0.9986
-0.3152 0.0231 -0.1185 0.9987
-0.3151 0.0185 -0.1184 0.9987
-0.3148 0.0092 -0.1181 0.9987
-0.3097 -0.0045 -0.1201 0.9987
-0.3099 -0.0090 -0.1202 0.9987
-0.3102 -0.0182 -0.1205 0.9987
-0.3104 -0.0411 -0.1214 0.9987
-0.3103 -0.0457 -0.1216 0.9987
-0.3096 -0.0689 -0.1229 0.9986
-0.3090 -0.0784 -0.1236 0.9986
-0.3071 -0.1022 -0.1255 0.9986
-0.3066 -0.1071 -0.1259 0.9986
-0.3061 -0.1120 -0.1263 0.9986
-0.3049 -0.1217 -0.1273 0.9986
-0.3036 -0.1316 -0.1283 0.9986
-0.3028 -0.1366 -0.1288 0.9986
-0.3020 -0.1416 -0.1293 0.9986
-0.3011 -0.1465 -0.1298 0.9986
-0.3002 -0.1516 -0.1303 0.9986
-0.2991 -0.1566 -0.1309 0.9986
-0.2936 -0.1821 -0.1339 0.9985
-0.2923 -0.1873 -0.1346 0.9985
-0.2898 -0.1979 -0.1361 0.9985
-0.2864 -0.2146 -0.1387 0.9985
-0.2826 -0.2317 -0.1417 0.9984
-0.2812 -0.2375 -0.1427 0.9984
-0.2798 -0.2434 -0.1437 0.9984
-0.2782 -0.2493 -0.1448 0.9984
-0.2750 -0.2613 -0.1471 0.9984
-0.2734 -0.2674 -0.1483 0.9984
-0.2679 -0.2861 -0.1520 0.9983
-0.2619 -0.3055 -0.1560 0.9983
-0.2570 -0.3181 -0.1585 0.9982
-0.2516 -0.3308 -0.1611 0.9982
-0.2488 -0.3373 -0.1625 0.9982
-0.2460 -0.3438 -0.1639 0.9982
-0.2368 -0.3637 -0.1683 0.9981
-0.2336 -0.3705 -0.1698 0.9981
-0.2303 -0.3774 -0.1714 0.9981
-0.2235 -0.3914 -0.1747 0.9981
-0.2163 -0.4059 -0.1783 0.9980
-0.2124 -0.4133 -0.1801 0.9980
-0.2005 -0.4359 -0.1860 0.9979
-0.1962 -0.4436 -0.1881 0.9979
-0.1919 -0.4514 -0.1902 0.9979
-0.1779 -0.4756 -0.1969 0.9978
-0.1730 -0.4838 -0.1992 0.9978
-0.1518 -0.5182 -0.2093 0.9977
-0.1341 -0.5452 -0.2177 0.9976
-0.1278 -0.5545 -0.2206 0.9976
-0.1162 -0.5811 -0.2297 0.9975
-0.4220 -2.4876 -0.9782 0.9892
-0.3856 -2.4935 -0.9782 0.9892
-0.3126 -2.5036 -0.9781 0.9892
-0.2026 -2.5149 -0.9781 0.9892
-0.1658 -2.5175 -0.9781 0.9892
-0.0921 -2.5212 -0.9781 0.9892
-0.0553 -2.5223 -0.9781 0.9892
-0.0185 -2.5228 -0.9781 0.9892
0.0553 -2.5222 -0.9780 0.9892
0.0922 -2.5211 -0.9780 0.9892
0.1289 -2.5195 -0.9780 0.9892
0.3491 -2.4983 -0.9780 0.9892
0.4219 -2.4870 -0.9779 0.9892
0.5664 -2.4580 -0.9779 0.9892
0.6380 -2.4404 -0.9779 0.9892
0.7090 -2.4206 -0.9779 0.9892
0.7443 -2.4100 -0.9779 0.9892
0.8144 -2.3871 -0.9778 0.9892
0.9864 -2.3212 -0.9778 0.9892
1.0202 -2.3065 -0.9778 0.9892
1.0538 -2.2914 -0.9778 0.9892
1.0871 -2.2757 -0.9778 0.9892
1.3138 -2.1527 -0.9777 0.9892
1.3451 -2.1332 -0.9777 0.9892
1.3761 -2.1134 -0.9777 0.9892
1.5266 -2.0072 -0.9777 0.9892
1.5557 -1.9846 -0.9776 0.9892
1.5846 -1.9617 -0.9776 0.9892
1.6707 -1.8923 -0.9786 0.9892
1.7520 -1.8172 -0.9786 0.9892
1.7883 -1.8014 -0.9841 0.9892
1.8279 -1.7883 -0.9914 0.9891
1.8584 -1.7657 -0.9938 0.9891
1.9091 -1.7106 -0.9938 0.9891
1.9339 -1.6825 -0.9938 0.9891
2.0057 -1.5961 -0.9938 0.9891
2.1582 -1.3829 -0.9937 0.9891
2.1781 -1.3512 -0.9937 0.9891
2.1976 -1.3192 -0.9937 0.9891
2.2167 -1.2870 -0.9937 0.9891
2.2880 -1.1553 -0.9937 0.9891
2.3208 -1.0879 -0.9937 0.9891
2.3515 -1.0196 -0.9937 0.9891
2.3803 -0.9505 -0.9937 0.9891
2.3939 -0.9156 -0.9937 0.9891
2.4071 -0.8805 -0.9937 0.9891
2.4197 -0.8452 -0.9937 0.9891
2.4318 -0.8098 -0.9936 0.9891
2.4433 -0.7742 -0.9936 0.9891
2.4649 -0.7024 -0.9936 0.9891
2.4843 -0.6301 -0.9936 0.9891
2.4932 -0.5938 -0.9936 0.9891
2.5357 -0.3732 -0.9936 0.9891
2.5408 -0.3361 -0.9936 0.9891
2.5496 -0.2617 -0.9936 0.9891
2.5531 -0.2244 -0.9936 0.9891
2.5605 -0.1123 -0.9936 0.9891
2.5619 -0.0749 -0.9936 0.9891
2.5627 -0.0374 -0.9936 0.9891
2.5629 0.0000 -0.9936 0.9891
2.5619 0.0749 -0.9936 0.9891
2.5605 0.1123 -0.9936 0.9891
2.5561 0.1871 -0.9936 0.9891
2.5455 0.2989 -0.9936 0.9891
2.5408 0.3361 -0.9936 0.9891
2.5299 0.4102 -0.9936 0.9891
2.4933 0.5938 -0.9936 0.9891
2.4649 0.7025 -0.9936 0.9891
2.4433 0.7742 -0.9936 0.9891
2.4317 0.8098 -0.9936 0.9891
2.3662 0.9852 -0.9937 0.9891
2.3515 1.0196 -0.9937 0.9891
2.2352 1.2545 -0.9937 0.9891
2.2167 1.2870 -0.9937 0.9891
2.1782 1.3513 -0.9937 0.9891
2.1377 1.4143 -0.9937 0.9891
2.1169 1.4454 -0.9937 0.9891
2.0738 1.5067 -0.9937 0.9891
2.0515 1.5368 -0.9938 0.9891
2.0289 1.5667 -0.9938 0.9891
1.9583 1.6541 -0.9938 0.9891
1.9091 1.7106 -0.9938 0.9891
1.8840 1.7384 -0.9938 0.9891
1.8584 1.7657 -0.9938 0.9891
1.7793 1.8455 -0.9938 0.9891
1.6967 1.9217 -0.9938 0.9891
1.6399 1.9705 -0.9939 0.9891
1.5816 2.0176 -0.9939 0.9891
1.5220 2.0630 -0.9939 0.9891
1.3989 2.1485 -0.9939 0.9891
1.3674 2.1686 -0.9939 0.9891
1.3356 2.1885 -0.9939 0.9891
1.2711 2.2266 -0.9940 0.9891
1.2055 2.2629 -0.9940 0.9891
1.1723 2.2802 -0.9940 0.9891
1.1389 2.2971 -0.9940 0.9891
1.0372 2.3449 -0.9940 0.9891
0.8984 2.4016 -0.9941 0.9891
0.8279 2.4268 -0.9941 0.9891
0.7924 2.4387 -0.9941 0.9891
0.7208 2.4609 -0.9941 0.9891
0.6123 2.4902 -0.9941 0.9891
0.5393 2.5070 -0.9942 0.9891
0.4658 2.5218 -0.9942 0.9891
0.4289 2.5283 -0.9942 0.9891
0.3919 2.5344 -0.9942 0.9891
0.3177 2.5448 -0.9942 0.9891
0.2059 2.5564 -0.9942 0.9891
0.0562 2.5641 -0.9943 0.9891
-0.0187 2.5647 -0.9943 0.9891
-0.1311 2.5615 -0.9943 0.9891
-0.1686 2.5593 -0.9944 0.9891
-0.2059 2.5566 -0.9944 0.9891
-0.2432 2.5533 -0.9944 0.9891
-0.2805 2.5496 -0.9944 0.9891
-0.3920 2.5349 -0.9944 0.9891
-0.4290 2.5289 -0.9944 0.9891
-0.1161 0.5811 -0.2297 0.9975
-0.1215 0.5647 -0.2239 0.9975
-0.1460 0.5270 -0.2120 0.9977
-0.1518 0.5182 -0.2093 0.9977
-0.1573 0.5094 -0.2067 0.9977
-0.1679 0.4922 -0.2016 0.9978
-0.1730 0.4839 -0.1992 0.9978
-0.1779 0.4756 -0.1969 0.9978
-0.1873 0.4594 -0.1923 0.9979
-0.1918 0.4515 -0.1902 0.9979
-0.1962 0.4436 -0.1881 0.9979
-0.2046 0.4283 -0.1840 0.9980
-0.2163 0.4059 -0.1783 0.9980
-0.2235 0.3914 -0.1747 0.9981
-0.2269 0.3843 -0.1730 0.9981
-0.2400 0.3570 -0.1668 0.9982
-0.2430 0.3504 -0.1653 0.9982
-0.2460 0.3438 -0.1639 0.9982
-0.2488 0.3373 -0.1625 0.9982
-0.2543 0.3244 -0.1598 0.9982
-0.2595 0.3118 -0.1573 0.9983
-0.2619 0.3055 -0.1560 0.9983
-0.2640 0.2989 -0.1546 0.9983
-0.2698 0.2798 -0.1507 0.9983
-0.2750 0.2613 -0.1471 0.9984
-0.2767 0.2553 -0.1459 0.9984
-0.2826 0.2317 -0.1417 0.9984
-0.2839 0.2260 -0.1407 0.9984
-0.2852 0.2202 -0.1397 0.9985
-0.2864 0.2146 -0.1387 0.9985
-0.2898 0.1979 -0.1361 0.9985
-0.2923 0.1873 -0.1346 0.9985
-0.2948 0.1770 -0.1333 0.9985
-0.3020 0.1416 -0.1293 0.9986
-0.3028 0.1366 -0.1288 0.9986
-0.3042 0.1266 -0.1278 0.9986
-0.3049 0.1217 -0.1273 0.9986
-0.3061 0.1120 -0.1263 0.9986
-0.3071 0.1023 -0.1255 0.9986
-0.3075 0.0975 -0.1251 0.9986
-0.3079 0.0927 -0.1247 0.9986
-0.3083 0.0879 -0.1243 0.9986
-0.3087 0.0831 -0.1239 0.9986
-0.3090 0.0784 -0.1236 0.9986
-0.3093 0.0737 -0.1233 0.9986
-0.3101 0.0550 -0.1221 0.9986
-0.3102 0.0503 -0.1218 0.9987
-0.3104 0.0365 -0.1212 0.9987
-0.3104 0.0318 -0.1210 0.9987
-0.3103 0.0227 -0.1206 0.9987
-0.3102 0.0182 -0.1205 0.9987
-0.3101 0.0136 -0.1203 0.9987
-0.3053 -0.0134 -0.1224 0.9987
-0.3054 -0.0179 -0.1225 0.9987
-0.3055 -0.0224 -0.1227 0.9987
-0.3056 -0.0269 -0.1229 0.9987
-0.3056 -0.0359 -0.1232 0.9987
-0.3056 -0.0404 -0.1234 0.9987
-0.3054 -0.0495 -0.1239 0.9987
-0.3051 -0.0587 -0.1244 0.9987
-0.3047 -0.0679 -0.1250 0.9987
-0.3041 -0.0771 -0.1257 0.9986
-0.3034 -0.0865 -0.1264 0.9986
-0.3030 -0.0912 -0.1267 0.9986
-0.3026 -0.0959 -0.1271 0.9986
-0.3016 -0.1054 -0.1280 0.9986
-0.3011 -0.1101 -0.1284 0.9986
-0.2999 -0.1198 -0.1293 0.9986
-0.2993 -0.1246 -0.1298 0.9986
-0.2986 -0.1295 -0.1303 0.9986
-0.2970 -0.1392 -0.1314 0.9986
-0.2951 -0.1490 -0.1324 0.9986
-0.2941 -0.1539 -0.1330 0.9986
-0.2920 -0.1639 -0.1341 0.9986
-0.2898 -0.1739 -0.1353 0.9985
-0.2860 -0.1892 -0.1373 0.9985
-0.2847 -0.1943 -0.1380 0.9985
-0.2823 -0.2051 -0.1398 0.9985
-0.2812 -0.2106 -0.1407 0.9985
-0.2799 -0.2161 -0.1416 0.9985
-0.2786 -0.2217 -0.1426 0.9985
-0.2758 -0.2330 -0.1446 0.9984
-0.2744 -0.2387 -0.1457 0.9984
-0.2729 -0.2445 -0.1467 0.9984
-0.2697 -0.2562 -0.1490 0.9984
-0.2680 -0.2621 -0.1501 0.9984
-0.2644 -0.2742 -0.1526 0.9984
-0.2606 -0.2865 -0.1551 0.9983
-0.2585 -0.2928 -0.1564 0.9983
-0.2565 -0.2991 -0.1578 0.9983
-0.2517 -0.3116 -0.1604 0.9983
-0.2464 -0.3239 -0.1630 0.9982
-0.2436 -0.3302 -0.1643 0.9982
-0.2379 -0.3429 -0.1671 0.9982
-0.2317 -0.3558 -0.1701 0.9982
-0.2285 -0.3624 -0.1716 0.9982
-0.2218 -0.3758 -0.1748 0.9981
-0.2184 -0.3825 -0.1764 0.9981
-0.2149 -0.3895 -0.1781 0.9981
-0.2112 -0.3964 -0.1799 0.9981
-0.2075 -0.4036 -0.1817 0.9980
-0.2036 -0.4107 -0.1836 0.9980
-0.1997 -0.4180 -0.1855 0.9980
-0.1956 -0.4254 -0.1875 0.9980
-0.1914 -0.4328 -0.1895 0.9980
-0.1871 -0.4403 -0.1916 0.9979
-0.1781 -0.4556 -0.1959 0.9979
-0.1635 -0.4793 -0.2028 0.9978
-0.1584 -0.4875 -0.2053 0.9978
-0.1531 -0.4957 -0.2078 0.9978
-0.1477 -0.5041 -0.2104 0.9977
-0.1363 -0.5211 -0.2157 0.9977
-0.1178 -0.5477 -0.2243 0.9976
-0.1113 -0.5568 -0.2274 0.9976
-0.1046 -0.5660 -0.2305 0.9975
-0.4085 -2.4080 -0.9782 0.9895
-0.3733 -2.4137 -0.9782 0.9895
-0.3379 -2.4189 -0.9782 0.9895
-0.3026 -2.4236 -0.9781 0.9895
-0.2671 -2.4277 -0.9781 0.9895
-0.1961 -2.4345 -0.9781 0.9895
-0.1605 -2.4370 -0.9781 0.9895
-0.0892 -2.4406 -0.9781 0.9895
-0.0179 -2.4421 -0.9781 0.9895
0.0536 -2.4415 -0.9780 0.9895
0.1248 -2.4389 -0.9780 0.9895
0.2671 -2.4273 -0.9780 0.9895
0.3379 -2.4185 -0.9780 0.9895
0.4786 -2.3945 -0.9779 0.9895
0.5483 -2.3795 -0.9779 0.9895
0.5830 -2.3712 -0.9779 0.9895
0.7205 -2.3329 -0.9779 0.9895
0.7545 -2.3222 -0.9779 0.9895
0.7884 -2.3109 -0.9778 0.9895
0.8221 -2.2991 -0.9778 0.9895
0.8555 -2.2868 -0.9778 0.9895
0.9549 -2.2471 -0.9778 0.9895
0.9876 -2.2329 -0.9778 0.9895
1.0201 -2.2182 -0.9778 0.9895
1.0524 -2.2030 -0.9778 0.9895
1.1479 -2.1547 -0.9778 0.9895
1.2412 -2.1023 -0.9777 0.9895
1.3321 -2.0458 -0.9777 0.9895
1.3619 -2.0261 -0.9777 0.9895
1.3913 -2.0060 -0.9777 0.9895
1.4205 -1.9854 -0.9777 0.9895
1.5631 -1.8783 -0.9786 0.9895
1.5904 -1.8552 -0.9786 0.9895
1.6173 -1.8318 -0.9786 0.9895
1.6458 -1.8100 -0.9798 0.9895
1.7216 -1.7856 -0.9934 0.9894
1.7483 -1.7611 -0.9938 0.9894
1.7738 -1.7354 -0.9938 0.9894
1.8721 -1.6287 -0.9938 0.9894
1.8957 -1.6012 -0.9938 0.9894
1.9417 -1.5451 -0.9938 0.9894
2.0075 -1.4585 -0.9938 0.9894
2.0286 -1.4290 -0.9938 0.9894
2.0694 -1.3691 -0.9937 0.9894
2.0892 -1.3388 -0.9937 0.9894
2.1086 -1.3080 -0.9937 0.9894
2.1638 -1.2144 -0.9937 0.9894
2.1984 -1.1506 -0.9937 0.9894
2.2149 -1.1184 -0.9937 0.9894
2.2310 -1.0859 -0.9937 0.9894
2.2466 -1.0532 -0.9937 0.9894
2.2617 -1.0203 -0.9937 0.9894
2.3043 -0.9201 -0.9937 0.9894
2.3175 -0.8864 -0.9937 0.9894
2.3302 -0.8524 -0.9937 0.9894
2.3541 -0.7839 -0.9937 0.9894
2.3652 -0.7495 -0.9937 0.9894
2.3759 -0.7148 -0.9937 0.9894
2.3861 -0.6800 -0.9937 0.9894
2.3958 -0.6451 -0.9937 0.9894
2.4430 -0.4328 -0.9936 0.9894
2.4546 -0.3612 -0.9936 0.9894
2.4681 -0.2533 -0.9936 0.9894
2.4715 -0.2173 -0.9936 0.9894
2.4768 -0.1450 -0.9936 0.9894
2.4787 -0.1087 -0.9936 0.9894
2.4800 -0.0725 -0.9936 0.9894
2.4808 -0.0362 -0.9936 0.9894
2.4787 0.1088 -0.9936 0.9894
2.4716 0.2172 -0.9936 0.9894
2.4641 0.2894 -0.9936 0.9894
2.4546 0.3613 -0.9936 0.9894
2.4491 0.3971 -0.9936 0.9894
2.4365 0.4685 -0.9936 0.9894
2.4294 0.5040 -0.9936 0.9894
2.4217 0.5395 -0.9937 0.9894
2.4137 0.5748 -0.9937 0.9894
2.3861 0.6800 -0.9937 0.9894
2.3759 0.7148 -0.9937 0.9894
2.3653 0.7495 -0.9937 0.9894
2.3424 0.8183 -0.9937 0.9894
2.2617 1.0202 -0.9937 0.9894
2.2310 1.0859 -0.9937 0.9894
2.2149 1.1184 -0.9937 0.9894
2.1813 1.1826 -0.9937 0.9894
2.1638 1.2144 -0.9937 0.9894
2.1459 1.2459 -0.9937 0.9894
2.1274 1.2771 -0.9937 0.9894
2.0892 1.3388 -0.9937 0.9894
2.0286 1.4290 -0.9938 0.9894
2.0075 1.4585 -0.9938 0.9894
1.9640 1.5166 -0.9938 0.9894
1.9417 1.5451 -0.9938 0.9894
1.9189 1.5734 -0.9938 0.9894
1.8721 1.6287 -0.9938 0.9894
1.8237 1.6828 -0.9938 0.9894
1.7990 1.7093 -0.9938 0.9894
1.7738 1.7354 -0.9938 0.9894
1.7483 1.7611 -0.9938 0.9894
1.6961 1.8115 -0.9938 0.9894
1.6695 1.8361 -0.9939 0.9894
1.4441 2.0184 -0.9939 0.9894
1.4144 2.0393 -0.9939 0.9894
1.2618 2.1372 -0.9940 0.9894
1.2305 2.1554 -0.9940 0.9894
1.1988 2.1732 -0.9940 0.9894
1.1670 2.1905 -0.9940 0.9894
1.1349 2.2073 -0.9940 0.9894
1.0699 2.2396 -0.9940 0.9894
1.0040 2.2699 -0.9940 0.9894
0.9707 2.2844 -0.9940 0.9894
0.9036 2.3118 -0.9941 0.9894
0.8697 2.3248 -0.9941 0.9894
0.8357 2.3373 -0.9941 0.9894
0.8015 2.3493 -0.9941 0.9894
0.7325 2.3718 -0.9941 0.9894
0.6629 2.3922 -0.9941 0.9894
0.6279 2.4016 -0.9941 0.9894
0.5927 2.4106 -0.9941 0.9894
0.5575 2.4190 -0.9942 0.9894
0.4509 2.4412 -0.9942 0.9894
0.3075 2.4634 -0.9942 0.9894
0.2715 2.4677 -0.9942 0.9894
0.2354 2.4714 -0.9942 0.9894
0.1993 2.4746 -0.9943 0.9894
0.0907 2.4810 -0.9943 0.9894
0.0544 2.4821 -0.9943 0.9894
-0.0544 2.4822 -0.9943 0.9894
-0.1993 2.4749 -0.9944 0.9894
-0.3076 2.4639 -0.9944 0.9894
-0.3436 2.4591 -0.9944 0.9894
-0.3795 2.4539 -0.9944 0.9894
-0.4153 2.4481 -0.9944 0.9894
-0.1046 0.5660 -0.2305 0.9975
-0.1178 0.5477 -0.2243 0.9976
-0.1363 0.5211 -0.2157 0.9977
-0.1420 0.5126 -0.2130 0.9977
-0.1477 0.5041 -0.2104 0.9977
-0.1584 0.4875 -0.2053 0.9978
-0.1635 0.4794 -0.2028 0.9978
-0.1781 0.4557 -0.1959 0.9979
-0.1826 0.4479 -0.1937 0.9979
-0.1871 0.4403 -0.1916 0.9979
-0.1914 0.4328 -0.1895 0.9980
-0.1956 0.4253 -0.1875 0.9980
-0.1997 0.4180 -0.1855 0.9980
-0.2036 0.4107 -0.1836 0.9980
-0.2075 0.4036 -0.1817 0.9980
-0.2184 0.3825 -0.1764 0.9981
-0.2218 0.3758 -0.1748 0.9981
-0.2317 0.3559 -0.1701 0.9982
-0.2408 0.3366 -0.1657 0.9982
-0.2517 0.3116 -0.1604 0.9983
-0.2542 0.3055 -0.1592 0.9983
-0.2564 0.2991 -0.1578 0.9983
-0.2606 0.2866 -0.1551 0.9983
-0.2662 0.2682 -0.1513 0.9984
-0.2680 0.2622 -0.1501 0.9984
-0.2713 0.2504 -0.1478 0.9984
-0.2729 0.2445 -0.1467 0.9984
-0.2758 0.2330 -0.1446 0.9984
-0.2773 0.2273 -0.1436 0.9985
-0.2799 0.2161 -0.1416 0.9985
-0.2812 0.2106 -0.1407 0.9985
-0.2847 0.1944 -0.1380 0.9985
-0.2873 0.1841 -0.1367 0.9985
-0.2897 0.1739 -0.1353 0.9985
-0.2909 0.1689 -0.1347 0.9986
-0.2921 0.1639 -0.1341 0.9986
-0.2931 0.1589 -0.1335 0.9986
-0.2941 0.1539 -0.1330 0.9986
-0.2951 0.1490 -0.1324 0.9986
-0.2961 0.1441 -0.1319 0.9986
-0.2993 0.1246 -0.1298 0.9986
-0.3005 0.1150 -0.1289 0.9986
-0.3016 0.1054 -0.1280 0.9986
-0.3021 0.1006 -0.1275 0.9986
-0.3026 0.0959 -0.1271 0.9986
-0.3038 0.0818 -0.1260 0.9986
-0.3047 0.0679 -0.1250 0.9987
-0.3049 0.0633 -0.1247 0.9987
-0.3055 0.0450 -0.1237 0.9987
-0.3056 0.0314 -0.1230 0.9987
-0.3056 0.0269 -0.1229 0.9987
-0.3055 0.0224 -0.1227 0.9987
-0.3054 0.0179 -0.1225 0.9987
-0.3052 0.0089 -0.1223 0.9987
-0.3001 0.0000 -0.1241 0.9987
-0.3003 -0.0044 -0.1242 0.9987
-0.3005 -0.0088 -0.1243 0.9987
-0.3006 -0.0132 -0.1244 0.9987
-0.3009 -0.0265 -0.1249 0.9987
-0.3009 -0.0309 -0.1251 0.9987
-0.3009 -0.0354 -0.1252 0.9987
-0.3007 -0.0487 -0.1259 0.9987
-0.3004 -0.0577 -0.1264 0.9987
-0.3002 -0.0623 -0.1267 0.9987
-0.2999 -0.0668 -0.1270 0.9987
-0.2994 -0.0759 -0.1277 0.9987
-0.2973 -0.0990 -0.1296 0.9986
-0.2957 -0.1131 -0.1309 0.9986
-0.2951 -0.1179 -0.1313 0.9986
-0.2944 -0.1226 -0.1318 0.9986
-0.2912 -0.1417 -0.1339 0.9986
-0.2902 -0.1466 -0.1344 0.9986
-0.2882 -0.1562 -0.1355 0.9986
-0.2872 -0.1611 -0.1361 0.9986
-0.2860 -0.1661 -0.1367 0.9986
-0.2849 -0.1710 -0.1373 0.9986
-0.2784 -0.1961 -0.1408 0.9985
-0.2772 -0.2014 -0.1417 0.9985
-0.2721 -0.2231 -0.1455 0.9985
-0.2677 -0.2398 -0.1486 0.9984
-0.2645 -0.2513 -0.1508 0.9984
-0.2610 -0.2629 -0.1531 0.9984
-0.2592 -0.2688 -0.1544 0.9984
-0.2573 -0.2748 -0.1556 0.9984
-0.2553 -0.2808 -0.1569 0.9984
-0.2490 -0.2992 -0.1609 0.9983
-0.2386 -0.3234 -0.1661 0.9983
-0.2328 -0.3357 -0.1689 0.9982
-0.2298 -0.3420 -0.1703 0.9982
-0.2170 -0.3675 -0.1764 0.9982
-0.2100 -0.3807 -0.1797 0.9981
-0.2064 -0.3874 -0.1815 0.9981
-0.2027 -0.3942 -0.1833 0.9981
-0.1989 -0.4012 -0.1851 0.9981
-0.1950 -0.4081 -0.1870 0.9980
-0.1826 -0.4296 -0.1930 0.9980
-0.1737 -0.4443 -0.1972 0.9979
-0.1690 -0.4518 -0.1994 0.9979
-0.1642 -0.4593 -0.2017 0.9979
-0.1325 -0.5069 -0.2166 0.9977
-0.1267 -0.5152 -0.2193 0.9977
-0.1015 -0.5495 -0.2310 0.9976
-0.3274 -2.3433 -0.9782 0.9898
-0.2931 -2.3479 -0.9781 0.9898
-0.2244 -2.3554 -0.9781 0.9898
-0.0864 -2.3643 -0.9781 0.9898
-0.0173 -2.3658 -0.9781 0.9898
0.0864 -2.3642 -0.9780 0.9898
0.1210 -2.3627 -0.9780 0.9898
0.1554 -2.3607 -0.9780 0.9898
0.2931 -2.3475 -0.9780 0.9898
0.3273 -2.3429 -0.9780 0.9898
0.3615 -2.3379 -0.9780 0.9898
0.3956 -2.3323 -0.9780 0.9898
0.4297 -2.3262 -0.9779 0.9898
0.4636 -2.3197 -0.9779 0.9898
0.4975 -2.3126 -0.9779 0.9898
0.5983 -2.2886 -0.9779 0.9898
0.6980 -2.2601 -0.9779 0.9898
0.7310 -2.2496 -0.9779 0.9898
0.7964 -2.2273 -0.9778 0.9898
0.9568 -2.1631 -0.9778 0.9898
1.0195 -2.1342 -0.9778 0.9898
1.1121 -2.0874 -0.9778 0.9898
1.2025 -2.0366 -0.9777 0.9898
1.2321 -2.0188 -0.9777 0.9898
1.2615 -2.0005 -0.9777 0.9898
1.3193 -1.9629 -0.9777 0.9898
1.4055 -1.9050 -0.9787 0.9898
1.4331 -1.8843 -0.9787 0.9898
1.4605 -1.8631 -0.9787 0.9898
1.5143 -1.8196 -0.9787 0.9898
1.5838 -1.7939 -0.9893 0.9897
1.6431 -1.7549 -0.9939 0.9896
1.6686 -1.7307 -0.9939 0.9896
1.7428 -1.6559 -0.9938 0.9896
1.7668 -1.6302 -0.9938 0.9896
1.7904 -1.6043 -0.9938 0.9896
1.8590 -1.5242 -0.9938 0.9896
1.9239 -1.4412 -0.9938 0.9896
1.9852 -1.3555 -0.9938 0.9896
2.0048 -1.3264 -0.9938 0.9896
2.0240 -1.2970 -0.9938 0.9896
2.0427 -1.2672 -0.9938 0.9896
2.0610 -1.2372 -0.9937 0.9896
2.0788 -1.2070 -0.9937 0.9896
2.0963 -1.1764 -0.9937 0.9896
2.1457 -1.0834 -0.9937 0.9896
2.1614 -1.0520 -0.9937 0.9896
2.1911 -0.9883 -0.9937 0.9896
2.2191 -0.9239 -0.9937 0.9896
2.2574 -0.8258 -0.9937 0.9896
2.2692 -0.7927 -0.9937 0.9896
2.2914 -0.7261 -0.9937 0.9897
2.3018 -0.6925 -0.9937 0.9897
2.3116 -0.6588 -0.9937 0.9897
2.3210 -0.6249 -0.9937 0.9897
2.3462 -0.5226 -0.9937 0.9897
2.3535 -0.4882 -0.9937 0.9897
2.3604 -0.4538 -0.9937 0.9897
2.3726 -0.3847 -0.9937 0.9897
2.3780 -0.3500 -0.9937 0.9897
2.3829 -0.3152 -0.9937 0.9897
2.3911 -0.2454 -0.9937 0.9897
2.3944 -0.2105 -0.9937 0.9897
2.4012 -0.1054 -0.9937 0.9897
2.4036 0.0000 -0.9937 0.9897
2.3911 0.2454 -0.9937 0.9897
2.3829 0.3152 -0.9937 0.9897
2.3726 0.3846 -0.9937 0.9897
2.3668 0.4193 -0.9937 0.9897
2.3604 0.4539 -0.9937 0.9897
2.3535 0.4883 -0.9937 0.9897
2.3461 0.5226 -0.9937 0.9897
2.3299 0.5909 -0.9937 0.9897
2.3116 0.6588 -0.9937 0.9897
2.2805 0.7595 -0.9937 0.9897
2.2692 0.7927 -0.9937 0.9897
2.2574 0.8258 -0.9937 0.9897
2.2323 0.8914 -0.9937 0.9896
2.2191 0.9239 -0.9937 0.9896
2.2053 0.9562 -0.9937 0.9896
2.1614 1.0520 -0.9937 0.9896
2.1458 1.0835 -0.9937 0.9896
2.1132 1.1457 -0.9937 0.9896
2.0788 1.2070 -0.9937 0.9896
2.0610 1.2372 -0.9937 0.9896
2.0427 1.2672 -0.9938 0.9896
2.0240 1.2970 -0.9938 0.9896
1.9853 1.3555 -0.9938 0.9896
1.9653 1.3845 -0.9938 0.9896
1.9027 1.4693 -0.9938 0.9896
1.8365 1.5512 -0.9938 0.9896
1.7185 1.6812 -0.9938 0.9896
1.6937 1.7061 -0.9938 0.9896
1.6686 1.7307 -0.9939 0.9896
1.6432 1.7549 -0.9939 0.9896
1.6173 1.7788 -0.9939 0.9896
1.5912 1.8022 -0.9939 0.9896
1.5379 1.8479 -0.9939 0.9896
1.5107 1.8703 -0.9939 0.9896
1.4832 1.8921 -0.9939 0.9896
1.4555 1.9136 -0.9939 0.9896
1.4273 1.9347 -0.9939 0.9896
1.3119 2.0148 -0.9940 0.9896
1.2824 2.0338 -0.9940 0.9896
1.2525 2.0523 -0.9940 0.9896
1.1920 2.0881 -0.9940 0.9896
1.1305 2.1221 -0.9940 0.9896
1.0994 2.1384 -0.9940 0.9896
1.0680 2.1543 -0.9940 0.9896
1.0365 2.1696 -0.9940 0.9896
1.0047 2.1846 -0.9940 0.9896
0.9080 2.2266 -0.9941 0.9896
0.7764 2.2759 -0.9941 0.9896
0.7431 2.2870 -0.9941 0.9896
0.7096 2.2977 -0.9941 0.9896
0.6422 2.3174 -0.9941 0.9896
0.5742 2.3352 -0.9942 0.9896
0.4713 2.3582 -0.9942 0.9896
0.4368 2.3649 -0.9942 0.9896
0.3328 2.3818 -0.9942 0.9896
0.2979 2.3864 -0.9942 0.9896
0.2631 2.3906 -0.9942 0.9896
0.1230 2.4020 -0.9943 0.9896
0.0878 2.4036 -0.9943 0.9896
0.0527 2.4046 -0.9943 0.9896
-0.0176 2.4052 -0.9943 0.9896
-0.0527 2.4046 -0.9943 0.9896
-0.0879 2.4037 -0.9943 0.9896
-0.1229 2.4021 -0.9943 0.9896
-0.1931 2.3975 -0.9944 0.9896
-0.2980 2.3868 -0.9944 0.9896
-0.3328 2.3823 -0.9944 0.9896
-0.1267 0.5152 -0.2193 0.9977
-0.1382 0.4987 -0.2139 0.9978
-0.1437 0.4906 -0.2114 0.9978
-0.1690 0.4518 -0.1994 0.9979
-0.1737 0.4443 -0.1972 0.9979
-0.1782 0.4369 -0.1951 0.9980
-0.1826 0.4296 -0.1930 0.9980
-0.1868 0.4223 -0.1909 0.9980
-0.1950 0.4082 -0.1870 0.9980
-0.1989 0.4011 -0.1851 0.9981
-0.2027 0.3942 -0.1833 0.9981
-0.2064 0.3874 -0.1815 0.9981
-0.2136 0.3741 -0.1781 0.9981
-0.2203 0.3611 -0.1749 0.9982
-0.2298 0.3420 -0.1703 0.9982
-0.2357 0.3295 -0.1675 0.9982
-0.2413 0.3173 -0.1648 0.9983
-0.2491 0.2993 -0.1609 0.9983
-0.2592 0.2688 -0.1544 0.9984
-0.2610 0.2629 -0.1531 0.9984
-0.2628 0.2571 -0.1520 0.9984
-0.2692 0.2342 -0.1475 0.9985
-0.2735 0.2176 -0.1445 0.9985
-0.2772 0.2014 -0.1417 0.9985
-0.2784 0.1961 -0.1408 0.9985
-0.2837 0.1759 -0.1380 0.9986
-0.2860 0.1661 -0.1367 0.9986
-0.2921 0.1370 -0.1334 0.9986
-0.2930 0.1321 -0.1329 0.9986
-0.2937 0.1274 -0.1323 0.9986
-0.2944 0.1226 -0.1318 0.9986
-0.2957 0.1131 -0.1309 0.9986
-0.2963 0.1084 -0.1304 0.9986
-0.2968 0.1037 -0.1300 0.9986
-0.2978 0.0944 -0.1291 0.9986
-0.2990 0.0805 -0.1280 0.9987
-0.2993 0.0759 -0.1277 0.9987
-0.3002 0.0623 -0.1267 0.9987
-0.3005 0.0533 -0.1262 0.9987
-0.3008 0.0443 -0.1257 0.9987
-0.3008 0.0398 -0.1255 0.9987
-0.3009 0.0309 -0.1251 0.9987
-0.3009 0.0264 -0.1249 0.9987
-0.3009 0.0220 -0.1247 0.9987
-0.3008 0.0176 -0.1245 0.9987
-0.3005 0.0088 -0.1243 0.9987
-0.2955 0.0000 -0.1260 0.9987
-0.2958 -0.0043 -0.1261 0.9987
-0.2959 -0.0086 -0.1263 0.9987
-0.2961 -0.0130 -0.1264 0.9987
-0.2962 -0.0173 -0.1265 0.9987
-0.2963 -0.0261 -0.1268 0.9987
-0.2963 -0.0304 -0.1270 0.9987
-0.2963 -0.0348 -0.1272 0.9987
-0.2962 -0.0392 -0.1274 0.9987
-0.2959 -0.0524 -0.1282 0.9987
-0.2955 -0.0613 -0.1287 0.9987
-0.2950 -0.0703 -0.1293 0.9987
-0.2947 -0.0747 -0.1296 0.9987
-0.2944 -0.0793 -0.1300 0.9987
-0.2931 -0.0929 -0.1311 0.9987
-0.2921 -0.1021 -0.1319 0.9987
-0.2904 -0.1159 -0.1333 0.9986
-0.2890 -0.1253 -0.1343 0.9986
-0.2882 -0.1300 -0.1348 0.9986
-0.2873 -0.1347 -0.1353 0.9986
-0.2855 -0.1441 -0.1364 0.9986
-0.2845 -0.1489 -0.1369 0.9986
-0.2824 -0.1584 -0.1381 0.9986
-0.2801 -0.1681 -0.1393 0.9986
-0.2789 -0.1730 -0.1399 0.9986
-0.2776 -0.1779 -0.1406 0.9986
-0.2750 -0.1877 -0.1420 0.9986
-0.2736 -0.1927 -0.1427 0.9985
-0.2722 -0.1978 -0.1435 0.9985
-0.2697 -0.2082 -0.1453 0.9985
-0.2684 -0.2136 -0.1463 0.9985
-0.2657 -0.2244 -0.1483 0.9985
-0.2626 -0.2353 -0.1504 0.9985
-0.2610 -0.2408 -0.1515 0.9985
-0.2594 -0.2464 -0.1526 0.9984
-0.2541 -0.2636 -0.1561 0.9984
-0.2502 -0.2752 -0.1586 0.9984
-0.2439 -0.2931 -0.1626 0.9983
-0.2391 -0.3050 -0.1653 0.9983
-0.2337 -0.3168 -0.1679 0.9983
-0.2309 -0.3228 -0.1692 0.9983
-0.2250 -0.3348 -0.1720 0.9982
-0.2220 -0.3409 -0.1735 0.9982
-0.2188 -0.3470 -0.1750 0.9982
-0.2156 -0.3533 -0.1765 0.9982
-0.2123 -0.3596 -0.1781 0.9982
-0.1943 -0.3919 -0.1865 0.9981
-0.1904 -0.3987 -0.1884 0.9981
-0.1648 -0.4406 -0.2006 0.9980
-0.1601 -0.4479 -0.2028 0.9979
-0.1504 -0.4627 -0.2074 0.9979
-0.1399 -0.4778 -0.2123 0.9978
-0.1290 -0.4933 -0.2174 0.9978
-0.1232 -0.5012 -0.2201 0.9978
-0.1173 -0.5092 -0.2228 0.9977
-0.1113 -0.5173 -0.2256 0.9977
-0.1050 -0.5255 -0.2285 0.9977
-0.0920 -0.5422 -0.2345 0.9976
-0.3505 -2.2668 -0.9782 0.9901
-0.2841 -2.2761 -0.9781 0.9901
-0.2509 -2.2800 -0.9781 0.9901
-0.2175 -2.2834 -0.9781 0.9901
-0.1507 -2.2887 -0.9781 0.9901
-0.0837 -2.2921 -0.9781 0.9901
-0.0167 -2.2935 -0.9781 0.9901
0.1507 -2.2885 -0.9780 0.9901
0.1841 -2.2861 -0.9780 0.9901
0.3835 -2.2610 -0.9780 0.9901
0.4165 -2.2551 -0.9780 0.9901
0.4494 -2.2488 -0.9779 0.9901
0.5800 -2.2186 -0.9779 0.9901
0.6124 -2.2099 -0.9779 0.9901
0.6446 -2.2007 -0.9779 0.9901
0.7720 -2.1592 -0.9779 0.9901
0.8035 -2.1477 -0.9778 0.9901
0.8348 -2.1357 -0.9778 0.9901
0.8968 -2.1104 -0.9778 0.9901
0.9581 -2.0832 -0.9778 0.9901
0.9884 -2.0690 -0.9778 0.9901
1.0185 -2.0543 -0.9778 0.9901
1.0484 -2.0392 -0.9778 0.9901
1.1367 -1.9912 -0.9778 0.9901
1.1657 -1.9744 -0.9777 0.9901
1.1944 -1.9571 -0.9777 0.9901
1.2241 -1.9414 -0.9787 0.9901
1.3080 -1.8858 -0.9787 0.9901
1.3625 -1.8468 -0.9787 0.9901
1.4887 -1.7889 -0.9925 0.9899
1.5169 -1.7695 -0.9939 0.9899
1.5425 -1.7471 -0.9939 0.9899
1.5679 -1.7244 -0.9939 0.9899
1.5929 -1.7013 -0.9939 0.9899
1.6896 -1.6053 -0.9938 0.9899
1.7128 -1.5804 -0.9938 0.9899
1.7357 -1.5552 -0.9938 0.9899
1.7804 -1.5038 -0.9938 0.9899
1.8022 -1.4776 -0.9938 0.9899
1.8236 -1.4511 -0.9938 0.9899
1.8446 -1.4243 -0.9938 0.9899
1.8652 -1.3972 -0.9938 0.9899
1.9052 -1.3421 -0.9938 0.9899
1.9436 -1.2859 -0.9938 0.9899
1.9621 -1.2573 -0.9938 0.9899
1.9980 -1.1995 -0.9938 0.9899
2.0153 -1.1701 -0.9938 0.9899
2.0322 -1.1405 -0.9938 0.9899
2.0487 -1.1107 -0.9938 0.9899
2.0646 -1.0806 -0.9937 0.9899
2.0802 -1.0504 -0.9937 0.9899
2.0953 -1.0199 -0.9937 0.9899
2.1100 -0.9891 -0.9937 0.9899
2.1242 -0.9582 -0.9937 0.9899
2.1379 -0.9270 -0.9937 0.9899
2.1513 -0.8957 -0.9937 0.9899
2.1641 -0.8642 -0.9937 0.9899
2.1999 -0.7685 -0.9937 0.9899
2.2109 -0.7362 -0.9937 0.9899
2.2214 -0.7039 -0.9937 0.9899
2.2314 -0.6713 -0.9937 0.9899
2.2668 -0.5398 -0.9937 0.9899
2.2745 -0.5067 -0.9937 0.9899
2.3054 -0.3393 -0.9937 0.9899
2.3101 -0.3055 -0.9937 0.9899
2.3143 -0.2718 -0.9937 0.9899
2.3180 -0.2379 -0.9937 0.9899
2.3212 -0.2041 -0.9937 0.9899
2.3239 -0.1701 -0.9937 0.9899
2.3262 -0.1361 -0.9937 0.9899
2.3292 -0.0681 -0.9937 0.9899
2.3299 -0.0340 -0.9937 0.9899
2.3299 0.0341 -0.9937 0.9899
2.3292 0.0681 -0.9937 0.9899
2.3240 0.1701 -0.9937 0.9899
2.3212 0.2040 -0.9937 0.9899
2.3143 0.2718 -0.9937 0.9899
2.3101 0.3056 -0.9937 0.9899
2.2945 0.4065 -0.9937 0.9899
2.2883 0.4400 -0.9937 0.9899
2.2816 0.4734 -0.9937 0.9899
2.2668 0.5398 -0.9937 0.9899
2.2587 0.5729 -0.9937 0.9899
2.2501 0.6058 -0.9937 0.9899
2.2410 0.6387 -0.9937 0.9899
2.2314 0.6713 -0.9937 0.9899
2.1999 0.7685 -0.9937 0.9899
2.1885 0.8006 -0.9937 0.9899
2.1765 0.8325 -0.9937 0.9899
2.1641 0.8642 -0.9937 0.9899
2.1380 0.9271 -0.9937 0.9899
2.1100 0.9891 -0.9937 0.9899
2.0802 1.0504 -0.9937 0.9899
2.0322 1.1405 -0.9938 0.9899
2.0154 1.1701 -0.9938 0.9899
1.9980 1.1995 -0.9938 0.9899
1.9621 1.2573 -0.9938 0.9899
1.9436 1.2859 -0.9938 0.9899
1.8854 1.3698 -0.9938 0.9899
1.8652 1.3972 -0.9938 0.9899
1.8446 1.4243 -0.9938 0.9899
1.7582 1.5297 -0.9938 0.9899
1.7357 1.5552 -0.9938 0.9899
1.7128 1.5804 -0.9938 0.9899
1.6896 1.6053 -0.9938 0.9899
1.6177 1.6779 -0.9939 0.9899
1.5679 1.7244 -0.9939 0.9899
1.5426 1.7471 -0.9939 0.9899
1.5169 1.7695 -0.9939 0.9899
1.4110 1.8552 -0.9939 0.9899
1.3837 1.8756 -0.9939 0.9899
1.3562 1.8956 -0.9939 0.9899
1.2432 1.9717 -0.9940 0.9899
1.2143 1.9896 -0.9940 0.9899
1.1850 2.0071 -0.9940 0.9899
1.0960 2.0572 -0.9940 0.9899
1.0658 2.0730 -0.9940 0.9899
0.9739 2.1178 -0.9940 0.9899
0.9117 2.1454 -0.9941 0.9899
0.8803 2.1586 -0.9941 0.9899
0.8486 2.1711 -0.9941 0.9899
0.8168 2.1834 -0.9941 0.9899
0.7848 2.1951 -0.9941 0.9899
0.7527 2.2063 -0.9941 0.9899
0.6879 2.2275 -0.9941 0.9899
0.5567 2.2639 -0.9942 0.9899
0.4569 2.2861 -0.9942 0.9899
0.4235 2.2926 -0.9942 0.9899
0.3899 2.2986 -0.9942 0.9899
0.3563 2.3041 -0.9942 0.9899
0.0851 2.3300 -0.9943 0.9899
0.0170 2.3316 -0.9943 0.9899
-0.0170 2.3316 -0.9943 0.9899
-0.0852 2.3302 -0.9943 0.9899
-0.1192 2.3287 -0.9943 0.9899
-0.1872 2.3242 -0.9944 0.9899
-0.2550 2.3178 -0.9944 0.9899
-0.2889 2.3139 -0.9944 0.9899
-0.0920 0.5423 -0.2345 0.9976
-0.1113 0.5173 -0.2256 0.9977
-0.1173 0.5092 -0.2228 0.9977
-0.1399 0.4778 -0.2123 0.9978
-0.1452 0.4702 -0.2098 0.9979
-0.1553 0.4552 -0.2051 0.9979
-0.1602 0.4479 -0.2028 0.9979
-0.1648 0.4406 -0.2006 0.9980
-0.1694 0.4334 -0.1984 0.9980
-0.1824 0.4123 -0.1923 0.9980
-0.1905 0.3986 -0.1884 0.9981
-0.1943 0.3919 -0.1865 0.9981
-0.1981 0.3852 -0.1847 0.9981
-0.2018 0.3787 -0.1830 0.9981
-0.2089 0.3659 -0.1797 0.9982
-0.2123 0.3596 -0.1781 0.9982
-0.2220 0.3409 -0.1735 0.9982
-0.2280 0.3288 -0.1706 0.9983
-0.2309 0.3228 -0.1692 0.9983
-0.2337 0.3168 -0.1679 0.9983
-0.2364 0.3109 -0.1666 0.9983
-0.2391 0.3050 -0.1653 0.9983
-0.2502 0.2752 -0.1586 0.9984
-0.2522 0.2694 -0.1573 0.9984
-0.2541 0.2636 -0.1561 0.9984
-0.2559 0.2578 -0.1549 0.9984
-0.2594 0.2464 -0.1526 0.9984
-0.2656 0.2244 -0.1483 0.9985
-0.2671 0.2189 -0.1473 0.9985
-0.2684 0.2136 -0.1463 0.9985
-0.2697 0.2083 -0.1453 0.9985
-0.2710 0.2030 -0.1444 0.9985
-0.2722 0.1978 -0.1435 0.9985
-0.2750 0.1878 -0.1420 0.9986
-0.2763 0.1828 -0.1413 0.9986
-0.2776 0.1779 -0.1406 0.9986
-0.2789 0.1730 -0.1399 0.9986
-0.2801 0.1682 -0.1393 0.9986
-0.2824 0.1585 -0.1381 0.9986
-0.2845 0.1489 -0.1369 0.9986
-0.2897 0.1206 -0.1338 0.9986
-0.2904 0.1159 -0.1333 0.9986
-0.2916 0.1066 -0.1324 0.9987
-0.2921 0.1021 -0.1319 0.9987
-0.2940 0.0838 -0.1303 0.9987
-0.2947 0.0747 -0.1296 0.9987
-0.2959 0.0524 -0.1282 0.9987
-0.2961 0.0480 -0.1279 0.9987
-0.2963 0.0392 -0.1274 0.9987
-0.2963 0.0348 -0.1272 0.9987
-0.2963 0.0304 -0.1270 0.9987
-0.2963 0.0261 -0.1268 0.9987
-0.2962 0.0217 -0.1267 0.9987
-0.2958 0.0043 -0.1261 0.9987
-0.2911 0.0000 -0.1280 0.9987
-0.2915 -0.0085 -0.1282 0.9987
-0.2916 -0.0128 -0.1283 0.9987
-0.2917 -0.0171 -0.1285 0.9987
-0.2918 -0.0213 -0.1286 0.9987
-0.2918 -0.0299 -0.1290 0.9987
-0.2918 -0.0343 -0.1292 0.9987
-0.2915 -0.0472 -0.1298 0.9987
-0.2914 -0.0516 -0.1301 0.9987
-0.2907 -0.0648 -0.1309 0.9987
-0.2904 -0.0692 -0.1312 0.9987
-0.2901 -0.0736 -0.1316 0.9987
-0.2898 -0.0780 -0.1319 0.9987
-0.2890 -0.0869 -0.1327 0.9987
-0.2885 -0.0914 -0.1330 0.9987
-0.2870 -0.1050 -0.1343 0.9987
-0.2863 -0.1095 -0.1348 0.9987
-0.2857 -0.1141 -0.1352 0.9987
-0.2850 -0.1186 -0.1357 0.9987
-0.2836 -0.1279 -0.1368 0.9986
-0.2827 -0.1325 -0.1373 0.9986
-0.2808 -0.1418 -0.1383 0.9986
-0.2798 -0.1465 -0.1388 0.9986
-0.2777 -0.1558 -0.1400 0.9986
-0.2742 -0.1701 -0.1418 0.9986
-0.2730 -0.1749 -0.1425 0.9986
-0.2717 -0.1797 -0.1432 0.9986
-0.2703 -0.1846 -0.1439 0.9986
-0.2689 -0.1894 -0.1446 0.9986
-0.2675 -0.1943 -0.1453 0.9986
-0.2662 -0.1993 -0.1462 0.9985
-0.2649 -0.2045 -0.1471 0.9985
-0.2622 -0.2150 -0.1490 0.9985
-0.2608 -0.2203 -0.1500 0.9985
-0.2577 -0.2309 -0.1521 0.9985
-0.2561 -0.2363 -0.1532 0.9985
-0.2453 -0.2698 -0.1603 0.9984
-0.2433 -0.2755 -0.1616 0.9984
-0.2390 -0.2872 -0.1643 0.9984
-0.2233 -0.3220 -0.1723 0.9983
-0.2173 -0.3338 -0.1751 0.9983
-0.2142 -0.3398 -0.1766 0.9982
-0.2044 -0.3580 -0.1812 0.9982
-0.2009 -0.3642 -0.1828 0.9982
-0.1973 -0.3704 -0.1845 0.9982
-0.1899 -0.3830 -0.1879 0.9981
-0.1822 -0.3961 -0.1916 0.9981
-0.1740 -0.4094 -0.1955 0.9981
-0.1654 -0.4230 -0.1996 0.9980
-0.1465 -0.4510 -0.2085 0.9979
-0.1415 -0.4582 -0.2108 0.9979
-0.1363 -0.4655 -0.2132 0.9979
-0.1200 -0.4878 -0.2208 0.9978
-0.1142 -0.4954 -0.2235 0.9978
-0.1083 -0.5032 -0.2262 0.9978
-0.1021 -0.5110 -0.2291 0.9977
-0.0958 -0.5189 -0.2319 0.9977
-0.0894 -0.5268 -0.2349 0.9977
-0.0851 -0.5504 -0.2448 0.9976
-0.3079 -2.2037 -0.9781 0.9903
-0.2757 -2.2079 -0.9781 0.9903
-0.1462 -2.2202 -0.9781 0.9903
-0.0813 -2.2235 -0.9781 0.9903
-0.0488 -2.2244 -0.9781 0.9903
-0.0163 -2.2249 -0.9781 0.9903
0.0163 -2.2248 -0.9781 0.9903
0.0488 -2.2243 -0.9780 0.9903
0.1137 -2.2219 -0.9780 0.9903
0.1462 -2.2200 -0.9780 0.9903
0.2110 -2.2147 -0.9780 0.9903
0.2756 -2.2076 -0.9780 0.9903
0.4041 -2.1877 -0.9780 0.9903
0.4678 -2.1749 -0.9779 0.9903
0.4995 -2.1678 -0.9779 0.9903
0.5312 -2.1602 -0.9779 0.9903
0.6254 -2.1348 -0.9779 0.9903
0.6564 -2.1254 -0.9779 0.9903
0.6874 -2.1156 -0.9779 0.9903
0.7489 -2.0946 -0.9779 0.9903
0.7794 -2.0834 -0.9779 0.9903
0.8098 -2.0718 -0.9778 0.9903
0.8400 -2.0597 -0.9778 0.9903
0.8998 -2.0343 -0.9778 0.9903
0.9588 -2.0070 -0.9778 0.9903
0.9880 -1.9928 -0.9778 0.9903
1.0458 -1.9631 -0.9778 0.9903
1.1039 -1.9336 -0.9788 0.9903
1.1320 -1.9173 -0.9788 0.9903
1.2420 -1.8478 -0.9787 0.9903
1.2689 -1.8294 -0.9787 0.9903
1.2969 -1.8127 -0.9798 0.9903
1.3303 -1.8031 -0.9850 0.9903
1.4207 -1.7588 -0.9939 0.9902
1.4463 -1.7379 -0.9939 0.9902
1.4715 -1.7165 -0.9939 0.9902
1.5692 -1.6276 -0.9939 0.9902
1.6161 -1.5811 -0.9939 0.9902
1.6390 -1.5573 -0.9939 0.9902
1.7482 -1.4335 -0.9938 0.9902
1.7894 -1.3817 -0.9938 0.9902
1.8094 -1.3554 -0.9938 0.9902
1.8290 -1.3288 -0.9938 0.9902
1.8670 -1.2748 -0.9938 0.9902
1.8854 -1.2474 -0.9938 0.9902
1.9210 -1.1918 -0.9938 0.9902
1.9382 -1.1636 -0.9938 0.9902
1.9873 -1.0775 -0.9938 0.9902
2.0180 -1.0189 -0.9938 0.9902
2.0468 -0.9595 -0.9938 0.9902
2.1114 -0.8075 -0.9937 0.9902
2.1230 -0.7766 -0.9937 0.9902
2.1447 -0.7143 -0.9937 0.9902
2.1647 -0.6512 -0.9937 0.9902
2.1739 -0.6195 -0.9937 0.9902
2.1828 -0.5877 -0.9937 0.9902
2.1911 -0.5557 -0.9937 0.9902
2.1990 -0.5237 -0.9937 0.9902
2.2064 -0.4915 -0.9937 0.9902
2.2313 -0.3618 -0.9937 0.9902
2.2486 -0.2308 -0.9937 0.9902
2.2518 -0.1979 -0.9937 0.9902
2.2544 -0.1650 -0.9937 0.9902
2.2583 -0.0991 -0.9937 0.9902
2.2602 -0.0330 -0.9937 0.9902
2.2605 -0.0000 -0.9937 0.9902
2.2602 0.0330 -0.9937 0.9902
2.2518 0.1979 -0.9937 0.9902
2.2364 0.3291 -0.9937 0.9902
2.2314 0.3618 -0.9937 0.9902
2.2198 0.4268 -0.9937 0.9902
2.2134 0.4592 -0.9937 0.9902
2.1990 0.5237 -0.9937 0.9902
2.1828 0.5877 -0.9937 0.9902
2.1448 0.7143 -0.9937 0.9902
2.1114 0.8075 -0.9937 0.9902
2.0869 0.8689 -0.9937 0.9902
2.0740 0.8993 -0.9937 0.9902
2.0469 0.9595 -0.9938 0.9902
2.0326 0.9893 -0.9938 0.9902
2.0180 1.0189 -0.9938 0.9902
1.8482 1.3020 -0.9938 0.9902
1.7690 1.4077 -0.9938 0.9902
1.7483 1.4334 -0.9938 0.9902
1.6616 1.5332 -0.9939 0.9902
1.6390 1.5573 -0.9939 0.9902
1.5928 1.6045 -0.9939 0.9902
1.5692 1.6277 -0.9939 0.9902
1.4208 1.7589 -0.9939 0.9902
1.3156 1.8389 -0.9939 0.9902
1.2613 1.8766 -0.9940 0.9902
1.2337 1.8948 -0.9940 0.9902
1.2060 1.9127 -0.9940 0.9902
1.1779 1.9301 -0.9940 0.9902
1.1496 1.9471 -0.9940 0.9902
1.0922 1.9799 -0.9940 0.9902
1.0632 1.9957 -0.9940 0.9902
1.0044 2.0259 -0.9940 0.9902
0.9747 2.0404 -0.9940 0.9902
0.9147 2.0681 -0.9941 0.9902
0.8539 2.0939 -0.9941 0.9902
0.8233 2.1062 -0.9941 0.9902
0.7302 2.1403 -0.9941 0.9902
0.6357 2.1703 -0.9941 0.9902
0.5078 2.2038 -0.9942 0.9902
0.4756 2.2110 -0.9942 0.9902
0.4432 2.2177 -0.9942 0.9902
0.3783 2.2298 -0.9942 0.9902
0.3129 2.2399 -0.9942 0.9902
0.2802 2.2443 -0.9942 0.9902
0.2145 2.2516 -0.9942 0.9902
0.1816 2.2544 -0.9943 0.9902
0.1486 2.2569 -0.9943 0.9902
0.1156 2.2588 -0.9943 0.9902
0.0496 2.2613 -0.9943 0.9902
-0.0496 2.2613 -0.9943 0.9902
-0.0826 2.2604 -0.9943 0.9902
-0.1156 2.2589 -0.9943 0.9902
-0.1486 2.2570 -0.9943 0.9902
-0.1816 2.2546 -0.9944 0.9902
-0.2145 2.2518 -0.9944 0.9902
-0.2474 2.2484 -0.9944 0.9902
-0.2802 2.2446 -0.9944 0.9902
-0.0851 0.5503 -0.2448 0.9976
-0.0894 0.5269 -0.2349 0.9977
-0.0958 0.5189 -0.2319 0.9977
-0.1021 0.5109 -0.2291 0.9977
-0.1082 0.5032 -0.2262 0.9978
-0.1142 0.4954 -0.2235 0.9978
-0.1200 0.4879 -0.2208 0.9978
-0.1310 0.4729 -0.2157 0.9979
-0.1363 0.4655 -0.2132 0.9979
-0.1465 0.4510 -0.2085 0.9979
-0.1562 0.4368 -0.2039 0.9980
-0.1739 0.4094 -0.1955 0.9981
-0.1821 0.3961 -0.1916 0.9981
-0.1973 0.3704 -0.1845 0.9982
-0.2009 0.3641 -0.1828 0.9982
-0.2044 0.3580 -0.1812 0.9982
-0.2077 0.3519 -0.1796 0.9982
-0.2142 0.3398 -0.1766 0.9982
-0.2262 0.3162 -0.1709 0.9983
-0.2290 0.3104 -0.1696 0.9983
-0.2390 0.2872 -0.1643 0.9984
-0.2412 0.2814 -0.1629 0.9984
-0.2453 0.2698 -0.1603 0.9984
-0.2473 0.2641 -0.1590 0.9984
-0.2528 0.2473 -0.1554 0.9985
-0.2545 0.2418 -0.1543 0.9985
-0.2561 0.2363 -0.1532 0.9985
-0.2577 0.2309 -0.1521 0.9985
-0.2593 0.2255 -0.1511 0.9985
-0.2608 0.2202 -0.1500 0.9985
-0.2636 0.2097 -0.1481 0.9985
-0.2730 0.1749 -0.1425 0.9986
-0.2742 0.1701 -0.1418 0.9986
-0.2777 0.1559 -0.1400 0.9986
-0.2788 0.1512 -0.1394 0.9986
-0.2798 0.1465 -0.1388 0.9986
-0.2818 0.1371 -0.1378 0.9986
-0.2836 0.1279 -0.1368 0.9986
-0.2850 0.1187 -0.1357 0.9987
-0.2857 0.1141 -0.1352 0.9987
-0.2864 0.1095 -0.1348 0.9987
-0.2875 0.1004 -0.1339 0.9987
-0.2880 0.0959 -0.1335 0.9987
-0.2890 0.0869 -0.1327 0.9987
-0.2894 0.0825 -0.1323 0.9987
-0.2901 0.0736 -0.1316 0.9987
-0.2907 0.0648 -0.1309 0.9987
-0.2910 0.0604 -0.1306 0.9987
-0.2912 0.0560 -0.1304 0.9987
-0.2915 0.0473 -0.1298 0.9987
-0.2918 0.0256 -0.1288 0.9987
-0.2918 0.0214 -0.1286 0.9987
-0.2917 0.0171 -0.1285 0.9987
-0.2916 0.0128 -0.1283 0.9987
-0.2915 0.0085 -0.1282 0.9987
-0.2867 0.0000 -0.1299 0.9987
-0.2870 -0.0042 -0.1300 0.9987
-0.2871 -0.0084 -0.1301 0.9987
-0.2872 -0.0126 -0.1302 0.9987
-0.2874 -0.0210 -0.1305 0.9987
-0.2874 -0.0295 -0.1309 0.9987
-0.2874 -0.0337 -0.1310 0.9987
-0.2873 -0.0380 -0.1313 0.9987
-0.2871 -0.0465 -0.1317 0.9987
-0.2870 -0.0508 -0.1320 0.9987
-0.2865 -0.0594 -0.1325 0.9987
-0.2862 -0.0637 -0.1328 0.9987
-0.2853 -0.0768 -0.1338 0.9987
-0.2845 -0.0856 -0.1345 0.9987
-0.2818 -0.1078 -0.1367 0.9987
-0.2805 -0.1168 -0.1376 0.9987
-0.2791 -0.1258 -0.1386 0.9987
-0.2782 -0.1304 -0.1391 0.9987
-0.2732 -0.1533 -0.1419 0.9986
-0.2671 -0.1767 -0.1450 0.9986
-0.2644 -0.1863 -0.1465 0.9986
-0.2629 -0.1910 -0.1472 0.9986
-0.2601 -0.2009 -0.1488 0.9986
-0.2588 -0.2059 -0.1498 0.9985
-0.2574 -0.2111 -0.1508 0.9985
-0.2560 -0.2162 -0.1517 0.9985
-0.2497 -0.2372 -0.1560 0.9985
-0.2462 -0.2480 -0.1583 0.9985
-0.2444 -0.2535 -0.1595 0.9985
-0.2425 -0.2589 -0.1607 0.9984
-0.2216 -0.3098 -0.1725 0.9983
-0.2188 -0.3154 -0.1739 0.9983
-0.2159 -0.3211 -0.1752 0.9983
-0.2098 -0.3327 -0.1781 0.9983
-0.2066 -0.3385 -0.1796 0.9983
-0.2033 -0.3444 -0.1811 0.9982
-0.2000 -0.3504 -0.1827 0.9982
-0.1966 -0.3563 -0.1843 0.9982
-0.1894 -0.3684 -0.1876 0.9982
-0.1819 -0.3807 -0.1911 0.9981
-0.1780 -0.3870 -0.1929 0.9981
-0.1740 -0.3934 -0.1948 0.9981
-0.1570 -0.4195 -0.2029 0.9980
-0.1477 -0.4330 -0.2072 0.9980
-0.1429 -0.4398 -0.2094 0.9980
-0.1380 -0.4467 -0.2117 0.9979
-0.1223 -0.4678 -0.2190 0.9979
-0.1168 -0.4750 -0.2215 0.9979
-0.1111 -0.4823 -0.2241 0.9978
-0.1053 -0.4896 -0.2268 0.9978
-0.0994 -0.4971 -0.2296 0.9978
-0.0932 -0.5046 -0.2324 0.9977
-0.0801 -0.5730 -0.2620 0.9975
-0.2362 -2.1468 -0.9781 0.9906
-0.2048 -2.1500 -0.9781 0.9906
-0.0789 -2.1582 -0.9781 0.9906
-0.0473 -2.1591 -0.9781 0.9906
-0.0158 -2.1596 -0.9781 0.9906
0.1104 -2.1568 -0.9780 0.9906
0.1419 -2.1549 -0.9780 0.9906
0.2362 -2.1465 -0.9780 0.9906
0.3300 -2.1341 -0.9780 0.9906
0.3612 -2.1289 -0.9780 0.9906
0.4541 -2.1111 -0.9779 0.9906
0.5156 -2.0968 -0.9779 0.9906
0.5462 -2.0891 -0.9779 0.9906
0.6672 -2.0536 -0.9779 0.9906
0.6972 -2.0436 -0.9779 0.9906
0.7565 -2.0223 -0.9779 0.9906
0.7861 -2.0110 -0.9779 0.9906
0.8153 -1.9993 -0.9778 0.9906
0.9600 -1.9363 -0.9788 0.9906
0.9882 -1.9221 -0.9788 0.9906
1.0715 -1.8769 -0.9788 0.9906
1.0987 -1.8610 -0.9788 0.9906
1.1258 -1.8447 -0.9788 0.9906
1.1807 -1.8132 -0.9799 0.9905
1.2129 -1.8046 -0.9847 0.9905
1.3029 -1.7661 -0.9940 0.9904
1.3286 -1.7468 -0.9939 0.9904
1.3791 -1.7073 -0.9939 0.9904
1.4525 -1.6452 -0.9939 0.9904
1.5232 -1.5799 -0.9939 0.9904
1.5461 -1.5575 -0.9939 0.9904
1.6128 -1.4882 -0.9939 0.9904
1.6344 -1.4644 -0.9939 0.9904
1.7171 -1.3664 -0.9938 0.9904
1.7753 -1.2899 -0.9938 0.9904
1.8122 -1.2374 -0.9938 0.9904
1.8476 -1.1839 -0.9938 0.9904
1.8647 -1.1568 -0.9938 0.9904
1.9291 -1.0459 -0.9938 0.9904
1.9441 -1.0175 -0.9938 0.9904
1.9588 -0.9891 -0.9938 0.9904
1.9868 -0.9314 -0.9938 0.9904
2.0378 -0.8137 -0.9938 0.9904
2.0818 -0.6933 -0.9937 0.9904
2.0917 -0.6628 -0.9937 0.9904
2.1102 -0.6013 -0.9937 0.9904
2.1269 -0.5395 -0.9937 0.9904
2.1417 -0.4771 -0.9937 0.9904
2.1485 -0.4457 -0.9937 0.9904
2.1659 -0.3511 -0.9937 0.9904
2.1708 -0.3195 -0.9937 0.9904
2.1752 -0.2877 -0.9937 0.9904
2.1827 -0.2240 -0.9937 0.9904
2.1857 -0.1921 -0.9937 0.9904
2.1883 -0.1602 -0.9937 0.9904
2.1904 -0.1282 -0.9937 0.9904
2.1921 -0.0961 -0.9937 0.9904
2.1933 -0.0641 -0.9937 0.9904
2.1939 -0.0320 -0.9937 0.9904
2.1942 0.0000 -0.9937 0.9904
2.1932 0.0641 -0.9937 0.9904
2.1921 0.0962 -0.9937 0.9904
2.1904 0.1282 -0.9937 0.9904
2.1857 0.1921 -0.9937 0.9904
2.1827 0.2240 -0.9937 0.9904
2.1792 0.2559 -0.9937 0.9904
2.1708 0.3195 -0.9937 0.9904
2.1659 0.3512 -0.9937 0.9904
2.1547 0.4143 -0.9937 0.9904
2.1345 0.5084 -0.9937 0.9904
2.1187 0.5705 -0.9937 0.9904
2.1102 0.6014 -0.9937 0.9904
2.1012 0.6321 -0.9937 0.9904
2.0918 0.6628 -0.9937 0.9904
2.0818 0.6933 -0.9937 0.9904
2.0715 0.7236 -0.9937 0.9904
2.0378 0.8137 -0.9938 0.9904
1.9868 0.9313 -0.9938 0.9904
1.9730 0.9603 -0.9938 0.9904
1.9441 1.0176 -0.9938 0.9904
1.8977 1.1018 -0.9938 0.9904
1.8814 1.1294 -0.9938 0.9904
1.8301 1.2108 -0.9938 0.9904
1.8122 1.2375 -0.9938 0.9904
1.7939 1.2638 -0.9938 0.9904
1.7563 1.3157 -0.9938 0.9904
1.6970 1.3914 -0.9938 0.9904
1.6556 1.4404 -0.9939 0.9904
1.5910 1.5116 -0.9939 0.9904
1.5687 1.5347 -0.9939 0.9904
1.5232 1.5799 -0.9939 0.9904
1.5000 1.6020 -0.9939 0.9904
1.4764 1.6237 -0.9939 0.9904
1.3790 1.7072 -0.9939 0.9904
1.3540 1.7272 -0.9939 0.9904
1.3029 1.7661 -0.9940 0.9904
1.2770 1.7850 -0.9940 0.9904
1.2243 1.8216 -0.9940 0.9904
1.1706 1.8566 -0.9940 0.9904
1.0882 1.9061 -0.9940 0.9904
1.0036 1.9520 -0.9940 0.9904
0.9750 1.9664 -0.9940 0.9904
0.9171 1.9942 -0.9941 0.9904
0.8879 2.0074 -0.9941 0.9904
0.8585 2.0202 -0.9941 0.9904
0.8289 2.0325 -0.9941 0.9904
0.7991 2.0444 -0.9941 0.9904
0.7691 2.0559 -0.9941 0.9904
0.7390 2.0669 -0.9941 0.9904
0.7088 2.0775 -0.9941 0.9904
0.6171 2.1066 -0.9941 0.9904
0.5862 2.1154 -0.9941 0.9904
0.5553 2.1238 -0.9942 0.9904
0.4929 2.1391 -0.9942 0.9904
0.3987 2.1587 -0.9942 0.9904
0.3671 2.1644 -0.9942 0.9904
0.3355 2.1695 -0.9942 0.9904
0.3038 2.1742 -0.9942 0.9904
0.2720 2.1784 -0.9942 0.9904
0.2082 2.1855 -0.9942 0.9904
0.1762 2.1883 -0.9943 0.9904
0.1443 2.1907 -0.9943 0.9904
0.1122 2.1925 -0.9943 0.9904
0.0160 2.1954 -0.9943 0.9904
-0.0160 2.1955 -0.9943 0.9904
-0.1443 2.1909 -0.9943 0.9904
-0.2082 2.1857 -0.9944 0.9904
-0.2401 2.1825 -0.9944 0.9904
-0.0800 0.5730 -0.2620 0.9975
-0.0812 0.5247 -0.2405 0.9977
-0.0869 0.5122 -0.2353 0.9977
-0.0932 0.5046 -0.2324 0.9977
-0.1168 0.4750 -0.2215 0.9979
-0.1277 0.4607 -0.2165 0.9979
-0.1380 0.4468 -0.2117 0.9979
-0.1429 0.4398 -0.2094 0.9980
-0.1477 0.4330 -0.2072 0.9980
-0.1524 0.4262 -0.2050 0.9980
-0.1657 0.4063 -0.1987 0.9981
-0.1740 0.3934 -0.1948 0.9981
-0.1780 0.3870 -0.1929 0.9981
-0.1819 0.3807 -0.1911 0.9981
-0.1857 0.3746 -0.1893 0.9982
-0.1930 0.3624 -0.1859 0.9982
-0.2129 0.3269 -0.1767 0.9983
-0.2159 0.3211 -0.1752 0.9983
-0.2216 0.3098 -0.1725 0.9983
-0.2244 0.3042 -0.1712 0.9983
-0.2271 0.2986 -0.1699 0.9984
-0.2342 0.2815 -0.1658 0.9984
-0.2385 0.2702 -0.1632 0.9984
-0.2405 0.2645 -0.1619 0.9984
-0.2425 0.2590 -0.1607 0.9984
-0.2444 0.2535 -0.1595 0.9985
-0.2462 0.2480 -0.1583 0.9985
-0.2480 0.2426 -0.1571 0.9985
-0.2514 0.2319 -0.1549 0.9985
-0.2529 0.2266 -0.1538 0.9985
-0.2602 0.2009 -0.1488 0.9986
-0.2629 0.1911 -0.1472 0.9986
-0.2658 0.1814 -0.1457 0.9986
-0.2671 0.1767 -0.1450 0.9986
-0.2684 0.1720 -0.1444 0.9986
-0.2696 0.1673 -0.1437 0.9986
-0.2709 0.1626 -0.1431 0.9986
-0.2732 0.1533 -0.1419 0.9986
-0.2743 0.1487 -0.1413 0.9986
-0.2782 0.1304 -0.1391 0.9987
-0.2791 0.1259 -0.1386 0.9987
-0.2798 0.1213 -0.1381 0.9987
-0.2812 0.1123 -0.1371 0.9987
-0.2830 0.0989 -0.1358 0.9987
-0.2835 0.0944 -0.1353 0.9987
-0.2840 0.0900 -0.1349 0.9987
-0.2849 0.0812 -0.1342 0.9987
-0.2853 0.0768 -0.1338 0.9987
-0.2857 0.0725 -0.1335 0.9987
-0.2860 0.0681 -0.1331 0.9987
-0.2863 0.0638 -0.1328 0.9987
-0.2865 0.0595 -0.1325 0.9987
-0.2868 0.0551 -0.1322 0.9987
-0.2870 0.0508 -0.1320 0.9987
-0.2871 0.0466 -0.1317 0.9987
-0.2872 0.0423 -0.1315 0.9987
-0.2874 0.0295 -0.1308 0.9987
-0.2874 0.0253 -0.1307 0.9987
-0.2874 0.0210 -0.1305 0.9987
-0.2873 0.0168 -0.1303 0.9987
-0.2872 0.0126 -0.1302 0.9987
-0.2871 0.0084 -0.1301 0.9987
-0.2869 0.0042 -0.1300 0.9987
-0.2825 0.0000 -0.1317 0.9988
-0.2828 -0.0083 -0.1319 0.9988
-0.2829 -0.0124 -0.1321 0.9988
-0.2831 -0.0207 -0.1324 0.9987
-0.2831 -0.0332 -0.1329 0.9987
-0.2830 -0.0374 -0.1331 0.9987
-0.2829 -0.0417 -0.1333 0.9987
-0.2828 -0.0458 -0.1336 0.9987
-0.2824 -0.0543 -0.1341 0.9987
-0.2819 -0.0628 -0.1347 0.9987
-0.2809 -0.0757 -0.1357 0.9987
-0.2805 -0.0800 -0.1360 0.9987
-0.2791 -0.0929 -0.1372 0.9987
-0.2786 -0.0973 -0.1376 0.9987
-0.2780 -0.1017 -0.1380 0.9987
-0.2774 -0.1061 -0.1385 0.9987
-0.2761 -0.1150 -0.1395 0.9987
-0.2737 -0.1283 -0.1410 0.9987
-0.2728 -0.1328 -0.1415 0.9987
-0.2719 -0.1373 -0.1420 0.9987
-0.2708 -0.1418 -0.1425 0.9987
-0.2698 -0.1462 -0.1431 0.9986
-0.2687 -0.1508 -0.1437 0.9986
-0.2676 -0.1554 -0.1443 0.9986
-0.2599 -0.1831 -0.1483 0.9986
-0.2570 -0.1925 -0.1497 0.9986
-0.2541 -0.2022 -0.1515 0.9986
-0.2513 -0.2123 -0.1534 0.9985
-0.2498 -0.2173 -0.1544 0.9985
-0.2467 -0.2276 -0.1565 0.9985
-0.2450 -0.2328 -0.1576 0.9985
-0.2378 -0.2540 -0.1623 0.9985
-0.2226 -0.2927 -0.1715 0.9984
-0.2200 -0.2981 -0.1728 0.9984
-0.2172 -0.3036 -0.1741 0.9984
-0.2115 -0.3146 -0.1768 0.9983
-0.2085 -0.3202 -0.1782 0.9983
-0.2054 -0.3258 -0.1796 0.9983
-0.1958 -0.3429 -0.1841 0.9983
-0.1924 -0.3487 -0.1857 0.9982
-0.1853 -0.3604 -0.1890 0.9982
-0.1817 -0.3664 -0.1907 0.9982
-0.1779 -0.3723 -0.1924 0.9982
-0.1660 -0.3906 -0.1979 0.9981
-0.1619 -0.3969 -0.1999 0.9981
-0.1576 -0.4032 -0.2019 0.9981
-0.1488 -0.4160 -0.2060 0.9981
-0.1245 -0.4491 -0.2173 0.9979
-0.1138 -0.4628 -0.2222 0.9979
-0.0967 -0.4837 -0.2301 0.9978
-0.0761 -0.5451 -0.2567 0.9976
-0.2599 -2.0815 -0.9781 0.9908
-0.2294 -2.0850 -0.9781 0.9908
-0.1684 -2.0908 -0.9781 0.9908
-0.1378 -2.0930 -0.9781 0.9908
0.0153 -2.0974 -0.9781 0.9908
0.1072 -2.0946 -0.9780 0.9908
0.1378 -2.0929 -0.9780 0.9908
0.1684 -2.0906 -0.9780 0.9908
0.3205 -2.0726 -0.9780 0.9908
0.3508 -2.0677 -0.9780 0.9908
0.4110 -2.0565 -0.9780 0.9908
0.5007 -2.0365 -0.9779 0.9908
0.5600 -2.0210 -0.9779 0.9908
0.5895 -2.0125 -0.9779 0.9908
0.6188 -2.0037 -0.9779 0.9908
0.6771 -1.9848 -0.9779 0.9908
0.7060 -1.9746 -0.9779 0.9908
0.7348 -1.9641 -0.9779 0.9908
0.7642 -1.9552 -0.9789 0.9908
0.7927 -1.9437 -0.9788 0.9908
0.8491 -1.9197 -0.9788 0.9908
0.9048 -1.8940 -0.9788 0.9908
0.9324 -1.8806 -0.9788 0.9908
0.9598 -1.8668 -0.9788 0.9908
0.9870 -1.8525 -0.9788 0.9908
1.0406 -1.8229 -0.9788 0.9908
1.1010 -1.8040 -0.9855 0.9907
1.1323 -1.7959 -0.9900 0.9907
1.2654 -1.7153 -0.9940 0.9906
1.2904 -1.6966 -0.9940 0.9906
1.3150 -1.6775 -0.9939 0.9906
1.3634 -1.6384 -0.9939 0.9906
1.3872 -1.6182 -0.9939 0.9906
1.4107 -1.5978 -0.9939 0.9906
1.4339 -1.5770 -0.9939 0.9906
1.4568 -1.5559 -0.9939 0.9906
1.4794 -1.5344 -0.9939 0.9906
1.5236 -1.4905 -0.9939 0.9906
1.5452 -1.4681 -0.9939 0.9906
1.5664 -1.4454 -0.9939 0.9906
1.5874 -1.4223 -0.9939 0.9906
1.6481 -1.3513 -0.9939 0.9906
1.6677 -1.3271 -0.9939 0.9906
1.7057 -1.2779 -0.9938 0.9906
1.7424 -1.2274 -0.9938 0.9906
1.7601 -1.2018 -0.9938 0.9906
1.7775 -1.1760 -0.9938 0.9906
1.7945 -1.1498 -0.9938 0.9906
1.8111 -1.1235 -0.9938 0.9906
1.8431 -1.0701 -0.9938 0.9906
1.8585 -1.0430 -0.9938 0.9906
1.8736 -1.0157 -0.9938 0.9906
1.8882 -0.9883 -0.9938 0.9906
1.9162 -0.9327 -0.9938 0.9906
1.9674 -0.8192 -0.9938 0.9906
1.9792 -0.7903 -0.9938 0.9906
2.0014 -0.7321 -0.9938 0.9906
2.0219 -0.6733 -0.9938 0.9906
2.0316 -0.6437 -0.9938 0.9906
2.0495 -0.5841 -0.9938 0.9906
2.0578 -0.5541 -0.9937 0.9906
2.0657 -0.5239 -0.9937 0.9906
