ply
format ascii 1.0
element vertex 1610
property float32 x
property float32 y
property float32 z
property float32 I
end_header
10.6221 -9.1363 -0.9914 0.9454
10.8844 -8.8206 -0.9914 0.9454
11.0120 -8.6600 -0.9913 0.9454
11.1373 -8.4975 -0.9913 0.9454
11.3806 -8.1671 -0.9912 0.9454
11.6143 -7.8297 -0.9912 0.9454
11.9459 -7.3114 -0.9911 0.9454
12.4471 -6.4170 -0.9909 0.9454
12.5394 -6.2337 -0.9909 0.9454
5.6175 -2.6907 -0.4408 0.9753
12.8002 -5.6766 -0.9908 0.9454
12.8817 -5.4884 -0.9908 0.9454
13.0364 -5.1085 -0.9908 0.9454
13.4891 -3.7470 -0.9907 0.9454
10.4918 -2.5860 -0.7646 0.9576
10.6350 -2.4566 -0.7724 0.9572
13.4748 -2.9054 -0.9754 0.9462
13.5539 -2.5095 -0.9754 0.9462
13.5891 -2.3107 -0.9754 0.9462
13.6507 -1.9117 -0.9754 0.9462
13.9348 -1.3306 -0.9905 0.9454
13.9677 -0.9219 -0.9905 0.9454
13.9796 -0.7172 -0.9905 0.9454
13.9946 -0.3075 -0.9905 0.9454
13.9976 -0.1025 -0.9905 0.9454
13.9976 0.1025 -0.9905 0.9454
13.9946 0.3075 -0.9905 0.9454
13.9886 0.5124 -0.9905 0.9454
13.9796 0.7173 -0.9905 0.9454
13.9677 0.9219 -0.9905 0.9454
13.9139 1.5346 -0.9905 0.9454
13.8632 1.9414 -0.9906 0.9454
13.8006 2.3467 -0.9906 0.9454
13.6401 3.1508 -0.9906 0.9454
13.4891 3.7471 -0.9907 0.9454
12.2579 4.1923 -0.9167 0.9494
12.0700 4.3265 -0.9073 0.9499
13.0365 5.1086 -0.9908 0.9454
10.6330 4.3475 -0.8129 0.9550
12.6292 6.0494 -0.9909 0.9454
12.5395 6.2338 -0.9909 0.9454
12.3522 6.5987 -0.9910 0.9454
12.2545 6.7791 -0.9910 0.9454
12.1543 6.9580 -0.9910 0.9454
12.0514 7.1355 -0.9911 0.9454
10.9866 6.7243 -0.9115 0.9497
10.8478 6.8597 -0.9082 0.9498
10.8953 7.1153 -0.9208 0.9492
11.4987 7.9993 -0.9912 0.9454
11.0564 8.1821 -0.9733 0.9463
4.2217 -11.1318 -0.9751 0.9533
4.3841 -11.0683 -0.9751 0.9533
4.7060 -10.9342 -0.9750 0.9533
5.4922 -10.5582 -0.9748 0.9534
5.7986 -10.3920 -0.9747 0.9534
5.9499 -10.3055 -0.9747 0.9534
6.0999 -10.2168 -0.9746 0.9534
6.2486 -10.1260 -0.9746 0.9534
6.3960 -10.0330 -0.9746 0.9534
6.5420 -9.9379 -0.9745 0.9534
7.3839 -9.6046 -0.9923 0.9525
7.6614 -9.3835 -0.9922 0.9525
1.9624 -2.3329 -0.2497 0.9878
1.8754 -2.1643 -0.2346 0.9886
1.9092 -2.1392 -0.2349 0.9886
2.0590 -2.2402 -0.2492 0.9879
2.1619 -2.2839 -0.2576 0.9875
2.1841 -2.1132 -0.2489 0.9879
2.1921 -2.0597 -0.2464 0.9880
2.2273 -2.0322 -0.2470 0.9880
9.0640 -8.0299 -0.9919 0.9526
9.1803 -7.8961 -0.9918 0.9526
9.2946 -7.7605 -0.9918 0.9526
9.4071 -7.6233 -0.9918 0.9526
9.5174 -7.4846 -0.9917 0.9526
9.6257 -7.3441 -0.9917 0.9526
9.8361 -7.0586 -0.9916 0.9526
10.0381 -6.7672 -0.9916 0.9526
10.1358 -6.6193 -0.9916 0.9526
10.3248 -6.3193 -0.9915 0.9526
10.5049 -6.0139 -0.9915 0.9526
10.5916 -5.8592 -0.9914 0.9526
10.7582 -5.5463 -0.9914 0.9526
10.8381 -5.3880 -0.9914 0.9526
5.6176 -2.6908 -0.5102 0.9753
10.9908 -5.0680 -0.9913 0.9526
11.0636 -4.9064 -0.9913 0.9526
11.2678 -4.4155 -0.9913 0.9526
11.3311 -4.2499 -0.9912 0.9526
11.5063 -3.7479 -0.9912 0.9526
11.3826 -3.5241 -0.9760 0.9533
11.5259 -3.0206 -0.9760 0.9533
11.6471 -2.5113 -0.9759 0.9533
11.7155 -2.1691 -0.9759 0.9533
11.7737 -1.8250 -0.9759 0.9533
12.0060 -1.5024 -0.9911 0.9526
12.0602 -0.9736 -0.9910 0.9526
12.0732 -0.7968 -0.9910 0.9526
12.0835 -0.6200 -0.9910 0.9526
12.0913 -0.4429 -0.9910 0.9526
12.0965 -0.2658 -0.9910 0.9526
12.0990 0.0886 -0.9910 0.9526
12.0964 0.2657 -0.9910 0.9526
12.0835 0.6200 -0.9910 0.9526
12.0732 0.7969 -0.9910 0.9526
12.0447 1.1501 -0.9911 0.9526
12.0267 1.3264 -0.9911 0.9526
12.0061 1.5024 -0.9911 0.9526
11.9828 1.6781 -0.9911 0.9526
11.9570 1.8534 -0.9911 0.9526
11.9287 2.0284 -0.9911 0.9526
11.8978 2.2029 -0.9911 0.9526
11.8644 2.3769 -0.9911 0.9526
11.7489 2.8959 -0.9911 0.9526
11.6593 3.2388 -0.9912 0.9526
11.5598 3.5789 -0.9912 0.9526
11.4504 3.9161 -0.9912 0.9526
11.3920 4.0835 -0.9912 0.9526
11.2022 4.5801 -0.9913 0.9526
10.6038 4.5179 -0.9441 0.9548
10.9908 5.0681 -0.9913 0.9526
10.9157 5.2286 -0.9914 0.9526
10.8381 5.3880 -0.9914 0.9526
10.6762 5.7034 -0.9914 0.9526
10.2315 6.4700 -0.9915 0.9526
3.4275 -9.9031 -0.9754 0.9588
3.6379 -10.0330 -0.9933 0.9580
4.2184 -9.8014 -0.9932 0.9580
4.6443 -9.6055 -0.9930 0.9580
4.9233 -9.4646 -0.9930 0.9580
5.1980 -9.3157 -0.9929 0.9580
5.3336 -9.2382 -0.9929 0.9581
5.7337 -8.9940 -0.9928 0.9581
5.9942 -8.8216 -0.9927 0.9581
6.1225 -8.7326 -0.9926 0.9581
6.2496 -8.6417 -0.9926 0.9581
6.3753 -8.5489 -0.9926 0.9581
6.4996 -8.4543 -0.9925 0.9581
6.7439 -8.2598 -0.9925 0.9581
1.9599 -2.3300 -0.2834 0.9878
2.0111 -2.2534 -0.2811 0.9879
2.1697 -2.2260 -0.2893 0.9876
2.1959 -2.1879 -0.2885 0.9876
8.0813 -6.9509 -0.9921 0.9581
8.3782 -6.5886 -0.9920 0.9581
8.4735 -6.4651 -0.9920 0.9581
8.7487 -6.0862 -0.9919 0.9581
8.8366 -5.9573 -0.9919 0.9581
8.9228 -5.8271 -0.9919 0.9581
9.0070 -5.6956 -0.9919 0.9581
9.1695 -5.4291 -0.9918 0.9581
9.2478 -5.2942 -0.9918 0.9581
9.3241 -5.1581 -0.9918 0.9581
9.3985 -5.0208 -0.9918 0.9581
9.8018 -4.1762 -0.9917 0.9581
9.9259 -3.3947 -0.9764 0.9587
10.0208 -3.1025 -0.9764 0.9587
10.0650 -2.9553 -0.9763 0.9587
10.1470 -2.6592 -0.9763 0.9587
10.2203 -2.3608 -0.9763 0.9587
10.3139 -1.9096 -0.9763 0.9587
10.5266 -1.6317 -0.9915 0.9581
10.5493 -1.4773 -0.9915 0.9581
10.5698 -1.3227 -0.9914 0.9581
10.6289 -0.7015 -0.9914 0.9581
10.6517 -0.0780 -0.9914 0.9581
10.6494 0.2340 -0.9914 0.9581
10.6448 0.3900 -0.9914 0.9581
10.6289 0.7016 -0.9914 0.9581
10.6175 0.8571 -0.9914 0.9581
10.6039 1.0125 -0.9914 0.9581
10.5879 1.1678 -0.9914 0.9581
10.5698 1.3227 -0.9915 0.9581
10.5493 1.4773 -0.9915 0.9581
10.4450 2.0926 -0.9915 0.9581
10.4133 2.2453 -0.9915 0.9581
10.3794 2.3976 -0.9915 0.9581
10.3434 2.5494 -0.9915 0.9581
10.2217 3.0014 -0.9915 0.9581
10.1768 3.1508 -0.9916 0.9581
10.0289 3.5949 -0.9916 0.9581
9.9197 3.8872 -0.9916 0.9581
9.8019 4.1762 -0.9917 0.9581
9.7398 4.3193 -0.9917 0.9581
9.6757 4.4616 -0.9917 0.9581
9.5412 4.7433 -0.9917 0.9581
9.4709 4.8826 -0.9917 0.9581
9.3986 5.0209 -0.9918 0.9581
9.2479 5.2942 -0.9918 0.9581
9.0892 5.5630 -0.9919 0.9581
9.0070 5.6957 -0.9919 0.9581
8.5672 6.3402 -0.9920 0.9581
8.4736 6.4652 -0.9920 0.9581
3.5085 -8.8577 -0.9934 0.9624
3.6378 -8.8051 -0.9933 0.9624
3.8938 -8.6941 -0.9932 0.9624
4.1465 -8.5758 -0.9932 0.9624
4.3955 -8.4501 -0.9931 0.9624
4.5187 -8.3846 -0.9931 0.9624
4.6408 -8.3172 -0.9930 0.9624
4.7620 -8.2480 -0.9930 0.9624
5.1192 -8.0302 -0.9929 0.9624
5.2361 -7.9541 -0.9929 0.9624
5.4665 -7.7968 -0.9928 0.9624
5.5799 -7.7157 -0.9928 0.9624
5.6921 -7.6329 -0.9928 0.9624
1.9574 -2.3270 -0.3170 0.9878
1.9765 -2.2811 -0.3147 0.9879
2.0092 -2.2513 -0.3146 0.9879
2.0559 -2.2368 -0.3168 0.9879
2.1641 -2.2864 -0.3282 0.9874
2.1698 -2.2261 -0.3241 0.9876
2.2352 -2.1627 -0.3243 0.9876
2.2980 -2.1592 -0.3288 0.9874
7.0312 -6.4154 -0.9924 0.9624
7.4809 -5.8830 -0.9923 0.9624
7.6496 -5.6611 -0.9922 0.9625
7.7315 -5.5484 -0.9922 0.9625
7.8118 -5.4344 -0.9922 0.9625
7.9673 -5.2031 -0.9921 0.9625
8.0424 -5.0857 -0.9921 0.9625
8.3258 -4.6058 -0.9921 0.9625
8.4568 -4.3598 -0.9920 0.9625
8.5196 -4.2354 -0.9920 0.9625
8.6970 -3.8569 -0.9920 0.9625
8.7524 -3.7290 -0.9919 0.9625
8.6710 -3.5453 -0.9767 0.9630
8.7219 -3.4179 -0.9767 0.9630
8.8180 -3.1609 -0.9767 0.9630
8.9066 -2.9011 -0.9767 0.9630
8.9875 -2.6390 -0.9766 0.9630
9.0608 -2.3746 -0.9766 0.9630
9.0945 -2.2416 -0.9766 0.9630
9.1839 -1.8399 -0.9766 0.9630
9.3522 -1.7316 -0.9917 0.9625
9.4201 -1.3192 -0.9918 0.9625
9.4810 -0.7654 -0.9917 0.9625
9.4993 -0.4873 -0.9917 0.9625
9.5054 -0.3482 -0.9917 0.9625
9.5115 -0.0697 -0.9917 0.9625
9.5115 0.0696 -0.9917 0.9625
9.4383 1.1811 -0.9918 0.9625
9.3998 1.4570 -0.9918 0.9625
9.3775 1.5946 -0.9918 0.9625
9.3269 1.8686 -0.9918 0.9625
9.2986 2.0050 -0.9918 0.9625
9.2683 2.1410 -0.9918 0.9625
9.1275 2.6800 -0.9918 0.9625
9.0873 2.8135 -0.9919 0.9625
8.9553 3.2100 -0.9919 0.9625
8.8060 3.6004 -0.9919 0.9625
8.6398 3.9839 -0.9920 0.9625
8.5806 4.1102 -0.9920 0.9625
8.5196 4.2354 -0.9920 0.9625
8.4569 4.3598 -0.9920 0.9625
8.3922 4.4833 -0.9920 0.9625
8.2576 4.7273 -0.9921 0.9625
8.1159 4.9673 -0.9921 0.9625
7.7475 5.2229 -0.9742 0.9631
7.5111 5.5585 -0.9743 0.9631
2.8139 -8.1304 -0.9935 0.9660
3.1680 -7.9982 -0.9934 0.9660
3.2848 -7.9507 -0.9934 0.9660
3.6305 -7.7980 -0.9933 0.9660
3.7441 -7.7438 -0.9933 0.9660
3.8571 -7.6879 -0.9933 0.9660
3.9691 -7.6303 -0.9932 0.9660
4.1907 -7.5104 -0.9932 0.9660
4.3000 -7.4479 -0.9931 0.9660
4.4086 -7.3839 -0.9931 0.9660
4.5161 -7.3184 -0.9931 0.9660
4.6227 -7.2512 -0.9931 0.9660
4.8328 -7.1123 -0.9930 0.9660
4.9363 -7.0406 -0.9930 0.9660
5.0387 -6.9674 -0.9929 0.9660
5.2403 -6.8164 -0.9929 0.9660
5.3395 -6.7388 -0.9929 0.9660
5.4374 -6.6597 -0.9928 0.9660
1.9550 -2.3241 -0.3507 0.9878
2.0074 -2.2493 -0.3481 0.9879
2.1653 -2.2876 -0.3637 0.9874
6.6773 -5.4112 -0.9925 0.9660
6.7557 -5.3127 -0.9925 0.9660
6.8326 -5.2131 -0.9925 0.9660
6.9081 -5.1124 -0.9924 0.9660
6.9821 -5.0105 -0.9924 0.9660
7.0546 -4.9077 -0.9924 0.9660
7.1255 -4.8037 -0.9924 0.9660
7.1950 -4.6987 -0.9924 0.9660
7.2629 -4.5928 -0.9923 0.9660
7.3292 -4.4859 -0.9923 0.9660
7.5188 -4.1593 -0.9923 0.9660
7.6939 -3.8249 -0.9922 0.9660
5.6179 -2.6909 -0.7193 0.9752
7.9209 -2.9709 -0.9769 0.9665
7.9635 -2.8545 -0.9769 0.9665
8.0043 -2.7375 -0.9769 0.9665
8.0809 -2.5019 -0.9769 0.9665
8.1506 -2.2641 -0.9769 0.9665
8.2419 -1.9039 -0.9768 0.9665
8.2689 -1.7829 -0.9768 0.9665
8.4469 -1.5640 -0.9920 0.9660
8.4890 -1.3159 -0.9920 0.9660
8.5073 -1.1914 -0.9920 0.9660
8.5238 -1.0666 -0.9920 0.9660
8.5715 -0.5657 -0.9920 0.9660
8.5789 -0.4402 -0.9920 0.9660
8.5899 0.0629 -0.9920 0.9660
8.5881 0.1887 -0.9920 0.9660
8.5789 0.4402 -0.9920 0.9660
8.5715 0.5658 -0.9920 0.9660
8.5385 0.9417 -0.9920 0.9660
8.5238 1.0667 -0.9920 0.9660
8.5073 1.1914 -0.9920 0.9660
8.4890 1.3158 -0.9920 0.9660
8.4689 1.4400 -0.9920 0.9660
8.4470 1.5639 -0.9920 0.9660
8.4232 1.6875 -0.9920 0.9660
8.3411 2.0559 -0.9921 0.9660
8.3102 2.1779 -0.9921 0.9660
8.2774 2.2993 -0.9921 0.9660
8.0442 3.0171 -0.9921 0.9660
7.9993 3.1346 -0.9921 0.9660
7.9042 3.3677 -0.9922 0.9660
7.8542 3.4831 -0.9922 0.9660
7.7490 3.7118 -0.9922 0.9660
7.6939 3.8249 -0.9922 0.9660
7.5789 4.0487 -0.9923 0.9660
7.3293 4.4859 -0.9923 0.9660
7.0546 4.9077 -0.9924 0.9660
6.7830 5.0196 -0.9745 0.9666
6.7089 5.1186 -0.9745 0.9666
2.5645 -7.4095 -0.9936 0.9689
2.6726 -7.3710 -0.9936 0.9689
2.7802 -7.3308 -0.9935 0.9689
2.9936 -7.2458 -0.9935 0.9689
3.0993 -7.2010 -0.9935 0.9689
3.5151 -7.0064 -0.9934 0.9689
3.9189 -6.7878 -0.9932 0.9689
4.2130 -6.6086 -0.9932 0.9689
4.3092 -6.5460 -0.9931 0.9689
4.4988 -6.4166 -0.9931 0.9689
4.5922 -6.3499 -0.9931 0.9689
4.7760 -6.2124 -0.9930 0.9689
4.8663 -6.1416 -0.9930 0.9689
1.9724 -2.2762 -0.3817 0.9879
2.0056 -2.2472 -0.3817 0.9879
2.0529 -2.2335 -0.3844 0.9878
2.1667 -2.2891 -0.3994 0.9874
2.1700 -2.2264 -0.3940 0.9875
2.2335 -2.1610 -0.3938 0.9875
2.2937 -2.1552 -0.3988 0.9874
5.7871 -5.2802 -0.9927 0.9689
5.8637 -5.1947 -0.9927 0.9689
5.9389 -5.1082 -0.9927 0.9689
6.0130 -5.0205 -0.9927 0.9689
6.0857 -4.9319 -0.9927 0.9689
6.1572 -4.8421 -0.9926 0.9689
6.2274 -4.7513 -0.9926 0.9689
6.2962 -4.6595 -0.9926 0.9689
6.3636 -4.5667 -0.9926 0.9689
6.4297 -4.4729 -0.9926 0.9689
6.4944 -4.3782 -0.9925 0.9689
6.5577 -4.2826 -0.9925 0.9689
6.6196 -4.1860 -0.9925 0.9689
6.6801 -4.0886 -0.9925 0.9689
6.7392 -3.9902 -0.9925 0.9689
6.8529 -3.7910 -0.9925 0.9689
6.9076 -3.6902 -0.9924 0.9689
6.8980 -3.4293 -0.9762 0.9694
5.6179 -2.6910 -0.7894 0.9752
7.0417 -3.1229 -0.9762 0.9694
7.1718 -2.8104 -0.9761 0.9694
7.2509 -2.5991 -0.9761 0.9694
7.2881 -2.4926 -0.9761 0.9694
7.3238 -2.3855 -0.9761 0.9694
7.3579 -2.2780 -0.9761 0.9694
7.3904 -2.1700 -0.9761 0.9694
7.4582 -1.9546 -0.9770 0.9694
7.5886 -1.7529 -0.9870 0.9691
7.6540 -1.6504 -0.9922 0.9689
7.6773 -1.5381 -0.9922 0.9689
7.6990 -1.4254 -0.9922 0.9689
7.7825 -0.8584 -0.9922 0.9689
7.8042 -0.6300 -0.9922 0.9689
7.8126 -0.5157 -0.9922 0.9689
7.8193 -0.4012 -0.9922 0.9689
7.8243 -0.2866 -0.9922 0.9689
7.8277 -0.1720 -0.9922 0.9689
7.8126 0.5157 -0.9922 0.9689
7.8043 0.6300 -0.9922 0.9689
7.7691 0.9722 -0.9922 0.9689
7.7374 1.1993 -0.9922 0.9689
7.6990 1.4255 -0.9922 0.9689
7.6291 1.7623 -0.9922 0.9689
7.6025 1.8739 -0.9923 0.9689
7.5743 1.9850 -0.9923 0.9689
7.5131 2.2061 -0.9923 0.9689
7.4091 2.5339 -0.9923 0.9689
7.3713 2.6423 -0.9923 0.9689
7.3319 2.7500 -0.9923 0.9689
7.2484 2.9636 -0.9923 0.9689
7.0126 3.4862 -0.9924 0.9689
6.9076 3.6902 -0.9924 0.9689
6.8529 3.7910 -0.9925 0.9689
6.7968 3.8910 -0.9925 0.9689
6.7392 3.9902 -0.9925 0.9689
6.6802 4.0886 -0.9925 0.9689
6.6196 4.1860 -0.9925 0.9689
6.5578 4.2826 -0.9925 0.9689
6.4945 4.3783 -0.9926 0.9689
6.4297 4.4730 -0.9926 0.9689
6.3636 4.5667 -0.9926 0.9689
6.2962 4.6595 -0.9926 0.9689
6.2274 4.7514 -0.9926 0.9689
2.3550 -6.8045 -0.9937 0.9713
2.6515 -6.6939 -0.9936 0.9713
2.7491 -6.6543 -0.9936 0.9713
2.9427 -6.5705 -0.9935 0.9713
3.0385 -6.5265 -0.9935 0.9713
3.2282 -6.4344 -0.9934 0.9714
3.3220 -6.3863 -0.9934 0.9714
3.4151 -6.3368 -0.9934 0.9714
3.5990 -6.2337 -0.9933 0.9714
3.6899 -6.1802 -0.9933 0.9714
3.8691 -6.0692 -0.9933 0.9714
4.3023 -5.7691 -0.9931 0.9714
1.9507 -2.3190 -0.4182 0.9878
2.0040 -2.2455 -0.4153 0.9879
2.0517 -2.2322 -0.4184 0.9878
2.1694 -2.2920 -0.4355 0.9873
2.1705 -2.2268 -0.4291 0.9875
2.1948 -2.1868 -0.4276 0.9876
2.2333 -2.1609 -0.4288 0.9875
2.2942 -2.1557 -0.4344 0.9874
5.3852 -4.7709 -0.9928 0.9714
5.4544 -4.6914 -0.9928 0.9714
5.5224 -4.6110 -0.9928 0.9714
5.8445 -4.1942 -0.9927 0.9714
5.9052 -4.1081 -0.9927 0.9714
6.0228 -3.9332 -0.9927 0.9714
6.0796 -3.8445 -0.9927 0.9714
6.1895 -3.6647 -0.9926 0.9714
6.2406 -3.3338 -0.9764 0.9718
5.6180 -2.6911 -0.8596 0.9752
6.4247 -2.9625 -0.9763 0.9718
6.4673 -2.8681 -0.9763 0.9718
6.5484 -2.6774 -0.9763 0.9718
6.5869 -2.5812 -0.9763 0.9718
6.6239 -2.4844 -0.9763 0.9718
6.6937 -2.2893 -0.9763 0.9718
6.7578 -2.0922 -0.9762 0.9718
6.8230 -1.8954 -0.9772 0.9718
6.8499 -1.7952 -0.9772 0.9718
7.0298 -1.5157 -0.9924 0.9714
7.0512 -1.4127 -0.9924 0.9714
7.1355 -0.8930 -0.9924 0.9714
7.1478 -0.7883 -0.9924 0.9714
7.1678 -0.5786 -0.9924 0.9714
7.1817 -0.3684 -0.9924 0.9714
7.1863 -0.2632 -0.9924 0.9714
7.1893 -0.1580 -0.9924 0.9714
7.1893 0.1580 -0.9924 0.9714
7.1816 0.3685 -0.9924 0.9714
7.1678 0.5787 -0.9924 0.9714
7.1064 1.1015 -0.9924 0.9714
7.0712 1.3092 -0.9924 0.9714
7.0512 1.4127 -0.9924 0.9714
7.0298 1.5158 -0.9924 0.9714
7.0069 1.6186 -0.9924 0.9714
6.9825 1.7211 -0.9924 0.9714
6.8700 2.1270 -0.9925 0.9714
6.8382 2.2274 -0.9925 0.9714
6.8049 2.3273 -0.9925 0.9714
6.7339 2.5257 -0.9925 0.9714
6.6963 2.6241 -0.9925 0.9714
6.6572 2.7218 -0.9925 0.9714
6.5748 2.9157 -0.9925 0.9714
6.5314 3.0118 -0.9925 0.9714
6.4406 3.2019 -0.9926 0.9714
6.3931 3.2959 -0.9926 0.9714
6.3442 3.3892 -0.9926 0.9714
6.2940 3.4818 -0.9926 0.9714
6.1895 3.6647 -0.9926 0.9714
6.0797 3.8446 -0.9927 0.9714
6.0228 3.9332 -0.9927 0.9714
5.9646 4.0211 -0.9927 0.9714
2.1768 -6.2894 -0.9937 0.9734
2.3599 -6.2226 -0.9937 0.9734
2.4507 -6.1872 -0.9936 0.9734
2.6307 -6.1125 -0.9936 0.9734
2.9839 -5.9474 -0.9935 0.9734
3.0706 -5.9029 -0.9935 0.9734
3.5763 -5.6099 -0.9933 0.9735
3.7389 -5.5025 -0.9933 0.9735
3.9767 -5.3326 -0.9932 0.9735
4.1310 -5.2136 -0.9932 0.9735
2.0082 -2.2501 -0.4503 0.9879
2.0585 -2.2396 -0.4542 0.9878
2.2015 -2.1934 -0.4640 0.9875
2.3228 -2.1826 -0.4759 0.9872
5.0418 -4.3365 -0.9929 0.9735
5.2867 -4.0336 -0.9929 0.9735
5.3451 -3.9557 -0.9929 0.9735
5.4024 -3.8770 -0.9928 0.9735
5.4585 -3.7973 -0.9928 0.9735
5.5135 -3.7170 -0.9928 0.9735
5.4819 -3.5800 -0.9776 0.9739
5.5337 -3.4993 -0.9776 0.9739
5.6279 -3.3322 -0.9765 0.9739
5.6760 -3.2494 -0.9765 0.9739
5.7686 -3.0816 -0.9765 0.9739
5.8130 -2.9968 -0.9765 0.9739
5.6181 -2.6911 -0.9301 0.9751
5.9388 -2.7386 -0.9765 0.9739
5.9782 -2.6512 -0.9764 0.9739
6.0164 -2.5633 -0.9764 0.9739
6.0887 -2.3860 -0.9764 0.9739
6.1230 -2.2965 -0.9764 0.9739
6.1559 -2.2066 -0.9764 0.9739
6.1875 -2.1162 -0.9764 0.9739
6.2467 -1.9340 -0.9764 0.9739
6.2807 -1.8442 -0.9774 0.9739
6.4306 -1.6853 -0.9926 0.9735
6.4545 -1.5909 -0.9926 0.9735
6.4771 -1.4962 -0.9926 0.9735
6.5534 -1.1143 -0.9925 0.9735
6.5690 -1.0182 -0.9925 0.9735
6.5832 -0.9220 -0.9925 0.9735
6.5960 -0.8254 -0.9925 0.9735
6.6073 -0.7287 -0.9925 0.9735
6.6258 -0.5349 -0.9925 0.9735
6.6471 -0.0487 -0.9925 0.9735
6.6429 0.2434 -0.9925 0.9735
6.6329 0.4378 -0.9925 0.9735
6.6073 0.7287 -0.9925 0.9735
6.5960 0.8254 -0.9925 0.9735
6.5832 0.9220 -0.9925 0.9735
6.5535 1.1144 -0.9925 0.9735
6.5180 1.3058 -0.9925 0.9735
6.4982 1.4012 -0.9926 0.9735
6.4545 1.5909 -0.9926 0.9735
6.4306 1.6853 -0.9926 0.9735
6.3786 1.8729 -0.9926 0.9735
6.3210 2.0589 -0.9926 0.9735
6.2581 2.2432 -0.9926 0.9735
6.2246 2.3346 -0.9926 0.9735
6.1899 2.4256 -0.9926 0.9735
6.1163 2.6059 -0.9927 0.9735
6.0776 2.6953 -0.9927 0.9735
5.9961 2.8721 -0.9927 0.9735
5.9535 2.9597 -0.9927 0.9735
5.9096 3.0466 -0.9927 0.9735
5.8180 3.2185 -0.9927 0.9735
5.7703 3.3034 -0.9927 0.9735
5.7213 3.3876 -0.9928 0.9735
5.6712 3.4711 -0.9928 0.9735
5.6198 3.5537 -0.9928 0.9735
5.5673 3.6357 -0.9928 0.9735
5.5135 3.7170 -0.9928 0.9735
5.4586 3.7974 -0.9928 0.9735
5.4024 3.8770 -0.9928 0.9735
5.2868 4.0336 -0.9929 0.9735
2.0231 -5.8454 -0.9938 0.9753
2.1084 -5.8150 -0.9937 0.9753
2.2777 -5.7505 -0.9937 0.9753
2.4451 -5.6810 -0.9936 0.9753
2.5280 -5.6445 -0.9936 0.9753
2.6920 -5.5678 -0.9936 0.9753
2.7733 -5.5276 -0.9936 0.9753
2.8538 -5.4863 -0.9935 0.9753
2.9338 -5.4438 -0.9935 0.9753
3.0919 -5.3553 -0.9935 0.9753
3.1699 -5.3093 -0.9934 0.9753
3.3998 -5.1646 -0.9934 0.9753
3.6232 -5.0100 -0.9933 0.9753
3.8396 -4.8457 -0.9933 0.9753
3.9797 -4.7310 -0.9932 0.9753
4.1834 -4.5514 -0.9932 0.9753
4.2495 -4.4896 -0.9932 0.9753
2.2237 -2.2156 -0.5043 0.9874
2.2723 -2.1987 -0.5080 0.9873
4.5662 -4.1663 -0.9931 0.9753
4.6861 -4.0306 -0.9930 0.9753
4.8584 -3.8207 -0.9930 0.9753
4.9138 -3.7491 -0.9930 0.9753
4.9681 -3.6767 -0.9930 0.9753
4.9444 -3.5482 -0.9777 0.9756
5.0409 -3.3983 -0.9767 0.9757
5.0900 -3.3241 -0.9767 0.9757
5.1381 -3.2491 -0.9767 0.9757
5.1851 -3.1735 -0.9767 0.9757
5.3617 -2.8643 -0.9766 0.9757
5.4030 -2.7855 -0.9766 0.9757
5.4432 -2.7060 -0.9766 0.9757
5.5566 -2.4642 -0.9766 0.9757
5.6263 -2.3004 -0.9765 0.9757
5.6594 -2.2177 -0.9765 0.9757
5.6912 -2.1346 -0.9765 0.9757
5.7512 -1.9670 -0.9765 0.9757
5.7852 -1.8844 -0.9775 0.9757
5.8121 -1.7995 -0.9775 0.9757
5.9287 -1.7408 -0.9927 0.9753
5.9535 -1.6538 -0.9927 0.9753
5.9771 -1.5664 -0.9927 0.9753
5.9993 -1.4787 -0.9927 0.9753
6.0203 -1.3907 -0.9927 0.9753
6.0400 -1.3023 -0.9927 0.9753
6.0584 -1.2138 -0.9927 0.9753
6.1190 -0.8569 -0.9927 0.9753
6.1308 -0.7672 -0.9926 0.9753
6.1506 -0.5873 -0.9926 0.9753
6.1586 -0.4971 -0.9926 0.9753
6.1652 -0.4069 -0.9926 0.9753
6.1705 -0.3166 -0.9926 0.9753
6.1745 -0.2261 -0.9926 0.9753
6.1771 -0.1357 -0.9926 0.9753
6.1784 -0.0452 -0.9926 0.9753
6.1652 0.4069 -0.9926 0.9753
6.1190 0.8569 -0.9927 0.9753
6.1058 0.9464 -0.9927 0.9753
6.0913 1.0357 -0.9927 0.9753
6.0584 1.2138 -0.9927 0.9753
6.0400 1.3023 -0.9927 0.9753
6.0204 1.3907 -0.9927 0.9753
5.9994 1.4787 -0.9927 0.9753
5.9771 1.5664 -0.9927 0.9753
5.9535 1.6538 -0.9927 0.9753
5.9287 1.7408 -0.9927 0.9753
5.8467 1.9996 -0.9927 0.9753
5.8168 2.0850 -0.9927 0.9753
5.7857 2.1700 -0.9927 0.9753
5.7197 2.3386 -0.9928 0.9753
5.6849 2.4221 -0.9928 0.9753
5.6117 2.5876 -0.9928 0.9753
5.4928 2.8318 -0.9928 0.9753
5.4508 2.9119 -0.9928 0.9753
5.3178 3.1486 -0.9929 0.9753
5.2712 3.2262 -0.9929 0.9753
5.2234 3.3031 -0.9929 0.9753
5.1746 3.3793 -0.9929 0.9753
5.0735 3.5295 -0.9929 0.9753
4.9681 3.6767 -0.9930 0.9753
4.9138 3.7491 -0.9930 0.9753
1.9690 -5.4302 -0.9938 0.9768
2.1270 -5.3700 -0.9937 0.9768
2.2054 -5.3382 -0.9937 0.9768
2.2833 -5.3052 -0.9937 0.9768
2.3607 -5.2711 -0.9937 0.9768
2.4376 -5.2359 -0.9936 0.9768
2.5898 -5.1620 -0.9936 0.9768
2.6651 -5.1234 -0.9936 0.9768
2.8139 -5.0429 -0.9935 0.9768
3.0325 -4.9142 -0.9935 0.9768
3.1041 -4.8692 -0.9935 0.9768
3.1750 -4.8231 -0.9934 0.9768
3.2452 -4.7760 -0.9934 0.9768
3.3148 -4.7279 -0.9934 0.9768
3.4517 -4.6286 -0.9934 0.9768
3.5190 -4.5774 -0.9934 0.9768
3.5856 -4.5253 -0.9933 0.9768
4.2643 -3.8908 -0.9932 0.9768
4.3208 -3.8279 -0.9931 0.9768
4.3763 -3.7641 -0.9931 0.9768
4.4309 -3.6996 -0.9931 0.9768
4.5140 -3.4441 -0.9768 0.9772
4.7077 -3.1736 -0.9768 0.9772
4.7536 -3.1044 -0.9768 0.9772
4.7984 -3.0343 -0.9768 0.9772
4.8423 -2.9637 -0.9768 0.9772
4.8852 -2.8925 -0.9767 0.9772
4.9270 -2.8206 -0.9767 0.9772
5.0073 -2.6750 -0.9767 0.9772
5.0459 -2.6013 -0.9767 0.9772
5.0834 -2.5271 -0.9767 0.9772
5.1198 -2.4524 -0.9767 0.9772
5.1552 -2.3771 -0.9767 0.9772
5.2224 -2.2251 -0.9767 0.9772
5.2853 -2.0711 -0.9766 0.9772
5.3150 -1.9935 -0.9766 0.9772
5.3491 -1.9174 -0.9776 0.9772
5.3765 -1.8388 -0.9776 0.9772
5.4427 -1.7728 -0.9848 0.9770
5.5125 -1.7067 -0.9928 0.9769
5.5600 -1.5445 -0.9928 0.9769
5.5820 -1.4629 -0.9928 0.9769
5.6028 -1.3810 -0.9928 0.9769
5.6580 -1.1336 -0.9928 0.9769
5.6740 -1.0505 -0.9928 0.9769
5.7023 -0.8839 -0.9928 0.9769
5.7256 -0.7165 -0.9928 0.9769
5.7516 -0.4643 -0.9928 0.9769
5.7627 -0.2957 -0.9927 0.9769
5.7664 -0.2112 -0.9927 0.9769
5.7701 -0.0423 -0.9927 0.9769
5.7701 0.0423 -0.9927 0.9769
5.7664 0.2112 -0.9927 0.9769
5.7627 0.2956 -0.9927 0.9769
5.7442 0.5485 -0.9928 0.9769
5.7355 0.6326 -0.9928 0.9769
5.7257 0.7165 -0.9928 0.9769
5.7146 0.8002 -0.9928 0.9769
5.6224 1.2987 -0.9928 0.9769
5.6029 1.3810 -0.9928 0.9769
5.5821 1.4629 -0.9928 0.9769
5.5369 1.6258 -0.9928 0.9769
5.5125 1.7067 -0.9928 0.9769
5.4602 1.8675 -0.9928 0.9769
5.4033 2.0266 -0.9928 0.9768
5.3731 2.1055 -0.9929 0.9768
5.3417 2.1840 -0.9929 0.9768
5.3092 2.2621 -0.9929 0.9768
5.2755 2.3396 -0.9929 0.9768
5.2049 2.4931 -0.9929 0.9768
5.1297 2.6445 -0.9929 0.9768
5.0088 2.8674 -0.9930 0.9768
4.9663 2.9405 -0.9930 0.9768
4.9228 3.0129 -0.9930 0.9768
4.8325 3.1559 -0.9930 0.9768
4.7858 3.2264 -0.9930 0.9768
4.7381 3.2961 -0.9930 0.9768
4.6894 3.3653 -0.9930 0.9768
4.6397 3.4336 -0.9931 0.9768
1.8463 -5.0921 -0.9938 0.9782
2.1411 -4.9748 -0.9937 0.9782
2.2137 -4.9429 -0.9937 0.9782
2.3575 -4.8757 -0.9937 0.9782
2.4991 -4.8044 -0.9936 0.9782
2.6387 -4.7289 -0.9936 0.9782
2.7759 -4.6495 -0.9936 0.9782
2.8437 -4.6083 -0.9935 0.9782
2.9109 -4.5660 -0.9935 0.9782
2.9773 -4.5228 -0.9935 0.9782
3.0432 -4.4787 -0.9935 0.9782
3.1084 -4.4335 -0.9935 0.9782
3.2368 -4.3404 -0.9934 0.9782
3.3624 -4.2436 -0.9934 0.9782
3.4242 -4.1938 -0.9934 0.9782
1.9811 -2.3552 -0.5647 0.9876
2.0696 -2.3190 -0.5703 0.9874
2.2352 -2.2932 -0.5875 0.9871
2.2989 -2.2243 -0.5869 0.9871
3.9451 -3.7069 -0.9932 0.9782
3.9376 -3.5927 -0.9780 0.9786
3.9897 -3.5346 -0.9780 0.9786
4.0411 -3.4757 -0.9780 0.9786
4.0873 -3.4127 -0.9770 0.9786
4.1368 -3.3524 -0.9769 0.9786
4.2330 -3.2297 -0.9769 0.9786
4.2799 -3.1673 -0.9769 0.9786
4.4578 -2.9112 -0.9769 0.9786
4.4998 -2.8455 -0.9768 0.9786
4.5410 -2.7793 -0.9768 0.9786
4.5812 -2.7125 -0.9768 0.9786
4.8012 -2.2998 -0.9768 0.9786
4.8344 -2.2292 -0.9768 0.9786
4.8665 -2.1582 -0.9767 0.9786
4.8975 -2.0866 -0.9767 0.9786
4.9565 -1.9422 -0.9767 0.9786
4.9894 -1.8714 -0.9777 0.9786
5.1205 -1.7512 -0.9929 0.9782
5.1695 -1.6005 -0.9929 0.9782
5.1923 -1.5246 -0.9929 0.9782
5.2141 -1.4484 -0.9929 0.9782
5.2726 -1.2180 -0.9929 0.9782
5.2899 -1.1406 -0.9929 0.9782
5.3060 -1.0630 -0.9929 0.9782
5.3590 -0.7505 -0.9929 0.9782
5.3694 -0.6719 -0.9929 0.9782
5.3787 -0.5932 -0.9929 0.9782
5.3868 -0.5144 -0.9928 0.9782
5.4041 -0.2772 -0.9928 0.9782
5.4111 -0.0396 -0.9928 0.9782
5.4111 0.0396 -0.9928 0.9782
5.4100 0.1189 -0.9928 0.9782
5.3995 0.3564 -0.9928 0.9782
5.3937 0.4355 -0.9928 0.9782
5.3787 0.5932 -0.9929 0.9782
5.3694 0.6720 -0.9929 0.9782
5.3590 0.7505 -0.9929 0.9782
5.3475 0.8289 -0.9929 0.9782
5.3210 0.9852 -0.9929 0.9782
5.3060 1.0630 -0.9929 0.9782
5.2899 1.1406 -0.9929 0.9782
5.2726 1.2180 -0.9929 0.9782
5.2141 1.4484 -0.9929 0.9782
5.1923 1.5246 -0.9929 0.9782
5.1695 1.6005 -0.9929 0.9782
5.1456 1.6761 -0.9929 0.9782
5.1205 1.7513 -0.9929 0.9782
5.0943 1.8261 -0.9929 0.9782
5.0093 2.0481 -0.9930 0.9782
4.9789 2.1213 -0.9930 0.9782
4.8463 2.4093 -0.9930 0.9782
4.8105 2.4800 -0.9930 0.9782
4.7359 2.6199 -0.9930 0.9782
4.5746 2.8928 -0.9931 0.9782
4.3034 3.2834 -0.9931 0.9782
1.8077 -4.7663 -0.9938 0.9794
1.9464 -4.7112 -0.9938 0.9794
2.0152 -4.6821 -0.9938 0.9794
2.0835 -4.6520 -0.9937 0.9794
2.1513 -4.6209 -0.9937 0.9794
2.2187 -4.5889 -0.9937 0.9794
2.5483 -4.4138 -0.9936 0.9794
2.6764 -4.3371 -0.9936 0.9794
2.9255 -4.1727 -0.9935 0.9794
3.0464 -4.0851 -0.9935 0.9794
3.2227 -3.9471 -0.9934 0.9794
2.0542 -2.3017 -0.6014 0.9875
3.5026 -3.7005 -0.9934 0.9794
2.2312 -2.2891 -0.6232 0.9871
2.2507 -2.2425 -0.6194 0.9871
2.2944 -2.2200 -0.6224 0.9871
3.7995 -3.2680 -0.9770 0.9798
3.8935 -3.1552 -0.9770 0.9798
3.9841 -3.0398 -0.9770 0.9798
4.0282 -2.9811 -0.9770 0.9798
4.1136 -2.8618 -0.9770 0.9798
4.1956 -2.7400 -0.9769 0.9798
4.2740 -2.6158 -0.9769 0.9798
4.3846 -2.4255 -0.9769 0.9798
4.4196 -2.3610 -0.9769 0.9798
4.5501 -2.0982 -0.9768 0.9798
4.5803 -2.0312 -0.9768 0.9798
4.6425 -1.8982 -0.9778 0.9798
4.7353 -1.7760 -0.9860 0.9796
4.8194 -1.6483 -0.9930 0.9795
4.8430 -1.5775 -0.9930 0.9795
4.8871 -1.4350 -0.9930 0.9795
4.9075 -1.3632 -0.9930 0.9795
4.9269 -1.2912 -0.9930 0.9795
4.9453 -1.2189 -0.9930 0.9795
4.9626 -1.1463 -0.9930 0.9795
4.9789 -1.0735 -0.9930 0.9795
5.0211 -0.8538 -0.9929 0.9795
5.0331 -0.7802 -0.9929 0.9795
5.0624 -0.5583 -0.9929 0.9795
5.0701 -0.4841 -0.9929 0.9795
5.0766 -0.4098 -0.9929 0.9795
5.0821 -0.3354 -0.9929 0.9795
5.0930 -0.0373 -0.9929 0.9795
5.0919 0.1119 -0.9929 0.9795
5.0864 0.2610 -0.9929 0.9795
5.0821 0.3355 -0.9929 0.9795
5.0766 0.4098 -0.9929 0.9795
5.0701 0.4842 -0.9929 0.9795
5.0625 0.5583 -0.9929 0.9795
5.0538 0.6324 -0.9929 0.9795
5.0211 0.8538 -0.9929 0.9795
5.0081 0.9272 -0.9930 0.9795
4.9788 1.0736 -0.9930 0.9795
4.9453 1.2189 -0.9930 0.9795
4.9075 1.3632 -0.9930 0.9795
4.8655 1.5064 -0.9930 0.9795
4.8430 1.5775 -0.9930 0.9795
4.8194 1.6483 -0.9930 0.9795
4.7948 1.7187 -0.9930 0.9795
4.6861 1.9966 -0.9930 0.9795
4.6257 2.1330 -0.9931 0.9795
4.5940 2.2005 -0.9931 0.9795
4.5613 2.2676 -0.9931 0.9795
4.5276 2.3341 -0.9931 0.9795
4.4930 2.4002 -0.9931 0.9795
4.4574 2.4658 -0.9931 0.9795
4.4208 2.5308 -0.9931 0.9795
4.3055 2.7227 -0.9931 0.9795
4.1820 2.9093 -0.9932 0.9795
1.7068 -4.5004 -0.9938 0.9805
1.7725 -4.4748 -0.9938 0.9805
1.8378 -4.4483 -0.9938 0.9805
1.9672 -4.3925 -0.9938 0.9805
2.0313 -4.3631 -0.9938 0.9805
2.0949 -4.3328 -0.9937 0.9805
2.1581 -4.3016 -0.9937 0.9805
2.2831 -4.2364 -0.9937 0.9805
2.3449 -4.2024 -0.9937 0.9805
2.4061 -4.1675 -0.9937 0.9805
2.5867 -4.0576 -0.9936 0.9805
2.7044 -3.9800 -0.9936 0.9805
2.7623 -3.9399 -0.9936 0.9805
2.8197 -3.8989 -0.9935 0.9805
2.9326 -3.8146 -0.9935 0.9805
3.0430 -3.7270 -0.9935 0.9805
1.9688 -2.3406 -0.6315 0.9876
2.0534 -2.3007 -0.6368 0.9875
3.2532 -3.4370 -0.9772 0.9809
2.2503 -2.2420 -0.6559 0.9871
2.9824 -2.7211 -0.8336 0.9836
2.9384 -2.6032 -0.8106 0.9841
3.7619 -2.8702 -0.9770 0.9809
3.8842 -2.7021 -0.9770 0.9809
3.9233 -2.6450 -0.9770 0.9809
3.9616 -2.5871 -0.9770 0.9809
4.0356 -2.4700 -0.9770 0.9809
4.0713 -2.4106 -0.9770 0.9809
4.1061 -2.3507 -0.9770 0.9809
4.1732 -2.2293 -0.9769 0.9809
4.2366 -2.1061 -0.9769 0.9809
4.2669 -2.0439 -0.9769 0.9809
4.3569 -1.8563 -0.9779 0.9808
4.3862 -1.7934 -0.9785 0.9808
4.4780 -1.7548 -0.9931 0.9805
4.5032 -1.6890 -0.9931 0.9805
4.5274 -1.6228 -0.9931 0.9805
4.6146 -1.3550 -0.9931 0.9805
4.6696 -1.1509 -0.9930 0.9805
4.7012 -1.0137 -0.9930 0.9805
4.7155 -0.9447 -0.9930 0.9805
4.7874 -0.4571 -0.9930 0.9805
4.7987 -0.3167 -0.9930 0.9805
4.8028 -0.2464 -0.9930 0.9805
4.8080 -0.1057 -0.9930 0.9805
4.8090 0.0352 -0.9930 0.9805
4.8079 0.1057 -0.9930 0.9805
4.8059 0.1761 -0.9930 0.9805
4.8028 0.2464 -0.9930 0.9805
4.7289 0.8756 -0.9930 0.9805
4.7155 0.9447 -0.9930 0.9805
4.7012 1.0137 -0.9930 0.9805
4.6859 1.0824 -0.9930 0.9805
4.6339 1.2872 -0.9931 0.9805
4.6146 1.3550 -0.9931 0.9805
4.5943 1.4224 -0.9931 0.9805
4.5729 1.4895 -0.9931 0.9805
4.5507 1.5564 -0.9931 0.9805
4.5274 1.6229 -0.9931 0.9805
4.4780 1.7548 -0.9931 0.9805
4.4519 1.8202 -0.9931 0.9805
4.4248 1.8853 -0.9931 0.9805
4.3967 1.9498 -0.9931 0.9805
4.3678 2.0141 -0.9931 0.9805
4.2425 2.2664 -0.9932 0.9805
4.1026 2.5110 -0.9932 0.9805
4.0655 2.5708 -0.9932 0.9805
3.9487 2.7470 -0.9932 0.9805
3.8667 2.8615 -0.9933 0.9805
3.8244 2.9179 -0.9933 0.9805
1.4907 -4.3071 -0.9939 0.9815
1.5536 -4.2848 -0.9939 0.9815
1.7402 -4.2122 -0.9938 0.9815
1.8017 -4.1861 -0.9938 0.9815
2.0436 -4.0732 -0.9938 0.9815
2.1030 -4.0428 -0.9937 0.9815
2.1619 -4.0115 -0.9937 0.9815
2.2204 -3.9793 -0.9937 0.9815
2.6701 -3.6920 -0.9936 0.9815
2.7344 -3.5568 -0.9783 0.9818
2.8345 -3.4715 -0.9773 0.9818
2.5651 -2.7100 -0.8137 0.9848
2.2922 -2.2179 -0.6955 0.9870
2.7606 -2.5939 -0.8260 0.9846
2.8410 -2.5921 -0.8386 0.9844
3.3973 -2.9220 -0.9771 0.9818
3.4396 -2.8719 -0.9771 0.9818
3.4813 -2.8212 -0.9771 0.9818
3.5222 -2.7698 -0.9771 0.9818
3.5623 -2.7180 -0.9771 0.9818
3.6017 -2.6654 -0.9771 0.9818
3.6781 -2.5587 -0.9771 0.9818
3.7514 -2.4499 -0.9770 0.9818
3.9518 -2.1111 -0.9770 0.9818
3.9822 -2.0530 -0.9770 0.9818
4.0118 -1.9945 -0.9770 0.9818
4.1692 -1.7763 -0.9882 0.9816
4.2404 -1.6617 -0.9932 0.9815
4.2873 -1.5367 -0.9931 0.9815
4.3304 -1.4105 -0.9931 0.9815
4.3881 -1.2189 -0.9931 0.9815
4.4054 -1.1546 -0.9931 0.9815
4.4218 -1.0899 -0.9931 0.9815
4.4373 -1.0250 -0.9931 0.9815
4.4655 -0.8946 -0.9931 0.9815
4.4780 -0.8291 -0.9931 0.9815
4.5101 -0.6316 -0.9931 0.9815
4.5188 -0.5655 -0.9931 0.9815
4.5266 -0.4992 -0.9931 0.9815
4.5393 -0.3664 -0.9931 0.9815
4.5529 -0.1000 -0.9931 0.9815
4.5539 0.0334 -0.9931 0.9815
4.5510 0.1668 -0.9931 0.9815
4.5480 0.2333 -0.9931 0.9815
4.5442 0.3000 -0.9931 0.9815
4.5334 0.4329 -0.9931 0.9815
4.5188 0.5655 -0.9931 0.9815
4.4780 0.8291 -0.9931 0.9815
4.4519 0.9599 -0.9931 0.9815
4.4373 1.0250 -0.9931 0.9815
4.4219 1.0899 -0.9931 0.9815
4.3881 1.2189 -0.9931 0.9815
4.3093 1.4738 -0.9931 0.9815
4.1360 1.9072 -0.9932 0.9815
4.1077 1.9676 -0.9932 0.9815
4.0484 2.0871 -0.9932 0.9815
4.0174 2.1462 -0.9932 0.9815
3.9529 2.2630 -0.9932 0.9815
3.9194 2.3206 -0.9932 0.9815
3.8850 2.3778 -0.9933 0.9815
3.8498 2.4345 -0.9933 0.9815
3.8138 2.4906 -0.9933 0.9815
3.7769 2.5462 -0.9933 0.9815
3.7393 2.6013 -0.9933 0.9815
3.7008 2.6558 -0.9933 0.9815
1.4749 -4.0678 -0.9939 0.9824
1.5343 -4.0457 -0.9939 0.9824
1.5934 -4.0227 -0.9939 0.9824
1.6521 -3.9989 -0.9939 0.9824
1.7685 -3.9486 -0.9938 0.9824
1.9401 -3.8670 -0.9938 0.9824
1.9965 -3.8381 -0.9938 0.9824
2.1080 -3.7779 -0.9937 0.9824
2.1630 -3.7465 -0.9937 0.9824
2.2177 -3.7144 -0.9937 0.9824
2.4452 -3.4877 -0.9784 0.9827
2.4935 -3.4479 -0.9774 0.9827
2.5437 -3.4109 -0.9774 0.9827
2.5933 -3.3733 -0.9774 0.9827
2.5607 -2.7860 -0.8692 0.9846
2.2320 -2.2900 -0.7345 0.9870
2.2494 -2.2411 -0.7294 0.9871
2.7605 -2.5938 -0.8701 0.9846
3.3050 -2.6784 -0.9772 0.9827
3.3820 -2.5804 -0.9771 0.9827
3.4561 -2.4802 -0.9771 0.9827
3.4920 -2.4293 -0.9771 0.9827
3.5272 -2.3779 -0.9771 0.9827
3.5953 -2.2735 -0.9771 0.9827
3.6602 -2.1671 -0.9771 0.9827
3.7807 -1.9491 -0.9770 0.9827
3.8814 -1.7898 -0.9818 0.9826
4.0023 -1.6364 -0.9932 0.9824
4.0259 -1.5777 -0.9932 0.9824
4.0485 -1.5185 -0.9932 0.9824
4.0703 -1.4590 -0.9932 0.9824
4.0912 -1.3992 -0.9932 0.9824
4.1304 -1.2788 -0.9932 0.9824
4.1660 -1.1572 -0.9932 0.9824
4.1981 -1.0347 -0.9932 0.9824
4.2395 -0.8493 -0.9932 0.9824
4.2902 -0.5368 -0.9931 0.9824
4.3096 -0.3479 -0.9931 0.9824
4.3142 -0.2847 -0.9931 0.9824
4.3235 -0.0317 -0.9931 0.9824
4.3226 0.0950 -0.9931 0.9824
4.3142 0.2847 -0.9931 0.9824
4.3096 0.3479 -0.9931 0.9824
4.3041 0.4110 -0.9931 0.9824
4.2975 0.4740 -0.9931 0.9824
4.2902 0.5368 -0.9931 0.9824
4.2819 0.5996 -0.9931 0.9824
4.2726 0.6623 -0.9932 0.9824
4.2625 0.7248 -0.9932 0.9824
4.2395 0.8493 -0.9932 0.9824
4.2128 0.9731 -0.9932 0.9824
4.1660 1.1572 -0.9932 0.9824
4.1487 1.2182 -0.9932 0.9824
4.1304 1.2788 -0.9932 0.9824
4.1112 1.3391 -0.9932 0.9824
4.0703 1.4590 -0.9932 0.9824
4.0485 1.5185 -0.9932 0.9824
3.9780 1.6948 -0.9932 0.9824
3.9267 1.8107 -0.9932 0.9824
3.7838 2.0932 -0.9933 0.9824
3.7210 2.2032 -0.9933 0.9824
3.6884 2.2575 -0.9933 0.9824
3.6550 2.3113 -0.9933 0.9824
3.5857 2.4174 -0.9933 0.9824
3.5135 2.5214 -0.9934 0.9824
3.4762 2.5726 -0.9934 0.9824
3.4382 2.6232 -0.9934 0.9824
1.3466 -3.8910 -0.9939 0.9832
1.4600 -3.8498 -0.9939 0.9832
1.8707 -3.5962 -0.9786 0.9835
1.9752 -3.5398 -0.9785 0.9835
2.1265 -3.4460 -0.9775 0.9835
2.3245 -3.3154 -0.9774 0.9835
2.3728 -3.2809 -0.9774 0.9835
2.4677 -3.2099 -0.9774 0.9835
2.5145 -3.1734 -0.9774 0.9835
1.9624 -2.4036 -0.7490 0.9873
1.9946 -2.3019 -0.7353 0.9875
2.5607 -2.7860 -0.9135 0.9845
2.5589 -2.7035 -0.8986 0.9848
2.2489 -2.2407 -0.7663 0.9870
2.7606 -2.5939 -0.9144 0.9845
2.9313 -2.5970 -0.9454 0.9840
3.0691 -2.6398 -0.9772 0.9835
3.1821 -2.5023 -0.9772 0.9835
3.2183 -2.4555 -0.9772 0.9835
3.4212 -2.1635 -0.9771 0.9835
3.4831 -2.0622 -0.9771 0.9835
3.5129 -2.0110 -0.9771 0.9835
3.5419 -1.9593 -0.9771 0.9835
3.5738 -1.9092 -0.9781 0.9835
3.6014 -1.8566 -0.9781 0.9835
3.6281 -1.8036 -0.9781 0.9835
3.7040 -1.7742 -0.9914 0.9832
3.7366 -1.7230 -0.9933 0.9832
3.8087 -1.5572 -0.9933 0.9832
3.8310 -1.5012 -0.9933 0.9832
3.8526 -1.4450 -0.9933 0.9832
3.8733 -1.3884 -0.9933 0.9832
3.9122 -1.2743 -0.9932 0.9832
3.9305 -1.2169 -0.9932 0.9832
3.9479 -1.1592 -0.9932 0.9832
3.9644 -1.1012 -0.9932 0.9832
3.9949 -0.9846 -0.9932 0.9832
4.0089 -0.9260 -0.9932 0.9832
4.0220 -0.8672 -0.9932 0.9832
4.0562 -0.6897 -0.9932 0.9832
4.0746 -0.5706 -0.9932 0.9832
4.0896 -0.4511 -0.9932 0.9832
4.0957 -0.3911 -0.9932 0.9832
4.1010 -0.3311 -0.9932 0.9832
4.1054 -0.2710 -0.9932 0.9832
4.1116 -0.1507 -0.9932 0.9832
4.1142 0.0301 -0.9932 0.9832
4.1133 0.0904 -0.9932 0.9832
4.1116 0.1506 -0.9932 0.9832
4.1089 0.2109 -0.9932 0.9832
4.1054 0.2709 -0.9932 0.9832
4.1010 0.3311 -0.9932 0.9832
4.0957 0.3911 -0.9932 0.9832
4.0746 0.5707 -0.9932 0.9832
4.0562 0.6898 -0.9932 0.9832
4.0457 0.7491 -0.9932 0.9832
4.0342 0.8082 -0.9932 0.9832
4.0220 0.8672 -0.9932 0.9832
4.0089 0.9261 -0.9932 0.9832
3.9949 0.9847 -0.9932 0.9832
3.9801 1.0430 -0.9932 0.9832
3.9479 1.1592 -0.9932 0.9832
3.9305 1.2169 -0.9932 0.9832
3.8526 1.4450 -0.9933 0.9832
3.8311 1.5013 -0.9933 0.9832
3.8087 1.5572 -0.9933 0.9832
3.7367 1.7230 -0.9933 0.9832
3.6846 1.8318 -0.9933 0.9832
3.6295 1.9389 -0.9933 0.9832
3.6007 1.9919 -0.9933 0.9832
3.5712 2.0444 -0.9933 0.9832
3.5098 2.1482 -0.9934 0.9832
3.4780 2.1993 -0.9934 0.9832
3.4454 2.2501 -0.9934 0.9832
3.3781 2.3500 -0.9934 0.9832
3.3434 2.3993 -0.9934 0.9832
1.3709 -3.6147 -0.9787 0.9842
1.4236 -3.5942 -0.9787 0.9842
1.4761 -3.5729 -0.9787 0.9842
1.5283 -3.5509 -0.9786 0.9842
1.5801 -3.5280 -0.9786 0.9842
1.6316 -3.5045 -0.9786 0.9842
1.4789 -2.8432 -0.8113 0.9869
1.5260 -2.8315 -0.8143 0.9868
1.6325 -2.8276 -0.8266 0.9866
1.6626 -2.7847 -0.8211 0.9867
1.6833 -2.7278 -0.8115 0.9869
2.1701 -3.1936 -0.9775 0.9842
2.2166 -3.1614 -0.9775 0.9842
2.2626 -3.1286 -0.9775 0.9842
2.3978 -3.0261 -0.9774 0.9842
1.9564 -2.3962 -0.7831 0.9873
1.9600 -2.3301 -0.7708 0.9875
1.9930 -2.3000 -0.7705 0.9875
2.0523 -2.2996 -0.7803 0.9874
2.6126 -2.8424 -0.9774 0.9842
2.2367 -2.2947 -0.8112 0.9869
2.2499 -2.2417 -0.8040 0.9870
3.0343 -2.3863 -0.9772 0.9842
3.1029 -2.2963 -0.9772 0.9842
3.2006 -2.1578 -0.9772 0.9842
3.3214 -1.9666 -0.9772 0.9842
3.3532 -1.9196 -0.9782 0.9842
3.4080 -1.8206 -0.9781 0.9842
3.5137 -1.7467 -0.9934 0.9839
3.5632 -1.6431 -0.9933 0.9839
3.6319 -1.4850 -0.9933 0.9839
3.7307 -1.2152 -0.9933 0.9839
3.7646 -1.1054 -0.9933 0.9839
3.8096 -0.9389 -0.9933 0.9839
3.8229 -0.8831 -0.9933 0.9839
3.8579 -0.7143 -0.9933 0.9839
3.8680 -0.6577 -0.9933 0.9839
3.8998 -0.4301 -0.9933 0.9839
3.9150 -0.2584 -0.9932 0.9839
3.9208 -0.1436 -0.9932 0.9839
3.9233 0.0287 -0.9932 0.9839
3.9225 0.0861 -0.9932 0.9839
3.9208 0.1436 -0.9932 0.9839
3.9183 0.2011 -0.9932 0.9839
3.9149 0.2584 -0.9932 0.9839
3.8998 0.4301 -0.9933 0.9839
3.8931 0.4872 -0.9933 0.9839
3.8855 0.5441 -0.9933 0.9839
3.8354 0.8270 -0.9933 0.9839
3.8229 0.8831 -0.9933 0.9839
3.7954 0.9946 -0.9933 0.9839
3.7804 1.0502 -0.9933 0.9839
3.7646 1.1054 -0.9933 0.9839
3.7481 1.1604 -0.9933 0.9839
3.7307 1.2152 -0.9933 0.9839
3.7125 1.2697 -0.9933 0.9839
3.6936 1.3240 -0.9933 0.9839
3.6738 1.3779 -0.9933 0.9839
3.6532 1.4316 -0.9933 0.9839
3.6319 1.4850 -0.9933 0.9839
3.5869 1.5907 -0.9933 0.9839
3.5388 1.6951 -0.9933 0.9839
3.5136 1.7468 -0.9934 0.9839
3.4877 1.7981 -0.9934 0.9839
3.4336 1.8995 -0.9934 0.9839
3.4054 1.9495 -0.9934 0.9839
3.3765 1.9992 -0.9934 0.9839
3.3469 2.0484 -0.9934 0.9839
3.2856 2.1457 -0.9934 0.9839
3.2538 2.1936 -0.9934 0.9839
3.1544 2.3344 -0.9935 0.9839
1.2068 -3.4869 -0.9777 0.9848
1.3084 -3.4499 -0.9777 0.9848
1.3588 -3.4304 -0.9777 0.9848
1.4088 -3.4100 -0.9777 0.9848
1.4586 -3.3890 -0.9777 0.9848
1.3197 -2.8346 -0.8285 0.9871
1.3698 -2.8330 -0.8338 0.9871
1.4205 -2.8313 -0.8394 0.9870
1.4719 -2.8297 -0.8452 0.9869
1.5241 -2.8280 -0.8513 0.9868
1.5770 -2.8262 -0.8576 0.9867
1.6306 -2.8244 -0.8642 0.9866
1.6564 -2.7744 -0.8562 0.9867
1.6579 -2.6866 -0.8365 0.9870
1.6513 -2.5902 -0.8140 0.9874
2.0733 -3.0512 -0.9775 0.9849
2.1177 -3.0205 -0.9775 0.9849
2.1617 -2.9891 -0.9775 0.9849
2.2052 -2.9571 -0.9775 0.9849
2.2482 -2.9245 -0.9775 0.9849
2.2908 -2.8911 -0.9774 0.9849
1.9622 -2.3327 -0.8077 0.9875
1.9952 -2.3025 -0.8073 0.9875
2.4561 -2.7519 -0.9774 0.9849
2.5355 -2.6788 -0.9774 0.9849
2.7962 -2.4050 -0.9773 0.9849
2.8311 -2.3638 -0.9773 0.9849
2.8990 -2.2798 -0.9773 0.9849
2.9321 -2.2371 -0.9773 0.9849
3.1170 -1.9710 -0.9772 0.9849
3.1487 -1.9272 -0.9782 0.9848
3.4043 -1.5698 -0.9934 0.9846
3.4489 -1.4694 -0.9934 0.9846
3.4700 -1.4187 -0.9934 0.9846
3.4904 -1.3677 -0.9934 0.9846
3.5470 -1.2131 -0.9933 0.9846
3.5968 -1.0561 -0.9933 0.9846
3.6262 -0.9503 -0.9933 0.9846
3.6397 -0.8971 -0.9933 0.9846
3.6524 -0.8437 -0.9933 0.9846
3.6644 -0.7901 -0.9933 0.9846
3.6755 -0.7364 -0.9933 0.9846
3.6859 -0.6824 -0.9933 0.9846
3.6955 -0.6284 -0.9933 0.9846
3.7043 -0.5742 -0.9933 0.9846
3.7196 -0.4654 -0.9933 0.9846
3.7364 -0.3016 -0.9933 0.9846
3.7404 -0.2469 -0.9933 0.9846
3.7436 -0.1921 -0.9933 0.9846
3.7460 -0.1372 -0.9933 0.9846
3.7476 -0.0824 -0.9933 0.9846
3.7316 0.3563 -0.9933 0.9846
3.7123 0.5199 -0.9933 0.9846
3.6859 0.6825 -0.9933 0.9846
3.6755 0.7364 -0.9933 0.9846
3.5644 1.1610 -0.9933 0.9846
3.5100 1.3165 -0.9934 0.9846
3.4270 1.5198 -0.9934 0.9846
3.3810 1.6195 -0.9934 0.9846
3.3570 1.6689 -0.9934 0.9846
3.2805 1.8148 -0.9934 0.9846
3.2536 1.8626 -0.9934 0.9846
3.1977 1.9571 -0.9934 0.9846
3.1687 2.0038 -0.9934 0.9846
3.1391 2.0500 -0.9935 0.9846
3.0777 2.1411 -0.9935 0.9846
3.0461 2.1860 -0.9935 0.9846
1.2037 -3.3198 -0.9777 0.9855
1.3004 -3.2830 -0.9777 0.9855
1.3483 -3.2636 -0.9777 0.9855
1.2368 -2.7617 -0.8378 0.9875
1.3681 -2.8295 -0.8702 0.9870
1.4188 -2.8279 -0.8760 0.9870
1.3528 -2.6007 -0.8117 0.9879
1.3968 -2.5919 -0.8152 0.9879
1.5448 -2.5874 -0.8344 0.9876
1.5960 -2.5863 -0.8415 0.9875
1.6480 -2.5852 -0.8489 0.9874
1.9413 -2.9489 -0.9775 0.9855
2.0268 -2.8908 -0.9775 0.9855
2.1105 -2.8301 -0.9775 0.9855
2.1925 -2.7670 -0.9775 0.9855
2.2327 -2.7346 -0.9775 0.9855
1.9791 -2.3528 -0.8513 0.9873
2.3506 -2.6338 -0.9774 0.9855
2.4267 -2.5638 -0.9774 0.9855
2.2484 -2.2402 -0.8788 0.9869
2.2593 -2.1861 -0.8704 0.9870
2.6422 -2.3407 -0.9773 0.9855
2.7424 -2.2224 -0.9773 0.9855
2.7746 -2.1820 -0.9773 0.9855
2.9583 -1.9319 -0.9783 0.9854
2.9862 -1.8883 -0.9783 0.9854
3.1072 -1.7788 -0.9913 0.9852
3.1397 -1.7368 -0.9935 0.9852
3.1647 -1.6907 -0.9934 0.9852
3.1891 -1.6441 -0.9934 0.9852
3.2129 -1.5973 -0.9934 0.9852
3.2799 -1.4546 -0.9934 0.9852
3.4273 -1.0611 -0.9934 0.9852
3.4424 -1.0108 -0.9934 0.9852
3.4705 -0.9095 -0.9934 0.9852
3.4835 -0.8586 -0.9934 0.9852
3.5178 -0.7048 -0.9934 0.9852
3.5277 -0.6532 -0.9934 0.9852
3.5530 -0.4975 -0.9933 0.9852
3.5599 -0.4455 -0.9933 0.9852
3.5760 -0.2887 -0.9933 0.9852
3.5829 -0.1838 -0.9933 0.9852
3.5852 -0.1313 -0.9933 0.9852
3.5868 -0.0788 -0.9933 0.9852
3.5868 0.0788 -0.9933 0.9852
3.5829 0.1838 -0.9933 0.9852
3.5798 0.2362 -0.9933 0.9852
3.5714 0.3411 -0.9933 0.9852
3.5530 0.4975 -0.9933 0.9852
3.5454 0.5496 -0.9933 0.9852
3.5369 0.6014 -0.9933 0.9852
3.5178 0.7048 -0.9934 0.9852
3.5071 0.7562 -0.9934 0.9852
3.4835 0.8586 -0.9934 0.9852
3.4705 0.9096 -0.9934 0.9852
3.4569 0.9603 -0.9934 0.9852
3.4425 1.0108 -0.9934 0.9852
3.4273 1.0611 -0.9934 0.9852
3.3774 1.2106 -0.9934 0.9852
3.3405 1.3091 -0.9934 0.9852
3.3008 1.4064 -0.9934 0.9852
3.2799 1.4545 -0.9934 0.9852
3.2359 1.5500 -0.9934 0.9852
3.2129 1.5973 -0.9934 0.9852
3.1397 1.7368 -0.9935 0.9852
3.1139 1.7827 -0.9935 0.9852
3.0875 1.8281 -0.9935 0.9852
3.0604 1.8731 -0.9935 0.9852
2.9753 2.0058 -0.9935 0.9852
2.9456 2.0492 -0.9935 0.9852
2.8844 2.1346 -0.9935 0.9852
1.1071 -3.1989 -0.9778 0.9860
1.2004 -3.1650 -0.9777 0.9860
1.2465 -3.1471 -0.9777 0.9860
1.3381 -3.1091 -0.9777 0.9860
1.3482 -2.5917 -0.8438 0.9879
1.4449 -2.5896 -0.8566 0.9877
1.5448 -2.5874 -0.8704 0.9875
1.5960 -2.5863 -0.8778 0.9874
1.8609 -2.8268 -0.9776 0.9860
1.9021 -2.7993 -0.9775 0.9860
1.9429 -2.7711 -0.9775 0.9860
1.9832 -2.7423 -0.9775 0.9860
2.0231 -2.7129 -0.9775 0.9860
2.0626 -2.6830 -0.9775 0.9860
1.9490 -2.3871 -0.8901 0.9873
2.2900 -2.4914 -0.9774 0.9860
2.2855 -2.0854 -0.8937 0.9872
2.5328 -2.2438 -0.9774 0.9860
2.7804 -1.9342 -0.9783 0.9860
2.8626 -1.8102 -0.9783 0.9860
2.9178 -1.7858 -0.9881 0.9859
2.9597 -1.7524 -0.9935 0.9858
3.0097 -1.6650 -0.9935 0.9858
3.0337 -1.6207 -0.9935 0.9858
3.0799 -1.5311 -0.9935 0.9858
3.1441 -1.3943 -0.9935 0.9858
3.1835 -1.3016 -0.9934 0.9858
3.2542 -1.1130 -0.9934 0.9858
3.2702 -1.0652 -0.9934 0.9858
3.2854 -1.0172 -0.9934 0.9858
3.3000 -0.9689 -0.9934 0.9858
3.3138 -0.9205 -0.9934 0.9858
3.3393 -0.8230 -0.9934 0.9858
3.3510 -0.7740 -0.9934 0.9858
3.3620 -0.7249 -0.9934 0.9858
3.3722 -0.6756 -0.9934 0.9858
3.4236 -0.3269 -0.9934 0.9858
3.4346 -0.1762 -0.9934 0.9858
3.4368 -0.1259 -0.9934 0.9858
3.4390 0.0252 -0.9934 0.9858
3.4383 0.0755 -0.9934 0.9858
3.4368 0.1259 -0.9934 0.9858
3.4059 0.4770 -0.9934 0.9858
3.3986 0.5268 -0.9934 0.9858
3.3905 0.5765 -0.9934 0.9858
3.3817 0.6261 -0.9934 0.9858
3.3510 0.7741 -0.9934 0.9858
3.3393 0.8230 -0.9934 0.9858
3.2999 0.9689 -0.9934 0.9858
3.2854 1.0172 -0.9934 0.9858
3.2376 1.1605 -0.9934 0.9858
3.2023 1.2548 -0.9934 0.9858
3.0799 1.5311 -0.9935 0.9858
3.0571 1.5761 -0.9935 0.9858
3.0337 1.6207 -0.9935 0.9858
3.0097 1.6649 -0.9935 0.9858
2.9850 1.7089 -0.9935 0.9858
2.9337 1.7956 -0.9935 0.9858
2.9071 1.8384 -0.9935 0.9858
2.8799 1.8807 -0.9935 0.9858
2.8521 1.9227 -0.9935 0.9858
2.8237 1.9643 -0.9935 0.9858
2.7649 2.0462 -0.9936 0.9858
2.7347 2.0865 -0.9936 0.9858
1.1523 -3.0384 -0.9778 0.9865
1.2846 -2.9847 -0.9777 0.9865
1.2369 -2.7618 -0.9105 0.9874
1.2345 -2.6516 -0.8801 0.9879
1.3481 -2.5917 -0.8790 0.9879
1.4449 -2.5896 -0.8923 0.9877
1.4945 -2.5885 -0.8994 0.9876
1.6480 -2.5852 -0.9225 0.9873
1.8651 -2.6602 -0.9776 0.9865
1.9038 -2.6326 -0.9775 0.9865
1.9421 -2.6044 -0.9775 0.9865
1.9801 -2.5757 -0.9775 0.9865
1.9450 -2.3821 -0.9253 0.9872
1.9309 -2.2954 -0.9025 0.9875
1.9533 -2.1886 -0.8826 0.9878
2.2331 -2.3593 -0.9775 0.9865
2.2234 -2.1513 -0.9309 0.9872
2.2737 -2.0746 -0.9261 0.9872
2.4627 -2.1182 -0.9774 0.9865
2.4935 -2.0819 -0.9774 0.9865
2.5533 -2.0079 -0.9774 0.9865
2.5824 -1.9703 -0.9774 0.9865
2.9567 -1.4699 -0.9935 0.9863
2.9778 -1.4264 -0.9935 0.9863
2.9984 -1.3827 -0.9935 0.9863
3.0183 -1.3386 -0.9935 0.9863
3.0376 -1.2942 -0.9935 0.9863
3.0562 -1.2495 -0.9935 0.9863
3.0742 -1.2047 -0.9935 0.9863
3.1394 -1.0226 -0.9935 0.9863
3.1540 -0.9765 -0.9935 0.9863
3.1812 -0.8837 -0.9934 0.9863
3.2057 -0.7901 -0.9934 0.9863
3.2170 -0.7431 -0.9934 0.9863
3.2275 -0.6959 -0.9934 0.9863
3.2373 -0.6486 -0.9934 0.9863
3.2464 -0.6011 -0.9934 0.9863
3.2549 -0.5534 -0.9934 0.9863
3.2626 -0.5057 -0.9934 0.9863
3.2697 -0.4579 -0.9934 0.9863
3.2817 -0.3619 -0.9934 0.9863
3.2909 -0.2657 -0.9934 0.9863
3.2944 -0.2174 -0.9934 0.9863
3.2972 -0.1692 -0.9934 0.9863
3.2994 -0.1209 -0.9934 0.9863
3.3008 -0.0725 -0.9934 0.9863
3.3008 0.0725 -0.9934 0.9863
3.2994 0.1209 -0.9934 0.9863
3.2909 0.2657 -0.9934 0.9863
3.2817 0.3619 -0.9934 0.9863
3.2697 0.4579 -0.9934 0.9863
3.2549 0.5535 -0.9934 0.9863
3.2464 0.6011 -0.9934 0.9863
3.2373 0.6486 -0.9934 0.9863
3.2275 0.6959 -0.9934 0.9863
3.2169 0.7431 -0.9934 0.9863
3.2057 0.7901 -0.9934 0.9863
3.1938 0.8370 -0.9934 0.9863
3.1812 0.8837 -0.9934 0.9863
3.1680 0.9302 -0.9934 0.9863
3.1394 1.0226 -0.9935 0.9863
3.1241 1.0685 -0.9935 0.9863
3.0914 1.1595 -0.9935 0.9863
3.0562 1.2496 -0.9935 0.9863
3.0376 1.2942 -0.9935 0.9863
2.9984 1.3826 -0.9935 0.9863
2.9779 1.4264 -0.9935 0.9863
2.9567 1.4699 -0.9935 0.9863
2.8893 1.5984 -0.9935 0.9863
2.8656 1.6405 -0.9935 0.9863
2.8413 1.6823 -0.9935 0.9863
2.8164 1.7238 -0.9935 0.9863
2.7107 1.8857 -0.9936 0.9863
2.6828 1.9253 -0.9936 0.9863
2.6253 2.0030 -0.9936 0.9863
1.0217 -2.9519 -0.9778 0.9870
1.0648 -2.9366 -0.9778 0.9870
1.2767 -2.8507 -0.9777 0.9870
1.3481 -2.5917 -0.9144 0.9878
1.4954 -2.5902 -0.9362 0.9875
1.5488 -2.5941 -0.9457 0.9874
1.6034 -2.5982 -0.9557 0.9873
1.7173 -2.6086 -0.9776 0.9870
1.7929 -2.5571 -0.9776 0.9870
1.8301 -2.5306 -0.9776 0.9870
1.8670 -2.5036 -0.9776 0.9870
1.9034 -2.4759 -0.9775 0.9870
1.9395 -2.4477 -0.9775 0.9870
1.9751 -2.4190 -0.9775 0.9870
1.9269 -2.2907 -0.9370 0.9875
1.9182 -2.2137 -0.9169 0.9878
1.9413 -2.1752 -0.9126 0.9879
2.2121 -2.2040 -0.9775 0.9870
2.2363 -2.1638 -0.9740 0.9870
2.3373 -2.0707 -0.9774 0.9870
2.3674 -2.0362 -0.9774 0.9870
2.3970 -2.0013 -0.9774 0.9870
2.4850 -1.8960 -0.9784 0.9870
2.5125 -1.8593 -0.9784 0.9870
2.6577 -1.7356 -0.9936 0.9868
2.6828 -1.6965 -0.9936 0.9868
2.7313 -1.6172 -0.9936 0.9868
2.7775 -1.5365 -0.9936 0.9868
2.7996 -1.4956 -0.9935 0.9868
2.8422 -1.4130 -0.9935 0.9868
2.8626 -1.3712 -0.9935 0.9868
2.8823 -1.3291 -0.9935 0.9868
2.9015 -1.2867 -0.9935 0.9868
2.9379 -1.2012 -0.9935 0.9868
2.9552 -1.1580 -0.9935 0.9868
2.9718 -1.1146 -0.9935 0.9868
3.0031 -1.0271 -0.9935 0.9868
3.0453 -0.8942 -0.9935 0.9868
3.0581 -0.8495 -0.9935 0.9868
3.0817 -0.7595 -0.9935 0.9868
3.1120 -0.6235 -0.9935 0.9868
3.1364 -0.4861 -0.9935 0.9868
3.1546 -0.3479 -0.9935 0.9868
3.1595 -0.3017 -0.9935 0.9868
3.1669 -0.2090 -0.9934 0.9868
3.1716 -0.1162 -0.9934 0.9868
3.1730 -0.0697 -0.9934 0.9868
3.1737 -0.0232 -0.9934 0.9868
3.1737 0.0233 -0.9934 0.9868
3.1696 0.1626 -0.9934 0.9868
3.1669 0.2090 -0.9934 0.9868
3.1594 0.3017 -0.9935 0.9868
3.1547 0.3479 -0.9935 0.9868
3.1492 0.3941 -0.9935 0.9868
3.1364 0.4862 -0.9935 0.9868
3.0924 0.7143 -0.9935 0.9868
3.0816 0.7596 -0.9935 0.9868
2.9878 1.0710 -0.9935 0.9868
2.9718 1.1146 -0.9935 0.9868
2.9379 1.2012 -0.9935 0.9868
2.9015 1.2868 -0.9935 0.9868
2.8824 1.3291 -0.9935 0.9868
2.8626 1.3712 -0.9935 0.9868
2.8422 1.4130 -0.9935 0.9868
2.8212 1.4545 -0.9935 0.9868
2.7996 1.4956 -0.9935 0.9868
2.7775 1.5365 -0.9936 0.9868
2.7547 1.5770 -0.9936 0.9868
2.7313 1.6172 -0.9936 0.9868
2.7074 1.6570 -0.9936 0.9868
2.6828 1.6965 -0.9936 0.9868
2.6577 1.7356 -0.9936 0.9868
2.6058 1.8127 -0.9936 0.9868
2.5789 1.8508 -0.9936 0.9868
2.5237 1.9255 -0.9936 0.9868
1.0661 -2.8111 -0.9778 0.9874
1.1071 -2.7951 -0.9778 0.9874
1.2688 -2.7254 -0.9777 0.9874
1.2602 -2.6064 -0.9416 0.9879
1.3042 -2.5995 -0.9459 0.9878
1.3539 -2.6028 -0.9542 0.9877
1.5410 -2.5810 -0.9776 0.9874
1.5786 -2.5582 -0.9776 0.9874
1.6159 -2.5347 -0.9776 0.9874
1.6529 -2.5107 -0.9776 0.9874
1.6894 -2.4862 -0.9776 0.9874
1.7256 -2.4612 -0.9776 0.9874
1.8320 -2.3830 -0.9776 0.9874
1.8667 -2.3559 -0.9776 0.9874
1.9010 -2.3282 -0.9775 0.9874
1.9348 -2.3002 -0.9775 0.9874
1.9188 -2.2145 -0.9530 0.9878
2.1600 -2.0899 -0.9775 0.9874
2.1903 -2.0580 -0.9775 0.9874
2.2786 -1.9598 -0.9774 0.9874
2.3648 -1.8597 -0.9784 0.9874
2.3917 -1.8249 -0.9784 0.9874
2.4809 -1.7804 -0.9931 0.9872
2.5080 -1.7447 -0.9936 0.9872
2.5580 -1.6705 -0.9936 0.9872
2.5821 -1.6329 -0.9936 0.9872
2.6058 -1.5948 -0.9936 0.9872
2.6513 -1.5179 -0.9936 0.9872
2.6733 -1.4788 -0.9936 0.9872
2.7742 -1.2793 -0.9936 0.9872
2.7927 -1.2384 -0.9935 0.9872
2.8105 -1.1974 -0.9935 0.9872
2.8277 -1.1561 -0.9935 0.9872
2.8443 -1.1146 -0.9935 0.9872
2.8757 -1.0308 -0.9935 0.9872
2.9046 -0.9461 -0.9935 0.9872
2.9182 -0.9035 -0.9935 0.9872
2.9434 -0.8176 -0.9935 0.9872
2.9550 -0.7744 -0.9935 0.9872
2.9764 -0.6875 -0.9935 0.9872
2.9862 -0.6439 -0.9935 0.9872
