ply
format ascii 1.0
element vertex 1549
property float32 x
property float32 y
property float32 z
property float32 I
end_header
-0.6643 -0.5146 -0.0501 0.9966
-0.6666 -0.5484 -0.0515 0.9965
-8.8407 -7.9484 -0.7089 0.9535
-8.5892 -7.9529 -0.6980 0.9542
-8.3305 -7.9431 -0.6864 0.9549
-8.0860 -7.9393 -0.6758 0.9556
-7.8489 -7.9355 -0.6656 0.9563
-7.6200 -7.9333 -0.6560 0.9569
-7.3979 -7.9314 -0.6468 0.9575
-7.1829 -7.9305 -0.6381 0.9580
-6.9744 -7.9308 -0.6298 0.9586
-6.5951 -7.9578 -0.6163 0.9594
-6.3933 -7.9485 -0.6083 0.9599
-6.2074 -7.9531 -0.6016 0.9604
-6.0120 -7.9398 -0.5939 0.9609
-5.5781 -8.0813 -0.5856 0.9614
-5.4854 -8.2014 -0.5884 0.9612
-5.3950 -8.6011 -0.6055 0.9601
-5.3897 -8.8789 -0.6194 0.9592
-8.0998 -14.2697 -0.9785 0.9364
-1.5118 -2.7566 -0.1875 0.9875
-1.4893 -2.8125 -0.1898 0.9873
-5.7410 -11.2369 -0.7525 0.9507
-5.5549 -12.1636 -0.7974 0.9478
-6.6129 -15.0600 -0.9808 0.9362
-5.0679 -12.5259 -0.8058 0.9473
-5.9439 -15.3331 -0.9807 0.9362
-5.7183 -15.4175 -0.9806 0.9362
-4.8046 -15.7220 -0.9804 0.9362
-4.5735 -15.7896 -0.9803 0.9363
-3.5505 -12.9656 -0.8016 0.9476
-3.8748 -15.9721 -0.9801 0.9363
-3.6402 -16.0262 -0.9800 0.9363
-3.4049 -16.0768 -0.9800 0.9363
-2.9322 -16.1675 -0.9798 0.9363
-2.6950 -16.2076 -0.9798 0.9363
-2.4571 -16.2442 -0.9797 0.9363
-1.9800 -16.3071 -0.9796 0.9363
-1.5014 -16.3560 -0.9795 0.9363
-1.0216 -16.3908 -0.9793 0.9363
-0.5410 -16.4114 -0.9792 0.9363
0.4207 -16.4106 -0.9789 0.9363
0.9011 -16.3891 -0.9788 0.9363
1.1409 -16.3730 -0.9787 0.9363
1.3805 -16.3535 -0.9787 0.9364
1.8586 -16.3039 -0.9786 0.9364
2.8093 -16.1629 -0.9783 0.9364
3.0455 -16.1189 -0.9782 0.9364
3.2811 -16.0715 -0.9782 0.9364
3.7498 -15.9665 -0.9780 0.9364
4.2153 -15.8478 -0.9779 0.9364
4.4467 -15.7833 -0.9779 0.9364
4.6771 -15.7155 -0.9778 0.9364
4.9064 -15.6444 -0.9777 0.9364
5.1347 -15.5698 -0.9777 0.9364
-0.5752 0.0000 -0.0407 0.9977
-0.5804 -0.0426 -0.0412 0.9977
-0.5843 -0.0775 -0.0417 0.9976
-0.5854 -0.0864 -0.0419 0.9976
-0.5865 -0.0953 -0.0420 0.9976
-0.5876 -0.1043 -0.0422 0.9976
-0.5887 -0.1134 -0.0424 0.9976
-0.5907 -0.1319 -0.0428 0.9976
-0.5917 -0.1412 -0.0430 0.9976
-0.5937 -0.1602 -0.0435 0.9975
-0.5946 -0.1699 -0.0438 0.9975
-0.5955 -0.1796 -0.0440 0.9975
-0.5964 -0.1894 -0.0443 0.9975
-0.5988 -0.2097 -0.0449 0.9975
-0.6000 -0.2200 -0.0452 0.9974
-0.6024 -0.2412 -0.0459 0.9974
-0.6036 -0.2520 -0.0463 0.9974
-0.6052 -0.2631 -0.0467 0.9974
-0.6069 -0.2745 -0.0471 0.9973
-0.6087 -0.2861 -0.0476 0.9973
-0.6104 -0.2979 -0.0481 0.9973
-0.6121 -0.3099 -0.0485 0.9973
-0.6138 -0.3221 -0.0491 0.9972
-0.6206 -0.3736 -0.0513 0.9971
-0.6283 -0.4439 -0.0544 0.9969
-0.6290 -0.4584 -0.0551 0.9969
-0.6330 -0.5526 -0.0595 0.9966
-10.1976 -9.7234 -0.9971 0.9451
-10.0537 -9.8713 -0.9970 0.9451
-9.9077 -10.0171 -0.9970 0.9451
-9.5827 -9.9767 -0.9789 0.9460
-8.9403 -9.5849 -0.9275 0.9488
-8.8026 -9.7189 -0.9279 0.9488
-9.1341 -10.3868 -0.9788 0.9460
-6.6205 -7.9885 -0.7342 0.9592
-6.3924 -7.9474 -0.7217 0.9599
-6.2048 -7.9497 -0.7136 0.9604
-6.0116 -7.9393 -0.7047 0.9609
-5.8594 -7.9784 -0.7005 0.9611
-5.9388 -9.4680 -0.7909 0.9562
-5.8595 -9.6528 -0.7990 0.9557
-6.9991 -11.9206 -0.9782 0.9461
-6.8235 -12.0213 -0.9781 0.9461
-1.4893 -2.8125 -0.2252 0.9873
-5.7982 -11.3488 -0.9018 0.9502
-5.6500 -11.4703 -0.9048 0.9500
-5.5506 -11.6975 -0.9162 0.9494
-5.7404 -12.5700 -0.9778 0.9461
-5.5554 -12.6521 -0.9778 0.9461
-5.0594 -12.5047 -0.9545 0.9473
-4.9936 -12.8818 -0.9776 0.9461
-4.2299 -13.1494 -0.9774 0.9461
-3.8425 -13.2662 -0.9773 0.9461
-3.5488 -12.9592 -0.9508 0.9475
-3.3445 -12.9550 -0.9468 0.9478
-3.2556 -13.4200 -0.9772 0.9461
-3.0585 -13.4655 -0.9771 0.9461
-2.8608 -13.5081 -0.9771 0.9461
-2.4637 -13.5846 -0.9770 0.9461
-2.2643 -13.6185 -0.9769 0.9461
-1.8643 -13.6775 -0.9768 0.9462
-1.4628 -13.7246 -0.9767 0.9462
-1.2616 -13.7439 -0.9766 0.9462
-1.0601 -13.7601 -0.9766 0.9462
-0.8584 -13.7734 -0.9765 0.9462
-0.6565 -13.7837 -0.9765 0.9462
-0.2526 -13.7955 -0.9764 0.9462
-0.0505 -13.7969 -0.9763 0.9462
0.1516 -13.7954 -0.9762 0.9462
0.9589 -13.7598 -0.9760 0.9462
1.3613 -13.7243 -0.9759 0.9462
1.5621 -13.7021 -0.9759 0.9462
1.7625 -13.6770 -0.9758 0.9462
1.9625 -13.6490 -0.9758 0.9462
2.1621 -13.6180 -0.9757 0.9462
2.5597 -13.5474 -0.9756 0.9462
2.7576 -13.5077 -0.9755 0.9462
2.9550 -13.4651 -0.9755 0.9462
3.1517 -13.4197 -0.9754 0.9462
3.3478 -13.3714 -0.9754 0.9462
3.5430 -13.3202 -0.9753 0.9462
3.7375 -13.2662 -0.9753 0.9462
-0.5558 -0.0081 -0.0455 0.9978
-0.5568 -0.0163 -0.0456 0.9978
-0.5586 -0.0328 -0.0458 0.9978
-0.5612 -0.0577 -0.0462 0.9977
-0.5620 -0.0661 -0.0464 0.9977
-0.5636 -0.0832 -0.0467 0.9977
-0.5664 -0.1092 -0.0472 0.9977
-0.5673 -0.1180 -0.0475 0.9977
-0.5682 -0.1269 -0.0477 0.9977
-0.5691 -0.1359 -0.0479 0.9977
-0.5715 -0.1632 -0.0487 0.9976
-0.5736 -0.1915 -0.0495 0.9976
-0.5746 -0.2013 -0.0499 0.9976
-0.5756 -0.2111 -0.0502 0.9975
-0.5766 -0.2211 -0.0506 0.9975
-0.5776 -0.2312 -0.0510 0.9975
-0.5785 -0.2415 -0.0513 0.9975
-0.5933 -0.3813 -0.0578 0.9972
-0.5946 -0.3945 -0.0584 0.9971
-0.5985 -0.4362 -0.0607 0.9970
-0.5996 -0.4505 -0.0614 0.9970
-0.5998 -0.4646 -0.0622 0.9970
-0.6002 -0.4791 -0.0629 0.9969
-0.6004 -0.4939 -0.0637 0.9969
-0.6009 -0.5402 -0.0662 0.9968
-0.6009 -0.5564 -0.0671 0.9967
-0.6859 -0.6539 -0.0776 0.9962
-8.6824 -8.5248 -0.9966 0.9523
-8.4284 -8.7748 -0.9966 0.9523
-8.1672 -9.0173 -0.9965 0.9523
-7.8990 -9.2520 -0.9964 0.9523
-7.7624 -9.3663 -0.9964 0.9524
-6.2002 -7.9439 -0.8254 0.9604
-5.9068 -8.0430 -0.8174 0.9607
-6.9088 -10.0091 -0.9962 0.9524
-5.9786 -9.5314 -0.9216 0.9558
-6.1955 -10.2066 -0.9780 0.9532
-5.8934 -10.3828 -0.9779 0.9532
-1.5118 -2.7567 -0.2575 0.9875
-5.4310 -10.6302 -0.9778 0.9532
-5.2745 -10.7082 -0.9777 0.9532
-5.1169 -10.7838 -0.9777 0.9532
-4.7984 -10.9281 -0.9776 0.9532
-4.6377 -10.9967 -0.9775 0.9532
-4.3132 -11.1268 -0.9775 0.9532
-3.6537 -11.3582 -0.9773 0.9532
-2.8122 -11.5924 -0.9770 0.9533
-2.3000 -11.7030 -0.9769 0.9533
-2.1282 -11.7350 -0.9769 0.9533
-1.9561 -11.7643 -0.9768 0.9533
-1.7834 -11.7911 -0.9768 0.9533
-1.2637 -11.8564 -0.9766 0.9533
-0.7416 -11.8987 -0.9765 0.9533
-0.3927 -11.9142 -0.9764 0.9533
-0.2182 -11.9181 -0.9763 0.9533
0.3055 -11.9144 -0.9762 0.9533
0.8284 -11.8878 -0.9761 0.9533
1.0024 -11.8738 -0.9760 0.9533
1.1761 -11.8573 -0.9760 0.9533
1.5228 -11.8166 -0.9759 0.9533
2.0400 -11.7367 -0.9757 0.9533
2.2116 -11.7050 -0.9757 0.9533
2.3827 -11.6707 -0.9756 0.9533
2.5532 -11.6341 -0.9756 0.9533
2.8926 -11.5532 -0.9755 0.9533
3.2294 -11.4625 -0.9754 0.9533
3.3968 -11.4134 -0.9754 0.9533
3.7293 -11.3080 -0.9753 0.9533
-0.5366 -0.0079 -0.0500 0.9978
-0.5375 -0.0157 -0.0501 0.9978
-0.5393 -0.0316 -0.0503 0.9978
-0.5401 -0.0396 -0.0504 0.9978
-0.5409 -0.0477 -0.0505 0.9978
-0.5416 -0.0557 -0.0507 0.9978
-0.5430 -0.0720 -0.0510 0.9978
-0.5437 -0.0802 -0.0512 0.9978
-0.5450 -0.0968 -0.0515 0.9978
-0.5458 -0.1052 -0.0517 0.9978
-0.5487 -0.1395 -0.0527 0.9977
-0.5494 -0.1483 -0.0530 0.9977
-0.5500 -0.1571 -0.0532 0.9977
-0.5506 -0.1661 -0.0535 0.9977
-0.5517 -0.1842 -0.0541 0.9977
-0.5531 -0.2029 -0.0548 0.9976
-0.5585 -0.2828 -0.0583 0.9975
-0.5615 -0.3160 -0.0600 0.9974
-0.5625 -0.3275 -0.0606 0.9974
-0.5635 -0.3392 -0.0612 0.9974
-0.5644 -0.3511 -0.0619 0.9973
-0.5653 -0.3633 -0.0625 0.9973
-0.5662 -0.3757 -0.0632 0.9973
-0.5680 -0.4013 -0.0647 0.9972
-0.5689 -0.4145 -0.0655 0.9972
-0.5697 -0.4281 -0.0663 0.9971
-0.5705 -0.4419 -0.0672 0.9971
-0.5719 -0.4704 -0.0689 0.9970
-0.5713 -0.5136 -0.0715 0.9969
-0.5710 -0.5286 -0.0724 0.9969
-0.5726 -0.5622 -0.0747 0.9968
-6.9496 -8.1400 -0.9962 0.9579
-6.8294 -8.2405 -0.9961 0.9579
-6.7077 -8.3394 -0.9961 0.9579
-5.6853 -9.0638 -0.9958 0.9579
-5.5517 -9.1458 -0.9958 0.9579
-1.4893 -2.8125 -0.2962 0.9873
-4.7266 -9.5956 -0.9956 0.9579
-4.4432 -9.7291 -0.9955 0.9579
-4.1560 -9.8544 -0.9954 0.9579
-4.0111 -9.9138 -0.9954 0.9579
-3.7187 -10.0262 -0.9953 0.9580
-3.2149 -9.9943 -0.9772 0.9587
-2.9206 -10.0834 -0.9771 0.9587
-2.7725 -10.1247 -0.9770 0.9587
-2.6238 -10.1638 -0.9770 0.9587
-2.4746 -10.2007 -0.9770 0.9587
-2.0239 -10.2982 -0.9768 0.9587
-1.8728 -10.3264 -0.9768 0.9587
-1.7213 -10.3522 -0.9768 0.9587
-1.4172 -10.3973 -0.9767 0.9587
-1.1120 -10.4335 -0.9766 0.9587
-0.8059 -10.4607 -0.9765 0.9587
-0.1920 -10.4882 -0.9763 0.9587
-0.0383 -10.4895 -0.9763 0.9587
0.4223 -10.4796 -0.9762 0.9587
0.5758 -10.4719 -0.9761 0.9587
0.8822 -10.4496 -0.9760 0.9587
1.0351 -10.4352 -0.9760 0.9587
1.3401 -10.3995 -0.9759 0.9588
1.4922 -10.3783 -0.9759 0.9588
1.6440 -10.3550 -0.9758 0.9588
1.7954 -10.3293 -0.9758 0.9588
2.0970 -10.2714 -0.9757 0.9588
2.3967 -10.2048 -0.9756 0.9588
2.5458 -10.1681 -0.9756 0.9588
3.2822 -9.9526 -0.9754 0.9588
-0.5179 0.0000 -0.0540 0.9979
-0.5187 -0.0075 -0.0541 0.9979
-0.5204 -0.0229 -0.0543 0.9979
-0.5239 -0.0617 -0.0550 0.9979
-0.5257 -0.0854 -0.0555 0.9979
-0.5263 -0.0935 -0.0557 0.9979
-0.5272 -0.1096 -0.0561 0.9978
-0.5279 -0.1179 -0.0564 0.9978
-0.5291 -0.1345 -0.0569 0.9978
-0.5296 -0.1430 -0.0572 0.9978
-0.5306 -0.1600 -0.0578 0.9978
-0.5318 -0.1862 -0.0587 0.9977
-0.5323 -0.1952 -0.0591 0.9977
-0.5335 -0.2136 -0.0599 0.9977
-0.5362 -0.2715 -0.0627 0.9976
-0.5369 -0.2919 -0.0637 0.9975
-0.5372 -0.3023 -0.0643 0.9975
-0.5379 -0.3132 -0.0649 0.9975
-0.5386 -0.3242 -0.0655 0.9975
-0.5420 -0.3950 -0.0699 0.9973
-0.5437 -0.4472 -0.0734 0.9972
-0.5431 -0.5179 -0.0782 0.9970
-0.5527 -0.5754 -0.0832 0.9968
-6.3084 -7.1735 -0.9960 0.9623
-6.2025 -7.2648 -0.9960 0.9623
-6.0952 -7.3547 -0.9959 0.9623
-5.8769 -7.5296 -0.9959 0.9623
-5.7658 -7.6146 -0.9959 0.9623
-5.4253 -7.8598 -0.9958 0.9623
-4.7136 -8.3040 -0.9956 0.9623
-1.5119 -2.7568 -0.3278 0.9874
-1.4893 -2.8126 -0.3318 0.9873
-4.3439 -8.5022 -0.9955 0.9623
-4.2188 -8.5646 -0.9954 0.9623
-4.0927 -8.6252 -0.9954 0.9623
-3.9658 -8.6839 -0.9954 0.9623
-3.4501 -8.9000 -0.9952 0.9623
-3.3192 -8.9492 -0.9952 0.9623
-2.5204 -9.2040 -0.9950 0.9623
-2.3853 -9.2396 -0.9949 0.9624
-1.7026 -9.3876 -0.9948 0.9624
-1.5649 -9.4112 -0.9947 0.9624
-1.2884 -9.4523 -0.9946 0.9624
-0.7327 -9.5101 -0.9945 0.9624
-0.1746 -9.5352 -0.9943 0.9624
-0.0349 -9.5364 -0.9943 0.9624
0.1048 -9.5355 -0.9943 0.9624
0.3839 -9.5276 -0.9942 0.9624
0.5234 -9.5206 -0.9942 0.9624
0.6628 -9.5116 -0.9941 0.9624
0.9410 -9.4873 -0.9940 0.9624
1.2184 -9.4550 -0.9940 0.9624
1.3567 -9.4358 -0.9939 0.9624
1.4946 -9.4146 -0.9939 0.9624
1.6323 -9.3913 -0.9939 0.9624
2.0430 -9.3095 -0.9937 0.9624
2.1791 -9.2782 -0.9937 0.9624
2.3146 -9.2450 -0.9937 0.9624
2.4497 -9.2098 -0.9936 0.9624
2.5842 -9.1726 -0.9936 0.9624
2.8515 -9.0923 -0.9935 0.9624
2.9843 -9.0492 -0.9935 0.9624
-0.5028 -0.0147 -0.0581 0.9980
-0.5042 -0.0296 -0.0583 0.9980
-0.5049 -0.0371 -0.0585 0.9980
-0.5062 -0.0521 -0.0588 0.9980
-0.5073 -0.0672 -0.0591 0.9979
-0.5078 -0.0749 -0.0593 0.9979
-0.5083 -0.0826 -0.0595 0.9979
-0.5098 -0.1138 -0.0603 0.9979
-0.5107 -0.1298 -0.0608 0.9979
-0.5122 -0.1627 -0.0621 0.9978
-0.5125 -0.1711 -0.0624 0.9978
-0.5128 -0.1796 -0.0627 0.9978
-0.5130 -0.1882 -0.0631 0.9978
-0.5146 -0.2237 -0.0648 0.9977
-0.5149 -0.2329 -0.0653 0.9977
-0.5156 -0.2611 -0.0667 0.9977
-0.5157 -0.2707 -0.0673 0.9977
-0.5159 -0.2904 -0.0684 0.9976
-0.5159 -0.3106 -0.0695 0.9976
-0.5162 -0.3211 -0.0702 0.9976
-0.5175 -0.3771 -0.0739 0.9974
-0.5178 -0.4134 -0.0765 0.9973
-0.5179 -0.4260 -0.0774 0.9973
-0.5179 -0.4388 -0.0784 0.9973
-0.5178 -0.4520 -0.0794 0.9972
-0.5172 -0.4931 -0.0825 0.9971
-0.5169 -0.5075 -0.0836 0.9971
-0.5147 -0.5359 -0.0858 0.9970
-0.5134 -0.5504 -0.0869 0.9970
-0.6164 -0.7009 -0.1078 0.9962
-5.4045 -6.7191 -0.9958 0.9659
-5.3053 -6.7973 -0.9957 0.9659
-5.2050 -6.8741 -0.9957 0.9659
-5.1037 -6.9494 -0.9957 0.9659
-5.0012 -7.0232 -0.9957 0.9659
-4.8977 -7.0955 -0.9956 0.9659
-4.5809 -7.3031 -0.9955 0.9659
-4.4733 -7.3693 -0.9955 0.9659
-4.3648 -7.4337 -0.9955 0.9659
-1.5119 -2.7568 -0.3631 0.9874
-3.9215 -7.6756 -0.9954 0.9659
-3.8086 -7.7320 -0.9953 0.9659
-3.6948 -7.7867 -0.9953 0.9659
-3.5803 -7.8397 -0.9953 0.9659
-3.4650 -7.8911 -0.9952 0.9659
-3.1147 -8.0349 -0.9951 0.9659
-2.8779 -8.1221 -0.9951 0.9659
-2.7585 -8.1632 -0.9950 0.9659
-2.6386 -8.2024 -0.9950 0.9659
-2.5181 -8.2399 -0.9950 0.9659
-2.3971 -8.2756 -0.9949 0.9659
-1.6612 -8.4524 -0.9947 0.9659
-1.4129 -8.4969 -0.9947 0.9659
-1.1633 -8.5340 -0.9946 0.9659
-0.9128 -8.5638 -0.9945 0.9659
-0.7872 -8.5760 -0.9945 0.9659
-0.6615 -8.5863 -0.9945 0.9659
-0.4097 -8.6014 -0.9944 0.9659
-0.2837 -8.6062 -0.9944 0.9659
-0.0315 -8.6102 -0.9943 0.9659
0.3467 -8.6024 -0.9942 0.9659
0.4726 -8.5961 -0.9942 0.9659
0.5984 -8.5880 -0.9941 0.9659
0.7241 -8.5779 -0.9941 0.9659
0.9750 -8.5525 -0.9940 0.9659
1.1000 -8.5371 -0.9940 0.9659
1.3495 -8.5005 -0.9939 0.9659
1.4738 -8.4796 -0.9939 0.9659
1.7214 -8.4323 -0.9938 0.9659
1.8447 -8.4058 -0.9938 0.9659
1.9675 -8.3777 -0.9938 0.9659
2.2120 -8.3158 -0.9937 0.9659
2.3334 -8.2823 -0.9937 0.9659
2.5748 -8.2099 -0.9936 0.9659
-0.4854 0.0000 -0.0615 0.9980
-0.4876 -0.0214 -0.0619 0.9980
-0.4889 -0.0359 -0.0621 0.9980
-0.4901 -0.0504 -0.0624 0.9980
-0.4906 -0.0577 -0.0626 0.9980
-0.4911 -0.0651 -0.0628 0.9980
-0.4915 -0.0725 -0.0630 0.9980
-0.4919 -0.0799 -0.0632 0.9980
-0.4926 -0.0950 -0.0636 0.9980
-0.4929 -0.1025 -0.0638 0.9980
-0.4934 -0.1178 -0.0643 0.9980
-0.4938 -0.1333 -0.0648 0.9979
-0.4944 -0.1491 -0.0654 0.9979
-0.4947 -0.1571 -0.0658 0.9979
-0.4952 -0.1816 -0.0668 0.9979
-0.4955 -0.1984 -0.0676 0.9979
-0.4961 -0.2244 -0.0690 0.9978
-0.4963 -0.2422 -0.0700 0.9978
-0.4964 -0.2605 -0.0710 0.9977
-0.4957 -0.3084 -0.0740 0.9976
-0.4954 -0.3184 -0.0746 0.9976
-0.4952 -0.3498 -0.0768 0.9976
-0.4951 -0.3607 -0.0776 0.9975
-0.4949 -0.3719 -0.0785 0.9975
-0.4946 -0.3948 -0.0802 0.9975
-0.4944 -0.4066 -0.0811 0.9974
-0.4937 -0.4310 -0.0831 0.9974
-0.4933 -0.4435 -0.0841 0.9973
-0.4928 -0.4563 -0.0851 0.9973
-0.4922 -0.4694 -0.0862 0.9973
-0.4916 -0.4827 -0.0873 0.9972
-0.4892 -0.5245 -0.0909 0.9971
-0.5905 -0.7125 -0.1173 0.9963
-4.6503 -6.3320 -0.9956 0.9688
-4.4626 -6.4651 -0.9955 0.9688
-4.3673 -6.5296 -0.9955 0.9688
-4.1739 -6.6544 -0.9954 0.9688
-4.0760 -6.7146 -0.9954 0.9688
-3.3667 -7.0952 -0.9952 0.9688
-3.2623 -7.1435 -0.9952 0.9688
-3.1573 -7.1903 -0.9952 0.9688
-3.0516 -7.2356 -0.9951 0.9688
-2.9452 -7.2793 -0.9951 0.9688
-2.8381 -7.3214 -0.9951 0.9688
-2.7305 -7.3620 -0.9950 0.9688
-2.4043 -7.4741 -0.9949 0.9688
-2.1843 -7.5409 -0.9949 0.9688
-2.0735 -7.5719 -0.9949 0.9688
-1.9623 -7.6012 -0.9948 0.9688
-1.8508 -7.6289 -0.9948 0.9688
-1.6264 -7.6793 -0.9947 0.9688
-1.2874 -7.7427 -0.9946 0.9688
-0.9460 -7.7910 -0.9946 0.9689
-0.7174 -7.8149 -0.9945 0.9689
-0.3734 -7.8381 -0.9944 0.9689
-0.1436 -7.8452 -0.9943 0.9689
-0.0287 -7.8462 -0.9943 0.9689
0.0862 -7.8456 -0.9943 0.9689
0.4307 -7.8335 -0.9942 0.9689
0.7743 -7.8062 -0.9941 0.9689
1.1163 -7.7640 -0.9940 0.9689
2.1265 -7.5479 -0.9937 0.9689
2.2367 -7.5157 -0.9937 0.9689
2.4557 -7.4465 -0.9936 0.9689
-0.4713 -0.0069 -0.0651 0.9981
-0.4720 -0.0138 -0.0652 0.9981
-0.4739 -0.0347 -0.0656 0.9981
-0.4744 -0.0418 -0.0657 0.9981
-0.4758 -0.0631 -0.0662 0.9981
-0.4768 -0.0847 -0.0668 0.9980
-0.4771 -0.0920 -0.0671 0.9980
-0.4778 -0.1141 -0.0678 0.9980
-0.4779 -0.1290 -0.0683 0.9980
-0.4780 -0.1366 -0.0686 0.9980
-0.4781 -0.1442 -0.0689 0.9980
-0.4784 -0.1597 -0.0696 0.9980
-0.4784 -0.1834 -0.0707 0.9979
-0.4785 -0.1997 -0.0716 0.9979
-0.4787 -0.2164 -0.0725 0.9979
-0.4787 -0.2250 -0.0730 0.9979
-0.4787 -0.2336 -0.0735 0.9979
-0.4786 -0.2423 -0.0740 0.9978
-0.4783 -0.2600 -0.0751 0.9978
-0.4780 -0.2690 -0.0757 0.9978
-0.4777 -0.2781 -0.0763 0.9978
-0.4774 -0.2874 -0.0769 0.9978
-0.4771 -0.2968 -0.0775 0.9977
-0.4766 -0.3063 -0.0782 0.9977
-0.4762 -0.3159 -0.0789 0.9977
-0.4756 -0.3257 -0.0795 0.9977
-0.4745 -0.3458 -0.0810 0.9976
-0.4742 -0.3563 -0.0819 0.9976
-0.4733 -0.3779 -0.0836 0.9976
-0.4704 -0.4355 -0.0885 0.9974
-0.4695 -0.4477 -0.0895 0.9974
-0.4630 -0.5264 -0.0967 0.9972
-0.4600 -0.5551 -0.0995 0.9971
-0.4830 -0.6005 -0.1063 0.9969
-4.3546 -5.7510 -0.9955 0.9713
-4.1842 -5.8758 -0.9954 0.9713
-3.9217 -6.0535 -0.9954 0.9713
-3.8325 -6.1101 -0.9953 0.9713
-3.7426 -6.1654 -0.9953 0.9713
-3.6518 -6.2194 -0.9953 0.9713
-3.5602 -6.2721 -0.9953 0.9713
-1.4894 -2.8127 -0.4392 0.9872
-3.2810 -6.4219 -0.9952 0.9713
-3.1865 -6.4691 -0.9952 0.9713
-3.0914 -6.5149 -0.9951 0.9713
-2.9955 -6.5593 -0.9951 0.9713
-2.8020 -6.6439 -0.9951 0.9713
-2.7043 -6.6841 -0.9950 0.9713
-2.6061 -6.7228 -0.9950 0.9713
-2.4079 -6.7958 -0.9950 0.9713
-2.2078 -6.8631 -0.9949 0.9713
-2.1070 -6.8945 -0.9949 0.9713
-2.0057 -6.9245 -0.9948 0.9713
-1.9040 -6.9529 -0.9948 0.9713
-1.8019 -6.9798 -0.9948 0.9713
-1.6995 -7.0053 -0.9948 0.9713
-1.1822 -7.1098 -0.9946 0.9713
-1.0780 -7.1262 -0.9946 0.9713
-0.9735 -7.1410 -0.9946 0.9713
-0.8687 -7.1543 -0.9945 0.9713
-0.7638 -7.1660 -0.9945 0.9713
-0.6587 -7.1762 -0.9945 0.9713
-0.4482 -7.1920 -0.9944 0.9713
-0.1319 -7.2041 -0.9943 0.9713
0.1846 -7.2024 -0.9943 0.9713
0.2901 -7.1987 -0.9942 0.9713
0.3955 -7.1935 -0.9942 0.9713
0.6060 -7.1784 -0.9941 0.9713
0.7110 -7.1686 -0.9941 0.9713
0.9205 -7.1443 -0.9941 0.9713
1.0251 -7.1298 -0.9940 0.9713
1.2334 -7.0963 -0.9940 0.9713
1.3372 -7.0773 -0.9939 0.9713
1.5438 -7.0346 -0.9939 0.9713
2.2552 -6.8384 -0.9937 0.9713
-0.4566 -0.0000 -0.0682 0.9982
-0.4573 -0.0067 -0.0683 0.9982
-0.4580 -0.0134 -0.0684 0.9981
-0.4586 -0.0202 -0.0685 0.9981
-0.4597 -0.0337 -0.0688 0.9981
-0.4601 -0.0405 -0.0690 0.9981
-0.4606 -0.0474 -0.0691 0.9981
-0.4610 -0.0543 -0.0693 0.9981
-0.4614 -0.0612 -0.0695 0.9981
-0.4623 -0.0821 -0.0701 0.9981
-0.4630 -0.1177 -0.0713 0.9981
-0.4630 -0.1396 -0.0722 0.9980
-0.4629 -0.1545 -0.0729 0.9980
-0.4629 -0.1621 -0.0732 0.9980
-0.4627 -0.1774 -0.0740 0.9980
-0.4625 -0.1852 -0.0744 0.9980
-0.4624 -0.1930 -0.0748 0.9980
-0.4624 -0.2010 -0.0753 0.9980
-0.4623 -0.2091 -0.0758 0.9979
-0.4622 -0.2172 -0.0763 0.9979
-0.4619 -0.2338 -0.0773 0.9979
-0.4614 -0.2508 -0.0784 0.9979
-0.4602 -0.2770 -0.0802 0.9978
-0.4585 -0.3043 -0.0822 0.9978
-0.4579 -0.3136 -0.0829 0.9978
-0.4571 -0.3230 -0.0836 0.9977
-0.4563 -0.3326 -0.0843 0.9977
-0.4555 -0.3423 -0.0851 0.9977
-0.4546 -0.3521 -0.0859 0.9977
-0.4538 -0.3623 -0.0867 0.9977
-0.4507 -0.4053 -0.0905 0.9976
-0.4498 -0.4165 -0.0915 0.9975
-0.4465 -0.4515 -0.0948 0.9974
-0.4439 -0.4759 -0.0972 0.9974
-0.4425 -0.4886 -0.0984 0.9973
-0.4410 -0.5014 -0.0997 0.9973
-0.4384 -0.5450 -0.1044 0.9972
-0.4378 -0.5609 -0.1062 0.9971
-0.5314 -0.7236 -0.1340 0.9964
-3.7868 -5.4861 -0.9953 0.9734
-3.5420 -5.6468 -0.9953 0.9734
-3.4588 -5.6980 -0.9952 0.9734
-3.2903 -5.7965 -0.9952 0.9734
-1.5119 -2.7568 -0.4695 0.9874
-1.4894 -2.8127 -0.4752 0.9872
-2.8570 -6.0211 -0.9951 0.9734
-2.6793 -6.1018 -0.9950 0.9734
-2.4993 -6.1774 -0.9950 0.9734
-2.3172 -6.2476 -0.9949 0.9734
-2.2254 -6.2807 -0.9949 0.9734
-2.1331 -6.3125 -0.9949 0.9734
-2.0404 -6.3429 -0.9949 0.9734
-1.9473 -6.3720 -0.9948 0.9734
-1.6653 -6.4508 -0.9948 0.9734
-1.5707 -6.4744 -0.9947 0.9734
-1.4756 -6.4965 -0.9947 0.9734
-1.2846 -6.5366 -0.9946 0.9734
-1.1888 -6.5546 -0.9946 0.9734
-1.0926 -6.5711 -0.9946 0.9734
-0.8029 -6.6122 -0.9945 0.9734
-0.7059 -6.6231 -0.9945 0.9734
-0.4143 -6.6471 -0.9944 0.9734
-0.3169 -6.6523 -0.9944 0.9734
-0.2194 -6.6561 -0.9944 0.9734
-0.1219 -6.6584 -0.9943 0.9734
-0.0244 -6.6593 -0.9943 0.9734
0.0731 -6.6588 -0.9943 0.9734
0.1707 -6.6568 -0.9943 0.9734
0.2681 -6.6535 -0.9942 0.9734
0.3655 -6.6486 -0.9942 0.9734
0.7541 -6.6151 -0.9941 0.9734
0.8509 -6.6032 -0.9941 0.9734
0.9474 -6.5899 -0.9940 0.9734
1.0439 -6.5751 -0.9940 0.9734
1.1400 -6.5589 -0.9940 0.9734
1.4269 -6.5020 -0.9939 0.9734
1.5219 -6.4803 -0.9939 0.9734
1.6167 -6.4571 -0.9939 0.9734
1.7110 -6.4326 -0.9938 0.9734
-0.4434 0.0000 -0.0712 0.9982
-0.4441 -0.0065 -0.0714 0.9982
-0.4453 -0.0196 -0.0716 0.9982
-0.4462 -0.0327 -0.0719 0.9982
-0.4467 -0.0393 -0.0720 0.9982
-0.4471 -0.0460 -0.0722 0.9982
-0.4475 -0.0527 -0.0724 0.9982
-0.4478 -0.0594 -0.0726 0.9982
-0.4484 -0.0729 -0.0730 0.9982
-0.4487 -0.0864 -0.0734 0.9982
-0.4490 -0.1072 -0.0742 0.9981
-0.4490 -0.1212 -0.0747 0.9981
-0.4488 -0.1354 -0.0753 0.9981
-0.4487 -0.1425 -0.0756 0.9981
-0.4480 -0.1643 -0.0767 0.9981
-0.4479 -0.1717 -0.0771 0.9981
-0.4477 -0.1792 -0.0775 0.9980
-0.4472 -0.1944 -0.0783 0.9980
-0.4470 -0.2021 -0.0788 0.9980
-0.4463 -0.2260 -0.0804 0.9980
-0.4460 -0.2340 -0.0809 0.9980
-0.4446 -0.2589 -0.0827 0.9979
-0.4429 -0.2846 -0.0846 0.9979
-0.4421 -0.2934 -0.0852 0.9979
-0.4413 -0.3023 -0.0859 0.9978
-0.4405 -0.3113 -0.0867 0.9978
-0.4386 -0.3296 -0.0881 0.9978
-0.4376 -0.3389 -0.0889 0.9978
-0.4365 -0.3484 -0.0897 0.9977
-0.4320 -0.3884 -0.0933 0.9976
-0.4297 -0.4098 -0.0954 0.9976
-0.4285 -0.4207 -0.0965 0.9976
-0.4263 -0.4439 -0.0989 0.9975
-0.4247 -0.4830 -0.1033 0.9974
-0.4218 -0.5404 -0.1101 0.9972
-0.4303 -0.5859 -0.1168 0.9971
-3.5191 -5.0983 -0.9953 0.9752
-3.3681 -5.1989 -0.9952 0.9752
-3.2916 -5.2476 -0.9952 0.9752
-3.2143 -5.2952 -0.9952 0.9752
-3.1363 -5.3415 -0.9951 0.9752
-3.0577 -5.3868 -0.9951 0.9752
-1.5119 -2.7568 -0.5051 0.9873
-2.6551 -5.5954 -0.9950 0.9752
-2.4900 -5.6706 -0.9950 0.9752
-2.4066 -5.7062 -0.9950 0.9752
-2.3227 -5.7408 -0.9949 0.9752
-2.2383 -5.7741 -0.9949 0.9752
-2.1534 -5.8061 -0.9949 0.9752
-2.0682 -5.8369 -0.9949 0.9752
-1.8963 -5.8946 -0.9948 0.9752
-1.8096 -5.9217 -0.9948 0.9752
-1.7227 -5.9474 -0.9948 0.9752
-1.5477 -5.9950 -0.9947 0.9752
-1.3714 -6.0375 -0.9947 0.9752
-1.2828 -6.0568 -0.9946 0.9752
-1.1939 -6.0747 -0.9946 0.9752
-1.1048 -6.0914 -0.9946 0.9752
-0.9258 -6.1209 -0.9946 0.9752
-0.7461 -6.1450 -0.9945 0.9752
-0.6561 -6.1552 -0.9945 0.9752
-0.5658 -6.1640 -0.9945 0.9752
-0.4755 -6.1714 -0.9944 0.9752
-0.2945 -6.1824 -0.9944 0.9752
-0.2039 -6.1859 -0.9944 0.9752
-0.1133 -6.1881 -0.9943 0.9752
-0.0227 -6.1890 -0.9943 0.9752
0.2492 -6.1836 -0.9942 0.9752
0.5205 -6.1661 -0.9942 0.9752
0.6107 -6.1577 -0.9941 0.9752
0.8805 -6.1245 -0.9941 0.9752
0.9701 -6.1108 -0.9940 0.9752
1.0595 -6.0958 -0.9940 0.9752
1.1487 -6.0795 -0.9940 0.9752
1.2375 -6.0618 -0.9940 0.9752
1.5025 -6.0012 -0.9939 0.9752
1.5902 -5.9784 -0.9939 0.9752
1.7645 -5.9290 -0.9938 0.9753
1.8511 -5.9024 -0.9938 0.9753
1.9373 -5.8745 -0.9938 0.9753
-0.4321 -0.0126 -0.0744 0.9982
-0.4327 -0.0190 -0.0745 0.9982
-0.4336 -0.0318 -0.0748 0.9982
-0.4343 -0.0446 -0.0751 0.9982
-0.4346 -0.0511 -0.0753 0.9982
-0.4349 -0.0576 -0.0755 0.9982
-0.4354 -0.0707 -0.0759 0.9982
-0.4358 -0.0973 -0.0768 0.9982
-0.4358 -0.1108 -0.0774 0.9982
-0.4356 -0.1244 -0.0779 0.9982
-0.4355 -0.1313 -0.0783 0.9982
-0.4350 -0.1452 -0.0789 0.9981
-0.4344 -0.1593 -0.0796 0.9981
-0.4340 -0.1664 -0.0800 0.9981
-0.4334 -0.1809 -0.0808 0.9981
-0.4327 -0.1957 -0.0817 0.9981
-0.4321 -0.2109 -0.0827 0.9981
-0.4317 -0.2186 -0.0832 0.9980
-0.4290 -0.2583 -0.0862 0.9980
-0.4284 -0.2665 -0.0868 0.9980
-0.4250 -0.3003 -0.0895 0.9979
-0.4229 -0.3178 -0.0910 0.9979
-0.4218 -0.3267 -0.0918 0.9978
-0.4206 -0.3357 -0.0926 0.9978
-0.4180 -0.3542 -0.0943 0.9978
-0.4147 -0.3840 -0.0972 0.9977
-0.4143 -0.3950 -0.0985 0.9977
-0.4121 -0.4418 -0.1039 0.9976
-0.4098 -0.4800 -0.1086 0.9974
-0.4089 -0.4934 -0.1103 0.9974
-0.4079 -0.5071 -0.1120 0.9974
-0.4069 -0.5214 -0.1138 0.9973
-0.4045 -0.5508 -0.1176 0.9972
-0.4045 -0.5680 -0.1200 0.9972
-0.4287 -0.6210 -0.1298 0.9969
-3.1450 -4.8545 -0.9952 0.9768
-3.0735 -4.9000 -0.9951 0.9768
-3.0014 -4.9443 -0.9951 0.9768
-2.9285 -4.9877 -0.9951 0.9768
-1.5120 -2.7569 -0.5410 0.9873
-1.4894 -2.8127 -0.5476 0.9872
-2.6313 -5.1502 -0.9950 0.9768
-2.5555 -5.1880 -0.9950 0.9768
-2.4792 -5.2248 -0.9950 0.9768
-2.3251 -5.2950 -0.9949 0.9768
-2.2472 -5.3283 -0.9949 0.9768
-2.1688 -5.3606 -0.9949 0.9768
-1.6898 -5.5295 -0.9948 0.9768
-1.6086 -5.5536 -0.9947 0.9768
-1.3630 -5.6185 -0.9947 0.9768
-1.1978 -5.6557 -0.9946 0.9768
-1.1149 -5.6725 -0.9946 0.9768
-0.9482 -5.7025 -0.9946 0.9768
-0.8646 -5.7156 -0.9945 0.9768
-0.6967 -5.7382 -0.9945 0.9768
-0.6127 -5.7477 -0.9945 0.9768
-0.4440 -5.7629 -0.9944 0.9768
-0.1904 -5.7764 -0.9944 0.9768
-0.1058 -5.7785 -0.9943 0.9768
0.0635 -5.7789 -0.9943 0.9768
0.3172 -5.7700 -0.9942 0.9768
0.5704 -5.7502 -0.9941 0.9768
0.6545 -5.7411 -0.9941 0.9768
0.9060 -5.7064 -0.9941 0.9768
0.9894 -5.6924 -0.9940 0.9768
1.0726 -5.6772 -0.9940 0.9768
1.1556 -5.6607 -0.9940 0.9768
1.2384 -5.6430 -0.9940 0.9768
1.5665 -5.5604 -0.9939 0.9768
1.7286 -5.5119 -0.9938 0.9768
1.8092 -5.4858 -0.9938 0.9768
-0.4191 0.0000 -0.0769 0.9983
-0.4197 -0.0061 -0.0770 0.9983
-0.4202 -0.0123 -0.0771 0.9983
-0.4206 -0.0185 -0.0773 0.9983
-0.4211 -0.0247 -0.0774 0.9983
-0.4219 -0.0371 -0.0777 0.9983
-0.4225 -0.0497 -0.0781 0.9983
-0.4233 -0.0751 -0.0789 0.9983
-0.4234 -0.0880 -0.0793 0.9982
-0.4233 -0.1076 -0.0801 0.9982
-0.4223 -0.1410 -0.0817 0.9982
-0.4215 -0.1546 -0.0824 0.9982
-0.4188 -0.1969 -0.0849 0.9981
-0.4184 -0.2042 -0.0854 0.9981
-0.4175 -0.2191 -0.0865 0.9981
-0.4169 -0.2267 -0.0871 0.9981
-0.4163 -0.2343 -0.0876 0.9981
-0.4149 -0.2498 -0.0889 0.9980
-0.4124 -0.2737 -0.0908 0.9980
-0.4115 -0.2818 -0.0915 0.9980
-0.4096 -0.2985 -0.0930 0.9979
-0.4065 -0.3445 -0.0978 0.9978
-0.4049 -0.3641 -0.0999 0.9978
-0.4025 -0.3838 -0.1020 0.9977
-0.4014 -0.3941 -0.1032 0.9977
-0.3992 -0.4279 -0.1074 0.9976
-0.3964 -0.4643 -0.1120 0.9975
-0.3929 -0.5034 -0.1172 0.9974
-0.3902 -0.5313 -0.1210 0.9973
-0.3887 -0.5459 -0.1230 0.9973
-0.4003 -0.5985 -0.1321 0.9971
-2.8142 -4.6361 -0.9951 0.9782
-1.5119 -2.7569 -0.5769 0.9873
-1.4894 -2.8128 -0.5840 0.9871
-2.3962 -4.8646 -0.9949 0.9782
-2.2526 -4.9325 -0.9949 0.9782
-2.1071 -4.9962 -0.9949 0.9782
-1.9598 -5.0555 -0.9948 0.9782
-1.8108 -5.1106 -0.9948 0.9782
-1.7357 -5.1364 -0.9948 0.9782
-1.5084 -5.2074 -0.9947 0.9782
-1.4319 -5.2288 -0.9947 0.9782
-1.2780 -5.2683 -0.9946 0.9782
-1.2008 -5.2863 -0.9946 0.9782
-1.0454 -5.3190 -0.9946 0.9782
-0.8891 -5.3471 -0.9945 0.9782
-0.8107 -5.3595 -0.9945 0.9782
-0.7321 -5.3706 -0.9945 0.9782
-0.5745 -5.3895 -0.9945 0.9782
-0.4955 -5.3972 -0.9944 0.9782
-0.4163 -5.4038 -0.9944 0.9782
-0.1786 -5.4165 -0.9943 0.9782
-0.0992 -5.4184 -0.9943 0.9782
-0.0198 -5.4192 -0.9943 0.9782
0.0595 -5.4188 -0.9943 0.9782
0.2182 -5.4145 -0.9942 0.9782
0.3767 -5.4055 -0.9942 0.9782
0.4558 -5.3993 -0.9942 0.9782
0.6137 -5.3834 -0.9941 0.9782
0.7711 -5.3629 -0.9941 0.9782
1.0058 -5.3236 -0.9940 0.9782
1.0836 -5.3081 -0.9940 0.9782
1.1612 -5.2916 -0.9940 0.9782
1.2386 -5.2739 -0.9940 0.9782
1.4690 -5.2141 -0.9939 0.9782
1.5452 -5.1919 -0.9939 0.9782
-0.4088 -0.0120 -0.0797 0.9983
-0.4093 -0.0180 -0.0799 0.9983
-0.4097 -0.0240 -0.0800 0.9983
-0.4107 -0.0422 -0.0805 0.9983
-0.4109 -0.0484 -0.0807 0.9983
-0.4112 -0.0545 -0.0809 0.9983
-0.4114 -0.0607 -0.0811 0.9983
-0.4115 -0.0669 -0.0813 0.9983
-0.4116 -0.0793 -0.0817 0.9983
-0.4116 -0.0982 -0.0825 0.9983
-0.4114 -0.1046 -0.0828 0.9983
-0.4113 -0.1110 -0.0831 0.9983
-0.4111 -0.1175 -0.0834 0.9983
-0.4090 -0.1568 -0.0854 0.9982
-0.4079 -0.1703 -0.0862 0.9982
-0.4055 -0.1979 -0.0880 0.9982
-0.4045 -0.2123 -0.0890 0.9981
-0.4034 -0.2270 -0.0902 0.9981
-0.4031 -0.2347 -0.0909 0.9981
-0.4020 -0.2584 -0.0932 0.9981
-0.4016 -0.2665 -0.0940 0.9980
-0.4006 -0.2830 -0.0956 0.9980
-0.3974 -0.3268 -0.1003 0.9979
-0.3966 -0.3361 -0.1013 0.9979
-0.3925 -0.3742 -0.1057 0.9978
-0.3860 -0.4261 -0.1121 0.9977
-0.3849 -0.4377 -0.1136 0.9976
-0.3838 -0.4495 -0.1152 0.9976
-0.3826 -0.4616 -0.1169 0.9976
-0.3784 -0.4998 -0.1222 0.9974
-0.3768 -0.5131 -0.1241 0.9974
-0.3734 -0.5410 -0.1282 0.9973
-0.3715 -0.5555 -0.1303 0.9973
-0.4266 -0.7027 -0.1603 0.9967
-2.5194 -4.4384 -0.9950 0.9794
-1.5120 -2.7570 -0.6130 0.9873
-1.4894 -2.8128 -0.6205 0.9871
-2.1199 -4.6419 -0.9949 0.9794
-2.0517 -4.6723 -0.9949 0.9794
-1.8444 -4.7578 -0.9948 0.9794
-1.7744 -4.7841 -0.9948 0.9794
-1.5625 -4.8571 -0.9947 0.9794
-1.4195 -4.9007 -0.9947 0.9794
-1.2754 -4.9400 -0.9946 0.9794
-1.2028 -4.9580 -0.9946 0.9794
-1.1300 -4.9750 -0.9946 0.9794
-1.0571 -4.9909 -0.9946 0.9794
-0.9838 -5.0057 -0.9946 0.9794
-0.9104 -5.0195 -0.9945 0.9794
-0.8367 -5.0322 -0.9945 0.9794
-0.6148 -5.0638 -0.9945 0.9794
-0.5406 -5.0721 -0.9944 0.9794
-0.3173 -5.0907 -0.9944 0.9794
-0.2427 -5.0947 -0.9944 0.9794
-0.1680 -5.0976 -0.9943 0.9794
-0.0934 -5.0994 -0.9943 0.9794
-0.0187 -5.1002 -0.9943 0.9794
0.0560 -5.0997 -0.9943 0.9794
0.2799 -5.0921 -0.9942 0.9794
0.3545 -5.0873 -0.9942 0.9794
0.4289 -5.0815 -0.9942 0.9794
0.5033 -5.0745 -0.9942 0.9794
0.5776 -5.0665 -0.9941 0.9794
0.6517 -5.0574 -0.9941 0.9794
0.7995 -5.0360 -0.9941 0.9794
0.8732 -5.0236 -0.9941 0.9794
1.2382 -4.9458 -0.9940 0.9794
1.5967 -4.8414 -0.9939 0.9794
-0.3976 -0.0058 -0.0821 0.9984
-0.3980 -0.0117 -0.0822 0.9984
-0.3985 -0.0175 -0.0824 0.9984
-0.3989 -0.0234 -0.0825 0.9984
-0.3992 -0.0293 -0.0827 0.9984
-0.3998 -0.0411 -0.0830 0.9984
-0.4000 -0.0471 -0.0832 0.9984
-0.4002 -0.0531 -0.0834 0.9984
-0.4003 -0.0591 -0.0836 0.9983
-0.4004 -0.0956 -0.0850 0.9983
-0.3982 -0.1527 -0.0881 0.9983
-0.3967 -0.1794 -0.0899 0.9982
-0.3962 -0.1863 -0.0904 0.9982
-0.3957 -0.1931 -0.0909 0.9982
-0.3955 -0.2003 -0.0915 0.9982
-0.3953 -0.2075 -0.0922 0.9982
-0.3950 -0.2147 -0.0928 0.9982
-0.3947 -0.2221 -0.0935 0.9982
-0.3944 -0.2296 -0.0942 0.9981
-0.3940 -0.2372 -0.0950 0.9981
-0.3936 -0.2449 -0.0957 0.9981
-0.3931 -0.2527 -0.0965 0.9981
-0.3921 -0.2686 -0.0981 0.9981
-0.3915 -0.2767 -0.0990 0.9980
-0.3895 -0.3017 -0.1017 0.9980
-0.3887 -0.3104 -0.1027 0.9980
-0.3851 -0.3462 -0.1069 0.9979
-0.3841 -0.3556 -0.1081 0.9979
-0.3793 -0.3835 -0.1114 0.9978
-0.3775 -0.3930 -0.1125 0.9978
-0.3731 -0.4243 -0.1167 0.9977
-0.3719 -0.4356 -0.1183 0.9977
-0.3676 -0.4709 -0.1234 0.9976
-0.3660 -0.4833 -0.1252 0.9975
-0.3643 -0.4960 -0.1271 0.9975
-0.3625 -0.5090 -0.1290 0.9975
-0.3564 -0.5502 -0.1354 0.9973
-0.3542 -0.5646 -0.1376 0.9973
-0.3884 -0.6615 -0.1584 0.9969
-0.4228 -0.7448 -0.1768 0.9965
-1.5120 -2.7570 -0.6493 0.9872
-1.4894 -2.8128 -0.6572 0.9871
-2.1291 -4.3223 -0.9949 0.9805
-2.0655 -4.3529 -0.9949 0.9805
-1.9370 -4.4114 -0.9948 0.9805
-1.8722 -4.4392 -0.9948 0.9805
-1.8070 -4.4661 -0.9948 0.9805
-1.7413 -4.4920 -0.9948 0.9805
-1.6089 -4.5409 -0.9947 0.9805
-1.5422 -4.5639 -0.9947 0.9805
-1.3402 -4.6270 -0.9947 0.9805
-1.2041 -4.6640 -0.9946 0.9805
-1.1357 -4.6811 -0.9946 0.9805
-0.9980 -4.7122 -0.9946 0.9805
-0.9288 -4.7262 -0.9946 0.9805
-0.8595 -4.7392 -0.9945 0.9805
-0.7204 -4.7622 -0.9945 0.9805
-0.6505 -4.7721 -0.9945 0.9805
-0.5105 -4.7889 -0.9944 0.9805
-0.2996 -4.8065 -0.9944 0.9805
-0.2291 -4.8102 -0.9944 0.9805
-0.1587 -4.8130 -0.9943 0.9805
-0.0882 -4.8147 -0.9943 0.9805
0.0529 -4.8150 -0.9943 0.9805
0.4050 -4.7978 -0.9942 0.9805
0.4752 -4.7912 -0.9942 0.9805
0.6153 -4.7751 -0.9941 0.9805
0.6852 -4.7655 -0.9941 0.9805
0.8244 -4.7432 -0.9941 0.9805
0.9629 -4.7168 -0.9940 0.9805
1.0319 -4.7021 -0.9940 0.9805
1.3054 -4.6334 -0.9939 0.9805
1.5075 -4.5712 -0.9939 0.9805
-0.3907 -0.0114 -0.0852 0.9984
-0.3910 -0.0172 -0.0853 0.9984
-0.3918 -0.0345 -0.0858 0.9984
-0.3920 -0.0404 -0.0859 0.9984
-0.3924 -0.0579 -0.0865 0.9984
-0.3925 -0.0637 -0.0867 0.9984
-0.3926 -0.0876 -0.0877 0.9984
-0.3925 -0.0937 -0.0880 0.9983
-0.3923 -0.1059 -0.0886 0.9983
-0.3922 -0.1120 -0.0889 0.9983
-0.3920 -0.1182 -0.0893 0.9983
-0.3918 -0.1245 -0.0896 0.9983
-0.3906 -0.1498 -0.0912 0.9983
-0.3903 -0.1562 -0.0917 0.9983
-0.3899 -0.1628 -0.0921 0.9983
-0.3889 -0.1759 -0.0931 0.9983
-0.3873 -0.1961 -0.0947 0.9982
-0.3871 -0.2032 -0.0953 0.9982
-0.3860 -0.2247 -0.0974 0.9982
-0.3851 -0.2396 -0.0989 0.9981
-0.3841 -0.2548 -0.1005 0.9981
-0.3834 -0.2626 -0.1013 0.9981
-0.3828 -0.2705 -0.1022 0.9981
-0.3821 -0.2785 -0.1031 0.9981
-0.3779 -0.3203 -0.1080 0.9980
-0.3759 -0.3379 -0.1102 0.9979
-0.3748 -0.3470 -0.1114 0.9979
-0.3736 -0.3562 -0.1126 0.9979
-0.3720 -0.3652 -0.1137 0.9979
-0.3701 -0.3742 -0.1148 0.9978
-0.3662 -0.3926 -0.1171 0.9978
-0.3642 -0.4021 -0.1183 0.9978
-0.3606 -0.4224 -0.1211 0.9977
-0.3592 -0.4334 -0.1227 0.9977
-0.3576 -0.4446 -0.1244 0.9977
-0.3525 -0.4800 -0.1299 0.9976
-0.3486 -0.5050 -0.1338 0.9975
-0.3442 -0.5312 -0.1380 0.9974
-0.3446 -0.5868 -0.1484 0.9972
-0.3804 -0.6936 -0.1725 0.9968
-1.4895 -2.8129 -0.6941 0.9871
-1.8951 -4.1498 -0.9948 0.9815
-1.7109 -4.2288 -0.9948 0.9815
-1.5235 -4.2996 -0.9947 0.9815
-1.3968 -4.3423 -0.9947 0.9815
-1.3331 -4.3621 -0.9947 0.9815
-1.2690 -4.3811 -0.9946 0.9815
-1.0103 -4.4476 -0.9946 0.9815
-0.8139 -4.4875 -0.9945 0.9815
-0.6821 -4.5092 -0.9945 0.9815
-0.6159 -4.5186 -0.9945 0.9815
-0.5497 -4.5271 -0.9945 0.9815
-0.4833 -4.5346 -0.9944 0.9815
-0.3503 -4.5466 -0.9944 0.9815
-0.2836 -4.5512 -0.9944 0.9815
-0.0167 -4.5596 -0.9943 0.9815
0.1836 -4.5557 -0.9943 0.9815
0.2503 -4.5525 -0.9942 0.9815
0.3835 -4.5430 -0.9942 0.9815
0.4500 -4.5369 -0.9942 0.9815
0.5164 -4.5297 -0.9942 0.9815
0.5827 -4.5216 -0.9941 0.9815
0.7807 -4.4913 -0.9941 0.9815
1.0422 -4.4376 -0.9940 0.9815
1.3001 -4.3687 -0.9940 0.9815
-0.3838 -0.0112 -0.0882 0.9984
-0.3844 -0.0225 -0.0884 0.9984
-0.3853 -0.0511 -0.0893 0.9984
-0.3855 -0.0627 -0.0897 0.9984
-0.3855 -0.0685 -0.0899 0.9984
-0.3855 -0.0743 -0.0902 0.9984
-0.3855 -0.0802 -0.0904 0.9984
-0.3852 -0.1039 -0.0916 0.9984
-0.3850 -0.1100 -0.0920 0.9984
-0.3848 -0.1161 -0.0923 0.9984
-0.3845 -0.1221 -0.0927 0.9983
-0.3843 -0.1283 -0.0931 0.9983
-0.3820 -0.1661 -0.0957 0.9983
-0.3815 -0.1725 -0.0962 0.9983
-0.3810 -0.1791 -0.0967 0.9983
-0.3803 -0.1855 -0.0972 0.9983
-0.3795 -0.1921 -0.0977 0.9983
-0.3784 -0.2129 -0.0997 0.9982
-0.3780 -0.2201 -0.1005 0.9982
-0.3769 -0.2345 -0.1020 0.9982
-0.3764 -0.2419 -0.1028 0.9982
-0.3744 -0.2646 -0.1053 0.9981
-0.3737 -0.2723 -0.1062 0.9981
-0.3729 -0.2802 -0.1071 0.9981
-0.3711 -0.2962 -0.1091 0.9981
-0.3681 -0.3213 -0.1122 0.9980
-0.3670 -0.3300 -0.1134 0.9980
-0.3659 -0.3388 -0.1145 0.9980
-0.3646 -0.3476 -0.1157 0.9979
-0.3632 -0.3566 -0.1169 0.9979
-0.3593 -0.3740 -0.1191 0.9979
-0.3572 -0.3830 -0.1203 0.9979
-0.3530 -0.4014 -0.1228 0.9978
-0.3486 -0.4206 -0.1255 0.9978
-0.3468 -0.4312 -0.1271 0.9977
-0.3394 -0.4766 -0.1344 0.9976
-0.3249 -0.5533 -0.1474 0.9974
-0.3360 -0.6127 -0.1605 0.9971
-1.7991 -3.9394 -0.9948 0.9824
-1.4462 -4.0817 -0.9947 0.9824
-1.3863 -4.1024 -0.9947 0.9824
-1.0823 -4.1925 -0.9946 0.9824
-1.0208 -4.2078 -0.9946 0.9824
-0.8971 -4.2357 -0.9945 0.9824
-0.7726 -4.2601 -0.9945 0.9824
-0.7102 -4.2709 -0.9945 0.9824
-0.6475 -4.2807 -0.9945 0.9824
-0.5218 -4.2977 -0.9944 0.9824
-0.3325 -4.3163 -0.9944 0.9824
-0.1426 -4.3264 -0.9943 0.9824
-0.0158 -4.3286 -0.9943 0.9824
0.1743 -4.3250 -0.9943 0.9824
0.3009 -4.3179 -0.9942 0.9824
0.3641 -4.3129 -0.9942 0.9824
0.4272 -4.3070 -0.9942 0.9824
0.4902 -4.3002 -0.9942 0.9824
0.5531 -4.2925 -0.9942 0.9824
0.7411 -4.2639 -0.9941 0.9824
0.8035 -4.2525 -0.9941 0.9824
0.9277 -4.2270 -0.9941 0.9824
0.9894 -4.2129 -0.9940 0.9824
1.2343 -4.1474 -0.9940 0.9824
1.2949 -4.1288 -0.9940 0.9824
-0.3765 0.0000 -0.0909 0.9985
-0.3769 -0.0055 -0.0910 0.9985
-0.3772 -0.0111 -0.0911 0.9984
-0.3775 -0.0166 -0.0912 0.9984
-0.3777 -0.0221 -0.0913 0.9984
-0.3784 -0.0445 -0.0920 0.9984
-0.3787 -0.0730 -0.0931 0.9984
-0.3787 -0.0787 -0.0934 0.9984
-0.3785 -0.0904 -0.0939 0.9984
-0.3784 -0.0962 -0.0942 0.9984
-0.3775 -0.1200 -0.0956 0.9984
-0.3773 -0.1259 -0.0960 0.9984
-0.3758 -0.1505 -0.0977 0.9983
-0.3753 -0.1567 -0.0982 0.9983
-0.3721 -0.1884 -0.1007 0.9983
-0.3715 -0.1950 -0.1013 0.9983
-0.3711 -0.2018 -0.1020 0.9983
-0.3702 -0.2155 -0.1034 0.9982
-0.3697 -0.2225 -0.1042 0.9982
-0.3685 -0.2368 -0.1057 0.9982
-0.3671 -0.2514 -0.1074 0.9982
-0.3647 -0.2740 -0.1101 0.9981
-0.3608 -0.3057 -0.1142 0.9981
-0.3597 -0.3140 -0.1153 0.9980
-0.3585 -0.3223 -0.1164 0.9980
-0.3546 -0.3482 -0.1200 0.9980
-0.3508 -0.3652 -0.1222 0.9979
-0.3465 -0.3826 -0.1246 0.9979
-0.3444 -0.3916 -0.1259 0.9979
-0.3373 -0.4194 -0.1299 0.9978
-0.3348 -0.4290 -0.1314 0.9978
-0.3288 -0.4617 -0.1368 0.9977
-0.3219 -0.4968 -0.1429 0.9976
-0.3193 -0.5090 -0.1450 0.9975
-0.3166 -0.5216 -0.1473 0.9975
-0.3127 -0.5905 -0.1613 0.9973
-0.3262 -0.6385 -0.1731 0.9971
-0.3416 -0.6935 -0.1866 0.9968
-1.7119 -3.7484 -0.9948 0.9832
-1.6013 -3.7969 -0.9947 0.9832
-1.5455 -3.8198 -0.9947 0.9832
-1.4893 -3.8420 -0.9947 0.9832
-1.3191 -3.9036 -0.9947 0.9832
-1.2618 -3.9224 -0.9946 0.9832
-1.2042 -3.9404 -0.9946 0.9832
-1.1463 -3.9575 -0.9946 0.9832
-1.0882 -3.9738 -0.9946 0.9832
-0.9713 -4.0039 -0.9946 0.9832
-0.9126 -4.0176 -0.9945 0.9832
-0.7945 -4.0425 -0.9945 0.9832
-0.7352 -4.0536 -0.9945 0.9832
-0.6757 -4.0639 -0.9945 0.9832
-0.4965 -4.0895 -0.9944 0.9832
-0.3766 -4.1021 -0.9944 0.9832
-0.2562 -4.1112 -0.9944 0.9832
-0.0754 -4.1184 -0.9943 0.9832
-0.0151 -4.1189 -0.9943 0.9832
0.0452 -4.1186 -0.9943 0.9832
0.1056 -4.1175 -0.9943 0.9832
0.2863 -4.1086 -0.9942 0.9832
0.3464 -4.1039 -0.9942 0.9832
0.4065 -4.0984 -0.9942 0.9832
0.6457 -4.0672 -0.9941 0.9832
0.7052 -4.0573 -0.9941 0.9832
0.8237 -4.0348 -0.9941 0.9832
0.9415 -4.0088 -0.9940 0.9832
1.0585 -3.9793 -0.9940 0.9832
1.1166 -3.9634 -0.9940 0.9832
1.1745 -3.9466 -0.9940 0.9832
-0.3701 0.0000 -0.0937 0.9985
-0.3704 -0.0054 -0.0938 0.9985
-0.3707 -0.0109 -0.0939 0.9985
-0.3710 -0.0163 -0.0940 0.9985
-0.3716 -0.0327 -0.0944 0.9985
-0.3718 -0.0382 -0.0946 0.9985
-0.3719 -0.0438 -0.0948 0.9985
-0.3720 -0.0549 -0.0952 0.9984
-0.3721 -0.0661 -0.0957 0.9984
-0.3721 -0.0718 -0.0959 0.9984
-0.3720 -0.0774 -0.0962 0.9984
-0.3718 -0.0888 -0.0968 0.9984
-0.3708 -0.1177 -0.0985 0.9984
-0.3704 -0.1237 -0.0989 0.9984
-0.3701 -0.1296 -0.0993 0.9984
-0.3689 -0.1477 -0.1006 0.9984
-0.3651 -0.1848 -0.1036 0.9983
-0.3637 -0.1978 -0.1048 0.9983
-0.3632 -0.2044 -0.1055 0.9983
-0.3621 -0.2180 -0.1070 0.9983
-0.3615 -0.2249 -0.1078 0.9982
-0.3602 -0.2389 -0.1094 0.9982
-0.3569 -0.2682 -0.1130 0.9982
-0.3559 -0.2757 -0.1140 0.9981
-0.3549 -0.2833 -0.1150 0.9981
-0.3528 -0.2989 -0.1171 0.9981
-0.3504 -0.3150 -0.1193 0.9981
-0.3491 -0.3232 -0.1204 0.9980
-0.3477 -0.3316 -0.1216 0.9980
-0.3427 -0.3568 -0.1252 0.9980
-0.3384 -0.3736 -0.1276 0.9979
-0.3360 -0.3821 -0.1288 0.9979
-0.3337 -0.3909 -0.1301 0.9979
-0.3290 -0.4089 -0.1329 0.9978
-0.3238 -0.4276 -0.1358 0.9978
-0.3165 -0.4586 -0.1411 0.9977
-0.3142 -0.4697 -0.1430 0.9977
-0.2939 -0.5551 -0.1590 0.9974
-0.3149 -0.6636 -0.1860 0.9970
-0.3295 -0.7214 -0.2008 0.9967
-1.5555 -3.5425 -0.9795 0.9842
-1.3454 -3.6273 -0.9794 0.9842
-1.0930 -3.7736 -0.9946 0.9839
-1.0377 -3.7892 -0.9946 0.9839
-0.9820 -3.8039 -0.9946 0.9839
-0.9262 -3.8179 -0.9946 0.9839
-0.8702 -3.8310 -0.9945 0.9839
-0.8140 -3.8432 -0.9945 0.9839
-0.7576 -3.8546 -0.9945 0.9839
-0.5875 -3.8840 -0.9945 0.9839
-0.5306 -3.8922 -0.9944 0.9839
-0.4735 -3.8995 -0.9944 0.9839
-0.3591 -3.9116 -0.9944 0.9839
-0.3017 -3.9163 -0.9944 0.9839
-0.0719 -3.9270 -0.9943 0.9839
0.0431 -3.9273 -0.9943 0.9839
0.1582 -3.9243 -0.9943 0.9839
0.2156 -3.9214 -0.9942 0.9839
0.3303 -3.9134 -0.9942 0.9839
0.3876 -3.9080 -0.9942 0.9839
0.4448 -3.9019 -0.9942 0.9839
0.6157 -3.8784 -0.9941 0.9839
0.6725 -3.8689 -0.9941 0.9839
0.7290 -3.8586 -0.9941 0.9839
0.8417 -3.8354 -0.9941 0.9839
0.8978 -3.8226 -0.9941 0.9839
0.9536 -3.8090 -0.9940 0.9839
1.0093 -3.7946 -0.9940 0.9839
1.2297 -3.7288 -0.9940 0.9839
-0.3653 -0.0322 -0.0972 0.9985
-0.3654 -0.0376 -0.0973 0.9985
-0.3655 -0.0430 -0.0975 0.9985
-0.3657 -0.0594 -0.0982 0.9985
-0.3657 -0.0649 -0.0984 0.9985
-0.3656 -0.0705 -0.0987 0.9985
-0.3655 -0.0761 -0.0989 0.9985
-0.3650 -0.0985 -0.1002 0.9984
-0.3645 -0.1099 -0.1009 0.9984
-0.3642 -0.1157 -0.1013 0.9984
-0.3612 -0.1570 -0.1043 0.9984
-0.3605 -0.1631 -0.1049 0.9984
-0.3599 -0.1692 -0.1054 0.9984
-0.3592 -0.1753 -0.1059 0.9983
-0.3574 -0.1875 -0.1070 0.9983
-0.3554 -0.2070 -0.1090 0.9983
-0.3535 -0.2271 -0.1113 0.9983
-0.3528 -0.2341 -0.1122 0.9982
-0.3511 -0.2481 -0.1139 0.9982
-0.3502 -0.2553 -0.1148 0.9982
-0.3493 -0.2625 -0.1158 0.9982
-0.3473 -0.2772 -0.1177 0.9982
-0.3462 -0.2847 -0.1188 0.9981
-0.3438 -0.3001 -0.1209 0.9981
-0.3425 -0.3079 -0.1221 0.9981
-0.3349 -0.3487 -0.1281 0.9980
-0.3327 -0.3567 -0.1293 0.9980
-0.3305 -0.3649 -0.1305 0.9980
-0.3258 -0.3816 -0.1329 0.9979
-0.3234 -0.3902 -0.1343 0.9979
-0.3157 -0.4169 -0.1386 0.9978
-0.3130 -0.4261 -0.1401 0.9978
-0.3101 -0.4355 -0.1417 0.9978
-0.3046 -0.4554 -0.1452 0.9977
-0.3021 -0.4662 -0.1472 0.9977
-0.2966 -0.4886 -0.1514 0.9976
-0.2937 -0.5001 -0.1537 0.9976
-0.2906 -0.5119 -0.1560 0.9976
-0.2874 -0.5240 -0.1584 0.9975
-0.2841 -0.5364 -0.1608 0.9975
-1.3849 -3.4229 -0.9784 0.9848
-1.1318 -3.5184 -0.9794 0.9848
-1.0801 -3.5346 -0.9794 0.9848
-1.0283 -3.5500 -0.9793 0.9848
-0.8713 -3.5915 -0.9793 0.9848
-0.8186 -3.6039 -0.9793 0.9848
-0.7657 -3.6154 -0.9793 0.9848
-0.7127 -3.6262 -0.9793 0.9848
-0.6156 -3.7021 -0.9945 0.9846
-0.5613 -3.7107 -0.9945 0.9846
-0.5069 -3.7185 -0.9944 0.9846
-0.4524 -3.7254 -0.9944 0.9846
-0.2334 -3.7453 -0.9944 0.9846
-0.1786 -3.7482 -0.9944 0.9846
-0.0138 -3.7523 -0.9943 0.9846
0.0412 -3.7521 -0.9943 0.9846
0.0961 -3.7510 -0.9943 0.9846
0.1511 -3.7491 -0.9943 0.9846
0.2608 -3.7430 -0.9942 0.9846
0.4250 -3.7278 -0.9942 0.9846
0.5339 -3.7136 -0.9942 0.9846
0.5883 -3.7054 -0.9941 0.9846
0.6965 -3.6864 -0.9941 0.9846
0.8446 -3.5961 -0.9788 0.9848
0.8971 -3.5833 -0.9788 0.9848
0.9495 -3.5697 -0.9788 0.9848
1.1568 -3.5078 -0.9787 0.9848
-0.3577 0.0000 -0.0990 0.9985
-0.3580 -0.0053 -0.0991 0.9985
-0.3583 -0.0105 -0.0993 0.9985
-0.3586 -0.0157 -0.0994 0.9985
-0.3591 -0.0316 -0.0998 0.9985
-0.3594 -0.0477 -0.1004 0.9985
-0.3594 -0.0530 -0.1006 0.9985
-0.3594 -0.0584 -0.1008 0.9985
-0.3594 -0.0693 -0.1013 0.9985
-0.3593 -0.0747 -0.1016 0.9985
-0.3591 -0.0802 -0.1019 0.9985
-0.3584 -0.1024 -0.1032 0.9985
-0.3581 -0.1080 -0.1036 0.9984
-0.3575 -0.1193 -0.1043 0.9984
-0.3571 -0.1250 -0.1047 0.9984
-0.3566 -0.1308 -0.1052 0.9984
-0.3562 -0.1366 -0.1056 0.9984
-0.3557 -0.1424 -0.1061 0.9984
-0.3546 -0.1541 -0.1071 0.9984
-0.3534 -0.1661 -0.1081 0.9984
-0.3517 -0.1780 -0.1091 0.9984
-0.3491 -0.1964 -0.1109 0.9983
-0.3485 -0.2029 -0.1116 0.9983
-0.3478 -0.2094 -0.1124 0.9983
-0.3471 -0.2160 -0.1132 0.9983
-0.3464 -0.2226 -0.1140 0.9983
-0.3456 -0.2293 -0.1148 0.9983
-0.3410 -0.2641 -0.1194 0.9982
-0.3388 -0.2786 -0.1215 0.9982
-0.3363 -0.2936 -0.1236 0.9981
-0.3350 -0.3012 -0.1247 0.9981
-0.3322 -0.3168 -0.1271 0.9981
-0.3274 -0.3409 -0.1309 0.9980
-0.3206 -0.3646 -0.1344 0.9980
-0.3106 -0.3980 -0.1398 0.9979
-0.3080 -0.4067 -0.1413 0.9979
-0.2994 -0.4337 -0.1459 0.9978
-0.2963 -0.4430 -0.1476 0.9978
-0.2931 -0.4525 -0.1493 0.9978
-0.2902 -0.4627 -0.1512 0.9977
-0.2874 -0.4734 -0.1533 0.9977
-0.2813 -0.4956 -0.1578 0.9976
-0.2781 -0.5071 -0.1601 0.9976
-0.2878 -0.7113 -0.2125 0.9968
-1.1801 -3.3307 -0.9784 0.9854
-1.1312 -3.3476 -0.9784 0.9854
-1.0821 -3.3638 -0.9784 0.9854
-1.0327 -3.3792 -0.9783 0.9854
-0.9332 -3.4079 -0.9783 0.9854
-0.8330 -3.4337 -0.9783 0.9854
-0.6814 -3.4668 -0.9782 0.9854
-0.6305 -3.4764 -0.9782 0.9854
-0.5795 -3.4852 -0.9782 0.9854
-0.5284 -3.4932 -0.9782 0.9854
-0.4777 -3.5042 -0.9792 0.9854
-0.4263 -3.5107 -0.9792 0.9854
-0.2716 -3.5259 -0.9791 0.9854
-0.2200 -3.5294 -0.9791 0.9854
-0.0647 -3.5355 -0.9791 0.9854
-0.0130 -3.5361 -0.9791 0.9854
0.0388 -3.5358 -0.9791 0.9854
0.0906 -3.5348 -0.9790 0.9854
0.1424 -3.5331 -0.9790 0.9854
0.4004 -3.5130 -0.9790 0.9854
0.4518 -3.5067 -0.9789 0.9854
0.5032 -3.4996 -0.9789 0.9854
0.6048 -3.4797 -0.9779 0.9854
0.6557 -3.4704 -0.9779 0.9854
0.7064 -3.4604 -0.9779 0.9854
0.8577 -3.4259 -0.9778 0.9854
0.9078 -3.4129 -0.9778 0.9854
0.9577 -3.3992 -0.9778 0.9854
1.0073 -3.3848 -0.9778 0.9854
1.0568 -3.3696 -0.9778 0.9854
-0.3518 0.0000 -0.1016 0.9985
-0.3521 -0.0052 -0.1017 0.9985
-0.3526 -0.0155 -0.1019 0.9985
-0.3530 -0.0259 -0.1022 0.9985
-0.3533 -0.0416 -0.1028 0.9985
-0.3534 -0.0468 -0.1030 0.9985
-0.3534 -0.0521 -0.1032 0.9985
-0.3534 -0.0627 -0.1037 0.9985
-0.3533 -0.0681 -0.1039 0.9985
-0.3532 -0.0734 -0.1042 0.9985
-0.3531 -0.0789 -0.1045 0.9985
-0.3527 -0.0896 -0.1051 0.9985
-0.3524 -0.0951 -0.1054 0.9985
-0.3522 -0.1006 -0.1058 0.9985
-0.3519 -0.1061 -0.1062 0.9985
-0.3508 -0.1229 -0.1074 0.9985
-0.3499 -0.1342 -0.1082 0.9984
-0.3483 -0.1514 -0.1097 0.9984
-0.3476 -0.1572 -0.1102 0.9984
-0.3461 -0.1689 -0.1113 0.9984
-0.3443 -0.1807 -0.1123 0.9984
-0.3395 -0.2182 -0.1166 0.9983
-0.3379 -0.2314 -0.1183 0.9983
-0.3369 -0.2381 -0.1192 0.9983
-0.3339 -0.2586 -0.1220 0.9982
-0.3304 -0.2800 -0.1251 0.9982
-0.3291 -0.2873 -0.1262 0.9982
-0.3278 -0.2946 -0.1273 0.9982
-0.3249 -0.3097 -0.1297 0.9981
-0.3234 -0.3175 -0.1309 0.9981
-0.3180 -0.3409 -0.1347 0.9981
-0.3157 -0.3486 -0.1358 0.9980
-0.3134 -0.3564 -0.1371 0.9980
-0.3110 -0.3642 -0.1383 0.9980
-0.3084 -0.3721 -0.1396 0.9980
-0.3032 -0.3885 -0.1424 0.9980
-0.3006 -0.3970 -0.1438 0.9979
-0.2978 -0.4054 -0.1453 0.9979
-0.2949 -0.4141 -0.1469 0.9979
-0.2889 -0.4319 -0.1501 0.9978
-0.2824 -0.4502 -0.1535 0.9978
-0.2790 -0.4596 -0.1553 0.9978
-0.2726 -0.4802 -0.1595 0.9977
-0.2660 -0.5023 -0.1642 0.9976
-0.2548 -0.5371 -0.1717 0.9975
-0.2509 -0.5493 -0.1744 0.9975
-0.2470 -0.5856 -0.1836 0.9974
-0.2543 -0.6285 -0.1959 0.9972
-0.2625 -0.6773 -0.2098 0.9970
-1.0843 -3.2088 -0.9784 0.9860
-0.9899 -3.2391 -0.9783 0.9860
-0.8946 -3.2667 -0.9783 0.9860
-0.7985 -3.2914 -0.9783 0.9860
-0.7017 -3.3133 -0.9783 0.9860
-0.5555 -3.3407 -0.9782 0.9860
-0.5065 -3.3485 -0.9782 0.9860
-0.4574 -3.3555 -0.9782 0.9860
-0.4082 -3.3618 -0.9782 0.9860
-0.3589 -3.3673 -0.9782 0.9860
-0.3096 -3.3722 -0.9781 0.9860
-0.2601 -3.3763 -0.9781 0.9860
-0.0124 -3.3861 -0.9781 0.9860
0.0868 -3.3849 -0.9780 0.9860
0.1363 -3.3832 -0.9780 0.9860
0.1859 -3.3808 -0.9780 0.9860
0.2353 -3.3777 -0.9780 0.9860
0.2848 -3.3739 -0.9780 0.9860
0.3835 -3.3639 -0.9780 0.9860
0.4819 -3.3512 -0.9779 0.9860
0.5308 -3.3438 -0.9779 0.9860
0.6285 -3.3266 -0.9779 0.9860
0.6772 -3.3171 -0.9779 0.9860
0.7740 -3.2957 -0.9779 0.9860
0.8222 -3.2839 -0.9778 0.9860
0.9656 -3.2446 -0.9778 0.9860
1.0130 -3.2300 -0.9778 0.9860
1.0602 -3.2148 -0.9778 0.9860
-0.3460 0.0000 -0.1041 0.9986
-0.3463 -0.0051 -0.1042 0.9986
-0.3468 -0.0152 -0.1045 0.9986
-0.3470 -0.0204 -0.1046 0.9985
-0.3472 -0.0255 -0.1047 0.9985
-0.3474 -0.0357 -0.1051 0.9985
-0.3475 -0.0512 -0.1057 0.9985
-0.3474 -0.0617 -0.1062 0.9985
-0.3471 -0.0775 -0.1070 0.9985
-0.3469 -0.0828 -0.1073 0.9985
-0.3465 -0.0935 -0.1080 0.9985
-0.3459 -0.1043 -0.1087 0.9985
-0.3455 -0.1098 -0.1091 0.9985
-0.3452 -0.1152 -0.1095 0.9985
-0.3443 -0.1263 -0.1103 0.9985
-0.3438 -0.1318 -0.1108 0.9985
-0.3427 -0.1431 -0.1117 0.9984
-0.3421 -0.1487 -0.1122 0.9984
-0.3415 -0.1545 -0.1128 0.9984
-0.3408 -0.1602 -0.1133 0.9984
-0.3400 -0.1659 -0.1138 0.9984
-0.3371 -0.1833 -0.1155 0.9984
-0.3361 -0.1892 -0.1160 0.9984
-0.3344 -0.2013 -0.1175 0.9984
-0.3329 -0.2139 -0.1191 0.9983
-0.3311 -0.2268 -0.1208 0.9983
-0.3302 -0.2333 -0.1217 0.9983
-0.3292 -0.2400 -0.1226 0.9983
-0.3234 -0.2741 -0.1276 0.9982
-0.3221 -0.2812 -0.1287 0.9982
-0.3162 -0.3105 -0.1334 0.9982
-0.3146 -0.3181 -0.1346 0.9981
-0.3129 -0.3258 -0.1359 0.9981
-0.3111 -0.3335 -0.1372 0.9981
-0.2989 -0.3716 -0.1435 0.9980
-0.2962 -0.3795 -0.1448 0.9980
-0.2935 -0.3876 -0.1463 0.9980
-0.2878 -0.4042 -0.1493 0.9979
-0.2848 -0.4127 -0.1509 0.9979
-0.2786 -0.4300 -0.1542 0.9979
-0.2753 -0.4389 -0.1559 0.9978
-0.2719 -0.4479 -0.1577 0.9978
-0.2684 -0.4571 -0.1595 0.9978
-0.2647 -0.4664 -0.1614 0.9978
-0.2541 -0.4974 -0.1681 0.9977
-0.2426 -0.5312 -0.1757 0.9976
-0.2333 -0.6018 -0.1942 0.9973
-1.0409 -3.0804 -0.9783 0.9865
-0.9046 -3.1230 -0.9783 0.9865
-0.8587 -3.1358 -0.9783 0.9865
-0.7665 -3.1596 -0.9783 0.9865
-0.6269 -3.1901 -0.9782 0.9865
-0.5332 -3.2070 -0.9782 0.9865
-0.4862 -3.2144 -0.9782 0.9865
-0.3919 -3.2272 -0.9782 0.9865
-0.2971 -3.2372 -0.9781 0.9865
0.1784 -3.2455 -0.9780 0.9865
0.2259 -3.2425 -0.9780 0.9865
0.2734 -3.2388 -0.9780 0.9865
0.4625 -3.2171 -0.9779 0.9865
0.5566 -3.2021 -0.9779 0.9865
0.6034 -3.1936 -0.9779 0.9865
0.6966 -3.1744 -0.9779 0.9865
0.7430 -3.1638 -0.9779 0.9865
0.7893 -3.1525 -0.9778 0.9865
0.8354 -3.1407 -0.9778 0.9865
0.8813 -3.1280 -0.9778 0.9865
-0.3410 -0.0100 -0.1068 0.9986
-0.3412 -0.0150 -0.1069 0.9986
-0.3413 -0.0200 -0.1070 0.9986
-0.3415 -0.0250 -0.1072 0.9986
-0.3416 -0.0301 -0.1073 0.9986
-0.3417 -0.0352 -0.1075 0.9986
-0.3418 -0.0402 -0.1077 0.9986
-0.3418 -0.0504 -0.1081 0.9986
-0.3417 -0.0607 -0.1086 0.9985
-0.3416 -0.0658 -0.1089 0.9985
-0.3415 -0.0710 -0.1092 0.9985
-0.3411 -0.0814 -0.1098 0.9985
-0.3409 -0.0867 -0.1101 0.9985
-0.3404 -0.0972 -0.1108 0.9985
