ply
format ascii 1.0
element vertex 1579
property float32 x
property float32 y
property float32 z
property float32 I
end_header
-17.8684 -45.7150 3.6099 0.8213
-17.2387 -46.0785 3.6183 0.8209
-17.1950 -48.0915 3.7563 0.8148
-17.1479 -50.2645 3.9060 0.8081
-17.0968 -52.6184 4.0691 0.8010
-17.0412 -55.1779 4.2473 0.7932
-15.0309 -75.2061 5.6406 0.7352
-14.6121 -94.4897 7.0320 0.6815
21.1930 -86.1917 6.5279 0.7005
21.5300 -82.3532 6.2604 0.7108
22.8845 -82.5839 6.3027 0.7091
24.1810 -82.5557 6.3268 0.7082
29.3843 -82.1826 6.4190 0.7046
32.2001 -82.3814 6.5053 0.7013
36.2841 -82.0326 6.5971 0.6978
37.7124 -82.0015 6.6382 0.6963
40.7523 -82.1955 6.7474 0.6921
42.1107 -81.9060 6.7734 0.6912
43.6180 -81.8732 6.8227 0.6893
45.1477 -81.8399 6.8742 0.6874
48.2791 -81.7719 6.9840 0.6833
49.8834 -81.7370 7.0426 0.6811
9.1577 -12.8001 1.1575 0.9388
2.0077 -2.3420 0.2269 0.9877
1.9981 -2.2631 0.2220 0.9880
2.0325 -2.1707 0.2187 0.9881
2.1737 -2.1266 0.2237 0.9879
2.3546 -2.1097 0.2325 0.9874
18.8707 -12.8851 1.6806 0.9124
23.7073 -13.3052 1.9994 0.8967
23.5934 -12.7916 1.9738 0.8979
5.6038 -2.7275 0.4584 0.9753
30.1611 -12.0437 2.3886 0.8779
9.6202 -3.0483 0.7422 0.9603
9.7608 -2.9366 0.7497 0.9599
9.9982 -2.6921 0.7615 0.9593
9.6795 -2.4551 0.7344 0.9607
10.1066 -2.4069 0.7641 0.9592
10.1407 -2.2589 0.7641 0.9592
10.1747 -2.1110 0.7642 0.9592
10.2239 -1.9658 0.7657 0.9591
10.4172 -1.8455 0.7781 0.9585
14.1245 -2.2900 1.0524 0.9442
17.5790 -2.0643 1.3018 0.9315
18.0918 -1.8570 1.3376 0.9297
94.9100 -1.3870 6.9811 0.6834
55.0093 9.7457 4.1087 0.7993
50.2298 9.6579 3.7619 0.8145
34.5781 8.2347 2.6142 0.8671
34.4001 8.7254 2.6101 0.8673
33.6183 10.6523 2.5937 0.8681
33.6823 11.2168 2.6110 0.8673
25.0269 9.1551 1.9599 0.8986
26.4671 11.0197 2.1086 0.8914
19.9116 10.0540 1.6405 0.9144
17.1811 9.6425 1.4490 0.9240
16.2647 9.4433 1.3832 0.9273
16.1714 9.7078 1.3872 0.9271
15.5393 9.9574 1.3574 0.9287
15.3433 10.1511 1.3531 0.9289
15.1434 10.3401 1.3486 0.9291
14.0612 9.9054 1.2650 0.9333
2.1646 7.8116 0.5962 0.9680
2.0514 7.8467 0.5965 0.9680
1.9515 7.9366 0.6011 0.9678
-1.2715 5.1714 0.3917 0.9789
-2.7093 9.7771 0.7462 0.9601
-8.2979 9.3982 0.9221 0.9510
-8.6723 7.3250 0.8349 0.9555
-8.8882 7.2876 0.8453 0.9549
-8.9067 7.0876 0.8372 0.9554
-8.9298 6.8954 0.8298 0.9558
-8.9802 6.5245 0.8164 0.9565
-9.0057 6.3441 0.8102 0.9568
-8.8912 5.8824 0.7841 0.9581
-8.9836 5.2159 0.7640 0.9592
-9.0054 5.0540 0.7595 0.9594
-1.4717 0.7431 0.1213 0.9934
-1.1690 0.5480 0.0950 0.9948
-1.1672 0.5265 0.0942 0.9949
-1.1629 0.4842 0.0926 0.9950
-1.1554 0.4227 0.0905 0.9951
-1.1507 0.3832 0.0892 0.9951
-1.1473 0.3452 0.0881 0.9952
-1.1447 0.3082 0.0872 0.9953
-1.1422 0.2720 0.0864 0.9953
-1.1381 0.2017 0.0850 0.9954
-1.1365 0.1843 0.0847 0.9954
-1.1279 0.1325 0.0835 0.9955
-1.1246 0.1155 0.0831 0.9955
-1.1154 0.0653 0.0822 0.9955
-1.1096 0.0325 0.0816 0.9956
-1.0375 -0.0152 0.0648 0.9959
-1.0421 -0.0304 0.0651 0.9958
-1.0598 -0.0775 0.0663 0.9958
-1.0661 -0.0937 0.0668 0.9957
-1.0791 -0.1267 0.0678 0.9957
-1.0860 -0.1436 0.0684 0.9956
-1.1065 -0.2128 0.0703 0.9955
-1.1074 -0.2297 0.0706 0.9955
-1.1083 -0.2469 0.0709 0.9955
-1.1102 -0.2816 0.0715 0.9954
-1.1135 -0.3350 0.0726 0.9954
-1.1147 -0.3532 0.0730 0.9953
-1.1201 -0.4098 0.0744 0.9952
-1.1222 -0.4292 0.0750 0.9952
-1.1244 -0.4490 0.0756 0.9952
-1.1314 -0.5103 0.0775 0.9950
-1.1716 -0.5702 0.0813 0.9948
-1.4516 -0.8428 0.1048 0.9933
-20.4689 -12.2876 1.4901 0.9088
-45.0453 -29.8017 3.3711 0.8054
-43.5999 -29.7703 3.2951 0.8093
-42.2178 -29.7403 3.2231 0.8130
-12.2819 -9.4838 0.9685 0.9397
-11.8409 -9.4227 0.9445 0.9412
-11.5450 -10.0441 0.9551 0.9405
-11.3716 -10.1890 0.9530 0.9406
-11.3368 -10.4604 0.9628 0.9401
-11.0540 -10.8143 0.9652 0.9399
-10.7315 -10.8102 0.9507 0.9408
-17.8710 -18.5360 1.6070 0.9020
-17.6318 -18.8311 1.6101 0.9018
-38.7491 -47.9705 3.8488 0.7810
-36.4472 -47.9204 3.7577 0.7856
-35.3362 -47.8963 3.7149 0.7878
-18.4260 -29.2232 2.1562 0.8707
-17.5922 -29.7965 2.1597 0.8705
-17.5709 -30.7789 2.2120 0.8676
-1.4895 -2.7958 0.1977 0.9874
-24.5042 -47.6609 3.3448 0.8067
-23.6206 -47.6417 3.3189 0.8081
-20.1492 -47.4149 3.2155 0.8134
-17.8684 -45.7150 3.0635 0.8214
-17.2386 -46.0783 3.0706 0.8210
-17.1949 -48.0911 3.1876 0.8149
-17.1477 -50.2640 3.3147 0.8083
-17.0410 -55.1774 3.6043 0.7934
-16.9137 -61.0370 3.9531 0.7758
-16.6684 -72.3327 4.6329 0.7427
-14.9107 -80.7253 5.1236 0.7196
-14.7727 -87.0831 5.5129 0.7019
-14.6119 -94.4881 5.9675 0.6817
21.5300 -82.3533 5.3128 0.7110
22.8680 -82.5243 5.3448 0.7095
25.4694 -82.4677 5.3870 0.7076
26.7861 -82.4391 5.4101 0.7065
28.1145 -82.4102 5.4346 0.7054
29.3842 -82.1825 5.4474 0.7048
32.1768 -82.3220 5.5166 0.7017
33.5593 -82.2918 5.5468 0.7003
34.8731 -82.0632 5.5652 0.6995
40.7228 -82.1362 5.7219 0.6925
42.1107 -81.9059 5.7481 0.6914
46.8477 -82.0630 5.8977 0.6847
9.1443 -12.7813 0.9809 0.9390
2.0070 -2.2731 0.1893 0.9879
2.0056 -2.2057 0.1861 0.9881
2.1293 -2.1449 0.1886 0.9880
2.1818 -2.1345 0.1905 0.9878
2.2355 -2.1240 0.1925 0.9877
2.3669 -2.1207 0.1984 0.9873
20.7026 -14.1359 1.5646 0.9044
23.9279 -12.9729 1.6988 0.8967
24.0352 -12.5802 1.6932 0.8970
24.1611 -12.1998 1.6893 0.8972
5.6039 -2.7276 0.3890 0.9753
29.1334 -13.1414 1.9948 0.8798
29.4433 -12.7668 2.0030 0.8793
33.8335 -12.9402 2.2609 0.8649
9.6476 -3.0570 0.6316 0.9603
10.0802 -2.7141 0.6515 0.9590
10.2696 -1.9746 0.6527 0.9590
14.3898 -2.1177 0.9078 0.9434
14.5882 -1.9296 0.9184 0.9427
17.6446 -2.0721 1.1088 0.9313
21.1600 -1.5487 1.3242 0.9185
85.3753 -2.4957 5.3309 0.7101
94.6778 -1.3836 5.9098 0.6842
50.1743 8.8891 3.1803 0.8153
49.3198 9.4829 3.1346 0.8177
45.1619 9.3698 2.8788 0.8312
34.5347 8.7595 2.2237 0.8669
34.2859 9.2316 2.2161 0.8674
33.6837 10.1339 2.1954 0.8685
33.8456 10.7244 2.2159 0.8674
11.3719 4.1600 0.7558 0.9526
10.8632 4.3379 0.7301 0.9542
10.8945 4.5360 0.7365 0.9538
10.9360 4.7419 0.7440 0.9534
10.9784 4.9521 0.7517 0.9529
20.2483 9.8554 1.4055 0.9137
16.5518 9.2893 1.1846 0.9268
15.8054 9.8051 1.1609 0.9282
15.5698 9.9769 1.1542 0.9286
15.1933 10.0518 1.1370 0.9296
2.1567 7.7830 0.5041 0.9682
1.9421 7.8985 0.5077 0.9679
1.8646 8.0916 0.5183 0.9673
-1.2716 5.1715 0.3324 0.9789
-2.7033 9.7556 0.6318 0.9602
-8.3203 9.4236 0.7846 0.9509
-8.4568 7.3573 0.6996 0.9561
-8.6723 7.3250 0.7085 0.9555
-8.9145 6.8836 0.7030 0.9559
-8.9370 6.6948 0.6969 0.9562
-8.9656 6.5139 0.6917 0.9566
-8.9104 5.7096 0.6605 0.9585
-1.4516 0.8429 0.1048 0.9933
-1.4446 0.8107 0.1034 0.9934
-1.4422 0.7548 0.1016 0.9935
-1.1716 0.5702 0.0813 0.9948
-1.1337 0.5314 0.0781 0.9950
-1.1222 0.4292 0.0750 0.9952
-1.1162 0.3717 0.0734 0.9953
-1.1147 0.3532 0.0730 0.9953
-1.1135 0.3350 0.0726 0.9954
-1.1123 0.3170 0.0722 0.9954
-1.1102 0.2816 0.0715 0.9954
-1.1092 0.2642 0.0712 0.9954
-1.1056 0.1959 0.0701 0.9955
-1.1002 0.1784 0.0696 0.9955
-1.0859 0.1437 0.0684 0.9956
-1.0791 0.1267 0.0678 0.9957
-1.0598 0.0775 0.0663 0.9958
-1.0375 0.0152 0.0648 0.9959
-0.9723 -0.0142 0.0499 0.9961
-0.9803 -0.0430 0.0503 0.9961
-0.9845 -0.0576 0.0506 0.9961
-0.9898 -0.0724 0.0509 0.9960
-0.9951 -0.0875 0.0512 0.9960
-1.0063 -0.1181 0.0520 0.9960
-1.0121 -0.1339 0.0524 0.9959
-1.0180 -0.1498 0.0528 0.9959
-1.0242 -0.1661 0.0532 0.9959
-1.0361 -0.1992 0.0541 0.9958
-1.0431 -0.2484 0.0550 0.9957
-1.0483 -0.2823 0.0557 0.9957
-1.0621 -0.3537 0.0574 0.9955
-1.0704 -0.3739 0.0582 0.9955
-1.0767 -0.4299 0.0595 0.9954
-1.0785 -0.4491 0.0599 0.9953
-1.0824 -0.4882 0.0609 0.9953
-1.0845 -0.5084 0.0614 0.9952
-1.1839 -0.5978 0.0680 0.9947
-1.4204 -0.7434 0.0822 0.9936
-1.4187 -0.7691 0.0828 0.9936
-1.4171 -0.8228 0.0841 0.9935
-1.4186 -0.8516 0.0849 0.9934
-47.1150 -30.1906 2.8705 0.7992
-45.5827 -30.1573 2.8037 0.8034
-43.5999 -29.7703 2.7082 0.8094
-40.8944 -29.7115 2.5930 0.8167
-11.7455 -9.6303 0.7791 0.9410
-11.3963 -9.9148 0.7749 0.9413
-11.2526 -10.3827 0.7854 0.9405
-11.1742 -10.6168 0.7907 0.9401
-10.7477 -10.5147 0.7713 0.9416
-18.9923 -19.6991 1.4037 0.8962
-40.5684 -44.6168 3.0933 0.7854
-38.6247 -47.8165 3.1531 0.7818
-36.4472 -47.9204 3.0884 0.7857
-35.3362 -47.8963 3.0532 0.7879
-34.1401 -47.7190 3.0098 0.7906
-33.0985 -47.7217 2.9791 0.7925
-19.6604 -29.2500 1.8079 0.8684
-17.8267 -29.2102 1.7554 0.8719
-17.5708 -30.7787 1.8180 0.8677
-1.5207 -2.7566 0.1615 0.9875
-1.4895 -2.7958 0.1625 0.9874
-23.6206 -47.6417 2.7277 0.8082
-22.7505 -47.6227 2.7073 0.8095
-21.8931 -47.6041 2.6878 0.8107
-21.0478 -47.5858 2.6691 0.8119
-20.2141 -47.5677 2.6512 0.8130
-5.1963 -12.7420 0.7059 0.9464
-17.8684 -45.7150 2.5178 0.8215
-17.2384 -46.0778 2.5236 0.8212
-17.1948 -48.0906 2.6198 0.8150
-17.1475 -50.2635 2.7243 0.8084
-17.0408 -55.1769 2.9623 0.7935
-16.9801 -57.9714 3.0987 0.7851
-16.7589 -68.1581 3.6004 0.7549
-16.4514 -82.3135 4.3059 0.7145
-16.3202 -88.3555 4.6090 0.6978
-16.1690 -95.3142 4.9592 0.6789
20.8354 -84.7375 4.4762 0.7050
21.5300 -82.3533 4.3664 0.7111
25.4080 -82.2690 4.4168 0.7083
26.7216 -82.2405 4.4358 0.7073
28.0467 -82.2116 4.4558 0.7062
34.8730 -82.0633 4.5739 0.6997
37.7124 -82.0016 4.6299 0.6966
40.6248 -81.9382 4.6914 0.6933
43.6180 -81.8732 4.7586 0.6897
46.6326 -81.6865 4.8249 0.6861
51.5151 -81.7016 4.9546 0.6792
9.1447 -12.7819 0.8062 0.9390
2.0260 -2.2946 0.1570 0.9878
2.0204 -2.1579 0.1516 0.9882
2.1976 -2.1499 0.1577 0.9878
2.2508 -2.1385 0.1593 0.9876
2.3062 -2.1279 0.1610 0.9875
24.0414 -13.0344 1.4028 0.8963
24.1559 -12.6434 1.3986 0.8965
24.2830 -12.2613 1.3954 0.8968
5.6039 -2.7276 0.3197 0.9753
28.7438 -13.4746 1.6284 0.8806
29.6331 -12.8491 1.6568 0.8787
30.3685 -12.1265 1.6774 0.8772
34.7375 -13.2860 1.9078 0.8616
34.2537 -11.9659 1.8612 0.8647
9.6751 -3.0657 0.5206 0.9602
9.8171 -2.9535 0.5259 0.9598
9.8448 -2.6507 0.5230 0.9600
9.8535 -2.4993 0.5215 0.9601
10.2307 -2.2790 0.5377 0.9589
10.8759 -1.9268 0.5666 0.9567
17.5779 -2.0642 0.9079 0.9316
25.2929 -1.8512 1.3009 0.9034
28.8254 -1.6867 1.4812 0.8908
85.7612 -2.5070 4.4011 0.7092
86.2706 -1.2607 4.4259 0.7078
66.7009 8.8226 3.4513 0.7638
64.1796 9.4452 3.3277 0.7712
55.4131 8.9841 2.8796 0.7986
49.6796 9.5521 2.5951 0.8166
44.2015 9.1705 2.3157 0.8346
39.4347 9.3913 2.0794 0.8501
34.4993 8.7505 1.8257 0.8671
34.4787 9.2836 1.8316 0.8667
34.0477 9.7032 1.8161 0.8678
34.1885 10.2858 1.8314 0.8668
34.1263 10.8133 1.8363 0.8664
11.7099 4.0907 0.6363 0.9515
11.3173 4.1400 0.6182 0.9529
11.0037 4.2086 0.6043 0.9539
10.8614 4.5222 0.6035 0.9540
10.8845 4.7196 0.6086 0.9536
11.0456 5.5773 0.6347 0.9516
11.0911 5.8052 0.6422 0.9511
16.6168 9.3257 0.9774 0.9265
16.2266 9.4212 0.9625 0.9276
14.0318 9.8847 0.8804 0.9336
2.4303 7.8693 0.4225 0.9676
2.2808 7.7868 0.4162 0.9680
2.1554 7.7786 0.4141 0.9682
1.9405 7.8922 0.4169 0.9680
1.8596 8.0699 0.4248 0.9674
-2.6974 9.7342 0.5181 0.9604
-8.4567 7.3573 0.5750 0.9561
-8.6723 7.3250 0.5823 0.9556
-8.8525 7.2582 0.5872 0.9552
-6.5292 5.1957 0.4280 0.9671
-6.5718 4.6295 0.4124 0.9683
-6.6105 4.5137 0.4106 0.9684
-6.6514 4.4005 0.4091 0.9686
-6.7284 4.3114 0.4099 0.9685
-1.4186 0.8516 0.0849 0.9934
-1.4171 0.8228 0.0841 0.9935
-1.4171 0.7954 0.0834 0.9935
-1.4204 0.7434 0.0822 0.9936
-1.1839 0.5978 0.0680 0.9947
-1.0824 0.4882 0.0609 0.9953
-1.0785 0.4491 0.0599 0.9953
-1.0767 0.4300 0.0595 0.9954
-1.0750 0.4111 0.0590 0.9954
-1.0704 0.3739 0.0582 0.9955
-1.0620 0.3537 0.0574 0.9955
-1.0569 0.3349 0.0569 0.9956
-1.0510 0.2996 0.0561 0.9956
-1.0483 0.2823 0.0557 0.9957
-1.0431 0.2484 0.0550 0.9957
-1.0384 0.2154 0.0544 0.9958
-1.0305 0.1825 0.0537 0.9958
-1.0242 0.1661 0.0532 0.9959
-1.0180 0.1498 0.0528 0.9959
-1.0121 0.1339 0.0524 0.9959
-1.0063 0.1182 0.0520 0.9960
-1.0006 0.1027 0.0516 0.9960
-0.9951 0.0875 0.0512 0.9960
-0.9803 0.0430 0.0503 0.9961
-0.9219 -0.0404 0.0371 0.9963
-0.9292 -0.0680 0.0374 0.9963
-0.9331 -0.0820 0.0376 0.9963
-0.9378 -0.0962 0.0379 0.9962
-0.9427 -0.1107 0.0381 0.9962
-0.9729 -0.2018 0.0399 0.9960
-0.9747 -0.2171 0.0401 0.9960
-0.9766 -0.2326 0.0404 0.9960
-0.9786 -0.2482 0.0406 0.9960
-0.9828 -0.2801 0.0411 0.9959
-0.9851 -0.2964 0.0413 0.9959
-0.9873 -0.3129 0.0416 0.9959
-0.9938 -0.3310 0.0421 0.9958
-1.0015 -0.3498 0.0426 0.9958
-1.0216 -0.4079 0.0442 0.9956
-1.0243 -0.4441 0.0449 0.9955
-1.0257 -0.4627 0.0452 0.9955
-1.0305 -0.5203 0.0464 0.9954
-1.0322 -0.5403 0.0468 0.9953
-1.4130 -0.7930 0.0651 0.9935
-1.4123 -0.8200 0.0656 0.9935
-1.4222 -0.8823 0.0673 0.9933
-47.1150 -30.1905 2.2491 0.7993
-42.2178 -29.7403 2.0756 0.8132
-13.5437 -9.8400 0.6728 0.9352
-13.3060 -9.9677 0.6682 0.9356
-12.3097 -9.5052 0.6251 0.9396
-11.9635 -9.5202 0.6145 0.9406
-11.7692 -9.6498 0.6117 0.9409
-11.7881 -9.9568 0.6202 0.9401
-11.2126 -10.0466 0.6051 0.9415
-10.9124 -10.3681 0.6050 0.9415
-10.6984 -10.4664 0.6015 0.9418
-10.7737 -10.8527 0.6146 0.9406
-7.3087 -8.2778 0.4438 0.9568
-7.0917 -8.2727 0.4379 0.9573
-6.8932 -8.2831 0.4331 0.9578
-6.5630 -8.3722 0.4276 0.9583
-19.6604 -29.2500 1.4165 0.8684
-19.0370 -29.2365 1.4022 0.8696
-18.4260 -29.2232 1.3885 0.8708
-17.5707 -30.7786 1.4244 0.8677
-1.5207 -2.7566 0.1265 0.9875
-5.6958 -11.4881 0.5154 0.9500
-5.6044 -11.7315 0.5226 0.9493
-21.0478 -47.5857 2.0913 0.8120
-20.2141 -47.5676 2.0773 0.8131
-5.1879 -12.7214 0.5522 0.9465
-17.1474 -50.2631 2.1345 0.8085
-17.5064 -53.8793 2.2770 0.7971
-16.7586 -68.1574 2.8210 0.7550
-16.6680 -72.3309 2.9833 0.7429
20.8357 -84.7387 3.5072 0.7052
25.4080 -82.2690 3.4606 0.7084
28.0467 -82.2117 3.4912 0.7063
29.3842 -82.1826 3.5079 0.7051
30.7348 -82.1532 3.5254 0.7039
32.0993 -82.1236 3.5439 0.7026
34.8731 -82.0633 3.5837 0.6998
39.1590 -81.9701 3.6512 0.6951
42.1107 -81.9060 3.7016 0.6916
45.1477 -81.8400 3.7566 0.6879
46.7010 -81.8062 3.7860 0.6859
51.5150 -81.7016 3.8820 0.6793
2.1472 -2.1629 0.1225 0.9879
2.2625 -2.1496 0.1254 0.9876
2.3533 -2.1086 0.1270 0.9874
87.1166 -45.5975 3.9519 0.6746
5.6040 -2.7276 0.2505 0.9754
29.1165 -13.1338 1.2838 0.8800
87.9557 -36.6209 3.8293 0.6829
9.7027 -3.0744 0.4091 0.9601
9.8454 -2.9621 0.4132 0.9597
9.9910 -2.8473 0.4175 0.9593
17.4162 -2.3036 0.7061 0.9321
17.6472 -2.0723 0.7141 0.9313
18.0047 -1.8480 0.7274 0.9301
20.8745 -1.8348 0.8422 0.9195
28.7148 -1.6802 1.1561 0.8912
29.0409 -1.2739 1.1683 0.8901
85.9861 -2.5136 3.4574 0.7087
86.2557 -1.2605 3.4671 0.7080
59.3365 8.7325 2.4105 0.7866
54.5768 8.8486 2.2222 0.8014
49.9911 8.8566 2.0405 0.8161
49.8286 9.5808 2.0394 0.8162
54.0811 11.2203 2.2199 0.8016
44.2135 9.8490 1.8206 0.8342
39.4620 10.0093 1.6363 0.8496
11.2676 4.1218 0.4822 0.9531
10.9469 4.1868 0.4711 0.9542
10.9066 5.1129 0.4841 0.9529
10.9367 5.3232 0.4889 0.9525
10.9802 5.5443 0.4944 0.9520
11.0248 5.7705 0.5001 0.9514
11.0704 6.0020 0.5061 0.9508
11.1916 6.2810 0.5158 0.9499
15.7599 9.4608 0.7388 0.9291
15.7514 9.7716 0.7450 0.9285
15.4871 9.9239 0.7393 0.9290
15.0035 9.9263 0.7230 0.9305
14.0581 9.9033 0.6911 0.9335
15.0970 10.9686 0.7500 0.9280
7.8530 10.0178 0.5116 0.9503
2.4303 7.8693 0.3310 0.9676
2.0425 7.8129 0.3246 0.9682
1.9405 7.8923 0.3267 0.9680
1.8596 8.0699 0.3328 0.9674
-1.2716 5.1715 0.2140 0.9789
-2.6935 9.7200 0.4054 0.9604
-6.4153 5.2600 0.3334 0.9673
-6.4321 5.1184 0.3304 0.9676
-6.4594 4.9878 0.3280 0.9679
-6.4863 4.8589 0.3257 0.9681
-6.5084 4.7286 0.3233 0.9683
-6.5891 4.2222 0.3145 0.9692
-1.4221 0.8823 0.0673 0.9933
-1.4123 0.8200 0.0656 0.9935
-1.4129 0.7930 0.0651 0.9935
-1.2464 0.6758 0.0570 0.9943
-1.0322 0.5402 0.0468 0.9953
-1.0305 0.5203 0.0464 0.9954
-1.0288 0.5007 0.0460 0.9954
-1.0272 0.4816 0.0456 0.9955
-1.0257 0.4627 0.0452 0.9955
-1.0158 0.3886 0.0437 0.9957
-0.9938 0.3310 0.0421 0.9958
-0.9874 0.3129 0.0416 0.9959
-0.9829 0.2801 0.0411 0.9959
-0.9807 0.2641 0.0408 0.9959
-0.9786 0.2482 0.0406 0.9960
-0.9689 0.1863 0.0397 0.9961
-0.9634 0.1707 0.0393 0.9961
-0.9580 0.1554 0.0390 0.9961
-0.9528 0.1402 0.0387 0.9962
-0.9477 0.1254 0.0384 0.9962
-0.9427 0.1107 0.0381 0.9962
-0.9378 0.0962 0.0379 0.9962
-0.9292 0.0680 0.0374 0.9963
-0.9255 0.0542 0.0373 0.9963
-0.9219 0.0404 0.0371 0.9963
-0.8640 -0.0126 0.0251 0.9965
-0.8670 -0.0253 0.0252 0.9965
-0.8733 -0.0511 0.0255 0.9965
-0.8766 -0.0641 0.0256 0.9965
-0.8832 -0.0907 0.0258 0.9965
-0.8910 -0.1179 0.0262 0.9964
-0.8954 -0.1318 0.0263 0.9964
-0.9000 -0.1459 0.0265 0.9964
-0.9092 -0.1748 0.0269 0.9963
-0.9166 -0.2042 0.0273 0.9962
-0.9197 -0.2333 0.0276 0.9962
-0.9213 -0.2480 0.0278 0.9962
-0.9247 -0.2782 0.0281 0.9961
-0.9403 -0.3285 0.0290 0.9960
-0.9470 -0.3464 0.0293 0.9960
-0.9539 -0.3648 0.0297 0.9959
-0.9657 -0.4021 0.0304 0.9958
-0.9719 -0.4214 0.0308 0.9958
-0.9747 -0.4397 0.0311 0.9957
-0.9768 -0.4754 0.0316 0.9957
-0.9804 -0.5315 0.0324 0.9955
-1.4151 -0.8495 0.0480 0.9934
-1.4229 -0.8828 0.0487 0.9933
-47.1150 -30.1906 1.6282 0.7994
-42.2178 -29.7403 1.5026 0.8133
-13.6059 -9.8852 0.4893 0.9349
-13.2200 -9.9032 0.4806 0.9360
-12.2535 -9.4618 0.4505 0.9399
-11.7545 -9.3539 0.4371 0.9417
-11.3236 -9.8516 0.4367 0.9417
-11.2875 -10.1137 0.4410 0.9412
-10.8641 -10.3222 0.4360 0.9418
-7.9320 -8.2271 0.3325 0.9553
-6.8238 -8.1996 0.3104 0.9582
-6.4102 -8.1773 0.3023 0.9593
-6.2121 -8.1676 0.2986 0.9598
-6.0301 -8.1735 0.2955 0.9602
-5.8548 -8.4416 0.2989 0.9597
-18.4260 -29.2232 1.0052 0.8709
-17.5919 -29.7960 1.0068 0.8707
-6.2321 -10.9167 0.3658 0.9509
-1.4895 -2.7959 0.0922 0.9874
-5.5834 -11.2615 0.3657 0.9509
-5.4635 -11.8796 0.3805 0.9490
-21.0479 -47.5857 1.5140 0.8120
-17.8684 -45.7150 1.4282 0.8217
-17.2382 -46.0771 1.4315 0.8213
-17.1945 -48.0898 1.4860 0.8152
-17.1472 -50.2627 1.5453 0.8085
-16.9798 -57.9702 1.7576 0.7853
-16.6678 -72.3300 2.1597 0.7430
21.5299 -82.3533 2.4768 0.7113
29.3843 -82.1826 2.5395 0.7052
30.7348 -82.1532 2.5522 0.7040
32.0993 -82.1236 2.5656 0.7027
33.4784 -82.0936 2.5797 0.7013
39.1590 -81.9701 2.6433 0.6952
40.6248 -81.9383 2.6611 0.6935
42.1107 -81.9060 2.6797 0.6917
45.1477 -81.8400 2.7196 0.6880
46.7010 -81.8063 2.7409 0.6859
48.2791 -81.7719 2.7631 0.6839
49.8834 -81.7371 2.7862 0.6817
51.5151 -81.7016 2.8104 0.6794
9.1709 -12.8186 0.4586 0.9389
2.0087 -2.1454 0.0855 0.9883
2.0449 -2.1211 0.0857 0.9883
2.2634 -2.1505 0.0908 0.9876
19.1598 -13.0825 0.6751 0.9113
87.0375 -48.8478 2.9041 0.6707
16.5472 -8.6609 0.5434 0.9280
16.5942 -8.3789 0.5409 0.9283
29.3950 -13.2594 0.9383 0.8789
85.6533 -37.1399 2.7165 0.6883
87.4991 -36.4308 2.7578 0.6844
91.0408 -36.3538 2.8524 0.6755
39.5927 -13.1850 1.2142 0.8462
9.8739 -2.9706 0.3000 0.9596
10.0202 -2.8556 0.3032 0.9592
10.2874 -2.4499 0.3077 0.9586
10.3221 -2.2993 0.3077 0.9586
10.3486 -1.9898 0.3066 0.9587
14.3620 -2.5444 0.4244 0.9433
14.4557 -2.1274 0.4251 0.9432
17.5988 -2.3278 0.5165 0.9314
17.7261 -2.0816 0.5193 0.9311
20.8860 -2.1438 0.6109 0.9194
20.9264 -1.8394 0.6112 0.9194
24.9526 -1.8263 0.7280 0.9047
28.1561 -1.6475 0.8207 0.8933
85.7821 -1.2535 2.4963 0.7094
82.3313 9.6683 2.4120 0.7177
67.3732 8.9116 1.9774 0.7619
26.9731 5.1863 0.7992 0.8959
27.2931 6.0798 0.8136 0.8941
39.2932 9.9664 1.1795 0.8503
12.0123 4.0004 0.3684 0.9506
10.8124 4.5018 0.3408 0.9542
10.8350 4.6982 0.3436 0.9538
10.8814 5.1010 0.3497 0.9530
10.9052 5.3079 0.3529 0.9526
10.9296 5.5187 0.3563 0.9522
11.0496 6.2014 0.3687 0.9506
11.0965 6.4427 0.3733 0.9499
15.8223 9.4982 0.5370 0.9288
15.3579 9.8411 0.5307 0.9296
14.9626 10.2166 0.5272 0.9301
14.8172 10.4380 0.5274 0.9300
15.0953 10.9674 0.5429 0.9281
2.4303 7.8693 0.2396 0.9676
2.2807 7.7867 0.2361 0.9681
2.1555 7.7786 0.2349 0.9682
2.0426 7.8129 0.2350 0.9682
-1.2716 5.1716 0.1550 0.9789
-2.6903 9.7086 0.2931 0.9605
-4.3517 9.1093 0.2937 0.9604
-8.2165 9.5848 0.3673 0.9507
-6.3166 5.6597 0.2468 0.9666
-6.3451 5.5202 0.2447 0.9669
-6.3674 5.3782 0.2425 0.9672
-6.4157 4.9541 0.2359 0.9681
-6.4428 4.8263 0.2342 0.9683
-6.4636 4.6961 0.2325 0.9685
-6.5023 4.4398 0.2291 0.9690
-6.5227 4.3154 0.2276 0.9692
-6.5436 4.1931 0.2261 0.9694
-1.4151 0.8495 0.0480 0.9934
-1.1000 0.6173 0.0367 0.9950
-0.9791 0.5125 0.0322 0.9956
-0.9769 0.4755 0.0316 0.9957
-0.9758 0.4574 0.0314 0.9957
-0.9718 0.4214 0.0308 0.9958
-0.9597 0.3832 0.0301 0.9959
-0.9275 0.2939 0.0283 0.9961
-0.9247 0.2782 0.0281 0.9961
-0.9230 0.2630 0.0279 0.9962
-0.9213 0.2481 0.0278 0.9962
-0.9181 0.2187 0.0275 0.9962
-0.9140 0.1896 0.0272 0.9963
-0.8999 0.1459 0.0265 0.9964
-0.8954 0.1318 0.0263 0.9964
-0.8867 0.1041 0.0260 0.9964
-0.8798 0.0773 0.0257 0.9965
-0.8733 0.0511 0.0255 0.9965
-0.8157 0.0000 0.0147 0.9967
-0.8184 -0.0119 0.0147 0.9967
-0.8239 -0.0361 0.0149 0.9967
-0.8267 -0.0484 0.0149 0.9967
-0.8325 -0.0732 0.0151 0.9967
-0.8384 -0.0985 0.0152 0.9966
-0.8414 -0.1113 0.0153 0.9966
-0.8446 -0.1243 0.0154 0.9966
-0.8565 -0.1647 0.0157 0.9965
-0.8648 -0.1926 0.0160 0.9965
-0.8663 -0.2063 0.0160 0.9964
-0.8687 -0.2339 0.0162 0.9964
-0.8701 -0.2479 0.0163 0.9964
-0.8714 -0.2621 0.0164 0.9964
-0.8754 -0.2773 0.0165 0.9963
-0.8807 -0.2933 0.0167 0.9963
-0.8919 -0.3262 0.0171 0.9962
-0.8977 -0.3433 0.0173 0.9962
-0.9037 -0.3608 0.0175 0.9961
-0.9090 -0.3785 0.0177 0.9961
-0.9141 -0.3964 0.0179 0.9960
-0.9194 -0.4147 0.0182 0.9960
-0.9313 -0.4875 0.0189 0.9958
-0.9321 -0.5053 0.0191 0.9958
-0.9337 -0.5421 0.0194 0.9957
-1.1483 -0.6893 0.0241 0.9947
-16.5705 -10.6182 0.3544 0.9243
-16.4750 -10.8998 0.3558 0.9240
-12.3067 -9.5029 0.2800 0.9397
-11.7858 -9.3787 0.2713 0.9415
-11.6349 -9.5396 0.2710 0.9416
-11.1253 -9.9684 0.2690 0.9420
-10.8438 -10.0055 0.2657 0.9427
-10.8165 -10.2770 0.2687 0.9421
-7.6370 -8.1564 0.2012 0.9563
-7.1934 -8.1472 0.1957 0.9575
-6.5621 -8.1237 0.1881 0.9591
-6.3626 -8.1165 0.1857 0.9596
-5.6123 -8.0918 0.1774 0.9614
-5.4428 -8.6321 0.1838 0.9600
-5.4368 -8.9086 0.1880 0.9591
-1.5207 -2.7566 0.0567 0.9875
-1.4895 -2.7959 0.0571 0.9874
-5.7446 -11.1733 0.2263 0.9510
-5.5910 -11.2768 0.2267 0.9509
-5.4713 -11.8967 0.2358 0.9490
-5.1667 -12.6694 0.2464 0.9467
-17.1471 -50.2622 0.9564 0.8086
-17.5061 -53.8783 1.0202 0.7972
-3.4124 -13.0526 0.2430 0.9475
-16.3194 -88.3517 1.6181 0.6981
-16.1682 -95.3097 1.7410 0.6793
20.8363 -84.7410 1.5716 0.7053
22.8129 -82.3254 1.5385 0.7105
25.4080 -82.2690 1.5507 0.7086
26.7216 -82.2404 1.5573 0.7075
30.7349 -82.1532 1.5797 0.7040
32.0993 -82.1236 1.5879 0.7028
33.4784 -82.0936 1.5966 0.7014
39.1590 -81.9701 1.6360 0.6953
43.6180 -81.8732 1.6707 0.6900
48.2791 -81.7719 1.7102 0.6839
51.5150 -81.7016 1.7394 0.6795
9.1749 -12.8242 0.2840 0.9389
2.0151 -2.2823 0.0548 0.9879
2.0031 -2.1393 0.0528 0.9883
2.1146 -2.1300 0.0541 0.9881
2.2582 -2.1456 0.0561 0.9876
2.3036 -2.1255 0.0564 0.9875
2.3389 -2.0956 0.0566 0.9875
16.1124 -9.0427 0.3327 0.9287
16.0978 -8.7277 0.3298 0.9294
16.1135 -8.4339 0.3275 0.9298
16.3220 -8.2415 0.3293 0.9295
5.6041 -2.7277 0.1122 0.9754
17.5909 -8.2463 0.3499 0.9252
18.2246 -8.2207 0.3601 0.9231
85.2948 -36.9844 1.6743 0.6894
21.7162 -8.3057 0.4187 0.9112
39.5022 -13.1548 0.7498 0.8466
9.9025 -2.9792 0.1862 0.9595
10.1348 -2.7288 0.1890 0.9589
10.1258 -2.5683 0.1881 0.9591
10.3343 -2.1441 0.1901 0.9587
14.3956 -2.5504 0.2633 0.9432
14.4034 -2.3353 0.2628 0.9433
17.6753 -2.3379 0.3211 0.9312
21.4891 -1.8888 0.3885 0.9173
27.8570 -1.6300 0.5025 0.8944
44.0037 -1.2863 0.7928 0.8385
59.5793 -0.8707 1.0731 0.7879
89.1791 9.1536 1.6145 0.6986
83.1183 10.9942 1.5099 0.7150
19.0746 4.2491 0.3519 0.9248
18.9766 4.5192 0.3513 0.9249
19.1035 5.1437 0.3563 0.9239
10.7661 4.2991 0.2088 0.9547
10.7881 4.4917 0.2105 0.9543
10.8798 5.2955 0.2179 0.9527
10.9039 5.5057 0.2200 0.9523
11.0286 6.4032 0.2297 0.9503
11.0756 6.6487 0.2326 0.9496
15.5660 9.6566 0.3299 0.9293
15.0012 9.9247 0.3239 0.9306
14.9227 10.5123 0.3287 0.9296
14.9531 10.8641 0.3329 0.9287
7.8703 10.0399 0.2297 0.9502
2.2808 7.7867 0.1461 0.9681
2.1555 7.7786 0.1454 0.9682
2.0426 7.8129 0.1454 0.9682
1.9406 7.8923 0.1464 0.9680
1.8597 8.0701 0.1491 0.9674
-2.6933 9.7191 0.1816 0.9605
-4.3514 9.1087 0.1818 0.9604
-6.2413 5.9300 0.1550 0.9661
-6.2565 5.7728 0.1533 0.9665
-6.2855 5.6319 0.1520 0.9668
-6.3141 5.4933 0.1507 0.9671
-6.3621 5.0628 0.1464 0.9680
-6.3984 4.7931 0.1440 0.9685
-6.4194 4.6639 0.1429 0.9688
-6.4401 4.5367 0.1419 0.9690
-6.4594 4.4105 0.1409 0.9692
-6.5243 4.0475 0.1383 0.9698
-0.9337 0.5421 0.0194 0.9957
-0.9321 0.5054 0.0191 0.9958
-0.9306 0.4699 0.0188 0.9958
-0.9248 0.4335 0.0184 0.9959
-0.9194 0.4147 0.0182 0.9960
-0.9141 0.3964 0.0179 0.9960
-0.9090 0.3784 0.0177 0.9961
-0.8700 0.2480 0.0163 0.9964
-0.8675 0.2200 0.0161 0.9964
-0.8648 0.1927 0.0160 0.9965
-0.8525 0.1510 0.0156 0.9965
-0.8446 0.1243 0.0154 0.9966
-0.8414 0.1113 0.0153 0.9966
-0.8384 0.0985 0.0152 0.9966
-0.8354 0.0857 0.0151 0.9966
-0.8325 0.0732 0.0151 0.9967
-0.8296 0.0607 0.0150 0.9967
-0.8267 0.0484 0.0149 0.9967
-0.8184 0.0120 0.0147 0.9967
-0.7750 0.0000 0.0054 0.9969
-0.7774 -0.0114 0.0054 0.9969
-0.7848 -0.0459 0.0054 0.9969
-0.7900 -0.0694 0.0055 0.9968
-0.7925 -0.0813 0.0055 0.9968
-0.8061 -0.1428 0.0057 0.9967
-0.8096 -0.1557 0.0057 0.9967
-0.8167 -0.1819 0.0058 0.9967
-0.8210 -0.2082 0.0059 0.9966
-0.8229 -0.2345 0.0059 0.9966
-0.8287 -0.2626 0.0060 0.9965
-0.8380 -0.2927 0.0061 0.9965
-0.8478 -0.3243 0.0063 0.9964
-0.8529 -0.3405 0.0064 0.9963
-0.8580 -0.3572 0.0064 0.9963
-0.8629 -0.3741 0.0065 0.9962
-0.8672 -0.3912 0.0066 0.9962
-0.8763 -0.4265 0.0068 0.9961
-0.8810 -0.4448 0.0068 0.9961
-0.8895 -0.5339 0.0072 0.9959
-0.9722 -0.6031 0.0079 0.9954
-16.4735 -10.8988 0.1368 0.9240
-16.4866 -11.2572 0.1383 0.9233
-16.0757 -11.3245 0.1362 0.9244
-13.1621 -9.5628 0.1127 0.9370
-12.8955 -9.6601 0.1116 0.9376
-12.1393 -9.3737 0.1062 0.9405
-11.5409 -9.4625 0.1034 0.9420
-11.5620 -9.7658 0.1048 0.9413
-11.3067 -9.8368 0.1038 0.9418
-11.0467 -9.8979 0.1027 0.9424
-8.5510 -7.8900 0.0806 0.9545
-8.2925 -8.1127 0.0804 0.9547
-7.8102 -8.1008 0.0779 0.9560
-7.3562 -8.0902 0.0757 0.9572
-6.9236 -8.0766 0.0737 0.9583
-6.7151 -8.0691 0.0727 0.9589
-6.3165 -8.0577 0.0709 0.9599
-6.1268 -8.0555 0.0701 0.9603
-5.4952 -8.1756 0.0682 0.9614
-5.4504 -8.3705 0.0692 0.9608
-5.4305 -8.6127 0.0705 0.9601
-5.4230 -8.8859 0.0721 0.9592
-5.4235 -9.1859 0.0739 0.9582
-1.5207 -2.7567 0.0218 0.9875
-5.8031 -11.2871 0.0879 0.9505
-5.6179 -11.3310 0.0876 0.9507
-5.3744 -11.6859 0.0891 0.9498
-5.1668 -12.6695 0.0948 0.9467
-17.8684 -45.7150 0.3400 0.8217
-17.2379 -46.0763 0.3407 0.8214
-17.1942 -48.0890 0.3537 0.8152
-17.1469 -50.2618 0.3678 0.8086
-17.5060 -53.8779 0.3924 0.7972
-16.9794 -57.9691 0.4184 0.7854
-16.7581 -68.1550 0.4861 0.7552
-16.6674 -72.3283 0.5141 0.7431
-16.5656 -77.0123 0.5456 0.7297
-16.4505 -82.3091 0.5813 0.7148
-16.1680 -95.3082 0.6695 0.6793
21.5300 -82.3533 0.5895 0.7114
22.8129 -82.3254 0.5917 0.7105
25.4080 -82.2690 0.5964 0.7086
30.7349 -82.1532 0.6075 0.7041
32.0993 -82.1236 0.6107 0.7028
34.8731 -82.0633 0.6176 0.7000
36.2841 -82.0326 0.6213 0.6985
37.7124 -82.0016 0.6251 0.6970
39.1590 -81.9702 0.6292 0.6953
43.6181 -81.8732 0.6425 0.6900
45.1477 -81.8400 0.6473 0.6881
48.2791 -81.7719 0.6577 0.6840
49.8834 -81.7370 0.6632 0.6818
9.1546 -12.7959 0.1090 0.9390
1.9836 -2.1815 0.0204 0.9883
1.9975 -2.1333 0.0202 0.9884
2.1754 -2.1283 0.0211 0.9879
2.2348 -2.1233 0.0214 0.9877
19.1566 -13.0803 0.1607 0.9114
15.7961 -9.4826 0.1276 0.9290
15.8235 -9.1872 0.1267 0.9294
15.8223 -8.8799 0.1257 0.9300
15.8063 -8.5697 0.1245 0.9306
15.7641 -8.2511 0.1232 0.9313
16.0782 -8.1184 0.1247 0.9305
5.6042 -2.7277 0.0432 0.9754
18.0036 -8.1211 0.1368 0.9240
21.1108 -9.1538 0.1594 0.9121
21.0952 -8.7831 0.1583 0.9126
21.7965 -7.9734 0.1607 0.9113
22.7725 -7.9551 0.1671 0.9080
23.8562 -7.9445 0.1741 0.9043
9.7865 -3.1010 0.0711 0.9598
9.9312 -2.9879 0.0718 0.9594
10.0790 -2.8724 0.0726 0.9589
10.3800 -2.4720 0.0739 0.9582
10.2626 -2.2861 0.0728 0.9588
14.5083 -2.1352 0.1016 0.9430
17.7524 -2.3482 0.1240 0.9309
24.6840 -2.1696 0.1716 0.9056
28.3366 -1.2430 0.1964 0.8927
29.8770 -0.8734 0.2070 0.8873
94.8298 4.1597 0.6574 0.6841
41.7607 3.6707 0.2903 0.8456
40.8005 4.1879 0.2841 0.8487
26.5554 3.9081 0.1859 0.8982
26.3698 4.2754 0.1850 0.8987
19.3421 4.0129 0.1368 0.9240
18.8152 4.1912 0.1335 0.9258
18.8816 4.7892 0.1349 0.9250
18.9296 5.0969 0.1358 0.9246
19.0518 5.7318 0.1378 0.9235
19.1168 6.0573 0.1389 0.9229
11.8734 3.9540 0.0867 0.9512
10.7802 4.1231 0.0799 0.9549
10.7421 4.2895 0.0801 0.9548
10.7638 4.4816 0.0808 0.9544
10.8084 4.8755 0.0821 0.9537
10.8313 5.0775 0.0829 0.9533
10.8545 5.2832 0.0836 0.9529
10.9024 5.7064 0.0852 0.9520
10.9271 5.9243 0.0861 0.9515
10.9523 6.1468 0.0870 0.9510
10.9780 6.3739 0.0879 0.9505
11.0073 6.6078 0.0889 0.9499
11.0544 6.8577 0.0901 0.9493
15.0224 9.6261 0.1236 0.9311
14.8628 9.8332 0.1234 0.9312
15.1628 10.3533 0.1272 0.9292
14.0434 9.8929 0.1190 0.9336
14.7952 11.0832 0.1280 0.9287
7.8757 10.0469 0.0884 0.9502
2.4303 7.8692 0.0570 0.9676
2.2807 7.7867 0.0562 0.9681
2.1555 7.7786 0.0559 0.9682
1.9406 7.8923 0.0563 0.9680
-1.2716 5.1717 0.0369 0.9789
-4.3511 9.1080 0.0699 0.9604
-8.1504 9.5077 0.0867 0.9511
-6.0345 5.7336 0.0577 0.9673
-6.2491 5.5993 0.0581 0.9670
-6.3032 5.3240 0.0571 0.9675
-6.3141 5.1770 0.0566 0.9679
-6.3248 5.0331 0.0560 0.9682
-6.3756 4.6322 0.0546 0.9690
-6.3967 4.5062 0.0542 0.9692
-0.9720 0.6030 0.0079 0.9954
-0.8895 0.5340 0.0072 0.9959
-0.8891 0.5162 0.0071 0.9959
-0.8887 0.4988 0.0071 0.9959
-0.8883 0.4816 0.0070 0.9960
-0.8859 0.4637 0.0069 0.9960
-0.8763 0.4265 0.0068 0.9961
-0.8672 0.3912 0.0066 0.9962
-0.8580 0.3573 0.0064 0.9963
-0.8242 0.2480 0.0060 0.9966
-0.8229 0.2345 0.0059 0.9966
-0.8219 0.2213 0.0059 0.9966
-0.8210 0.2082 0.0059 0.9966
-0.8200 0.1953 0.0058 0.9966
-0.8167 0.1820 0.0058 0.9967
-0.8061 0.1429 0.0057 0.9967
-0.7952 0.0934 0.0055 0.9968
-0.7925 0.0814 0.0055 0.9968
-0.7874 0.0576 0.0055 0.9968
-0.7848 0.0459 0.0054 0.9969
-0.7824 0.0343 0.0054 0.9969
-0.7799 0.0229 0.0054 0.9969
-0.7381 0.0000 -0.0031 0.9971
-0.7403 -0.0108 -0.0031 0.9970
-0.7426 -0.0217 -0.0031 0.9970
-0.7448 -0.0327 -0.0031 0.9970
-0.7516 -0.0661 -0.0031 0.9970
-0.7539 -0.0774 -0.0031 0.9970
-0.7562 -0.0888 -0.0032 0.9970
-0.7585 -0.1003 -0.0032 0.9969
-0.7608 -0.1120 -0.0032 0.9969
-0.7656 -0.1356 -0.0032 0.9969
-0.7680 -0.1477 -0.0032 0.9969
-0.7769 -0.1850 -0.0033 0.9968
-0.7791 -0.1976 -0.0033 0.9968
-0.7798 -0.2100 -0.0034 0.9968
-0.7805 -0.2225 -0.0034 0.9968
-0.7829 -0.2355 -0.0034 0.9967
-0.7908 -0.2633 -0.0035 0.9967
-0.7948 -0.2777 -0.0035 0.9966
-0.7989 -0.2923 -0.0035 0.9966
-0.8118 -0.3380 -0.0037 0.9965
-0.8207 -0.3702 -0.0037 0.9964
-0.8244 -0.3864 -0.0038 0.9964
-0.8282 -0.4031 -0.0038 0.9963
-0.8360 -0.4376 -0.0039 0.9962
-0.8485 -0.4927 -0.0041 0.9961
-0.8486 -0.5094 -0.0041 0.9960
-0.8486 -0.5438 -0.0042 0.9960
-16.5785 -10.9682 -0.0826 0.9236
-12.6351 -9.4650 -0.0656 0.9388
-11.4946 -9.1470 -0.0610 0.9429
-11.5539 -9.7590 -0.0628 0.9413
-8.7400 -8.0643 -0.0494 0.9535
-8.4804 -8.0574 -0.0486 0.9543
-8.2285 -8.0500 -0.0478 0.9550
-7.7475 -8.0358 -0.0464 0.9563
-7.5179 -8.0292 -0.0457 0.9570
-6.4627 -8.0007 -0.0427 0.9597
-6.2762 -8.0063 -0.0423 0.9601
-5.9167 -8.0197 -0.0414 0.9609
-5.5985 -8.0719 -0.0408 0.9615
-5.4888 -8.1660 -0.0409 0.9614
-5.4426 -8.3586 -0.0414 0.9609
-5.4184 -8.5933 -0.0422 0.9602
-5.4033 -8.8536 -0.0431 0.9594
-6.3179 -11.0671 -0.0530 0.9503
-1.4896 -2.7959 -0.0132 0.9874
-5.7004 -11.0874 -0.0518 0.9514
-5.5431 -11.1801 -0.0519 0.9513
-17.8684 -45.7150 -0.2040 0.8217
-17.2378 -46.0760 -0.2044 0.8214
-17.1940 -48.0886 -0.2122 0.8152
-17.1468 -50.2613 -0.2207 0.8086
-17.0956 -52.6150 -0.2299 0.8015
-3.8511 -13.1480 -0.0569 0.9467
-3.6697 -13.2431 -0.0571 0.9465
-16.7579 -68.1541 -0.2917 0.7552
-16.5654 -77.0112 -0.3273 0.7297
20.8369 -84.7434 -0.3627 0.7053
22.8129 -82.3254 -0.3550 0.7106
24.1053 -82.2973 -0.3564 0.7096
25.4080 -82.2690 -0.3578 0.7086
33.4784 -82.0936 -0.3684 0.7014
37.7124 -82.0016 -0.3751 0.6970
39.1590 -81.9702 -0.3775 0.6953
40.6247 -81.9383 -0.3801 0.6936
42.1107 -81.9060 -0.3827 0.6918
43.6180 -81.8732 -0.3855 0.6900
45.1478 -81.8400 -0.3884 0.6881
46.7010 -81.8063 -0.3914 0.6861
49.8834 -81.7371 -0.3979 0.6818
51.5151 -81.7016 -0.4014 0.6795
9.1472 -12.7854 -0.0653 0.9391
1.9844 -2.2475 -0.0125 0.9881
1.9809 -2.1786 -0.0122 0.9883
1.9945 -2.1301 -0.0121 0.9884
2.2217 -2.1109 -0.0127 0.9878
2.2818 -2.1054 -0.0129 0.9877
2.3869 -2.0766 -0.0131 0.9874
15.0693 -9.0462 -0.0730 0.9321
15.0607 -8.7443 -0.0724 0.9327
15.0812 -8.4640 -0.0719 0.9332
15.4836 -8.1042 -0.0726 0.9325
16.0361 -8.0971 -0.0747 0.9307
5.6043 -2.7278 -0.0259 0.9754
17.2030 -8.0644 -0.0790 0.9268
20.2105 -8.7634 -0.0915 0.9157
20.2652 -8.0921 -0.0907 0.9164
22.3931 -7.8225 -0.0986 0.9095
9.8147 -3.1099 -0.0428 0.9597
10.1087 -2.8809 -0.0437 0.9588
10.2604 -2.7627 -0.0442 0.9584
10.3156 -2.6165 -0.0442 0.9583
10.2721 -2.4463 -0.0439 0.9586
10.2478 -2.2828 -0.0436 0.9589
10.4533 -2.1688 -0.0444 0.9582
14.4633 -2.5624 -0.0610 0.9429
14.5454 -2.3582 -0.0612 0.9428
28.3698 -1.6600 -0.1181 0.8925
28.1903 -1.2365 -0.1173 0.8933
45.5973 -0.6663 -0.1895 0.8333
72.9291 4.2675 -0.3036 0.7466
50.2526 3.6781 -0.2094 0.8175
41.2789 3.6284 -0.1722 0.8473
37.6598 3.8655 -0.1573 0.8595
34.5528 4.5704 -0.1448 0.8699
26.5279 3.9041 -0.1114 0.8983
18.6897 4.1633 -0.0796 0.9263
18.7441 4.7543 -0.0804 0.9256
18.7910 5.0595 -0.0809 0.9251
18.9356 6.0000 -0.0825 0.9236
11.8180 3.9356 -0.0518 0.9514
10.7342 4.1055 -0.0478 0.9551
10.7838 4.8643 -0.0492 0.9538
10.8528 5.4800 -0.0505 0.9525
10.9010 5.9102 -0.0515 0.9516
10.9259 6.1319 -0.0521 0.9511
10.9513 6.3583 -0.0526 0.9506
10.9772 6.5897 -0.0532 0.9501
11.0329 7.0697 -0.0545 0.9489
2.4303 7.8692 -0.0342 0.9676
2.2807 7.7867 -0.0337 0.9681
2.1555 7.7786 -0.0335 0.9682
1.9406 7.8923 -0.0338 0.9680
-1.2716 5.1718 -0.0221 0.9789
-2.7056 9.7638 -0.0421 0.9603
-4.3508 9.1073 -0.0419 0.9604
-6.0813 6.1259 -0.0359 0.9661
-6.0967 5.9645 -0.0354 0.9665
-6.1201 5.8148 -0.0351 0.9668
-6.1429 5.6681 -0.0347 0.9671
-6.1702 5.5286 -0.0344 0.9674
-6.2495 4.9732 -0.0332 0.9686
-6.3146 4.5878 -0.0324 0.9693
-6.3366 4.4638 -0.0322 0.9695
-6.3748 4.2175 -0.0318 0.9699
-0.8486 0.5264 -0.0041 0.9960
-0.8401 0.4555 -0.0040 0.9962
-0.8360 0.4376 -0.0039 0.9962
-0.8320 0.4201 -0.0039 0.9963
-0.8282 0.4031 -0.0038 0.9963
-0.8118 0.3380 -0.0037 0.9965
-0.8074 0.3224 -0.0036 0.9965
-0.7948 0.2777 -0.0035 0.9966
-0.7829 0.2355 -0.0034 0.9967
-0.7805 0.2225 -0.0034 0.9968
-0.7791 0.1976 -0.0033 0.9968
-0.7706 0.1599 -0.0033 0.9969
-0.7680 0.1477 -0.0032 0.9969
-0.7632 0.1238 -0.0032 0.9969
-0.7562 0.0888 -0.0032 0.9970
-0.7539 0.0774 -0.0031 0.9970
-0.7470 0.0437 -0.0031 0.9970
-0.7448 0.0326 -0.0031 0.9970
-0.7426 0.0217 -0.0031 0.9970
-0.7066 -0.0104 -0.0108 0.9972
-0.7087 -0.0207 -0.0108 0.9972
-0.7127 -0.0417 -0.0109 0.9971
-0.7188 -0.0738 -0.0110 0.9971
-0.7250 -0.1067 -0.0112 0.9971
-0.7312 -0.1406 -0.0113 0.9970
-0.7333 -0.1521 -0.0114 0.9970
-0.7354 -0.1638 -0.0115 0.9970
-0.7404 -0.1878 -0.0116 0.9969
-0.7419 -0.1997 -0.0117 0.9969
-0.7423 -0.2116 -0.0118 0.9969
-0.7490 -0.2373 -0.0120 0.9969
-0.7559 -0.2640 -0.0122 0.9968
-0.7666 -0.3061 -0.0126 0.9967
-0.7741 -0.3357 -0.0129 0.9966
-0.7851 -0.3821 -0.0133 0.9965
-0.7915 -0.4143 -0.0136 0.9964
-0.7982 -0.4480 -0.0139 0.9963
-0.8088 -0.5018 -0.0145 0.9962
-0.8107 -0.5195 -0.0147 0.9962
-0.8104 -0.5361 -0.0148 0.9961
-0.8550 -0.5838 -0.0158 0.9959
-12.7967 -9.5861 -0.2436 0.9380
-11.3947 -9.6246 -0.2273 0.9421
-8.1515 -7.9747 -0.1738 0.9554
-7.6781 -7.9638 -0.1686 0.9567
-7.4515 -7.9583 -0.1661 0.9573
-7.0248 -7.9564 -0.1617 0.9584
-6.4338 -7.9649 -0.1560 0.9599
-6.2488 -7.9714 -0.1543 0.9603
-5.9000 -7.9971 -0.1514 0.9610
-5.5947 -8.0665 -0.1496 0.9615
-5.4824 -8.1565 -0.1498 0.9614
-5.4349 -8.3468 -0.1518 0.9609
-1.5208 -2.7567 -0.0480 0.9875
-5.5922 -11.2793 -0.1918 0.9509
-5.4426 -11.3928 -0.1924 0.9507
-5.4356 -11.8192 -0.1982 0.9493
-5.3215 -12.0311 -0.2005 0.9487
-20.2141 -47.5676 -0.7876 0.8132
-5.0057 -12.8067 -0.2095 0.9465
-17.0955 -52.6145 -0.8430 0.8015
-4.0310 -13.0521 -0.2082 0.9468
-3.8509 -13.1475 -0.2088 0.9467
-15.4059 -62.6557 -0.9832 0.7725
-13.5616 -63.0469 -0.9827 0.7726
-12.6358 -63.2224 -0.9824 0.7727
-10.7774 -63.5317 -0.9819 0.7728
-9.8455 -63.6664 -0.9817 0.7728
-8.9119 -63.7870 -0.9814 0.7729
-7.9769 -63.8944 -0.9812 0.7729
-6.1033 -64.0665 -0.9807 0.7730
-4.2265 -64.1848 -0.9802 0.7731
-3.2873 -64.2226 -0.9799 0.7732
1.4076 -64.2078 -0.9786 0.7734
2.3450 -64.1643 -0.9784 0.7735
6.0829 -63.8518 -0.9774 0.7737
7.9419 -63.6141 -0.9769 0.7738
8.8682 -63.4744 -0.9766 0.7738
9.7923 -63.3223 -0.9764 0.7739
10.7138 -63.1566 -0.9761 0.7739
16.1780 -61.8818 -0.9747 0.7742
17.0763 -61.6235 -0.9744 0.7743
17.9705 -61.3526 -0.9742 0.7743
18.8604 -61.0683 -0.9739 0.7744
20.6266 -60.4614 -0.9735 0.7745
21.5026 -60.1391 -0.9732 0.7745
22.3737 -59.8040 -0.9730 0.7746
23.2395 -59.4564 -0.9728 0.7746
25.8042 -58.3392 -0.9721 0.7748
27.4853 -57.5339 -0.9716 0.7749
28.3162 -57.1125 -0.9714 0.7749
30.7710 -55.7790 -0.9707 0.7750
32.3731 -54.8314 -0.9703 0.7751
35.4903 -52.8013 -0.9695 0.7753
39.9278 -49.4297 -0.9683 0.7755
1.9749 -2.3038 -0.0462 0.9879
1.9799 -2.2424 -0.0456 0.9881
1.9932 -2.1921 -0.0451 0.9882
2.0287 -2.1042 -0.0445 0.9884
2.1032 -2.1186 -0.0455 0.9881
2.2757 -2.0998 -0.0472 0.9877
2.4097 -2.0965 -0.0487 0.9873
48.4277 -40.9044 -0.9660 0.7760
49.5862 -39.4590 -0.9657 0.7761
50.1497 -38.7244 -0.9655 0.7761
51.7750 -36.4729 -0.9651 0.7762
19.2406 -13.1377 -0.3550 0.9110
52.8031 -34.9342 -0.9648 0.7762
14.8897 -9.2371 -0.2670 0.9323
14.8988 -8.3616 -0.2603 0.9339
5.6043 -2.7278 -0.0950 0.9754
17.1812 -8.0543 -0.2892 0.9269
18.4148 -7.9848 -0.3059 0.9228
19.9687 -8.3141 -0.3296 0.9171
20.0453 -8.0043 -0.3289 0.9173
21.2504 -7.7736 -0.3448 0.9135
22.2440 -7.7705 -0.3590 0.9100
23.3491 -7.7756 -0.3750 0.9062
9.8431 -3.1189 -0.1573 0.9595
9.9893 -3.0053 -0.1590 0.9591
10.1386 -2.8894 -0.1606 0.9587
10.2804 -2.6075 -0.1616 0.9585
10.0680 -2.3977 -0.1577 0.9594
10.5055 -2.3402 -0.1640 0.9579
10.4804 -2.1744 -0.1631 0.9581
14.5140 -2.3532 -0.2241 0.9429
17.6795 -2.6019 -0.2723 0.9310
21.1841 -2.1744 -0.3245 0.9183
27.7907 -2.0341 -0.4246 0.8945
28.0164 -1.6394 -0.4277 0.8938
28.0318 -1.2296 -0.4276 0.8938
29.8325 -0.8721 -0.4548 0.8875
45.7081 -0.6680 -0.6966 0.8329
64.1144 -0.0000 -0.9770 0.7738
64.1076 0.9368 -0.9770 0.7738
64.0880 1.8734 -0.9770 0.7738
64.0069 3.7454 -0.9770 0.7738
63.9468 4.6803 -0.9770 0.7738
41.0899 3.6118 -0.6286 0.8479
35.9965 3.6948 -0.5514 0.8652
26.7969 3.9437 -0.4127 0.8973
23.6006 3.8264 -0.3643 0.9088
19.4280 3.7355 -0.3015 0.9239
18.6780 3.8752 -0.2907 0.9265
18.6526 4.7311 -0.2932 0.9259
18.6976 5.0344 -0.2951 0.9255
18.7432 5.3416 -0.2970 0.9250
11.7631 3.9173 -0.1889 0.9516
11.3829 3.9764 -0.1837 0.9529
11.0258 4.0334 -0.1789 0.9541
10.6492 4.6176 -0.1769 0.9546
10.7593 4.8533 -0.1799 0.9539
10.7816 5.0543 -0.1814 0.9535
10.8996 6.1171 -0.1905 0.9512
10.9246 6.3429 -0.1925 0.9507
10.9502 6.5736 -0.1946 0.9502
10.9257 7.0011 -0.1977 0.9494
11.3804 7.5292 -0.2079 0.9469
15.2228 10.3943 -0.2809 0.9289
14.9918 11.5763 -0.2886 0.9270
49.0145 40.1877 -0.9658 0.7760
47.2293 42.3176 -0.9663 0.7759
46.6143 43.0108 -0.9665 0.7759
45.3537 44.3703 -0.9668 0.7758
44.7088 45.0366 -0.9670 0.7758
9.0491 9.9521 -0.2050 0.9476
41.3411 48.2255 -0.9679 0.7756
7.6005 9.1329 -0.1811 0.9536
7.3885 9.1468 -0.1792 0.9541
7.1809 9.1605 -0.1774 0.9545
38.4841 50.5984 -0.9687 0.7754
36.2522 52.2686 -0.9693 0.7753
35.4920 52.8037 -0.9695 0.7753
33.9486 53.8416 -0.9699 0.7752
32.3752 54.8348 -0.9704 0.7751
30.7727 55.7820 -0.9708 0.7750
29.9614 56.2388 -0.9710 0.7750
29.1429 56.6833 -0.9712 0.7749
28.3182 57.1164 -0.9714 0.7749
24.9567 58.7278 -0.9724 0.7747
22.3751 59.8078 -0.9731 0.7746
21.5042 60.1433 -0.9733 0.7745
2.4303 7.8691 -0.1255 0.9676
2.2808 7.7867 -0.1236 0.9681
2.1555 7.7786 -0.1230 0.9682
2.0426 7.8130 -0.1231 0.9682
1.9406 7.8924 -0.1238 0.9680
1.8597 8.0702 -0.1262 0.9674
13.4624 62.5855 -0.9755 0.7741
11.6346 62.9882 -0.9761 0.7740
10.7160 63.1696 -0.9763 0.7739
9.7946 63.3371 -0.9766 0.7738
8.8707 63.4916 -0.9769 0.7738
7.9442 63.6326 -0.9772 0.7737
6.0849 63.8740 -0.9777 0.7736
4.2184 64.0606 -0.9783 0.7735
3.2828 64.1341 -0.9786 0.7734
2.3461 64.1935 -0.9788 0.7734
0.4696 64.2712 -0.9794 0.7733
-1.4095 64.2944 -0.9800 0.7732
-4.2291 64.2254 -0.9808 0.7730
-6.1074 64.1100 -0.9813 0.7729
-7.9826 63.9407 -0.9819 0.7728
-8.9185 63.8347 -0.9822 0.7727
-9.8530 63.7155 -0.9824 0.7727
-10.7859 63.5821 -0.9827 0.7726
-14.4977 62.9128 -0.9838 0.7724
-16.3387 62.4966 -0.9843 0.7723
-2.7156 9.8000 -0.1550 0.9601
-22.6766 60.6139 -0.9862 0.7719
-23.5660 60.2918 -0.9864 0.7718
-26.2056 59.2468 -0.9872 0.7717
-4.3504 9.1066 -0.1538 0.9604
-28.7984 58.0850 -0.9879 0.7715
-32.1732 56.3578 -0.9889 0.7714
-33.0011 55.8951 -0.9891 0.7713
-33.8221 55.4198 -0.9893 0.7713
-34.6363 54.9323 -0.9896 0.7712
-36.2433 53.9216 -0.9900 0.7711
-37.8202 52.8630 -0.9905 0.7710
-38.5968 52.3158 -0.9907 0.7710
-40.1262 51.1878 -0.9911 0.7709
-8.0940 9.4418 -0.1895 0.9515
-5.9646 6.5598 -0.1351 0.9652
-5.9725 6.3787 -0.1332 0.9656
-6.0843 5.6139 -0.1261 0.9674
-6.1912 4.9268 -0.1206 0.9688
-6.2108 4.7959 -0.1196 0.9691
-6.2546 4.5443 -0.1178 0.9695
-6.2769 4.4217 -0.1170 0.9698
-0.8548 0.5837 -0.0158 0.9959
-0.8107 0.5195 -0.0147 0.9962
-0.8017 0.4655 -0.0141 0.9963
-0.7948 0.4309 -0.0138 0.9964
-0.7882 0.3980 -0.0135 0.9965
-0.7780 0.3509 -0.0130 0.9966
-0.7741 0.3357 -0.0129 0.9966
-0.7594 0.2778 -0.0123 0.9968
-0.7559 0.2641 -0.0122 0.9968
-0.7524 0.2506 -0.0121 0.9968
-0.7489 0.2373 -0.0120 0.9969
-0.7418 0.1998 -0.0117 0.9969
-0.7377 0.1757 -0.0116 0.9970
-0.7333 0.1521 -0.0114 0.9970
-0.7312 0.1406 -0.0113 0.9970
-0.7291 0.1292 -0.0113 0.9970
-0.7270 0.1179 -0.0112 0.9971
-0.7229 0.0956 -0.0111 0.9971
-0.7208 0.0846 -0.0111 0.9971
-0.7188 0.0738 -0.0110 0.9971
-0.7167 0.0630 -0.0110 0.9971
-0.7127 0.0417 -0.0109 0.9971
-0.7107 0.0312 -0.0108 0.9972
-0.6742 0.0000 -0.0177 0.9973
-0.6775 -0.0198 -0.0178 0.9973
-0.6812 -0.0398 -0.0180 0.9973
-0.6886 -0.0809 -0.0183 0.9972
-0.6904 -0.0913 -0.0183 0.9972
-0.6922 -0.1018 -0.0184 0.9972
-0.6941 -0.1125 -0.0185 0.9972
-0.6959 -0.1233 -0.0186 0.9972
-0.6978 -0.1342 -0.0187 0.9972
-0.7014 -0.1562 -0.0189 0.9971
-0.7032 -0.1675 -0.0190 0.9971
-0.7051 -0.1788 -0.0191 0.9971
-0.7071 -0.1904 -0.0193 0.9971
-0.7088 -0.2020 -0.0194 0.9971
-0.7117 -0.2141 -0.0196 0.9970
-0.7205 -0.2517 -0.0201 0.9970
-0.7235 -0.2646 -0.0203 0.9969
-0.7266 -0.2779 -0.0205 0.9969
-0.7297 -0.2914 -0.0207 0.9969
-0.7329 -0.3052 -0.0209 0.9968
-0.7361 -0.3192 -0.0211 0.9968
-0.7460 -0.3631 -0.0218 0.9967
-0.7488 -0.3781 -0.0221 0.9966
-0.7515 -0.3934 -0.0223 0.9966
-0.7569 -0.4248 -0.0228 0.9965
-0.7597 -0.4411 -0.0231 0.9965
-0.7625 -0.4577 -0.0234 0.9964
-0.7683 -0.4923 -0.0240 0.9964
-0.7743 -0.5287 -0.0247 0.9963
-0.8870 -0.6444 -0.0289 0.9956
-12.7424 -9.5454 -0.4191 0.9383
-11.7352 -9.3385 -0.3948 0.9418
-11.4414 -9.3810 -0.3895 0.9425
-9.1360 -7.9483 -0.3188 0.9527
-8.8626 -7.9409 -0.3133 0.9535
-8.6090 -7.9435 -0.3084 0.9542
-8.1178 -7.9418 -0.2990 0.9556
-7.8856 -7.9434 -0.2946 0.9562
-7.6575 -7.9424 -0.2904 0.9568
-7.4372 -7.9430 -0.2864 0.9574
-7.2243 -7.9453 -0.2827 0.9579
-7.0170 -7.9475 -0.2791 0.9585
-6.8118 -7.9461 -0.2755 0.9590
-6.4204 -7.9484 -0.2690 0.9599
-6.2264 -7.9429 -0.2657 0.9604
-6.0465 -7.9498 -0.2629 0.9608
-5.8828 -7.9738 -0.2608 0.9611
-5.5835 -8.0503 -0.2579 0.9616
-5.4751 -8.1456 -0.2584 0.9615
-5.3652 -8.7912 -0.2711 0.9596
-5.3794 -9.1113 -0.2785 0.9585
-1.5208 -2.7568 -0.0829 0.9875
-1.4896 -2.7960 -0.0834 0.9874
-5.7232 -11.1316 -0.3295 0.9511
-5.3194 -12.0262 -0.3462 0.9487
-5.0584 -11.9034 -0.3405 0.9496
-14.0987 -34.5719 -0.9829 0.8612
-12.5649 -35.1416 -0.9824 0.8613
-11.5294 -35.4838 -0.9822 0.8613
-3.6742 -13.2594 -0.3622 0.9464
-3.3937 -12.9812 -0.3532 0.9477
-8.9020 -36.2043 -0.9814 0.8614
-7.3037 -36.5436 -0.9810 0.8615
-6.2309 -36.7305 -0.9807 0.8615
-4.6132 -36.9518 -0.9803 0.8616
-3.5305 -37.0599 -0.9800 0.8616
-2.9882 -37.1018 -0.9799 0.8616
-2.4454 -37.1361 -0.9797 0.8616
-1.9022 -37.1621 -0.9796 0.8617
0.2717 -37.1876 -0.9790 0.8617
0.8149 -37.1741 -0.9788 0.8618
1.9002 -37.1233 -0.9785 0.8618
2.4421 -37.0860 -0.9784 0.8618
2.9833 -37.0409 -0.9782 0.8618
4.0631 -36.9268 -0.9779 0.8619
5.1388 -36.7816 -0.9777 0.8619
5.6749 -36.6969 -0.9775 0.8619
6.2096 -36.6046 -0.9774 0.8619
7.8042 -36.2814 -0.9769 0.8620
8.3323 -36.1583 -0.9768 0.8620
8.8585 -36.0274 -0.9767 0.8620
9.3826 -35.8889 -0.9765 0.8621
9.9046 -35.7429 -0.9764 0.8621
10.4243 -35.5892 -0.9762 0.8621
12.4783 -34.8996 -0.9757 0.8622
12.9851 -34.7087 -0.9755 0.8622
13.4890 -34.5106 -0.9754 0.8622
13.9898 -34.3049 -0.9753 0.8622
14.4876 -34.0922 -0.9751 0.8622
16.4455 -33.1697 -0.9746 0.8623
16.9261 -32.9215 -0.9745 0.8623
18.3453 -32.1355 -0.9741 0.8624
18.8105 -31.8600 -0.9740 0.8624
19.7283 -31.2886 -0.9737 0.8624
9.1867 -12.8407 -0.4156 0.9388
21.9462 -29.7469 -0.9731 0.8625
22.3758 -29.4195 -0.9730 0.8625
22.8006 -29.0858 -0.9729 0.8625
1.9761 -2.3051 -0.0799 0.9879
1.9885 -2.1237 -0.0766 0.9884
1.9986 -2.0730 -0.0758 0.9885
2.3123 -2.0718 -0.0817 0.9877
27.8435 -24.2238 -0.9715 0.8627
29.8409 -21.6807 -0.9710 0.8628
30.1520 -21.2406 -0.9709 0.8628
30.4565 -20.7960 -0.9708 0.8628
30.7545 -20.3470 -0.9707 0.8628
14.8799 -9.5348 -0.4652 0.9317
14.8006 -9.1818 -0.4585 0.9327
14.7860 -8.5848 -0.4501 0.9339
14.8256 -8.3205 -0.4475 0.9342
15.3304 -8.0240 -0.4555 0.9331
17.7493 -8.0063 -0.5126 0.9250
20.0318 -7.9989 -0.5678 0.9173
20.3614 -7.7876 -0.5739 0.9165
21.2498 -7.7734 -0.5956 0.9134
22.2260 -7.7642 -0.6198 0.9101
23.3696 -7.7825 -0.6484 0.9061
26.8008 -8.4921 -0.7401 0.8936
10.0186 -3.0141 -0.2754 0.9590
10.5077 -2.1801 -0.2825 0.9580
10.6286 -2.0436 -0.2849 0.9576
14.4849 -2.5662 -0.3872 0.9428
17.7836 -2.3523 -0.4722 0.9307
21.2188 -2.4918 -0.5624 0.9181
24.8230 -2.5479 -0.6569 0.9050
27.7508 -2.4393 -0.7333 0.8945
28.3505 -2.0750 -0.7483 0.8925
27.9659 -1.2267 -0.7369 0.8940
37.3874 0.0000 -0.9842 0.8611
37.3716 1.0925 -0.9842 0.8611
37.3242 2.1841 -0.9842 0.8610
37.2887 2.7292 -0.9842 0.8610
37.1942 3.8177 -0.9843 0.8610
22.5499 3.9950 -0.6029 0.9124
19.2881 3.7086 -0.5170 0.9244
18.6317 3.8655 -0.5009 0.9267
18.4208 4.1034 -0.4968 0.9273
18.3830 4.3779 -0.4975 0.9272
18.6909 5.0326 -0.5095 0.9255
18.7364 5.3396 -0.5129 0.9250
18.7832 5.6510 -0.5163 0.9245
11.7118 3.9003 -0.3250 0.9518
10.9790 4.0163 -0.3077 0.9543
10.6536 4.0746 -0.3003 0.9554
10.6708 4.2610 -0.3025 0.9551
10.5877 4.4082 -0.3019 0.9551
10.4286 4.7041 -0.3012 0.9553
10.7794 5.2467 -0.3156 0.9532
10.8532 5.8843 -0.3250 0.9518
10.9202 6.3403 -0.3324 0.9507
10.9549 6.5764 -0.3364 0.9502
10.8451 6.7279 -0.3360 0.9502
10.7579 6.8935 -0.3363 0.9502
10.7995 7.1449 -0.3409 0.9495
14.0714 9.9126 -0.4531 0.9334
14.9617 11.5530 -0.4976 0.9272
28.8707 22.9744 -0.9713 0.8627
28.5345 23.3959 -0.9714 0.8627
27.8441 24.2244 -0.9716 0.8627
26.3922 25.8200 -0.9720 0.8627
26.0148 26.2055 -0.9721 0.8626
25.6320 26.5858 -0.9722 0.8626
9.0491 9.9521 -0.3541 0.9476
7.6005 9.1329 -0.3128 0.9536
7.1809 9.1605 -0.3064 0.9545
21.9469 29.7477 -0.9732 0.8625
21.5126 30.0691 -0.9733 0.8625
20.6298 30.6923 -0.9735 0.8625
20.1818 30.9945 -0.9736 0.8624
19.2721 31.5786 -0.9739 0.8624
7.7387 13.1073 -0.4007 0.9409
7.3671 13.3543 -0.4015 0.9408
7.2155 13.5439 -0.4040 0.9404
15.9618 33.4122 -0.9748 0.8623
15.4740 33.6464 -0.9749 0.8623
14.4882 34.0936 -0.9752 0.8622
13.9904 34.3062 -0.9753 0.8622
12.4788 34.9009 -0.9757 0.8622
11.4569 35.2607 -0.9760 0.8621
2.4303 7.8691 -0.2168 0.9676
2.2807 7.7867 -0.2136 0.9681
2.1555 7.7786 -0.2125 0.9682
2.0426 7.8130 -0.2126 0.9682
1.9406 7.8924 -0.2140 0.9680
7.8046 36.2829 -0.9770 0.8620
6.7431 36.5062 -0.9773 0.8620
3.5238 36.9893 -0.9781 0.8618
1.9003 37.1248 -0.9786 0.8618
0.2717 37.1890 -0.9790 0.8617
-0.2717 37.1946 -0.9792 0.8617
-1.3589 37.1820 -0.9795 0.8617
-1.9023 37.1637 -0.9796 0.8617
-2.4455 37.1376 -0.9797 0.8616
-2.9883 37.1033 -0.9799 0.8616
-4.6129 36.9498 -0.9802 0.8616
-5.6925 36.8110 -0.9805 0.8615
-6.2307 36.7296 -0.9807 0.8615
-6.7679 36.6406 -0.9809 0.8615
-7.3037 36.5438 -0.9810 0.8615
-7.8381 36.4390 -0.9812 0.8614
-8.3710 36.3261 -0.9813 0.8614
-9.4319 36.0774 -0.9816 0.8614
-12.0495 35.3198 -0.9824 0.8613
-12.5662 35.1455 -0.9825 0.8613
-13.5918 34.7736 -0.9828 0.8612
-14.1005 34.5765 -0.9830 0.8612
-15.1093 34.1597 -0.9833 0.8612
-16.5989 33.4792 -0.9837 0.8611
-17.0887 33.2378 -0.9838 0.8611
-19.0116 32.2006 -0.9844 0.8610
-20.4126 31.3490 -0.9848 0.8610
-21.3255 30.7473 -0.9850 0.8609
